ply
format ascii 1.0
element face 0
property list uchar int vertex_indices
element vertex 867
property float x
property float y
property float z
property uchar diffuse_red
property uchar diffuse_green
property uchar diffuse_blue
end_header
4.214556e-001 -1.859868e+000 -7.452110e+000 118 114 111
-2.679823e-001 -2.283242e-001 -7.772160e+000 181 166 149
-2.155225e-001 -9.059934e-002 -7.727731e+000 198 187 167
2.354625e-001 -8.600349e-001 -7.618466e+000 134 126 124
-7.908459e-002 2.725942e-001 -7.087984e+000 152 139 122
7.107912e-001 -4.583660e-001 -6.555279e+000 175 154 111
1.098050e+000 -6.071263e-001 -6.320339e+000 171 165 169
4.034016e-001 -1.483105e+000 -7.519996e+000 149 146 139
6.289395e-001 -1.974158e+000 -7.356194e+000 156 153 149
-1.993697e-001 -7.169308e-002 -7.650265e+000 135 115 98
-7.703024e-001 -3.304065e-001 -7.014202e+000 123 35 19
-8.621721e-002 2.558547e-001 -7.240825e+000 126 110 94
-1.623102e-001 1.176214e+000 -7.582215e+000 147 26 30
8.224889e-001 -7.440923e-001 -6.632144e+000 211 197 182
8.224889e-001 -7.440923e-001 -6.632144e+000 211 197 182
8.367128e-001 -6.854397e-001 -6.584412e+000 238 230 212
1.016446e+000 -6.404731e-001 -6.337418e+000 159 149 154
7.726246e-001 7.064530e-002 -6.653764e+000 187 179 160
-7.725415e-001 -2.111070e-001 -7.094366e+000 160 79 51
-3.702564e-001 7.517701e-001 -7.820496e+000 167 152 133
-3.804909e-001 7.557083e-001 -7.817900e+000 167 152 133
-1.311453e-001 8.201077e-001 -7.432740e+000 196 188 167
3.653239e-001 5.940534e-001 -6.967336e+000 195 188 172
6.125219e-001 3.387477e-002 -6.663801e+000 156 141 120
4.933195e-001 -1.838961e+000 -7.421318e+000 120 116 115
4.933195e-001 -1.838961e+000 -7.421318e+000 120 116 115
4.725755e-001 -1.717737e+000 -7.427770e+000 147 146 142
-2.309833e-001 2.141044e-001 -7.725192e+000 192 171 154
-4.412469e-001 -1.636466e-001 -7.239236e+000 51 19 14
-1.684861e-003 -3.587144e-001 -7.445824e+000 228 204 154
-3.897502e-001 6.271709e-002 -7.122296e+000 62 18 17
1.104924e+000 -7.014976e-002 -6.248601e+000 240 94 104
9.412706e-002 2.464440e-001 -6.999654e+000 212 205 186
3.780723e-001 -5.305039e-003 -6.761096e+000 218 209 192
-2.223181e-001 3.631191e-001 -7.762233e+000 196 187 170
8.668410e-001 -7.241970e-001 -6.548296e+000 226 217 200
9.388858e-001 -7.100457e-001 -6.344816e+000 166 159 167
8.782483e-001 -3.880337e-001 -6.402939e+000 254 236 196
4.799191e-001 1.084181e-001 -6.743465e+000 150 135 116
7.210401e-002 -2.619965e-001 -6.709156e+000 214 201 184
-1.468979e-001 8.700435e-003 -8.000960e+000 129 22 27
-6.542589e+000 -6.943295e+000 -2.495147e+001 91 83 80
-1.033221e+000 -1.221110e+001 -1.045529e+001 95 100 119
4.841915e-001 -1.792125e+000 -7.397064e+000 108 106 103
-2.674220e-001 2.126847e-001 -7.714258e+000 165 43 47
2.391899e-001 -1.439781e+000 -7.677644e+000 105 101 97
-2.490194e-001 -2.589197e-001 -7.756738e+000 186 173 154
-9.507452e-001 -3.626491e-001 -6.669842e+000 160 85 62
-5.922005e-001 -9.570417e-002 -6.746940e+000 119 49 39
-3.563409e-001 -3.689290e-002 -6.898823e+000 78 42 41
-8.310012e-001 -4.008596e-001 -6.770971e+000 155 136 120
1.341628e+000 -1.117824e+000 -6.237594e+000 139 137 140
-3.255729e-001 2.355683e-001 -7.884146e+000 186 55 60
-4.219247e-001 -1.451463e-001 -7.216898e+000 92 65 59
-1.744831e-001 5.346594e-001 -7.447480e+000 166 151 132
6.414812e-002 6.917514e-002 -6.937846e+000 190 179 160
1.105739e+000 -5.108736e-001 -6.245855e+000 176 171 172
1.878659e-001 2.077143e-001 -6.949872e+000 167 156 138
7.705794e-001 5.614803e-002 -6.696281e+000 196 188 169
4.498673e-001 6.780595e-001 -6.969825e+000 233 225 212
2.987619e-001 1.299034e+000 -7.092198e+000 199 63 66
2.491535e-001 9.991804e-001 -7.218170e+000 211 203 190
3.294396e-001 1.280750e+000 -7.047370e+000 211 68 71
3.400610e-001 1.317700e+000 -7.130176e+000 50 30 31
3.144122e-001 1.317977e+000 -7.061887e+000 71 38 38
5.087608e+000 -6.673634e+000 -1.584422e+000 79 74 80
1.090897e+000 -7.883660e-001 -6.363859e+000 162 151 157
9.649842e-001 -2.293410e-001 -6.453213e+000 206 198 179
3.745063e-001 1.233272e+000 -6.987325e+000 207 64 70
1.226668e-001 3.677505e-001 -7.104701e+000 190 177 162
5.967639e-001 9.310164e-001 -6.816340e+000 210 71 78
-5.300755e-001 4.507691e-001 -7.915114e+000 210 192 171
-8.049226e-002 -4.681330e-001 -7.581466e+000 170 106 60
-8.049226e-002 -4.681330e-001 -7.581466e+000 170 106 60
-6.752263e-002 -4.573633e-001 -7.565869e+000 219 166 119
8.005563e-002 -6.185979e-001 -7.543847e+000 92 25 6
-7.607828e-001 -3.153941e-001 -7.028743e+000 136 49 26
1.869058e-002 -4.152451e-001 -7.469396e+000 117 67 28
-2.126794e-002 -3.781510e-001 -7.441259e+000 254 236 179
-9.637923e-001 -3.375870e-001 -6.602600e+000 62 24 14
-9.650776e-001 -3.175524e-001 -6.620651e+000 141 63 37
-5.394940e-001 -7.095877e-002 -6.829877e+000 88 33 26
-3.034246e-001 -8.167148e-004 -6.936421e+000 68 31 22
1.445084e+000 -1.701068e+000 -6.238300e+000 152 152 150
4.724902e-001 -1.153326e-001 -6.723853e+000 233 226 208
-5.624503e-002 1.122493e+000 -7.442877e+000 208 50 58
8.872390e-001 -4.240753e-001 -6.529233e+000 175 160 138
8.814868e-001 -4.217319e-001 -6.530750e+000 175 160 138
-3.434315e-002 1.315224e+000 -7.431896e+000 91 13 17
1.329790e+000 -1.108354e+000 -6.093357e+000 184 179 183
8.981597e-001 -4.270653e-001 -6.301982e+000 188 170 172
1.281712e+000 -1.764622e-001 -6.118280e+000 70 60 49
1.145105e+000 9.500210e-002 -6.229944e+000 152 134 136
1.112091e+000 2.348604e-001 -6.270701e+000 150 137 133
-6.037316e-001 5.784870e-001 -8.269488e+000 72 40 43
-6.465681e-001 -3.731240e-001 -7.144782e+000 153 57 26
-5.150248e-001 -2.590303e-001 -7.318822e+000 255 240 185
-2.044120e-001 -2.801179e-002 -7.677321e+000 139 110 94
-7.720907e-001 -1.835230e-001 -7.137164e+000 145 70 49
-7.685129e-001 -1.854435e-001 -7.137182e+000 145 70 49
-7.205259e-001 -3.312658e-001 -6.953279e+000 93 22 12
-5.079979e-001 -1.678877e-001 -7.217212e+000 114 85 81
-9.961733e-001 -3.720861e-001 -6.720159e+000 131 135 126
-8.765289e-001 -3.792526e-001 -6.785402e+000 127 53 33
-8.218255e-001 -3.798809e-001 -6.788006e+000 110 46 22
-4.330487e-001 9.881416e-001 -7.820342e+000 173 40 54
-3.865006e-001 9.948604e-001 -7.821081e+000 162 40 43
-3.343455e-001 -1.745701e-002 -7.190237e+000 82 58 48
-1.375286e-001 6.216415e-001 -7.610894e+000 153 142 124
-1.304814e-001 6.209834e-001 -7.610985e+000 153 142 124
-3.731157e-001 3.614086e-001 -7.224756e+000 137 121 105
1.425645e-002 3.682112e-001 -7.489091e+000 145 132 113
-1.997917e-001 4.989607e-001 -7.486753e+000 139 124 105
-9.357413e-001 -2.286535e-001 -6.468326e+000 180 161 137
-9.357413e-001 -2.286535e-001 -6.468326e+000 180 161 137
-1.938131e-001 1.045481e+000 -7.698397e+000 159 28 33
-8.670350e-001 -2.343129e-001 -6.468958e+000 137 115 96
-2.315983e-001 6.418921e-003 -6.876665e+000 186 172 152
-3.111064e-001 1.136434e+000 -7.635257e+000 157 30 34
6.859176e-001 -3.488086e-001 -6.628984e+000 157 143 122
1.651160e-001 9.525855e-001 -7.266196e+000 187 181 164
1.518514e+000 -1.189050e+000 -6.054289e+000 143 138 142
1.499563e+000 -1.183587e+000 -5.996717e+000 190 185 189
1.611807e+000 -1.293672e+000 -5.919826e+000 175 170 176
1.697159e+000 -1.350845e+000 -5.903389e+000 175 170 176
1.549625e+000 -1.166360e+000 -5.899985e+000 194 189 195
1.582539e+000 -4.564120e-001 -5.865318e+000 141 136 142
8.274423e-001 3.918192e-001 -6.462556e+000 225 207 189
1.905591e+000 -6.815872e-001 -5.537902e+000 147 144 150
1.770024e+000 -4.688910e-001 -5.674577e+000 140 133 141
6.220872e-001 1.288103e+000 -6.780397e+000 85 76 74
2.774819e+000 -1.495542e+000 -4.645556e+000 185 183 188
1.959527e+000 -3.308020e-001 -5.431587e+000 151 145 149
-2.292275e-001 1.158648e-001 -8.005064e+000 17 16 17
-3.303913e-001 2.875711e-002 -7.861282e+000 206 76 78
-2.614797e-001 2.028868e-001 -8.001325e+000 202 72 74
-7.795708e-001 -2.591212e-001 -7.081213e+000 181 89 58
-7.883431e-001 -1.975355e-001 -7.095424e+000 171 97 65
-1.759267e-002 -3.565590e-001 -7.475253e+000 243 223 166
-2.105428e-001 6.405885e-001 -7.653537e+000 162 151 133
-3.468563e-001 3.552775e-003 -6.927593e+000 89 55 48
-3.491019e-001 8.977336e-002 -7.041851e+000 81 50 40
-2.962729e-001 8.643028e-002 -7.049744e+000 77 30 22
-2.629738e-001 1.151944e-001 -7.019037e+000 100 82 72
-7.822092e-001 -2.832043e-001 -6.468786e+000 71 49 28
6.603846e-001 -6.136625e-001 -6.671171e+000 238 235 223
6.956823e-002 5.820614e-001 -7.229026e+000 180 167 150
4.922618e-001 1.387326e-001 -6.837166e+000 141 126 107
1.568698e+000 -1.180639e+000 -5.967267e+000 136 131 136
1.329984e+000 -7.976436e-001 -6.229673e+000 163 157 161
1.019168e+000 -4.510708e-001 -6.308215e+000 243 221 180
8.879046e-001 -2.205839e-001 -6.480978e+000 156 143 124
1.266457e+000 -4.371659e-001 -6.142707e+000 145 138 146
1.410752e+000 -4.548501e-001 -6.176253e+000 211 192 149
9.502551e-001 2.659166e-001 -6.431304e+000 230 96 94
1.181331e+000 4.497596e-002 -6.208835e+000 159 146 155
7.646717e-001 5.861283e-001 -6.598586e+000 222 202 188
7.646717e-001 5.861283e-001 -6.598586e+000 222 202 188
2.733470e+000 -1.357004e+000 -4.668469e+000 187 184 191
-3.399229e-001 2.900986e-001 -7.991493e+000 210 78 82
-5.088984e-001 -2.759229e-001 -7.295679e+000 74 22 12
-4.164010e-001 -1.395374e-001 -7.250870e+000 107 87 76
-4.209169e-001 -1.357288e-001 -7.250369e+000 107 87 76
-3.490846e-001 1.024704e+000 -7.818263e+000 157 34 36
-5.459912e-001 -4.842721e-002 -6.898345e+000 45 6 6
4.092098e-002 6.687193e-001 -7.289857e+000 222 214 203
2.835366e-001 3.740427e-002 -6.818577e+000 181 170 150
2.902709e-001 3.225296e-001 -7.053505e+000 151 140 122
3.634354e-001 3.102674e-001 -7.029964e+000 187 176 158
7.933900e-001 -3.551693e-001 -6.561076e+000 93 78 57
2.684413e-001 7.055221e-001 -7.154242e+000 188 178 160
2.596145e-001 7.064225e-001 -7.149806e+000 188 178 160
2.417510e-001 9.083635e-001 -7.205523e+000 154 145 130
1.875538e+000 -4.778283e-001 -5.471656e+000 162 156 160
-4.974170e-001 -3.347447e-001 -7.274951e+000 253 247 185
1.271831e-001 -4.376760e-001 -7.521393e+000 64 5 8
-4.178817e-001 -1.791119e-001 -7.241664e+000 61 23 21
-2.039060e-001 2.996154e-001 -7.582969e+000 144 129 110
-8.133100e-001 -4.321189e-001 -6.745994e+000 116 41 30
-3.237382e-001 -2.763662e-002 -7.257766e+000 102 85 74
-3.879911e-001 -5.764011e-002 -7.140573e+000 42 10 11
-2.772808e-001 1.403138e-002 -6.944059e+000 123 105 91
-2.844513e-001 2.006321e-002 -6.944244e+000 123 105 91
1.141020e+000 -6.420752e-001 -6.350424e+000 159 36 43
5.648346e-001 3.997040e-003 -6.656130e+000 198 190 171
3.705377e-001 1.176910e+000 -7.001996e+000 220 79 80
8.103158e-001 5.354780e-001 -6.562716e+000 176 41 45
4.715311e-001 1.218291e+000 -6.890092e+000 66 45 50
1.981786e+000 -4.639027e-001 -5.465045e+000 177 171 175
-7.275457e-002 3.373587e-001 -7.295352e+000 178 164 145
3.606429e-001 4.482497e-001 -7.125112e+000 180 171 155
-6.542987e-002 1.123310e+000 -7.454342e+000 181 47 48
1.359015e+000 -2.284753e-001 -6.165318e+000 18 8 8
1.208228e+000 8.000069e-002 -6.136381e+000 142 136 140
5.703000e-001 6.502065e-001 -6.857287e+000 227 220 204
9.692377e-001 2.459585e-001 -6.464011e+000 234 227 213
-2.430447e-001 1.946974e-001 -7.821871e+000 128 19 24
-6.403310e-001 -2.951349e-001 -6.605569e+000 92 34 18
-2.828268e-001 -3.926282e-002 -6.865753e+000 68 23 20
-4.829661e-001 -2.636948e-001 -6.618663e+000 143 141 142
-1.613831e-001 9.171165e-001 -7.143640e+000 210 201 184
-5.757405e+000 -8.333696e+000 -1.676261e+001 106 105 113
-3.775020e+000 -6.922880e+000 -1.453493e+001 78 77 87
-8.412951e+000 -9.100181e+000 -2.220553e+001 97 90 82
-8.412951e+000 -9.100181e+000 -2.220553e+001 97 90 82
-6.659594e-001 5.093494e-002 -6.656968e+000 84 20 12
-8.042786e-001 -2.099170e-001 -6.940375e+000 106 46 35
-2.060204e-001 3.063474e-001 -7.503555e+000 153 140 123
-1.280796e-001 9.446366e-001 -7.687281e+000 218 180 164
1.767819e+000 -1.347107e+000 -5.706597e+000 168 163 170
2.276845e-001 -1.390987e+000 -7.668112e+000 151 148 141
3.053345e-001 -1.056896e+000 -7.591407e+000 156 156 148
-7.412148e-002 -4.652765e-001 -7.682271e+000 143 46 23
-3.816818e-001 8.785091e-002 -7.848117e+000 143 28 29
-3.695120e-001 8.428814e-001 -7.792824e+000 217 58 58
1.670586e+000 -1.138411e+000 -5.816750e+000 194 189 195
1.455159e+000 -5.829925e-001 -6.003347e+000 171 167 171
-3.928171e-001 7.566094e-001 -7.868998e+000 161 146 127
-3.928171e-001 7.566094e-001 -7.868998e+000 161 146 127
-1.358542e-001 1.068637e+000 -7.495391e+000 130 95 81
3.877948e-001 -1.271176e+000 -7.452257e+000 135 134 129
-2.008992e-001 1.849355e-001 -7.574345e+000 136 110 97
-9.324107e-001 -1.816673e-001 -6.439213e+000 72 45 28
-9.324107e-001 -1.816673e-001 -6.439213e+000 72 45 28
1.894791e-001 -7.800385e-001 -7.586252e+000 26 10 13
-9.542322e-001 -3.608921e-001 -6.705152e+000 129 44 20
-9.676263e-001 -2.927466e-001 -6.619486e+000 198 109 75
1.356664e+000 -1.088738e+000 -6.117903e+000 201 196 202
3.218321e-001 -1.253388e+000 -7.554130e+000 139 139 131
-5.254560e-001 -1.104787e-001 -7.277620e+000 66 27 15
-3.301270e-001 1.458946e-001 -7.111332e+000 138 116 102
-2.471643e-001 1.856731e-001 -7.197895e+000 151 132 115
-2.471643e-001 1.856731e-001 -7.197895e+000 151 132 115
-1.845373e-001 7.354272e-001 -7.602041e+000 208 200 179
1.401714e+000 -1.138576e+000 -6.099769e+000 172 167 173
6.274237e-001 -1.618000e+000 -7.199380e+000 141 143 138
-5.353178e-001 -3.028770e-002 -7.016563e+000 77 33 28
-2.391541e-001 3.515774e-001 -7.502414e+000 156 143 122
-2.304408e-001 1.241700e-001 -7.019144e+000 159 142 124
4.667778e-001 -1.187490e-001 -6.704885e+000 213 200 176
3.112832e-001 -1.130821e+000 -7.572775e+000 174 170 167
-2.257798e-001 1.742285e-001 -7.322254e+000 122 105 89
-7.699986e-002 2.808739e-001 -7.248359e+000 175 160 139
1.114369e+000 -4.196983e-001 -6.251797e+000 166 163 168
6.129561e-001 6.170155e-001 -6.788991e+000 186 176 156
-8.125329e-001 -2.242537e-001 -6.923483e+000 121 51 42
6.621316e-001 -1.136761e-001 -6.586998e+000 248 243 227
1.372196e+000 -4.292413e-001 -6.089830e+000 169 167 175
-2.130695e-001 1.766411e-001 -7.688689e+000 138 33 40
-3.005267e-001 -1.285865e-001 -7.316517e+000 143 121 101
-2.595330e-001 3.868476e-002 -7.391939e+000 161 142 127
3.090237e-001 1.340977e-001 -6.823882e+000 228 214 195
-1.942412e-001 1.272386e-001 -7.535517e+000 166 149 131
1.354058e-001 2.890103e-001 -7.077188e+000 154 139 120
-3.121567e-001 1.437519e-002 -7.923727e+000 18 12 14
3.153630e-001 1.266514e+000 -7.070027e+000 218 63 67
1.444663e-002 8.703847e-001 -7.308912e+000 188 175 156
5.834240e-001 -1.621546e+000 -7.236706e+000 111 113 108
1.412922e+000 -1.082278e+000 -6.126880e+000 209 203 207
2.056727e+000 -1.234811e+000 -5.342319e+000 166 164 169
1.577794e+000 -5.682010e-001 -5.860171e+000 192 189 192
4.546694e-001 -1.257642e+000 -7.358742e+000 134 133 132
3.946677e+000 -7.637142e+000 -4.167023e+000 64 61 68
-9.751105e-001 -3.077162e-001 -6.599451e+000 246 165 136
-5.164852e-001 -2.693475e-002 -7.008328e+000 78 35 29
-2.132380e-002 1.976928e-001 -7.164596e+000 159 142 126
4.387900e-001 -1.354031e-003 -6.727852e+000 189 174 153
1.095304e+000 -5.876311e-001 -6.326231e+000 188 187 190
1.433222e+000 -5.529477e-001 -6.095757e+000 184 179 183
1.927984e+000 -1.185099e+000 -5.456337e+000 149 147 151
8.640508e-001 5.460565e-001 -6.547209e+000 232 81 86
-8.849620e-001 -3.722960e-001 -6.787523e+000 159 50 37
-7.657756e-001 -1.762211e-001 -6.973501e+000 98 30 17
-2.132578e-001 6.085617e-001 -7.521792e+000 145 128 108
-1.076105e-001 5.178673e-001 -7.412802e+000 194 181 162
9.182502e-001 -1.018677e-001 -6.487552e+000 254 251 237
1.239890e+000 -2.202307e-001 -6.115291e+000 184 172 172
6.725940e-001 6.245938e-001 -6.602792e+000 230 219 190
6.567310e-001 6.511560e-001 -6.637738e+000 165 130 110
-1.210472e-001 2.528653e-001 -7.218291e+000 166 151 130
-2.975823e-001 1.045784e+000 -7.697727e+000 176 35 41
2.516060e+000 -1.390972e+000 -4.778199e+000 211 208 215
6.636215e+000 -5.669830e+000 -1.600802e-001 75 73 75
-4.042192e-001 5.638168e-002 -7.083418e+000 85 48 40
-1.344069e-001 4.360617e-001 -7.409138e+000 156 137 120
-3.451051e-002 1.246385e+000 -7.420455e+000 169 29 32
-1.413288e-001 -2.639243e-001 -7.593856e+000 171 154 129
-7.368445e-001 -1.299061e-001 -7.013201e+000 86 26 15
3.279524e-001 -1.166945e+000 -7.469495e+000 255 254 210
-1.780826e-001 1.176229e+000 -7.621225e+000 221 75 78
-1.876131e-001 8.244631e-001 -7.582312e+000 236 227 210
-5.036638e-001 5.698972e-001 -8.190814e+000 224 70 72
4.138998e-001 -1.321633e+000 -7.430505e+000 175 176 169
4.288983e-001 -4.484052e-002 -6.730854e+000 211 200 178
-2.408198e-001 -1.514049e-002 -7.780303e+000 162 92 81
-2.279845e-001 -7.432245e-002 -7.597402e+000 146 123 107
-1.606158e-001 7.645176e-001 -7.600009e+000 188 181 159
-2.359622e-001 1.046622e+000 -7.757634e+000 189 43 46
2.640139e-002 2.265173e-001 -7.061682e+000 168 155 138
5.003204e-001 5.279184e-001 -6.920704e+000 170 159 139
-2.830610e-001 -2.427570e-001 -7.815692e+000 222 211 192
-1.891927e-001 -2.175276e-002 -7.655904e+000 143 101 89
-1.321706e-001 7.109521e-001 -7.443997e+000 180 165 146
6.803247e-001 9.364348e-001 -6.686858e+000 215 69 72
5.674006e-001 -1.560887e+000 -7.246491e+000 160 162 157
5.154367e-001 -1.431078e+000 -7.307414e+000 151 147 144
-7.647706e-001 -1.707373e-001 -7.165227e+000 128 54 37
-1.070032e-001 5.166758e-002 -7.771824e+000 199 49 51
-1.967052e-001 5.681908e-001 -7.562034e+000 145 133 111
-1.573893e-001 4.956937e-001 -7.470255e+000 175 160 139
8.255622e-003 1.157349e+000 -7.348020e+000 234 184 169
-6.326411e-001 5.577521e-001 -8.231765e+000 76 59 55
-9.583260e-001 -2.926235e-001 -6.616663e+000 197 108 76
-3.283873e-001 8.905790e-002 -6.986306e+000 129 97 85
-5.108935e-001 -5.106051e-001 -6.320308e+000 197 192 195
-1.000416e+000 -3.573154e-001 -6.691678e+000 156 151 144
-1.831243e-001 4.813340e-001 -7.467822e+000 202 187 166
-2.101464e-001 3.564683e-001 -7.463779e+000 173 156 136
-1.988166e-001 6.233315e-001 -7.591574e+000 193 180 161
-1.827491e-001 4.247513e-001 -7.615296e+000 150 133 113
5.116665e-001 5.745018e-001 -6.923491e+000 238 231 214
6.184919e-001 6.547801e-001 -6.742965e+000 242 233 216
7.183181e-001 3.077655e-001 -6.667605e+000 184 171 152
6.154670e+000 -5.980227e+000 -6.108183e-001 28 23 29
-3.021153e-001 -1.012557e-001 -7.904431e+000 221 213 195
1.985919e-001 -1.146371e+000 -7.743971e+000 163 161 162
3.108352e-001 -9.933349e-001 -7.602134e+000 134 129 132
1.052964e+000 -2.080677e+000 -6.702876e+000 200 198 201
-2.221970e-002 -5.501358e-001 -7.555007e+000 111 14 5
-3.112891e-001 -3.739390e-002 -7.970091e+000 78 65 49
6.327866e-001 -1.161103e+000 -7.154159e+000 133 130 131
4.990040e-001 -9.841274e-001 -7.275567e+000 179 174 176
-8.375630e-002 -4.489154e-001 -7.567979e+000 243 195 141
5.578398e-001 -9.950990e-001 -7.251349e+000 172 158 161
5.327244e-001 -9.807042e-001 -7.252032e+000 172 158 161
1.170500e+000 -1.852647e+000 -6.518430e+000 173 170 177
1.163995e+000 -1.809315e+000 -6.486525e+000 181 178 185
1.163995e+000 -1.809315e+000 -6.486525e+000 181 178 185
-7.680812e-001 -2.690847e-001 -7.089792e+000 167 67 35
-7.806740e-001 -2.238366e-001 -7.095475e+000 182 93 61
-5.549692e-001 -1.966729e-001 -7.259941e+000 170 170 149
-9.568795e-001 -3.638195e-001 -6.743625e+000 143 48 32
-9.128058e-001 -3.808132e-001 -6.740690e+000 231 233 233
-8.354095e-001 -2.809491e-001 -6.911546e+000 134 47 37
-8.081873e-001 -2.697546e-001 -6.970028e+000 148 62 40
-1.693236e-001 1.438989e-001 -7.693780e+000 111 8 15
1.755647e+000 -2.394685e+000 -5.832456e+000 221 214 221
-9.718759e-001 -3.013741e-001 -6.607174e+000 142 45 36
-2.101716e-001 2.975419e-001 -7.506923e+000 172 156 135
-3.630332e-001 8.066688e-002 -7.027726e+000 96 58 48
-3.630332e-001 8.066688e-002 -7.027726e+000 96 58 48
4.817688e-003 1.066808e-001 -6.995662e+000 137 123 105
1.083798e+000 -5.168912e-001 -6.299490e+000 220 99 90
2.302366e+000 -1.554019e+000 -5.045768e+000 171 172 176
7.877753e-001 5.834059e-001 -6.531652e+000 226 71 75
7.850258e-001 5.963602e-001 -6.518744e+000 217 64 69
8.201695e-001 7.095639e-001 -6.508210e+000 67 36 29
2.194408e-001 -1.428694e+000 -7.668101e+000 120 119 117
6.605044e-001 -1.575180e+000 -7.135607e+000 135 130 136
4.375001e-001 -1.207119e+000 -7.384165e+000 168 154 137
1.413844e+000 -2.623916e+000 -6.308620e+000 210 208 211
1.413844e+000 -2.623916e+000 -6.308620e+000 210 208 211
7.235035e-001 -1.498508e+000 -7.096003e+000 183 178 180
6.722648e-001 -1.396994e+000 -7.098495e+000 189 184 188
4.754601e-001 -1.116456e+000 -7.300024e+000 133 121 107
1.750611e-001 -7.229434e-001 -7.579376e+000 255 115 123
9.867586e-001 -1.731802e+000 -6.754133e+000 161 157 163
9.867586e-001 -1.731802e+000 -6.754133e+000 161 157 163
-6.293886e-001 -4.193829e-001 -7.082862e+000 191 51 41
-2.292396e-001 -3.028920e-002 -7.759427e+000 167 137 119
-5.749092e-001 -2.123265e-001 -7.245938e+000 213 208 186
8.191212e-002 -3.731587e-001 -7.403402e+000 106 37 9
-5.405549e-001 -1.584565e-001 -7.233924e+000 47 16 10
-9.960418e-001 -3.212891e-001 -6.593562e+000 204 195 200
-1.016580e+000 -2.316761e-001 -6.502888e+000 217 207 206
-1.016196e+000 -2.314518e-001 -6.502760e+000 217 207 206
-1.029017e+000 -2.163921e-001 -6.482496e+000 83 60 50
-2.986408e-001 1.830756e-001 -7.216125e+000 155 136 120
-8.648917e-001 -2.233133e-001 -6.459709e+000 185 181 178
1.474986e+000 -1.090188e+000 -5.984906e+000 181 177 181
7.657533e-001 -4.292767e-001 -6.586960e+000 243 235 214
4.452985e-002 1.044451e-001 -6.978666e+000 252 245 227
1.745794e+000 -1.357361e+000 -5.700020e+000 200 198 203
1.716239e+000 -1.153088e+000 -5.707860e+000 162 160 163
1.768613e+000 -1.154388e+000 -5.710360e+000 197 194 201
1.877593e+000 -1.141098e+000 -5.491355e+000 207 205 210
2.229516e+000 -1.436132e+000 -5.116838e+000 181 180 186
2.099761e+000 -1.272063e+000 -5.254878e+000 210 208 213
1.575415e+000 -5.782497e-001 -5.895352e+000 138 133 137
9.222504e-001 2.294391e-001 -6.442283e+000 234 218 197
5.847244e-001 6.238437e-001 -6.823451e+000 227 216 198
8.995635e-001 6.097945e-001 -6.484777e+000 189 40 42
8.943613e-001 6.105720e-001 -6.463216e+000 213 68 76
5.406907e-001 9.632844e-001 -6.855104e+000 245 81 86
1.706046e-001 -1.349316e+000 -7.663133e+000 171 170 167
2.998564e-001 -1.200296e+000 -7.473577e+000 253 248 190
2.998564e-001 -1.200296e+000 -7.473577e+000 253 248 190
9.081096e-001 -1.698384e+000 -6.821572e+000 198 195 200
5.551561e-001 -1.079215e+000 -7.230656e+000 134 128 130
2.780423e-001 -7.876712e-001 -7.349069e+000 188 46 48
-3.164266e-001 2.403813e-002 -7.865054e+000 234 95 96
-2.411547e-001 -6.268232e-002 -7.738792e+000 207 196 174
7.541397e-001 -3.034969e+000 -5.012498e+000 60 57 64
-7.939037e-001 -2.598056e-001 -6.977676e+000 119 30 14
-7.619559e-001 -1.657795e-001 -6.958707e+000 120 53 37
-2.592172e-001 9.577830e-002 -7.272211e+000 147 128 111
-3.814894e-001 8.047523e-002 -7.105003e+000 72 26 19
-3.537986e-001 8.698144e-002 -7.091299e+000 100 73 60
-2.062976e-001 2.536683e-001 -7.416498e+000 181 165 142
-3.195153e-001 3.288903e-001 -7.453578e+000 139 121 101
-2.129942e-001 3.286089e-001 -7.491356e+000 169 152 132
-3.320248e-001 1.109285e-001 -7.051909e+000 94 34 22
-9.208933e-002 8.988098e-002 -6.969978e+000 202 194 175
-6.688466e-002 1.056182e-001 -6.978760e+000 141 126 110
-1.225574e-001 5.242259e-001 -7.415300e+000 189 176 159
1.779738e+000 -1.239323e+000 -5.744494e+000 202 200 205
1.586127e+000 -1.016514e+000 -5.870528e+000 162 160 165
1.376627e+000 -4.887017e-001 -6.118337e+000 149 144 148
6.205211e-001 2.387909e-002 -6.658558e+000 172 157 134
6.478080e-001 2.369299e-001 -6.770757e+000 244 237 219
8.881856e-001 4.960787e-001 -6.412970e+000 152 29 32
3.924057e-001 1.080670e+000 -7.016399e+000 233 215 193
3.241980e-001 1.138689e+000 -7.089048e+000 225 68 67
8.635355e-001 6.486074e-001 -6.493430e+000 234 87 88
2.709158e-001 -1.457621e+000 -7.707224e+000 175 174 172
6.477012e-001 -1.649096e+000 -7.260782e+000 155 153 158
1.614996e-002 -6.307342e-001 -7.682835e+000 252 99 106
-7.528526e-001 -2.301563e-001 -7.113115e+000 115 32 17
-9.150372e-001 -2.945225e-001 -6.771386e+000 156 80 54
-9.218888e-001 -2.919584e-001 -6.769788e+000 156 80 54
-9.911730e-001 -3.052481e-001 -6.584564e+000 55 13 19
-2.039183e-001 2.230744e-001 -7.522424e+000 152 137 118
-1.083147e+000 -2.327192e-001 -6.511564e+000 204 197 205
-4.525518e-001 1.117562e-002 -7.090178e+000 58 14 15
-2.166255e-001 3.433379e-001 -7.603906e+000 221 209 187
-3.909727e-001 7.758801e-001 -7.876602e+000 221 201 184
-8.500647e-001 -2.238823e-001 -6.482482e+000 73 49 26
-3.329665e-001 3.963373e-002 -6.944511e+000 134 117 97
-3.329665e-001 3.963373e-002 -6.944511e+000 134 117 97
-3.080528e-003 1.807454e-001 -7.052911e+000 241 229 212
1.776469e+000 -1.195271e+000 -5.622064e+000 205 203 208
4.129444e-001 3.033249e-001 -6.999475e+000 164 153 133
-1.836601e-001 8.007213e-001 -7.438228e+000 193 180 161
-1.836601e-001 8.007213e-001 -7.438228e+000 193 180 161
7.423824e-001 8.251969e-001 -6.600735e+000 108 15 22
3.840915e-001 1.195095e+000 -6.995019e+000 232 76 77
-2.666099e-001 -2.654175e-001 -7.953865e+000 91 82 84
2.154795e-001 -8.089584e-001 -7.637474e+000 145 137 136
-9.148840e-002 -3.975382e-001 -7.492550e+000 176 117 73
-2.678027e-001 -1.122615e-001 -7.445171e+000 185 170 149
-7.995039e-001 -2.018574e-001 -6.971430e+000 97 25 11
-3.657724e-001 7.361994e-002 -7.063430e+000 66 23 21
-1.012061e+000 -1.970151e-001 -6.458760e+000 104 75 50
-2.682997e-001 1.025524e+000 -7.744303e+000 216 70 71
-2.682997e-001 1.025524e+000 -7.744303e+000 216 70 71
1.040740e+000 -2.556350e-001 -6.322331e+000 120 105 67
9.905835e-002 5.947338e-001 -7.182336e+000 169 154 133
2.527048e-001 6.897255e-001 -7.191377e+000 228 221 203
2.112137e-001 1.011077e+000 -7.215126e+000 214 204 192
1.243713e-001 1.337635e+000 -7.354070e+000 31 6 16
3.943451e-001 1.040379e+000 -6.958726e+000 235 222 203
7.043400e-001 9.145977e-001 -6.654355e+000 212 61 66
4.172199e-001 1.244731e+000 -6.980504e+000 217 57 60
3.091810e-001 -1.133045e+000 -7.529903e+000 30 23 24
4.637185e-001 -1.136697e+000 -7.327023e+000 255 255 220
4.282584e-001 -1.116328e+000 -7.332915e+000 255 255 220
2.734446e-001 -8.776670e-001 -7.391058e+000 255 254 208
1.874127e-001 -7.149031e-001 -7.444212e+000 221 194 133
-1.837373e-002 -3.523727e-001 -7.515630e+000 85 15 16
-9.111865e-001 -3.466875e-001 -6.765214e+000 146 45 27
-2.786102e-001 2.918695e-001 -7.817394e+000 220 204 188
-3.874555e-001 -9.190247e-003 -7.191998e+000 71 27 22
-1.027336e+000 -2.558736e-001 -6.523720e+000 74 42 27
-1.046737e+000 -2.444409e-001 -6.529229e+000 74 42 27
-1.733935e-001 3.571586e-001 -7.634065e+000 169 154 131
3.514233e-001 1.362306e-002 -6.768534e+000 223 215 194
-7.828467e-002 7.120007e-001 -7.361519e+000 247 240 224
8.894881e-001 -1.944833e-001 -6.460865e+000 248 243 226
6.119286e-001 2.648008e-001 -6.834108e+000 243 236 220
3.064707e-001 4.681373e-001 -7.120654e+000 200 192 171
8.747363e-001 4.453708e-001 -6.400776e+000 233 85 85
1.789610e-001 -8.194881e-001 -7.524451e+000 255 248 189
-4.828293e-002 -5.508015e-001 -7.716539e+000 182 50 48
-5.296712e-001 -4.197677e-002 -7.059878e+000 53 16 15
8.086692e-001 -1.011186e-001 -6.550095e+000 189 176 154
4.988877e-001 2.585048e-001 -6.913858e+000 232 225 212
1.297292e+000 -1.955255e-001 -6.177954e+000 12 7 5
8.669776e-001 5.970693e-002 -6.387397e+000 243 227 211
9.816529e-001 2.020889e-001 -6.389771e+000 211 50 61
5.323454e-001 9.390794e-001 -6.823317e+000 232 76 80
4.141607e-001 -1.213851e+000 -7.353570e+000 144 139 140
1.006521e-001 -6.356266e-001 -7.634301e+000 254 183 152
-4.781169e-001 5.046814e-001 -7.929068e+000 187 172 151
-9.713816e-001 -3.474316e-001 -6.711116e+000 151 46 27
-9.805010e-001 -2.631008e-001 -6.655131e+000 225 136 92
-3.533676e-001 7.976852e-001 -7.803557e+000 221 212 195
1.142878e-001 2.444231e-001 -7.002068e+000 241 232 215
1.726269e-002 1.182983e+000 -7.347443e+000 206 69 67
-2.470893e-001 2.119168e-001 -7.809550e+000 152 28 36
6.340930e-001 -1.659934e-001 -6.596575e+000 243 238 219
2.836757e-002 8.668910e-001 -7.304690e+000 184 171 154
8.184555e-001 4.720977e-001 -6.608480e+000 249 242 226
8.213850e-001 5.102661e-001 -6.506185e+000 154 28 31
-2.745112e-001 -4.097221e-001 -7.829857e+000 235 228 210
-2.745112e-001 -4.097221e-001 -7.829857e+000 235 228 210
-1.507099e-001 -2.339409e-001 -8.040977e+000 49 39 40
-2.980789e-001 1.166771e-002 -7.929549e+000 12 8 9
-4.876571e-001 5.324736e-001 -8.055278e+000 205 188 168
-7.995461e-001 -3.967525e-001 -6.847403e+000 217 210 218
-2.037791e-001 4.258132e-001 -7.574313e+000 154 136 114
7.861766e-001 4.710320e-001 -6.614190e+000 248 241 225
-9.705172e-001 -2.306286e-001 -6.535240e+000 50 21 13
8.514871e-001 2.731090e-002 -6.471645e+000 250 244 229
6.730655e-001 8.036405e-001 -6.868826e+000 242 235 219
-4.016245e-001 5.895129e-001 -7.841279e+000 233 224 207
1.062442e+000 -2.206186e+000 -6.650671e+000 178 175 182
1.277102e+000 -2.376005e+000 -6.462347e+000 195 190 197
6.163403e-001 -1.244691e+000 -7.200960e+000 178 169 172
2.139091e-001 -7.741178e-001 -7.633160e+000 149 138 136
1.081764e+000 -1.948632e+000 -6.647378e+000 208 207 213
1.479813e+000 -2.243323e+000 -6.170663e+000 194 189 196
1.323681e+000 -2.112169e+000 -6.359818e+000 189 186 193
1.104789e+000 -1.796467e+000 -6.546571e+000 216 211 218
8.101572e-001 -1.348174e+000 -6.922259e+000 202 195 202
-5.392721e-001 -3.241723e-001 -7.234013e+000 66 26 15
-9.227830e-002 -1.854564e-001 -7.588970e+000 201 190 167
-9.869874e-001 -3.350493e-001 -6.680146e+000 223 136 107
-4.717387e-001 -2.797571e-002 -7.170359e+000 88 53 49
-3.952046e-001 -3.348732e-002 -7.192681e+000 100 67 60
-8.648514e-001 -2.191313e-001 -6.516648e+000 215 205 204
2.127988e+000 -1.296199e+000 -5.288287e+000 177 176 181
1.801375e+000 -1.147139e+000 -5.432986e+000 197 197 201
1.798801e+000 -1.129391e+000 -5.464237e+000 159 158 163
1.185755e+000 -2.355087e+000 -6.605917e+000 202 199 206
6.239147e-001 -1.484607e+000 -7.237847e+000 177 171 175
5.053754e-001 -1.290809e+000 -7.334089e+000 173 167 171
1.568931e+000 -2.609222e+000 -6.079919e+000 223 218 225
1.363389e+000 -2.329388e+000 -6.291954e+000 223 218 225
1.331993e+000 -2.289530e+000 -6.243717e+000 203 198 205
1.519008e+000 -2.291589e+000 -6.141912e+000 225 220 227
1.222744e+000 -2.021903e+000 -6.461711e+000 201 196 203
1.456334e+000 -2.162541e+000 -6.137849e+000 223 218 224
-6.887256e-001 -3.602804e-001 -7.091685e+000 184 28 26
-5.682711e-001 -1.724235e-001 -7.255094e+000 61 21 14
-6.256582e-001 -6.140581e-002 -6.884405e+000 110 45 34
-1.225855e-001 1.504006e-001 -7.183825e+000 155 140 119
1.810435e+000 -1.135457e+000 -5.498536e+000 146 144 149
2.264848e-001 5.351858e-002 -6.823394e+000 211 199 183
8.206324e-001 -1.737807e-001 -6.518137e+000 178 160 129
2.172903e+000 -1.278358e+000 -5.061265e+000 206 204 209
4.113682e-001 -1.224172e+000 -7.559746e+000 161 155 159
6.560196e-001 -1.532527e+000 -7.231974e+000 147 140 147
8.092925e-001 -1.787536e+000 -6.982296e+000 174 169 175
5.314410e-001 -1.136382e+000 -7.248878e+000 188 179 182
1.193129e+000 -1.949610e+000 -6.408049e+000 198 193 200
1.193129e+000 -1.949610e+000 -6.408049e+000 198 193 200
1.055082e+000 -1.692411e+000 -6.657071e+000 177 172 178
1.040724e+000 -1.683608e+000 -6.660106e+000 177 172 178
1.668971e+000 -2.476827e+000 -5.936159e+000 202 195 202
-2.032439e-001 -9.979381e-002 -7.729264e+000 207 199 179
-5.841334e-001 -3.073964e-002 -7.033579e+000 84 37 31
-3.817597e-001 5.163150e-002 -7.154946e+000 100 73 63
-4.337355e-001 2.197074e-001 -7.230693e+000 160 139 122
-1.248397e-001 4.592285e-001 -7.414379e+000 202 189 170
2.166885e-003 9.112093e-002 -6.949234e+000 221 209 190
1.043409e+000 -4.555362e-001 -6.345089e+000 203 183 138
8.628928e-001 -1.453437e-001 -6.479060e+000 199 184 165
7.053833e-001 -1.530702e+000 -7.121460e+000 194 188 192
1.620031e+000 -2.696945e+000 -6.091858e+000 215 210 217
5.225773e-001 -1.052816e+000 -7.264400e+000 178 167 171
-3.405821e-001 1.818724e-001 -7.973940e+000 22 4 17
1.091164e+000 2.616161e-001 -6.273126e+000 63 46 46
8.735174e-001 7.100731e-001 -6.552846e+000 159 26 31
8.616040e-001 -1.844926e+000 -6.923325e+000 197 193 200
2.589487e-001 -8.604162e-001 -7.392071e+000 255 253 206
6.603984e-001 -1.106354e+000 -7.155978e+000 171 164 171
-1.372293e-001 4.981544e-001 -7.431116e+000 218 207 186
4.598546e-001 3.864432e-001 -7.045246e+000 223 216 200
-9.368340e-002 8.113432e-001 -7.501249e+000 212 201 183
3.909625e-002 8.426418e-001 -7.260356e+000 236 228 210
1.107192e+000 1.073008e-001 -6.271856e+000 231 82 88
-1.428686e-001 3.660963e-001 -7.624280e+000 167 152 131
1.056185e+000 5.049166e-002 -6.297773e+000 139 13 20
-1.738534e-001 1.777670e-001 -7.287276e+000 134 117 99
1.794142e-001 6.282129e-001 -7.135313e+000 236 229 213
2.979876e-001 7.891775e-001 -7.223332e+000 238 230 213
7.135498e-001 3.163753e-001 -6.647472e+000 186 171 148
-1.792422e-001 9.994022e-001 -7.471119e+000 151 129 115
4.023883e-001 1.218055e+000 -6.974379e+000 211 50 55
2.240462e-001 1.268601e+000 -7.088006e+000 218 63 67
4.887325e-001 5.479355e-002 -6.716412e+000 161 151 126
4.549283e-001 -1.075827e+000 -7.422880e+000 255 254 213
-2.323706e-001 4.566874e-001 -7.580162e+000 146 131 110
-1.751599e-001 3.008867e-002 -7.596103e+000 69 7 13
-1.318934e-002 3.791286e-001 -7.196137e+000 155 140 121
-2.060335e-001 -1.974472e-001 -7.790035e+000 193 179 160
-4.653504e+000 -6.429528e+000 -1.504047e+001 120 118 129
7.073298e-001 -1.518779e+000 -7.077504e+000 181 179 182
4.859676e-001 -1.180246e+000 -7.306851e+000 152 148 138
7.624289e-001 -1.491527e+000 -6.990044e+000 190 185 189
-2.078066e-001 7.514144e-001 -7.609845e+000 183 171 151
-3.146678e-001 1.175128e-001 -7.118193e+000 131 114 96
-2.165583e-001 3.433248e-001 -7.603576e+000 221 209 187
2.133689e-001 -8.572512e-001 -7.544041e+000 255 240 180
2.808780e-001 -8.072644e-001 -7.365626e+000 250 238 175
3.031027e-001 -7.308230e-001 -7.341883e+000 185 45 46
-5.096640e-002 1.311020e+000 -7.433321e+000 94 10 14
-7.676066e-001 -1.758485e-001 -6.972832e+000 90 20 7
2.050089e-001 6.299308e-002 -6.848169e+000 242 235 217
6.894881e-001 -1.377131e+000 -7.161699e+000 192 186 188
-2.477033e-001 6.695890e-001 -7.686781e+000 181 165 146
2.098161e-001 1.010660e+000 -7.214275e+000 212 205 189
-4.283409e-001 7.190816e-001 -7.927764e+000 204 191 172
-1.773904e-001 8.333034e-001 -7.566517e+000 225 217 198
2.633427e-001 -7.996149e-001 -7.366887e+000 251 244 175
-4.317426e-001 -5.803163e-001 -6.872862e+000 180 157 157
-4.798782e-001 -5.359526e-001 -6.839010e+000 223 83 30
-5.151021e-001 -2.051009e-001 -7.258180e+000 120 94 79
-3.714826e-001 9.957429e-002 -6.992299e+000 117 89 71
-6.291609e-002 -5.432834e-001 -7.650317e+000 247 183 130
2.812838e-001 -8.109300e-001 -7.318018e+000 224 116 123
-6.702857e-001 -4.274538e-001 -6.956736e+000 190 52 22
-6.132852e-001 -3.468223e-001 -7.158803e+000 158 89 74
6.770980e-002 -5.654045e-001 -7.252704e+000 197 174 152
-7.504641e-001 -3.350594e-001 -6.903139e+000 195 93 54
-4.773755e-001 -1.804405e-001 -7.205412e+000 97 62 56
-7.921323e-001 -2.453187e-001 -6.435900e+000 193 193 193
7.659669e-001 -1.587183e-001 -6.528176e+000 185 169 148
-1.434041e-001 4.745739e-001 -7.431967e+000 172 160 143
-1.549976e-001 -4.783808e-001 -7.914646e+000 101 91 92
2.858134e-001 -7.074912e-001 -7.326598e+000 245 101 101
-5.668178e-001 -4.493887e-001 -7.075714e+000 184 41 41
-5.668178e-001 -4.493887e-001 -7.075714e+000 184 41 41
-2.326370e-001 -4.063727e-001 -7.308170e+000 235 231 211
-4.648097e-001 -5.385658e-001 -6.815620e+000 227 164 148
-2.842971e-001 -6.231408e-002 -7.230610e+000 79 28 23
-1.065328e-001 7.698896e-002 -7.276913e+000 124 105 88
-2.231427e-001 1.604661e-001 -7.231352e+000 127 108 91
-2.135812e-001 1.586315e-001 -7.230699e+000 127 108 91
-3.309055e-001 8.173240e-002 -7.033370e+000 105 72 63
-2.485135e-001 6.143960e-001 -7.678720e+000 179 168 150
1.156346e+000 -4.355998e-003 -6.192539e+000 54 51 47
2.443528e-001 -8.264435e-001 -7.414450e+000 170 150 90
2.559134e-001 -7.063338e-001 -7.392915e+000 202 173 115
-7.783093e-001 -2.508417e-001 -7.078884e+000 189 92 57
-8.807354e-001 -4.220349e-001 -6.653413e+000 192 192 194
2.711511e-001 1.019473e-001 -6.843988e+000 198 185 166
1.503237e-001 5.539732e-001 -7.158635e+000 227 217 198
7.616091e-001 5.520334e-001 -6.613577e+000 250 236 217
1.984391e-001 1.320696e+000 -7.220858e+000 208 45 49
-6.805613e-001 5.847915e-001 -8.233269e+000 231 78 77
-2.188038e-001 1.036659e-001 -7.573641e+000 79 13 17
-4.975129e-001 4.339958e-001 -7.917101e+000 223 209 185
-3.395956e-001 9.522187e-002 -7.082059e+000 111 83 71
-7.645656e-002 3.015636e-001 -7.274265e+000 135 120 101
1.439877e-002 1.350743e+000 -7.353507e+000 38 24 30
2.309603e-001 -7.407987e-001 -7.445264e+000 214 188 127
-5.136551e-001 -1.986259e-001 -7.229984e+000 54 15 13
1.423109e+000 -4.517213e-001 -6.121210e+000 235 221 172
9.585857e-001 -1.552588e-001 -6.488711e+000 194 179 160
1.073444e+000 -5.253078e-002 -6.256872e+000 249 104 107
-3.944232e-001 -3.647153e-001 -7.257242e+000 226 215 200
2.803144e-003 -3.516586e-001 -7.445944e+000 218 187 133
-9.705304e-001 -3.200355e-001 -6.528904e+000 194 192 197
-2.903179e-001 -3.510207e-002 -7.274980e+000 126 102 91
-2.409156e-001 -9.638133e-002 -7.299289e+000 23 4 6
-6.123122e-001 -2.834754e-001 -7.191862e+000 67 17 14
-2.406536e-001 7.971884e-001 -7.674819e+000 148 130 110
-6.756246e-002 1.243838e+000 -7.487162e+000 174 41 42
-6.795608e-002 -5.070394e-001 -7.470157e+000 255 237 178
-1.912978e-002 -5.827618e-001 -7.323270e+000 190 48 50
-1.912978e-002 -5.827618e-001 -7.323270e+000 190 48 50
-2.064792e-001 -1.427779e-001 -7.579482e+000 216 207 184
5.732184e-001 1.364637e-001 -6.670143e+000 230 221 204
1.108554e+000 7.240999e-001 -6.266390e+000 39 27 26
7.539305e-001 -1.525352e+000 -7.017909e+000 204 198 202
-8.077892e-001 -2.267758e-001 -6.915185e+000 135 65 52
-2.096355e-001 1.060409e+000 -7.704237e+000 229 78 83
-1.732091e-001 4.801244e-001 -7.467144e+000 205 193 171
9.182821e-001 6.924811e-002 -6.467845e+000 253 247 231
-1.445189e-001 1.193823e+000 -7.569906e+000 153 16 23
5.124011e-001 5.603352e-001 -6.929676e+000 230 223 205
1.040747e+000 -1.771749e+000 -6.726963e+000 201 193 204
1.067961e+000 -1.780907e+000 -6.638974e+000 195 193 198
1.053880e+000 -1.748924e+000 -6.664289e+000 206 199 206
-1.727102e-001 5.102322e-001 -7.472337e+000 189 174 155
-3.027085e-001 -4.597784e-001 -7.880969e+000 108 97 95
-7.598331e-001 -2.713302e-001 -7.088222e+000 164 57 26
-3.234454e-002 2.279836e-001 -7.132084e+000 176 161 140
-3.572398e-001 8.022226e-002 -7.894770e+000 133 17 24
-7.198825e-001 -2.051756e-001 -7.169823e+000 71 12 6
8.748534e-001 7.069449e-001 -6.490999e+000 54 34 36
-2.316884e-001 7.383309e-001 -7.586610e+000 200 192 173
-2.482055e-001 4.156283e-002 -7.392631e+000 163 146 128
-2.500798e-001 1.097111e+000 -7.717990e+000 225 68 67
-2.204809e-001 -5.905317e-003 -7.762134e+000 151 87 77
-7.671909e-002 5.475137e-001 -7.584608e+000 172 158 138
1.062341e+000 2.862687e-002 -6.241487e+000 207 66 65
-2.209415e-001 1.086579e+000 -7.666319e+000 172 31 35
-7.920873e-001 -2.968946e-001 -7.041401e+000 194 85 52
-4.263575e-001 -9.167079e-002 -7.173773e+000 52 13 10
-4.035312e-001 1.492523e-002 -7.165833e+000 95 62 55
8.002514e-001 3.967215e-001 -6.470303e+000 231 216 195
-7.842156e-001 -2.148410e-001 -6.959253e+000 96 24 12
-4.336904e-001 8.376190e-003 -7.098598e+000 58 12 14
-9.627382e-002 2.300364e-001 -7.236791e+000 157 141 125
-7.259705e-002 2.805130e-001 -7.249287e+000 171 159 137
2.398667e-001 7.363787e-001 -7.216801e+000 210 202 188
2.435022e-001 7.370414e-001 -7.217811e+000 210 202 188
-2.527124e-001 1.056801e+000 -7.748505e+000 183 35 39
-2.760356e-001 8.555557e-001 -7.763485e+000 215 205 194
9.158632e-001 4.484634e-001 -6.397868e+000 238 74 79
4.659691e-001 7.170387e-001 -6.964760e+000 194 187 171
9.845686e-001 2.566475e-002 -6.361340e+000 233 228 210
2.454450e-001 9.541534e-001 -7.206042e+000 241 235 219
-2.145160e-001 1.256733e-001 -7.526753e+000 162 143 128
6.476956e-002 1.338211e+000 -7.488184e+000 20 11 12
1.704611e-001 -7.200389e-001 -7.579549e+000 229 106 99
-3.319973e-001 1.012083e-001 -7.911972e+000 145 23 26
-2.678434e-001 7.022237e-001 -7.719947e+000 239 232 214
-2.705964e-001 3.190313e-002 -7.806698e+000 133 16 23
9.223917e-001 5.244855e-001 -6.366791e+000 201 50 57
3.240840e-001 1.137238e+000 -7.109189e+000 233 189 165
-8.132653e-001 -2.250758e-001 -6.917062e+000 128 59 43
-7.994921e-001 -2.130006e-001 -6.939670e+000 129 58 40
-2.227050e-001 3.342290e-001 -7.510509e+000 153 140 121
4.773979e-001 5.419496e-001 -6.955362e+000 187 184 165
3.613495e-001 1.296653e+000 -7.010567e+000 42 30 28
-1.565497e-001 9.210632e-001 -7.689239e+000 171 159 140
-7.265960e-001 -3.203269e-001 -7.096236e+000 209 98 55
-5.471089e-001 -2.805422e-001 -7.289514e+000 189 177 165
-1.294259e-001 -1.706183e-001 -7.590793e+000 193 180 163
-8.001044e-001 -2.824406e-001 -6.914609e+000 133 51 42
-5.488325e-001 5.326752e-001 -8.130582e+000 232 75 76
1.136153e+000 2.055022e-001 -6.267368e+000 251 75 82
3.608410e-001 1.093605e+000 -7.022977e+000 216 183 172
1.812739e-001 -8.421674e-001 -7.546469e+000 237 225 147
5.019074e-004 -5.504535e-001 -7.557923e+000 76 6 4
-5.392446e-002 -5.440500e-001 -7.649815e+000 239 190 140
-9.753010e-002 -4.464557e-001 -7.569406e+000 241 196 139
-9.467341e-002 -4.471944e-001 -7.568450e+000 241 196 139
-6.605529e-001 -4.024097e-001 -7.106800e+000 218 199 187
-5.407435e-001 -2.401473e-001 -7.283317e+000 129 101 89
3.334659e-002 -2.547877e-001 -7.362532e+000 71 36 16
3.334659e-002 -2.547877e-001 -7.362532e+000 71 36 16
-7.966465e-001 -2.953132e-001 -6.872154e+000 101 32 22
1.145607e+000 1.915654e-001 -6.248360e+000 53 29 24
9.196744e-001 6.146254e-001 -6.483080e+000 192 37 37
3.757188e-001 1.093666e+000 -7.003556e+000 231 61 61
1.767674e-001 -7.201107e-001 -7.580790e+000 249 104 109
-6.894997e-001 -3.452082e-001 -7.096257e+000 185 30 26
-6.894997e-001 -3.452082e-001 -7.096257e+000 185 30 26
-6.523974e-001 -3.467578e-001 -7.127819e+000 238 131 86
-2.393580e-001 -1.020846e-001 -7.727276e+000 204 196 177
-2.420114e-001 -8.288903e-002 -7.735580e+000 207 199 181
-7.909393e-001 -2.134208e-001 -6.938563e+000 136 60 43
-4.227859e-001 -5.707902e-003 -7.115902e+000 72 39 32
-4.227859e-001 -5.707902e-003 -7.115902e+000 72 39 32
-1.192209e-001 5.743248e-001 -7.371730e+000 200 194 180
8.889104e-001 6.480414e-001 -6.487750e+000 219 64 63
2.595015e-001 -8.308315e-001 -7.407771e+000 161 145 86
-6.400357e-001 -3.843570e-001 -7.117609e+000 137 32 14
-5.297493e-001 4.578625e-001 -8.013342e+000 10 8 7
-4.003471e-002 2.577588e-001 -7.234157e+000 141 128 111
7.143511e-001 8.546421e-001 -6.582039e+000 50 26 28
6.470891e-001 9.085040e-001 -6.667195e+000 211 54 59
3.336999e-001 1.143906e+000 -7.080846e+000 220 59 60
-1.012571e-001 -4.563043e-001 -7.700167e+000 186 33 37
-5.347954e-001 -2.562653e-001 -7.296383e+000 72 18 9
-3.993915e-001 -3.781609e-002 -7.207140e+000 94 67 58
6.335469e-001 6.291308e-001 -6.701222e+000 146 129 111
-2.583911e-001 1.050277e+000 -7.715352e+000 216 56 61
2.909929e-001 1.316797e+000 -7.079326e+000 41 27 29
6.530824e-002 -5.632880e-001 -7.245509e+000 205 196 181
-3.950470e-001 2.642520e-002 -7.162240e+000 99 69 59
-4.833034e-001 4.077246e-001 -7.940798e+000 171 14 28
6.085729e-001 9.483937e-001 -6.710528e+000 216 57 62
-1.524976e-001 1.223967e+000 -7.610276e+000 18 9 11
-8.871682e-001 -3.002121e-001 -6.768473e+000 158 75 43
-3.344011e-001 1.716213e-001 -7.941181e+000 215 58 62
-5.197258e-001 -4.524517e-002 -7.051727e+000 51 13 12
2.418181e-001 6.314128e-001 -7.136502e+000 233 225 212
-9.079935e-002 7.483642e-001 -7.355091e+000 237 231 219
5.797673e+000 2.174004e-001 -2.056007e-001 20 12 17
-1.648740e-001 2.580288e-001 -7.364117e+000 141 125 109
5.245993e-002 5.514782e-001 -7.286780e+000 235 228 218
5.818983e-001 8.731114e-001 -6.840523e+000 234 230 218
1.486461e-001 1.188192e+000 -7.248270e+000 215 50 54
-9.425824e-001 -2.500858e-001 -6.545000e+000 42 18 14
-2.029058e-001 4.249869e-001 -7.572792e+000 147 132 113
-4.096404e-001 1.012321e+000 -7.869189e+000 11 5 7
5.979342e+000 2.837491e-001 -9.520810e-002 22 13 15
5.990858e-002 7.354915e-001 -7.291360e+000 235 226 216
4.813749e-001 -1.106422e+000 -7.405318e+000 255 244 198
-3.373833e-001 1.394290e-001 -8.031609e+000 27 17 16
4.893066e-001 -1.021743e+000 -7.253647e+000 93 86 88
-4.141987e-002 -5.041804e-001 -7.793414e+000 241 83 90
2.417388e-001 -6.669745e-001 -7.300214e+000 160 31 41
4.782397e-002 -4.879507e-001 -7.451823e+000 224 126 66
-1.843251e-001 -4.142010e-001 -7.294357e+000 253 254 240
-8.004137e-002 -3.482483e-001 -7.438769e+000 140 91 55
-5.899271e-001 -3.707856e-001 -7.087143e+000 231 138 105
-2.678868e-001 -3.934335e-001 -7.189151e+000 198 189 172
-8.719907e-001 -3.807622e-001 -6.774397e+000 201 97 58
-9.455658e-001 -3.525321e-001 -6.745955e+000 169 73 51
-8.880711e-001 -3.499661e-001 -6.744670e+000 148 54 33
-7.875679e-001 -3.388152e-001 -6.838744e+000 172 52 30
-7.623667e-001 -2.049496e-001 -7.104666e+000 163 62 32
-4.432169e-001 -8.014650e-002 -7.203769e+000 104 65 60
-1.664365e-001 -2.159150e-002 -7.352262e+000 113 60 46
-8.164391e-002 1.697089e-001 -7.702347e+000 142 20 31
7.497505e-001 8.650381e-001 -6.598472e+000 181 46 51
5.427109e-001 1.071105e+000 -6.790893e+000 244 71 74
5.881943e-001 -1.038872e+000 -7.194750e+000 77 68 73
8.591908e-002 -6.589320e-001 -7.701929e+000 35 26 28
-8.565145e-003 -4.750863e-001 -7.290669e+000 254 207 160
-6.416796e-001 -4.353066e-001 -6.951756e+000 190 56 25
1.548987e-001 -3.337856e-001 -7.452029e+000 136 83 55
5.828226e-002 -2.410897e-001 -7.371792e+000 179 140 125
5.301288e-002 -2.416267e-001 -7.392307e+000 62 26 10
-1.786270e-001 -1.532528e-001 -7.626411e+000 225 216 199
-9.374922e-001 -3.851859e-001 -6.705200e+000 210 105 77
-7.571856e-001 -2.144308e-001 -7.134355e+000 118 24 13
-2.901177e-001 3.367732e-003 -7.876543e+000 236 66 59
-4.024590e-001 -1.558939e-001 -7.230655e+000 55 14 12
-1.008595e+000 -2.561239e-001 -6.507583e+000 58 35 19
-9.710913e-001 -2.917122e-001 -6.560804e+000 183 155 108
-4.711916e-001 -6.122152e-002 -7.213551e+000 68 29 22
5.933653e-002 9.796714e-002 -7.539091e+000 123 57 41
-1.540385e-001 1.454367e-001 -7.638020e+000 103 4 14
4.848457e-001 5.482003e-001 -6.926860e+000 232 226 214
6.785013e-002 5.614668e-001 -7.225131e+000 195 185 170
7.185688e-001 -9.405161e-001 -6.748957e+000 252 109 114
3.016686e-001 -5.926156e-001 -7.359531e+000 149 33 27
-3.116282e-001 -3.588178e-001 -7.227237e+000 175 160 145
-5.454963e-001 -4.325549e-001 -6.746932e+000 251 211 166
-6.474249e-001 -3.469900e-001 -7.126924e+000 251 133 90
-6.525687e-001 -3.127225e-001 -7.180995e+000 103 23 14
-5.444317e-001 -2.859750e-001 -7.236472e+000 107 27 23
-6.326275e-002 -2.607237e-001 -7.357363e+000 160 125 103
-5.088225e-001 -1.951566e-001 -7.224162e+000 77 28 27
-9.513244e-001 -3.423234e-001 -6.576894e+000 255 185 152
-1.025076e+000 -3.077178e-001 -6.604984e+000 59 14 11
-4.148380e-001 -2.609789e-002 -7.241233e+000 95 37 29
-1.054910e+000 -2.498776e-001 -6.498828e+000 53 45 39
-6.069060e-001 -6.353876e-002 -6.920349e+000 120 53 37
-5.630731e-001 -4.546421e-002 -7.010481e+000 75 28 21
-3.286794e-001 7.811759e-003 -7.115409e+000 90 52 44
-2.852739e-001 1.140193e-001 -7.093475e+000 128 110 96
-4.271092e-002 3.704866e-001 -7.282405e+000 175 164 146
-1.897344e-001 4.869963e-001 -7.492563e+000 164 151 132
-6.439189e-001 5.927835e-001 -8.258539e+000 17 12 12
6.619553e-001 6.225297e-001 -6.605340e+000 240 220 205
1.860984e-001 7.173310e-001 -7.248160e+000 253 253 241
1.296012e-001 8.824533e-001 -7.280173e+000 211 204 189
-5.265486e-002 1.128810e+000 -7.439860e+000 223 62 64
7.868194e-001 -1.185279e+000 -7.306883e+000 221 201 150
3.646743e-001 -8.996812e-001 -7.416809e+000 231 209 152
2.915245e-001 -8.632526e-001 -7.392637e+000 253 254 216
8.934499e-001 -1.101424e+000 -6.779956e+000 92 86 90
8.526935e-001 -1.030745e+000 -6.775581e+000 35 10 16
3.009514e-001 -8.058377e-001 -7.367546e+000 254 254 202
3.401629e-001 -7.422271e-001 -7.344801e+000 196 38 40
-2.111669e-001 -4.834971e-001 -7.825548e+000 33 13 22
8.179807e-001 -9.008803e-001 -6.701575e+000 252 115 117
6.053365e-001 -7.625702e-001 -6.755975e+000 238 235 217
2.467683e-001 -5.390878e-001 -7.357871e+000 120 17 20
