ply
format ascii 1.0
element face 0
property list uchar int vertex_indices
element vertex 490
property float x
property float y
property float z
property uchar diffuse_red
property uchar diffuse_green
property uchar diffuse_blue
end_header
1.290518e+000 -1.447267e+000 3.126014e+000 36 52 23
7.858907e-001 -2.524936e+000 3.283254e+000 208 53 72
9.544472e-001 -2.181885e+000 3.262465e+000 179 121 99
1.064191e+000 -1.994993e+000 3.254838e+000 148 21 33
8.243595e-001 -2.654674e+000 3.316575e+000 181 125 94
1.197325e+000 -1.796200e+000 3.260802e+000 119 74 32
9.171276e-001 -2.291049e+000 3.272986e+000 122 30 39
6.165950e-001 -2.795935e+000 3.290662e+000 179 120 103
1.238406e+000 -1.593737e+000 3.223177e+000 78 29 35
1.239403e+000 -1.702956e+000 3.253781e+000 60 21 38
1.230635e+000 -1.610936e+000 3.225130e+000 166 84 82
1.253214e+000 -1.647045e+000 3.237181e+000 56 16 24
1.204862e+000 -1.779230e+000 3.260463e+000 161 114 64
1.215533e+000 -1.631545e+000 3.225082e+000 101 48 49
1.251172e+000 -1.626463e+000 3.232725e+000 66 29 29
1.293551e+000 -1.437607e+000 3.127301e+000 143 146 128
1.225125e+000 -1.639896e+000 3.228821e+000 73 32 30
1.272334e+000 -1.549551e+000 3.222654e+000 126 91 95
1.225478e+000 -1.530580e+000 3.208234e+000 178 37 45
1.225478e+000 -1.530580e+000 3.208234e+000 178 37 45
1.290883e+000 -1.484605e+000 3.208249e+000 35 71 98
1.275659e+000 -1.541734e+000 3.221864e+000 62 40 40
1.195804e+000 -1.548713e+000 3.204902e+000 131 82 67
1.234463e+000 -1.515900e+000 3.207642e+000 178 42 49
1.243571e+000 -1.567570e+000 3.219762e+000 179 105 80
1.281637e+000 -1.556456e+000 3.225840e+000 141 113 99
1.273470e+000 -1.601112e+000 3.233433e+000 139 105 95
1.286653e+000 -1.584371e+000 3.233293e+000 75 36 39
1.223713e+000 -1.603268e+000 3.221839e+000 172 130 80
1.191952e+000 -1.768982e+000 3.244392e+000 42 15 24
1.261794e+000 -1.548488e+000 3.220202e+000 71 34 30
1.266872e+000 -1.540830e+000 3.220078e+000 164 85 88
1.008849e+000 -2.136221e+000 3.267065e+000 123 29 35
1.211178e+000 -1.760888e+000 3.259975e+000 128 83 40
1.239311e+000 -1.606573e+000 3.226138e+000 64 22 29
1.264102e+000 -1.596662e+000 3.230111e+000 165 116 112
-7.988692e-003 -4.094994e+000 3.372191e+000 126 26 31
8.564516e-001 -2.362163e+000 3.271212e+000 179 117 103
1.030137e+000 -2.067664e+000 3.259710e+000 186 52 59
8.813830e-001 -2.395433e+000 3.283727e+000 188 59 70
1.292372e+000 -1.541660e+000 3.226042e+000 28 15 13
4.894255e-001 -3.053612e+000 3.306967e+000 137 25 34
1.195546e+000 -1.548924e+000 3.204873e+000 131 82 67
1.216018e+000 -1.695210e+000 3.236843e+000 112 57 27
1.260977e+000 -1.528682e+000 3.216172e+000 18 73 104
1.251196e+000 -1.692236e+000 3.254268e+000 81 52 56
1.213383e+000 -1.601185e+000 3.219266e+000 13 74 108
1.265529e+000 -1.532047e+000 3.217553e+000 191 117 93
1.270291e+000 -1.526499e+000 3.217404e+000 76 34 42
1.226921e+000 -1.611340e+000 3.224054e+000 172 85 84
1.246598e+000 -1.577970e+000 3.222452e+000 71 33 28
1.257823e+000 -1.558535e+000 3.221319e+000 162 83 81
1.254142e+000 -1.568461e+000 3.222229e+000 77 35 33
1.211264e+000 -1.639065e+000 3.225526e+000 73 20 20
1.254703e+000 -1.571040e+000 3.222925e+000 162 79 81
1.242857e+000 -1.604800e+000 3.226771e+000 127 58 68
-5.929516e-001 -5.078896e+000 3.410798e+000 232 73 90
1.195345e+000 -1.553998e+000 3.206060e+000 187 147 124
1.195345e+000 -1.553998e+000 3.206060e+000 187 147 124
1.190793e+000 -1.560587e+000 3.206017e+000 186 149 125
1.190785e+000 -1.560574e+000 3.206010e+000 186 149 125
1.259705e+000 -1.508689e+000 3.211578e+000 202 82 77
1.229907e+000 -1.628269e+000 3.228205e+000 147 75 81
1.291769e+000 -1.548640e+000 3.227168e+000 26 22 20
1.203828e+000 -1.744709e+000 3.243387e+000 86 35 44
1.245903e+000 -1.670918e+000 3.247843e+000 73 37 41
1.301909e+000 -1.480252e+000 3.208567e+000 76 52 65
1.220895e+000 -1.729411e+000 3.253034e+000 150 98 51
1.240306e+000 -1.503764e+000 3.206300e+000 168 155 121
1.240306e+000 -1.503764e+000 3.206300e+000 168 155 121
1.296241e+000 -1.468354e+000 3.203888e+000 19 72 104
1.191512e+000 -1.413078e+000 3.270824e+000 156 53 49
1.210600e+000 -1.476436e+000 3.201354e+000 29 37 9
1.210964e+000 -1.524152e+000 3.201579e+000 197 135 117
1.239970e+000 -1.587804e+000 3.222120e+000 179 97 81
1.214412e+000 -1.641555e+000 3.222712e+000 96 44 42
1.185804e+000 -1.408120e+000 3.270817e+000 165 55 57
1.230526e+000 -1.421629e+000 3.198272e+000 63 99 101
1.221394e+000 -1.533169e+000 3.214884e+000 179 157 130
1.225232e+000 -1.707343e+000 3.237720e+000 150 106 57
1.143858e+000 -1.461549e+000 3.177659e+000 134 57 45
1.204407e+000 -1.475982e+000 3.194742e+000 127 145 51
1.204407e+000 -1.475982e+000 3.194742e+000 127 145 51
1.301738e+000 -1.418541e+000 3.209563e+000 191 138 114
1.204130e+000 -1.531030e+000 3.203290e+000 189 139 122
1.258595e+000 -1.501226e+000 3.210814e+000 226 148 121
1.260339e+000 -1.500510e+000 3.210457e+000 146 32 37
1.273651e+000 -1.477071e+000 3.210170e+000 225 141 103
1.284705e+000 -1.461587e+000 3.209950e+000 233 132 103
1.286590e+000 -1.458834e+000 3.210983e+000 233 132 103
1.271141e+000 -1.489248e+000 3.211578e+000 159 47 51
1.263153e+000 -1.516886e+000 3.214533e+000 32 60 70
1.273558e+000 -1.499899e+000 3.213070e+000 47 74 91
1.273869e+000 -1.499420e+000 3.213156e+000 47 74 91
1.279543e+000 -1.486996e+000 3.212842e+000 138 174 194
1.279761e+000 -1.486652e+000 3.212931e+000 138 174 194
1.311673e+000 -1.440363e+000 3.215365e+000 163 48 53
1.245936e+000 -1.573021e+000 3.220886e+000 85 33 25
1.292875e+000 -1.571195e+000 3.230867e+000 71 37 35
1.190296e+000 -1.427955e+000 3.187320e+000 174 38 39
1.146398e+000 -1.490467e+000 3.183637e+000 71 108 100
1.281928e+000 -1.468447e+000 3.210446e+000 147 33 38
1.308973e+000 -1.451093e+000 3.214050e+000 143 30 40
1.248886e+000 -1.542629e+000 3.215476e+000 33 62 81
1.249971e+000 -1.540676e+000 3.216012e+000 33 62 81
1.239405e+000 -1.584388e+000 3.221908e+000 98 39 43
1.114690e+000 -1.487995e+000 3.173160e+000 171 43 39
1.299654e+000 -1.418332e+000 3.208840e+000 183 150 118
1.213877e+000 -1.520602e+000 3.202966e+000 179 150 120
1.216534e+000 -1.517539e+000 3.203871e+000 179 150 120
1.200252e+000 -1.543847e+000 3.204004e+000 178 153 126
1.243144e+000 -1.505675e+000 3.207204e+000 154 35 41
1.278675e+000 -1.471254e+000 3.210895e+000 150 31 35
1.296775e+000 -1.425358e+000 3.207344e+000 166 117 100
1.296889e+000 -1.425207e+000 3.207464e+000 166 117 100
1.271864e+000 -1.502336e+000 3.213962e+000 141 164 173
1.271496e+000 -1.503032e+000 3.213782e+000 141 164 173
1.253608e+000 -1.489310e+000 3.206233e+000 183 36 37
1.273782e+000 -1.533312e+000 3.219083e+000 89 44 44
1.273782e+000 -1.533312e+000 3.219083e+000 89 44 44
1.182655e+000 -1.466902e+000 3.187942e+000 167 159 66
1.212717e+000 -1.457139e+000 3.194626e+000 37 60 35
1.212717e+000 -1.457139e+000 3.194626e+000 37 60 35
1.104893e+000 -1.566097e+000 3.184235e+000 174 163 61
1.239262e+000 -1.448409e+000 3.198418e+000 177 162 80
1.212376e+000 -1.451063e+000 3.193480e+000 174 160 99
1.140023e+000 -1.540466e+000 3.188323e+000 29 60 37
1.132702e+000 -1.547730e+000 3.185459e+000 29 60 37
1.251369e+000 -1.451502e+000 3.203839e+000 34 58 35
1.233981e+000 -1.516724e+000 3.207330e+000 180 40 47
1.263213e+000 -1.444274e+000 3.202054e+000 173 157 124
1.275831e+000 -1.431819e+000 3.201491e+000 173 157 124
1.178079e+000 -1.575576e+000 3.206363e+000 190 155 125
1.118538e+000 -1.484166e+000 3.172445e+000 224 139 108
1.152694e+000 -1.461072e+000 3.179344e+000 221 138 110
1.264858e+000 -1.487498e+000 3.209771e+000 215 144 112
1.263167e+000 -1.494174e+000 3.209766e+000 120 30 28
1.263167e+000 -1.494174e+000 3.209766e+000 120 30 28
1.292221e+000 -1.454520e+000 3.212482e+000 222 87 83
1.268593e+000 -1.508931e+000 3.214550e+000 35 64 81
1.199149e+000 -1.425303e+000 3.186705e+000 162 36 45
1.211695e+000 -1.417101e+000 3.192451e+000 162 36 45
1.161497e+000 -1.456708e+000 3.181249e+000 170 38 46
1.206597e+000 -1.422875e+000 3.189985e+000 153 40 40
1.285594e+000 -1.462418e+000 3.209527e+000 146 25 36
1.216392e+000 -1.418765e+000 3.192280e+000 169 34 41
1.280878e+000 -1.465637e+000 3.209316e+000 158 32 43
1.281868e+000 -1.471425e+000 3.211204e+000 222 89 88
1.281391e+000 -1.472271e+000 3.210898e+000 222 89 88
1.200256e+000 -1.476957e+000 3.193028e+000 168 152 45
1.214595e+000 -1.466858e+000 3.196080e+000 32 56 29
1.171972e+000 -1.537700e+000 3.194806e+000 162 150 87
1.170355e+000 -1.539370e+000 3.194342e+000 162 150 87
1.275016e+000 -1.441346e+000 3.204177e+000 160 148 111
1.254974e+000 -1.466734e+000 3.205239e+000 157 146 118
1.278873e+000 -1.451173e+000 3.205530e+000 159 146 114
1.274866e+000 -1.469079e+000 3.209859e+000 146 30 36
1.279830e+000 -1.461886e+000 3.209474e+000 152 26 37
1.208243e+000 -1.443242e+000 3.194535e+000 28 54 29
1.278141e+000 -1.438164e+000 3.206270e+000 166 146 113
1.261428e+000 -1.489769e+000 3.209965e+000 151 30 46
1.188699e+000 -1.474436e+000 3.189267e+000 167 147 111
1.188699e+000 -1.474436e+000 3.189267e+000 167 147 111
1.254032e+000 -1.425052e+000 3.198240e+000 170 153 99
1.265177e+000 -1.506822e+000 3.213830e+000 18 72 100
1.189069e+000 -1.537667e+000 3.198022e+000 159 145 118
1.148255e+000 -1.520787e+000 3.184135e+000 164 147 112
1.162285e+000 -1.539680e+000 3.194854e+000 28 55 30
1.190840e+000 -1.599576e+000 3.212174e+000 154 24 35
1.190840e+000 -1.599576e+000 3.212174e+000 154 24 35
1.213542e+000 -1.598150e+000 3.218632e+000 19 74 113
1.187881e+000 -1.409924e+000 3.265007e+000 152 49 47
1.195360e+000 -1.417834e+000 3.256722e+000 248 104 93
1.106377e+000 -2.041351e+000 3.304433e+000 190 132 100
1.268196e+000 -1.680324e+000 3.239142e+000 156 117 93
1.131378e+000 -2.101997e+000 3.321421e+000 202 130 69
1.143649e+000 -2.103914e+000 3.322147e+000 196 120 62
1.172049e+000 -2.060870e+000 3.305137e+000 197 92 46
1.186587e+000 -1.408616e+000 3.268957e+000 169 62 62
1.190602e+000 -1.412711e+000 3.257721e+000 163 39 45
1.291867e+000 -1.552125e+000 3.227836e+000 144 114 103
1.172086e+000 -1.968307e+000 3.297532e+000 199 57 55
1.196732e+000 -1.460235e+000 3.202134e+000 69 97 108
1.144149e+000 -2.010591e+000 3.303903e+000 194 133 92
1.211843e+000 -1.810469e+000 3.259100e+000 172 119 71
1.209934e+000 -1.433391e+000 3.259930e+000 27 58 35
1.096199e+000 -1.497118e+000 3.168493e+000 222 139 109
1.300163e+000 -1.463157e+000 3.214123e+000 146 72 49
1.279472e+000 -1.517700e+000 3.217724e+000 96 48 51
1.289770e+000 -1.508197e+000 3.218955e+000 82 61 64
1.284162e+000 -1.525092e+000 3.219957e+000 90 63 70
1.235372e+000 -1.635664e+000 3.232073e+000 81 35 37
1.305510e+000 -1.506983e+000 3.223051e+000 24 14 15
1.279312e+000 -1.615521e+000 3.237931e+000 120 66 76
1.238318e+000 -1.617990e+000 3.229329e+000 79 31 39
1.231799e+000 -1.594188e+000 3.222306e+000 187 136 79
1.252506e+000 -1.578039e+000 3.224070e+000 96 38 47
1.274857e+000 -1.472711e+000 3.209434e+000 223 141 106
1.194162e+000 -1.611243e+000 3.217996e+000 136 28 31
1.274686e+000 -1.497849e+000 3.213594e+000 42 68 81
1.280558e+000 -1.528608e+000 3.220318e+000 84 58 62
1.198760e+000 -1.428414e+000 3.186605e+000 153 40 40
1.061919e+000 -1.565063e+000 3.167264e+000 77 98 100
1.081941e+000 -1.497967e+000 3.164914e+000 176 32 38
1.285657e+000 -1.504568e+000 3.217973e+000 112 53 58
1.266917e+000 -1.485653e+000 3.209979e+000 84 33 28
1.180382e+000 -1.572610e+000 3.206363e+000 178 143 116
1.198162e+000 -1.590996e+000 3.212967e+000 155 25 35
1.290008e+000 -1.422816e+000 3.206419e+000 90 35 18
1.263481e+000 -1.489829e+000 3.209025e+000 210 142 99
1.272405e+000 -1.475749e+000 3.209963e+000 206 135 97
1.274204e+000 -1.478308e+000 3.210457e+000 237 134 100
1.274204e+000 -1.478308e+000 3.210457e+000 237 134 100
1.283005e+000 -1.459399e+000 3.209489e+000 207 140 88
1.285262e+000 -1.460617e+000 3.210295e+000 208 131 79
1.267367e+000 -1.489184e+000 3.210638e+000 221 117 81
1.267367e+000 -1.489184e+000 3.210638e+000 221 117 81
1.299790e+000 -1.454475e+000 3.212289e+000 125 155 149
1.304495e+000 -1.445053e+000 3.211553e+000 37 58 59
1.303556e+000 -1.452241e+000 3.212967e+000 47 15 26
1.267101e+000 -1.538157e+000 3.219138e+000 70 25 23
1.298716e+000 -1.475201e+000 3.215817e+000 144 83 83
1.298711e+000 -1.475211e+000 3.215829e+000 144 83 83
1.300918e+000 -1.470842e+000 3.215280e+000 148 84 84
1.300840e+000 -1.471010e+000 3.215205e+000 148 84 84
1.264641e+000 -1.554706e+000 3.221756e+000 45 26 19
1.292554e+000 -1.504300e+000 3.219409e+000 148 114 108
1.303229e+000 -1.481000e+000 3.218129e+000 64 50 45
1.303294e+000 -1.480789e+000 3.218217e+000 64 50 45
1.290037e+000 -1.516231e+000 3.220830e+000 65 44 43
1.299510e+000 -1.421283e+000 3.207954e+000 199 132 93
1.275291e+000 -1.479085e+000 3.210418e+000 141 23 24
1.296352e+000 -1.458714e+000 3.212438e+000 35 49 57
1.255478e+000 -1.558062e+000 3.220886e+000 161 84 64
1.273070e+000 -1.553896e+000 3.224195e+000 115 79 62
1.303651e+000 -1.488479e+000 3.218958e+000 78 57 52
1.217375e+000 -1.413303e+000 3.195328e+000 152 22 20
1.298848e+000 -1.398239e+000 3.206802e+000 59 61 37
1.298848e+000 -1.398239e+000 3.206802e+000 59 61 37
1.288129e+000 -1.474409e+000 3.212428e+000 22 59 78
1.258610e+000 -1.557044e+000 3.221969e+000 166 84 63
1.301818e+000 -1.486748e+000 3.221671e+000 79 59 55
1.286244e+000 -1.457245e+000 3.208939e+000 141 22 23
1.307154e+000 -1.451670e+000 3.213306e+000 182 94 58
1.305435e+000 -1.457229e+000 3.213459e+000 70 55 57
1.256708e+000 -1.446437e+000 3.199449e+000 165 144 56
1.293103e+000 -1.427278e+000 3.206232e+000 162 139 95
1.292423e+000 -1.431851e+000 3.206661e+000 162 99 63
1.273465e+000 -1.476037e+000 3.209873e+000 102 36 18
1.269045e+000 -1.514139e+000 3.215824e+000 22 62 74
1.306427e+000 -1.486690e+000 3.219559e+000 128 97 76
1.306427e+000 -1.486690e+000 3.219559e+000 128 97 76
1.255676e+000 -1.482978e+000 3.204440e+000 157 142 101
1.305181e+000 -1.423195e+000 3.209331e+000 138 23 25
1.251701e+000 -1.472769e+000 3.203705e+000 156 139 96
1.251701e+000 -1.472769e+000 3.203705e+000 156 139 96
1.242505e+000 -1.499101e+000 3.207026e+000 160 141 99
1.242505e+000 -1.499101e+000 3.207026e+000 160 141 99
1.267931e+000 -1.457499e+000 3.205426e+000 153 139 95
1.275885e+000 -1.488519e+000 3.208717e+000 29 41 51
1.275885e+000 -1.488519e+000 3.208717e+000 29 41 51
1.298661e+000 -1.388887e+000 3.212251e+000 137 138 39
1.290096e+000 -1.633902e+000 3.249948e+000 150 139 171
1.024850e+000 -2.764212e+000 3.399024e+000 113 59 19
1.121080e+000 -2.321882e+000 3.338592e+000 192 165 146
1.237507e+000 -1.449440e+000 3.266812e+000 177 154 141
1.291250e+000 -1.437699e+000 3.274495e+000 160 102 86
1.291250e+000 -1.437699e+000 3.274495e+000 160 102 86
1.256220e+000 -1.452479e+000 3.269344e+000 195 125 96
1.239709e+000 -1.449756e+000 3.266582e+000 172 132 124
1.322695e+000 -1.487373e+000 3.223510e+000 141 84 83
1.326464e+000 -1.469610e+000 3.222537e+000 114 57 46
1.293832e+000 -1.586478e+000 3.234749e+000 117 78 80
1.194071e+000 -1.501080e+000 3.196371e+000 128 108 38
1.233509e+000 -1.449121e+000 3.196979e+000 22 38 12
1.267980e+000 -1.505630e+000 3.216028e+000 76 110 104
1.268816e+000 -1.546525e+000 3.220859e+000 60 30 20
1.281735e+000 -1.526160e+000 3.220756e+000 54 32 29
1.292328e+000 -1.499634e+000 3.218746e+000 46 28 26
1.292328e+000 -1.499634e+000 3.218746e+000 46 28 26
1.328064e+000 -1.442011e+000 3.216200e+000 26 41 39
1.289155e+000 -1.544760e+000 3.225008e+000 103 72 46
1.265263e+000 -1.491288e+000 3.213328e+000 94 12 13
1.301081e+000 -1.449535e+000 3.212823e+000 35 43 38
1.273077e+000 -1.531208e+000 3.219997e+000 60 29 24
1.294245e+000 -1.495333e+000 3.218688e+000 56 32 28
1.293841e+000 -1.496539e+000 3.218343e+000 56 32 28
1.296955e+000 -1.496917e+000 3.219386e+000 57 37 36
1.296955e+000 -1.496917e+000 3.219386e+000 57 37 36
1.326133e+000 -1.445434e+000 3.215990e+000 45 67 64
1.302626e+000 -1.339775e+000 3.236557e+000 121 92 64
1.272321e+000 -1.542189e+000 3.222001e+000 51 24 6
1.290726e+000 -1.584926e+000 3.233561e+000 109 72 54
1.313749e+000 -1.506834e+000 3.227177e+000 97 69 51
1.308446e+000 -1.423099e+000 3.208275e+000 118 99 53
1.269594e+000 -1.491280e+000 3.212545e+000 162 57 43
1.288727e+000 -1.472616e+000 3.212674e+000 15 42 49
1.314089e+000 -1.334844e+000 3.238594e+000 154 125 81
1.323839e+000 -1.442454e+000 3.214542e+000 11 38 47
1.304924e+000 -1.542023e+000 3.229766e+000 57 37 27
1.270935e+000 -1.419387e+000 3.200539e+000 123 103 46
1.286557e+000 -1.429609e+000 3.203658e+000 94 40 20
1.331064e+000 -1.575266e+000 3.260892e+000 125 56 46
1.291838e+000 -1.708735e+000 3.288893e+000 209 119 48
1.203879e+000 -1.378389e+000 3.196721e+000 211 180 147
1.203879e+000 -1.378389e+000 3.196721e+000 211 180 147
1.209078e+000 -1.417676e+000 3.187941e+000 247 133 113
1.235316e+000 -1.407338e+000 3.194677e+000 254 124 104
1.322927e+000 -1.480609e+000 3.223247e+000 106 54 43
1.305884e+000 -1.549414e+000 3.230960e+000 122 90 93
1.281829e+000 -1.336622e+000 3.246614e+000 199 177 155
1.195743e+000 -1.388978e+000 3.189755e+000 208 184 147
1.325954e+000 -1.445951e+000 3.219179e+000 73 115 139
1.227979e+000 -1.369207e+000 3.196835e+000 206 177 145
1.176572e+000 -1.437482e+000 3.184579e+000 175 35 46
1.214227e+000 -1.413228e+000 3.188844e+000 180 35 42
1.307330e+000 -1.443639e+000 3.212675e+000 27 61 98
1.289504e+000 -1.523205e+000 3.221995e+000 83 59 65
1.291675e+000 -1.516815e+000 3.220311e+000 84 58 69
1.235000e+000 -1.626045e+000 3.229392e+000 99 39 47
1.220468e+000 -1.372105e+000 3.207040e+000 172 146 121
1.198743e+000 -1.381609e+000 3.199399e+000 172 146 121
1.263915e+000 -1.424292e+000 3.199773e+000 178 160 88
1.263915e+000 -1.424292e+000 3.199773e+000 178 160 88
1.262302e+000 -1.401915e+000 3.203019e+000 170 158 38
1.224940e+000 -1.595672e+000 3.220905e+000 181 125 76
1.258090e+000 -1.552871e+000 3.219372e+000 166 84 83
1.328257e+000 -1.434530e+000 3.218767e+000 28 55 71
1.233384e+000 -1.601790e+000 3.224401e+000 74 34 29
1.249987e+000 -1.573250e+000 3.221649e+000 166 84 82
1.254458e+000 -1.571572e+000 3.222815e+000 173 84 83
1.298373e+000 -1.398908e+000 3.206444e+000 86 85 64
1.356407e+000 -1.450261e+000 3.230401e+000 126 77 45
1.170673e+000 -1.580898e+000 3.203257e+000 126 68 54
1.279098e+000 -1.489740e+000 3.212296e+000 127 142 137
1.267458e+000 -1.398630e+000 3.199113e+000 129 129 43
1.302620e+000 -1.447542e+000 3.212016e+000 115 137 138
1.302620e+000 -1.447542e+000 3.212016e+000 115 137 138
1.168264e+000 -1.523340e+000 3.190409e+000 163 150 108
1.242751e+000 -1.555346e+000 3.217024e+000 134 157 151
1.267734e+000 -1.536797e+000 3.219413e+000 75 27 24
1.287700e+000 -1.499671e+000 3.216508e+000 137 78 85
1.268391e+000 -1.565019e+000 3.224542e+000 124 100 96
1.306489e+000 -1.447878e+000 3.212380e+000 128 34 31
1.246991e+000 -1.581669e+000 3.222198e+000 164 86 82
1.267106e+000 -1.556447e+000 3.223300e+000 57 36 35
1.240393e+000 -1.616382e+000 3.227171e+000 73 31 35
1.303632e+000 -1.745559e+000 3.239284e+000 98 18 24
1.256047e+000 -1.465401e+000 3.205879e+000 150 140 110
1.273844e+000 -1.475294e+000 3.210092e+000 94 38 24
1.299535e+000 -1.448154e+000 3.211322e+000 17 60 88
1.240102e+000 -1.424453e+000 3.197190e+000 26 52 26
1.248484e+000 -1.442220e+000 3.199119e+000 28 52 22
1.256043e+000 -1.444605e+000 3.202338e+000 28 49 32
1.293519e+000 -1.419964e+000 3.208422e+000 100 40 32
1.281591e+000 -1.446595e+000 3.207021e+000 153 143 108
1.182319e+000 -1.529829e+000 3.195453e+000 160 146 119
1.210064e+000 -1.481969e+000 3.193865e+000 164 143 76
1.210064e+000 -1.481969e+000 3.193865e+000 164 143 76
1.200676e+000 -1.484134e+000 3.194007e+000 25 51 27
1.232561e+000 -1.461541e+000 3.199173e+000 27 49 26
1.263871e+000 -1.494015e+000 3.209945e+000 104 20 19
1.268877e+000 -1.493225e+000 3.210719e+000 90 16 11
1.274646e+000 -1.480363e+000 3.209963e+000 108 20 23
1.295888e+000 -1.459681e+000 3.212088e+000 31 37 31
1.270376e+000 -1.548237e+000 3.222661e+000 47 30 16
1.296668e+000 -1.502200e+000 3.217713e+000 60 43 39
1.271592e+000 -1.550298e+000 3.223162e+000 99 58 50
1.295226e+000 -1.497348e+000 3.218743e+000 60 41 37
1.239625e+000 -1.617874e+000 3.227261e+000 49 19 17
1.216225e+000 -1.466826e+000 3.193489e+000 132 106 20
1.287157e+000 -1.506301e+000 3.218889e+000 55 35 33
1.242514e+000 -1.400695e+000 3.197771e+000 126 23 22
1.242514e+000 -1.400695e+000 3.197771e+000 126 23 22
1.309662e+000 -1.447208e+000 3.213122e+000 69 11 17
1.291817e+000 -1.516624e+000 3.221190e+000 52 34 32
1.185638e+000 -1.470319e+000 3.187630e+000 21 35 21
1.256471e+000 -1.444125e+000 3.202810e+000 23 37 11
1.303681e+000 -1.461104e+000 3.214772e+000 57 37 38
1.221935e+000 -1.454674e+000 3.194591e+000 127 110 63
1.257342e+000 -1.437188e+000 3.200471e+000 129 110 54
1.281092e+000 -1.466862e+000 3.208600e+000 87 21 14
1.282997e+000 -1.459361e+000 3.209499e+000 164 100 63
1.284445e+000 -1.458162e+000 3.209510e+000 86 23 14
1.284445e+000 -1.458162e+000 3.209510e+000 86 23 14
1.285758e+000 -1.458771e+000 3.209940e+000 90 13 12
1.285758e+000 -1.458771e+000 3.209940e+000 90 13 12
1.280580e+000 -1.487608e+000 3.214043e+000 107 116 95
1.294151e+000 -1.463500e+000 3.212536e+000 28 39 41
1.294151e+000 -1.463500e+000 3.212536e+000 28 39 41
1.298016e+000 -1.453986e+000 3.211536e+000 92 108 89
1.303688e+000 -1.447155e+000 3.212202e+000 91 113 100
1.295808e+000 -1.462784e+000 3.213224e+000 23 47 49
1.303723e+000 -1.457568e+000 3.214183e+000 131 84 54
1.270695e+000 -1.536003e+000 3.220627e+000 52 19 14
1.300398e+000 -1.475686e+000 3.215724e+000 99 54 48
1.294056e+000 -1.503922e+000 3.219331e+000 53 37 30
1.267637e+000 -1.399419e+000 3.200566e+000 24 36 6
1.299076e+000 -1.421960e+000 3.207604e+000 148 89 57
1.272867e+000 -1.477692e+000 3.211188e+000 92 20 14
1.280661e+000 -1.467774e+000 3.210537e+000 158 94 62
1.289010e+000 -1.459674e+000 3.210522e+000 184 61 55
1.260323e+000 -1.546145e+000 3.219227e+000 60 18 11
1.292899e+000 -1.503223e+000 3.219679e+000 94 64 56
1.307007e+000 -1.490936e+000 3.219830e+000 82 58 34
1.323759e+000 -1.450173e+000 3.217432e+000 22 47 45
1.319290e+000 -1.506073e+000 3.225305e+000 69 49 42
1.261475e+000 -1.603085e+000 3.229485e+000 140 90 67
1.323748e+000 -1.445189e+000 3.216394e+000 82 92 84
1.294597e+000 -1.509623e+000 3.221325e+000 51 32 26
1.214419e+000 -1.641000e+000 3.227493e+000 139 94 50
1.327225e+000 -1.437972e+000 3.213612e+000 14 37 43
1.263761e+000 -1.445054e+000 3.203800e+000 125 106 64
1.311961e+000 -1.409231e+000 3.211503e+000 115 95 60
1.337910e+000 -1.468090e+000 3.223865e+000 116 78 41
1.269023e+000 -1.405613e+000 3.199614e+000 110 99 28
1.264118e+000 -1.493531e+000 3.210146e+000 89 13 17
1.265132e+000 -1.486888e+000 3.209908e+000 164 100 59
1.293334e+000 -1.463996e+000 3.214442e+000 107 116 101
1.296220e+000 -1.460643e+000 3.212965e+000 92 112 103
1.272957e+000 -1.563284e+000 3.226259e+000 48 20 17
1.328417e+000 -1.440108e+000 3.216966e+000 26 41 39
1.287557e+000 -1.550091e+000 3.225901e+000 115 83 53
1.304574e+000 -1.502206e+000 3.221434e+000 111 77 53
1.294363e+000 -1.540434e+000 3.225635e+000 13 6 1
1.188484e+000 -1.438112e+000 3.186281e+000 106 20 18
1.230092e+000 -1.409817e+000 3.195329e+000 113 26 22
1.276922e+000 -1.493314e+000 3.212767e+000 22 40 37
1.298773e+000 -1.530055e+000 3.227182e+000 114 82 59
1.305821e+000 -1.477223e+000 3.217674e+000 55 39 32
1.260318e+000 -1.410499e+000 3.195151e+000 20 34 10
1.306680e+000 -1.449870e+000 3.212503e+000 62 12 10
1.290786e+000 -1.500075e+000 3.217763e+000 54 36 35
1.143054e+000 -1.617156e+000 3.199259e+000 134 76 57
1.295364e+000 -1.547001e+000 3.227384e+000 107 82 52
1.291339e+000 -1.472431e+000 3.214059e+000 18 41 47
1.194553e+000 -1.490939e+000 3.191194e+000 21 34 14
1.293127e+000 -1.417788e+000 3.207005e+000 79 52 30
1.293127e+000 -1.417788e+000 3.207005e+000 79 52 30
1.279745e+000 -1.466107e+000 3.211465e+000 83 21 16
1.294945e+000 -1.460634e+000 3.213332e+000 36 43 36
1.294945e+000 -1.460634e+000 3.213332e+000 36 43 36
1.295926e+000 -1.459971e+000 3.211984e+000 32 41 36
1.299828e+000 -1.453036e+000 3.211540e+000 36 43 36
1.271903e+000 -1.557531e+000 3.223905e+000 101 74 65
1.271903e+000 -1.557531e+000 3.223905e+000 101 74 65
1.291709e+000 -1.552219e+000 3.228070e+000 108 77 56
1.287502e+000 -1.458520e+000 3.211569e+000 94 17 16
1.322805e+000 -1.453371e+000 3.215145e+000 22 39 46
1.298313e+000 -1.398052e+000 3.206529e+000 48 50 29
1.239266e+000 -1.507657e+000 3.206939e+000 123 111 71
1.284295e+000 -1.506982e+000 3.217972e+000 88 50 44
1.305351e+000 -1.489498e+000 3.219195e+000 95 73 60
1.271447e+000 -1.476488e+000 3.212735e+000 77 37 29
1.324346e+000 -1.419792e+000 3.209564e+000 80 22 18
1.294863e+000 -1.421051e+000 3.206941e+000 152 84 56
1.263801e+000 -1.516084e+000 3.215749e+000 87 99 89
1.264222e+000 -1.515110e+000 3.216004e+000 87 99 89
1.321699e+000 -1.420998e+000 3.209494e+000 102 45 34
1.288183e+000 -1.430170e+000 3.206334e+000 118 103 70
1.450524e+000 -1.291123e+000 3.160821e+000 0 255 0
1.486743e+000 -1.256844e+000 3.164448e+000 255 255 0
1.419852e+000 -1.334472e+000 3.160824e+000 255 0 0
1.458418e+000 -1.302666e+000 3.159786e+000 255 255 0
1.407131e+000 -1.292633e+000 3.268990e+000 0 255 0
1.370115e+000 -1.325867e+000 3.263966e+000 255 255 0
1.398642e+000 -1.296860e+000 3.264934e+000 255 0 0
1.363061e+000 -1.331222e+000 3.257634e+000 255 255 0
1.472607e+000 -1.181984e+000 3.265816e+000 0 255 0
1.438538e+000 -1.218531e+000 3.263907e+000 255 255 0
1.390094e+000 -1.299679e+000 3.267841e+000 255 0 0
1.355148e+000 -1.333979e+000 3.257729e+000 255 255 0
1.382579e+000 -1.304075e+000 3.268277e+000 0 255 0
1.347753e+000 -1.338700e+000 3.258884e+000 255 255 0
1.375277e+000 -1.307259e+000 3.268521e+000 255 0 0
1.342871e+000 -1.343418e+000 3.256590e+000 255 255 0
1.369098e+000 -1.310364e+000 3.268117e+000 0 255 0
1.336631e+000 -1.346331e+000 3.255776e+000 255 255 0
1.366049e+000 -1.312422e+000 3.268300e+000 255 0 0
1.332252e+000 -1.347722e+000 3.257732e+000 255 255 0
1.357613e+000 -1.317086e+000 3.265587e+000 0 255 0
1.325428e+000 -1.352961e+000 3.252280e+000 255 255 0
1.352058e+000 -1.318254e+000 3.262569e+000 255 0 0
1.322669e+000 -1.355703e+000 3.247277e+000 255 255 0
1.348738e+000 -1.319609e+000 3.260806e+000 0 255 0
1.319328e+000 -1.357406e+000 3.246438e+000 255 255 0
1.342039e+000 -1.323805e+000 3.255485e+000 255 0 0
1.312970e+000 -1.360578e+000 3.238084e+000 255 255 0
1.340910e+000 -1.324214e+000 3.253471e+000 0 255 0
1.311997e+000 -1.361837e+000 3.237705e+000 255 255 0
