ply
format ascii 1.0
element face 0
property list uchar int vertex_indices
element vertex 214
property float x
property float y
property float z
property uchar diffuse_red
property uchar diffuse_green
property uchar diffuse_blue
end_header
7.909981e-001 -2.642829e+000 3.214979e+000 152 24 38
1.128824e+000 -1.822107e+000 3.206644e+000 36 52 23
9.895567e-001 -2.173951e+000 3.233513e+000 208 53 72
1.036983e+000 -2.088465e+000 3.233928e+000 179 121 99
1.009692e+000 -2.140859e+000 3.226378e+000 137 34 44
1.061686e+000 -2.063119e+000 3.232425e+000 148 21 33
8.626661e-001 -2.581365e+000 3.216568e+000 181 125 94
1.070735e+000 -2.157284e+000 3.245535e+000 119 74 32
1.014090e+000 -2.146975e+000 3.232166e+000 122 30 39
9.630502e-001 -2.186034e+000 3.234592e+000 181 126 96
9.808024e-001 -2.164358e+000 3.234600e+000 179 120 103
1.136000e+000 -1.903301e+000 3.235302e+000 78 29 35
1.106194e+000 -2.082098e+000 3.244462e+000 60 21 38
1.132752e+000 -1.909922e+000 3.235522e+000 166 84 82
1.132018e+000 -1.967080e+000 3.230786e+000 56 16 24
1.076729e+000 -2.147393e+000 3.246591e+000 161 114 64
1.127528e+000 -1.914528e+000 3.236101e+000 101 48 49
1.001646e+000 -2.162821e+000 3.232198e+000 152 21 37
1.134544e+000 -1.941659e+000 3.232250e+000 66 29 29
1.130109e+000 -1.818861e+000 3.208076e+000 143 146 128
1.128088e+000 -1.927578e+000 3.234626e+000 73 32 30
1.148473e+000 -1.894566e+000 3.233262e+000 126 91 95
1.141605e+000 -1.857919e+000 3.238484e+000 178 37 45
1.141605e+000 -1.857919e+000 3.238484e+000 178 37 45
1.154376e+000 -1.862004e+000 3.233374e+000 35 71 98
1.150040e+000 -1.890811e+000 3.233158e+000 62 40 40
1.038324e+000 -2.122742e+000 3.229000e+000 123 29 35
1.135699e+000 -1.855964e+000 3.240217e+000 131 82 67
1.144587e+000 -1.853784e+000 3.238130e+000 178 42 49
1.140239e+000 -1.888335e+000 3.235855e+000 179 105 80
1.150490e+000 -1.907158e+000 3.231349e+000 141 113 99
1.143674e+000 -1.942565e+000 3.230599e+000 139 105 95
1.148775e+000 -1.943028e+000 3.230154e+000 75 36 39
1.132633e+000 -1.899957e+000 3.236435e+000 172 130 80
1.102248e+000 -2.015344e+000 3.230902e+000 42 15 24
1.145688e+000 -1.887386e+000 3.234828e+000 71 34 30
1.147674e+000 -1.884988e+000 3.234522e+000 164 85 88
1.031773e+000 -2.135684e+000 3.230508e+000 123 29 35
1.086931e+000 -2.120776e+000 3.246583e+000 128 83 40
1.134990e+000 -1.913034e+000 3.234608e+000 64 22 29
1.141368e+000 -1.927464e+000 3.232146e+000 165 116 112
8.607831e-001 -2.395731e+000 3.232042e+000 126 26 31
1.017008e+000 -2.116268e+000 3.234037e+000 179 117 103
1.048613e+000 -2.088649e+000 3.232048e+000 186 52 59
9.886738e-001 -2.212484e+000 3.230481e+000 188 59 70
1.155717e+000 -1.903079e+000 3.230777e+000 28 15 13
9.504147e-001 -2.218372e+000 3.235837e+000 137 25 34
1.135699e+000 -1.855964e+000 3.240217e+000 131 82 67
1.119002e+000 -1.967146e+000 3.232408e+000 112 57 27
1.148152e+000 -1.872547e+000 3.235269e+000 18 73 104
1.098466e+000 -2.138342e+000 3.250384e+000 81 52 56
9.589074e-001 -2.185424e+000 3.234291e+000 176 124 102
1.132092e+000 -1.891726e+000 3.237206e+000 13 74 108
1.148553e+000 -1.877565e+000 3.234654e+000 191 117 93
1.150068e+000 -1.876636e+000 3.234339e+000 76 34 42
1.131840e+000 -1.908075e+000 3.235905e+000 172 85 84
1.139522e+000 -1.897694e+000 3.235225e+000 71 33 28
1.143618e+000 -1.891901e+000 3.235059e+000 162 83 81
1.142311e+000 -1.895890e+000 3.234667e+000 77 35 33
1.125903e+000 -1.916647e+000 3.236273e+000 73 20 20
1.141605e+000 -1.898737e+000 3.234801e+000 162 79 81
1.136065e+000 -1.914485e+000 3.234281e+000 127 58 68
8.743618e-001 -2.335827e+000 3.235110e+000 232 73 90
1.105911e+000 -2.034759e+000 3.229314e+000 120 73 33
1.135493e+000 -1.858051e+000 3.239997e+000 187 147 124
1.135493e+000 -1.858051e+000 3.239997e+000 187 147 124
1.133804e+000 -1.859817e+000 3.240279e+000 186 149 125
1.133874e+000 -1.859722e+000 3.240221e+000 186 149 125
1.149428e+000 -1.860224e+000 3.236117e+000 202 82 77
1.130574e+000 -1.922565e+000 3.234719e+000 147 75 81
1.155099e+000 -1.909136e+000 3.230505e+000 26 22 20
1.107456e+000 -2.007002e+000 3.231564e+000 86 35 44
1.124124e+000 -2.009730e+000 3.238512e+000 73 37 41
1.157440e+000 -1.864203e+000 3.231391e+000 76 52 65
1.104892e+000 -2.055399e+000 3.239952e+000 150 98 51
1.146476e+000 -1.849872e+000 3.238069e+000 168 155 121
1.146476e+000 -1.849872e+000 3.238069e+000 168 155 121
1.155605e+000 -1.854447e+000 3.233088e+000 19 72 104
1.131619e+000 -1.808648e+000 3.275987e+000 156 53 49
1.117755e+000 -1.843186e+000 3.229901e+000 29 37 9
1.150107e+000 -1.841272e+000 3.243462e+000 197 135 117
1.137852e+000 -1.898823e+000 3.235455e+000 179 97 81
1.138770e+000 -1.901177e+000 3.239361e+000 96 44 42
1.127489e+000 -1.805868e+000 3.276574e+000 165 55 57
1.165759e+000 -1.801587e+000 3.247689e+000 45 88 114
1.169133e+000 -1.805233e+000 3.252104e+000 63 99 101
1.086102e+000 -1.912398e+000 3.254647e+000 129 78 70
1.182312e+000 -1.789770e+000 3.262585e+000 200 176 150
1.106454e+000 -1.887799e+000 3.226792e+000 179 157 130
1.068195e+000 -1.957710e+000 3.249815e+000 98 56 42
1.123027e+000 -1.982187e+000 3.230515e+000 150 106 57
1.193394e+000 -1.795663e+000 3.264802e+000 212 151 112
1.110928e+000 -1.814679e+000 3.234195e+000 134 57 45
1.189624e+000 -1.796966e+000 3.264105e+000 158 34 36
1.191950e+000 -1.796290e+000 3.264044e+000 209 132 102
1.190170e+000 -1.796977e+000 3.262021e+000 234 139 107
1.190170e+000 -1.796977e+000 3.262021e+000 234 139 107
1.154966e+000 -1.821040e+000 3.246723e+000 127 145 51
1.154966e+000 -1.821040e+000 3.246723e+000 127 145 51
1.168301e+000 -1.826825e+000 3.238222e+000 191 138 114
1.141090e+000 -1.848407e+000 3.241054e+000 189 139 122
1.153773e+000 -1.852273e+000 3.238922e+000 226 148 121
1.153894e+000 -1.852836e+000 3.238387e+000 146 32 37
1.158499e+000 -1.845933e+000 3.238308e+000 225 141 103
1.157882e+000 -1.846360e+000 3.235008e+000 233 132 103
1.157882e+000 -1.846360e+000 3.235008e+000 233 132 103
1.156668e+000 -1.851752e+000 3.237889e+000 159 47 51
1.149428e+000 -1.867399e+000 3.235625e+000 32 60 70
1.154289e+000 -1.861075e+000 3.235460e+000 47 74 91
1.154052e+000 -1.861342e+000 3.235274e+000 47 74 91
1.157177e+000 -1.855900e+000 3.235919e+000 138 174 194
1.157177e+000 -1.855900e+000 3.235919e+000 138 174 194
1.164387e+000 -1.849466e+000 3.231746e+000 163 48 53
1.139433e+000 -1.894458e+000 3.234761e+000 85 33 25
1.159936e+000 -1.921285e+000 3.232084e+000 71 37 35
1.191239e+000 -1.796306e+000 3.264413e+000 201 155 116
1.112055e+000 -1.811517e+000 3.230866e+000 174 38 39
1.145488e+000 -1.816165e+000 3.247607e+000 71 108 100
1.160692e+000 -1.844895e+000 3.237418e+000 147 33 38
1.167798e+000 -1.848555e+000 3.234312e+000 143 30 40
1.145310e+000 -1.873906e+000 3.236574e+000 33 62 81
1.145310e+000 -1.873906e+000 3.236574e+000 33 62 81
1.135192e+000 -1.900570e+000 3.234569e+000 98 39 43
1.116861e+000 -1.816628e+000 3.238457e+000 171 43 39
1.171506e+000 -1.823274e+000 3.241414e+000 183 150 118
1.142882e+000 -1.847230e+000 3.240254e+000 179 150 120
1.143683e+000 -1.846655e+000 3.240656e+000 179 150 120
1.096562e+000 -1.890817e+000 3.251819e+000 18 55 90
1.138146e+000 -1.853858e+000 3.240220e+000 178 153 126
1.151016e+000 -1.848180e+000 3.239880e+000 154 35 41
1.151132e+000 -1.853851e+000 3.232820e+000 150 31 35
1.052945e+000 -1.962570e+000 3.247707e+000 197 126 102
1.055344e+000 -2.004900e+000 3.245754e+000 199 141 107
1.198573e+000 -1.794178e+000 3.266207e+000 175 35 46
1.196122e+000 -1.795002e+000 3.264944e+000 184 39 44
1.168725e+000 -1.826882e+000 3.239095e+000 166 117 100
1.168725e+000 -1.826882e+000 3.239095e+000 166 117 100
1.153511e+000 -1.861967e+000 3.235816e+000 141 164 173
1.153702e+000 -1.861809e+000 3.235947e+000 141 164 173
1.154924e+000 -1.843339e+000 3.239757e+000 183 36 37
1.148239e+000 -1.887161e+000 3.231907e+000 89 44 44
1.148239e+000 -1.887161e+000 3.231907e+000 89 44 44
1.147328e+000 -1.816220e+000 3.245325e+000 167 159 66
1.152355e+000 -1.818485e+000 3.244923e+000 37 60 35
1.152355e+000 -1.818485e+000 3.244923e+000 37 60 35
1.146833e+000 -1.826091e+000 3.250314e+000 174 163 61
1.157229e+000 -1.820699e+000 3.243638e+000 177 162 80
1.152107e+000 -1.816599e+000 3.244870e+000 174 160 99
1.140574e+000 -1.830701e+000 3.245958e+000 29 60 37
1.140574e+000 -1.830701e+000 3.245958e+000 29 60 37
1.160424e+000 -1.824224e+000 3.244500e+000 34 58 35
1.147810e+000 -1.850887e+000 3.239786e+000 180 40 47
1.163945e+000 -1.823347e+000 3.243279e+000 173 157 124
1.166318e+000 -1.821661e+000 3.241557e+000 173 157 124
1.131700e+000 -1.861436e+000 3.241095e+000 190 155 125
1.144263e+000 -1.809967e+000 3.247938e+000 224 139 108
1.143417e+000 -1.809719e+000 3.245992e+000 221 138 110
1.157687e+000 -1.845916e+000 3.239671e+000 215 144 112
1.154860e+000 -1.850674e+000 3.238057e+000 120 30 28
1.154860e+000 -1.850674e+000 3.238057e+000 120 30 28
1.163871e+000 -1.842027e+000 3.237605e+000 222 87 83
1.153455e+000 -1.862738e+000 3.236668e+000 35 64 81
1.141689e+000 -1.807523e+000 3.241401e+000 162 36 45
1.141689e+000 -1.807523e+000 3.241401e+000 162 36 45
1.143706e+000 -1.810025e+000 3.245578e+000 170 38 46
1.144577e+000 -1.807922e+000 3.242546e+000 153 40 40
1.145111e+000 -1.809442e+000 3.243781e+000 201 145 107
1.162226e+000 -1.842748e+000 3.237021e+000 146 25 36
1.144138e+000 -1.808681e+000 3.241346e+000 169 34 41
1.151421e+000 -1.815649e+000 3.244979e+000 28 50 30
1.161410e+000 -1.842226e+000 3.237945e+000 158 32 43
1.161196e+000 -1.845677e+000 3.237931e+000 222 89 88
1.161196e+000 -1.845677e+000 3.237931e+000 222 89 88
1.146850e+000 -1.811639e+000 3.252906e+000 177 31 44
1.152737e+000 -1.821298e+000 3.246046e+000 168 152 45
1.152160e+000 -1.822343e+000 3.244543e+000 32 56 29
1.147299e+000 -1.834318e+000 3.246273e+000 162 150 87
1.147299e+000 -1.834318e+000 3.246273e+000 162 150 87
1.161807e+000 -1.828443e+000 3.239279e+000 160 148 111
1.157349e+000 -1.833147e+000 3.241507e+000 157 146 118
1.162807e+000 -1.833416e+000 3.238715e+000 159 146 114
1.161517e+000 -1.840214e+000 3.240155e+000 146 30 36
1.161208e+000 -1.840301e+000 3.238634e+000 152 26 37
1.149380e+000 -1.814319e+000 3.245131e+000 28 54 29
1.161892e+000 -1.828590e+000 3.239299e+000 166 146 113
1.156827e+000 -1.845920e+000 3.240265e+000 151 30 46
1.163794e+000 -1.813611e+000 3.262125e+000 80 113 122
1.151368e+000 -1.818320e+000 3.246344e+000 167 147 111
1.151368e+000 -1.818320e+000 3.246344e+000 167 147 111
1.155349e+000 -1.817640e+000 3.239882e+000 170 153 99
1.153650e+000 -1.859063e+000 3.237834e+000 18 72 100
1.153847e+000 -1.817890e+000 3.253209e+000 162 147 109
1.153847e+000 -1.817890e+000 3.253209e+000 162 147 109
1.141074e+000 -1.844525e+000 3.241855e+000 159 145 118
1.153663e+000 -1.820449e+000 3.249482e+000 164 147 112
1.139670e+000 -1.837170e+000 3.244645e+000 28 55 30
1.135118e+000 -1.873186e+000 3.241284e+000 154 24 35
1.135118e+000 -1.873186e+000 3.241284e+000 154 24 35
1.132930e+000 -1.889441e+000 3.238325e+000 19 74 113
1.145433e+000 -1.810186e+000 3.257524e+000 88 120 127
1.213775e+000 -1.773883e+000 3.189754e+000 0 255 0
1.254178e+000 -1.747549e+000 3.176556e+000 255 255 0
1.191199e+000 -1.800507e+000 3.193827e+000 255 0 0
1.229181e+000 -1.777771e+000 3.170581e+000 255 255 0
1.216355e+000 -1.790320e+000 3.276480e+000 0 255 0
1.173113e+000 -1.813493e+000 3.266832e+000 255 255 0
1.216538e+000 -1.790453e+000 3.273226e+000 255 0 0
1.174386e+000 -1.814825e+000 3.261857e+000 255 255 0
1.231721e+000 -1.778303e+000 3.277740e+000 0 255 0
1.188407e+000 -1.802313e+000 3.270856e+000 255 255 0
1.211426e+000 -1.791215e+000 3.271140e+000 255 0 0
1.169905e+000 -1.815588e+000 3.257653e+000 255 255 0
1.202657e+000 -1.797258e+000 3.269225e+000 0 255 0
1.160657e+000 -1.821280e+000 3.256616e+000 255 255 0
