ply
format ascii 1.0
element face 0
property list uchar int vertex_indices
element vertex 336
property float x
property float y
property float z
property uchar diffuse_red
property uchar diffuse_green
property uchar diffuse_blue
end_header
1.227985e+000 -1.583401e+000 3.236180e+000 36 52 23
8.581277e-001 -2.348894e+000 3.228453e+000 208 53 72
9.781914e-001 -2.128253e+000 3.253261e+000 179 121 99
1.055072e+000 -2.016399e+000 3.268029e+000 148 21 33
8.625994e-001 -2.512338e+000 3.222376e+000 181 125 94
1.166044e+000 -1.881396e+000 3.294698e+000 119 74 32
9.463424e-001 -2.213088e+000 3.245723e+000 122 30 39
7.223059e-001 -2.530926e+000 3.196779e+000 181 126 96
7.713109e-001 -2.457479e+000 3.210950e+000 179 120 103
1.197192e+000 -1.716002e+000 3.298027e+000 78 29 35
1.200771e+000 -1.811816e+000 3.302059e+000 60 21 38
1.190702e+000 -1.729316e+000 3.297231e+000 166 84 82
1.206987e+000 -1.770895e+000 3.297766e+000 56 16 24
1.172272e+000 -1.869173e+000 3.296854e+000 161 114 64
1.178458e+000 -1.743403e+000 3.294958e+000 101 48 49
1.205956e+000 -1.750572e+000 3.298235e+000 66 29 29
1.231130e+000 -1.575771e+000 3.238924e+000 143 146 128
1.185191e+000 -1.754246e+000 3.295315e+000 73 32 30
1.225200e+000 -1.685550e+000 3.302230e+000 126 91 95
1.190823e+000 -1.655753e+000 3.299355e+000 178 37 45
1.190823e+000 -1.655753e+000 3.299355e+000 178 37 45
1.240386e+000 -1.630880e+000 3.300590e+000 35 71 98
1.228104e+000 -1.679197e+000 3.302677e+000 62 40 40
1.168830e+000 -1.663999e+000 3.296674e+000 131 82 67
1.198135e+000 -1.645074e+000 3.300573e+000 178 42 49
1.202218e+000 -1.693816e+000 3.299610e+000 179 105 80
1.232489e+000 -1.694466e+000 3.302488e+000 141 113 99
1.224794e+000 -1.734050e+000 3.301235e+000 139 105 95
1.236090e+000 -1.722811e+000 3.303021e+000 75 36 39
1.185911e+000 -1.720143e+000 3.296798e+000 172 130 80
1.155059e+000 -1.863051e+000 3.287170e+000 42 15 24
1.217138e+000 -1.681472e+000 3.301598e+000 71 34 30
1.221178e+000 -1.676106e+000 3.302303e+000 164 85 88
1.010667e+000 -2.121576e+000 3.257887e+000 123 29 35
1.176842e+000 -1.856829e+000 3.299421e+000 128 83 40
1.197518e+000 -1.728019e+000 3.297919e+000 64 22 29
1.217273e+000 -1.726854e+000 3.300349e+000 165 116 112
4.289684e-001 -3.110554e+000 3.138072e+000 126 26 31
9.139598e-001 -2.232118e+000 3.240090e+000 179 117 103
1.028822e+000 -2.067272e+000 3.262434e+000 186 52 59
9.175801e-001 -2.291495e+000 3.239093e+000 188 59 70
1.241942e+000 -1.683577e+000 3.304322e+000 28 15 13
6.836528e-001 -2.617700e+000 3.194407e+000 137 25 34
1.168737e+000 -1.664067e+000 3.296672e+000 131 82 67
1.176289e+000 -1.802331e+000 3.292394e+000 112 57 27
1.217486e+000 -1.662988e+000 3.302080e+000 18 73 104
1.214259e+000 -1.798371e+000 3.302517e+000 81 52 56
1.178615e+000 -1.714928e+000 3.296260e+000 13 74 108
1.220656e+000 -1.667458e+000 3.302084e+000 191 117 93
1.224362e+000 -1.663806e+000 3.302492e+000 76 34 42
1.187546e+000 -1.728989e+000 3.296728e+000 172 85 84
1.204192e+000 -1.704080e+000 3.299529e+000 71 33 28
1.213387e+000 -1.689849e+000 3.301066e+000 162 83 81
1.210503e+000 -1.697431e+000 3.300348e+000 77 35 33
1.174983e+000 -1.748856e+000 3.294406e+000 73 20 20
1.210522e+000 -1.700325e+000 3.300343e+000 162 79 81
1.200208e+000 -1.727632e+000 3.298375e+000 127 58 68
2.356344e-001 -3.360697e+000 3.103277e+000 232 73 90
1.168454e+000 -1.668338e+000 3.296686e+000 187 147 124
1.168454e+000 -1.668338e+000 3.296686e+000 187 147 124
1.164727e+000 -1.672948e+000 3.295924e+000 186 149 125
1.164737e+000 -1.672911e+000 3.295917e+000 186 149 125
1.216970e+000 -1.645023e+000 3.302223e+000 202 82 77
1.189384e+000 -1.745138e+000 3.296528e+000 147 75 81
1.241359e+000 -1.689927e+000 3.304090e+000 26 22 20
1.164990e+000 -1.845144e+000 3.289714e+000 86 35 44
1.203245e+000 -1.789896e+000 3.303023e+000 73 37 41
1.249312e+000 -1.629176e+000 3.300348e+000 76 52 65
1.182503e+000 -1.834579e+000 3.298778e+000 150 98 51
1.202642e+000 -1.636101e+000 3.301177e+000 168 155 121
1.202642e+000 -1.636101e+000 3.301177e+000 168 155 121
1.244597e+000 -1.617212e+000 3.299458e+000 19 72 104
1.164061e+000 -1.571845e+000 3.374070e+000 156 53 49
1.175528e+000 -1.612785e+000 3.301964e+000 29 37 9
1.180360e+000 -1.646614e+000 3.296588e+000 197 135 117
1.198716e+000 -1.710895e+000 3.298138e+000 179 97 81
1.180741e+000 -1.745578e+000 3.293079e+000 96 44 42
1.159773e+000 -1.566953e+000 3.375358e+000 165 55 57
1.188137e+000 -1.571602e+000 3.305354e+000 63 99 101
1.296378e+000 -1.504158e+000 3.363305e+000 200 176 150
1.183928e+000 -1.662524e+000 3.303001e+000 179 157 130
1.183283e+000 -1.816253e+000 3.289692e+000 150 106 57
1.134881e+000 -1.582733e+000 3.294983e+000 134 57 45
1.178284e+000 -1.604918e+000 3.300962e+000 127 145 51
1.178284e+000 -1.604918e+000 3.300962e+000 127 145 51
1.252844e+000 -1.576238e+000 3.313335e+000 191 138 114
1.176413e+000 -1.650051e+000 3.298174e+000 189 139 122
1.218014e+000 -1.636464e+000 3.304337e+000 226 148 121
1.219761e+000 -1.635638e+000 3.304276e+000 146 32 37
1.230645e+000 -1.618676e+000 3.306980e+000 225 141 103
1.239563e+000 -1.607803e+000 3.308436e+000 233 132 103
1.240980e+000 -1.606256e+000 3.309539e+000 233 132 103
1.228063e+000 -1.628876e+000 3.305956e+000 159 47 51
1.220033e+000 -1.652384e+000 3.303292e+000 32 60 70
1.228905e+000 -1.639375e+000 3.304441e+000 47 74 91
1.229481e+000 -1.638591e+000 3.304773e+000 47 74 91
1.234500e+000 -1.628882e+000 3.306415e+000 138 174 194
1.234483e+000 -1.628941e+000 3.306396e+000 138 174 194
1.258873e+000 -1.599230e+000 3.311856e+000 163 48 53
1.203349e+000 -1.700144e+000 3.298863e+000 85 33 25
1.237400e+000 -1.721943e+000 3.299124e+000 71 37 35
1.163414e+000 -1.566263e+000 3.301816e+000 174 38 39
1.128848e+000 -1.610176e+000 3.291786e+000 71 108 100
1.236864e+000 -1.613516e+000 3.307540e+000 147 33 38
1.258480e+000 -1.604732e+000 3.310711e+000 143 30 40
1.208772e+000 -1.670565e+000 3.301183e+000 33 62 81
1.208660e+000 -1.670732e+000 3.301166e+000 33 62 81
1.198277e+000 -1.708033e+000 3.298599e+000 98 39 43
1.112884e+000 -1.598707e+000 3.289350e+000 171 43 39
1.251937e+000 -1.574851e+000 3.313545e+000 183 150 118
1.183108e+000 -1.643969e+000 3.298340e+000 179 150 120
1.186634e+000 -1.640743e+000 3.300234e+000 179 150 120
1.172425e+000 -1.660479e+000 3.296467e+000 178 153 126
1.207191e+000 -1.635682e+000 3.302743e+000 154 35 41
1.234620e+000 -1.614970e+000 3.308083e+000 150 31 35
1.250413e+000 -1.579049e+000 3.312177e+000 166 117 100
1.250413e+000 -1.579049e+000 3.312177e+000 166 117 100
1.227540e+000 -1.641273e+000 3.304841e+000 141 164 173
1.227292e+000 -1.641650e+000 3.304649e+000 141 164 173
1.215262e+000 -1.624243e+000 3.303706e+000 183 36 37
1.226992e+000 -1.670761e+000 3.302287e+000 89 44 44
1.226992e+000 -1.670761e+000 3.302287e+000 89 44 44
1.165664e+000 -1.591949e+000 3.300514e+000 167 159 66
1.186557e+000 -1.590193e+000 3.304242e+000 37 60 35
1.186557e+000 -1.590193e+000 3.304242e+000 37 60 35
1.099306e+000 -1.662295e+000 3.283898e+000 174 163 61
1.206914e+000 -1.587191e+000 3.306738e+000 177 162 80
1.188348e+000 -1.584148e+000 3.305505e+000 174 160 99
1.126905e+000 -1.646980e+000 3.289146e+000 29 60 37
1.126414e+000 -1.647312e+000 3.288866e+000 29 60 37
1.215965e+000 -1.592269e+000 3.309487e+000 34 58 35
1.198065e+000 -1.645230e+000 3.300379e+000 180 40 47
1.224112e+000 -1.588440e+000 3.307616e+000 173 157 124
1.234443e+000 -1.579795e+000 3.308417e+000 173 157 124
1.153425e+000 -1.684456e+000 3.293972e+000 190 155 125
1.132913e+000 -1.588436e+000 3.296705e+000 224 139 108
1.147225e+000 -1.580972e+000 3.298637e+000 221 138 110
1.223246e+000 -1.626069e+000 3.305342e+000 215 144 112
1.221669e+000 -1.631331e+000 3.304233e+000 120 30 28
1.221669e+000 -1.631331e+000 3.304233e+000 120 30 28
1.245120e+000 -1.604380e+000 3.310707e+000 222 87 83
1.223885e+000 -1.647703e+000 3.303706e+000 35 64 81
1.178397e+000 -1.562120e+000 3.305038e+000 162 36 45
1.183430e+000 -1.560161e+000 3.307560e+000 162 36 45
1.158527e+000 -1.576999e+000 3.302454e+000 170 38 46
1.184767e+000 -1.561528e+000 3.307878e+000 153 40 40
1.239810e+000 -1.609045e+000 3.307544e+000 146 25 36
1.190275e+000 -1.560654e+000 3.308616e+000 169 34 41
1.236144e+000 -1.610792e+000 3.307277e+000 158 32 43
1.236625e+000 -1.616269e+000 3.307555e+000 222 89 88
1.236625e+000 -1.616269e+000 3.307555e+000 222 89 88
1.177848e+000 -1.602921e+000 3.301264e+000 168 152 45
1.187392e+000 -1.598445e+000 3.303417e+000 32 56 29
1.158795e+000 -1.643337e+000 3.296275e+000 162 150 87
1.153463e+000 -1.647873e+000 3.293662e+000 162 150 87
1.232475e+000 -1.588997e+000 3.308220e+000 160 148 111
1.216579e+000 -1.606601e+000 3.306527e+000 157 146 118
1.234607e+000 -1.598328e+000 3.306742e+000 159 146 114
1.231484e+000 -1.612678e+000 3.307782e+000 146 30 36
1.235776e+000 -1.607193e+000 3.308597e+000 152 26 37
1.186883e+000 -1.577256e+000 3.308665e+000 28 54 29
1.235233e+000 -1.586989e+000 3.310291e+000 166 146 113
1.220277e+000 -1.627756e+000 3.305341e+000 151 30 46
1.171911e+000 -1.597317e+000 3.301069e+000 167 147 111
1.171911e+000 -1.597317e+000 3.301069e+000 167 147 111
1.216742e+000 -1.572044e+000 3.308127e+000 170 153 99
1.222575e+000 -1.643289e+000 3.304888e+000 18 72 100
1.164715e+000 -1.652281e+000 3.293984e+000 159 145 118
1.136209e+000 -1.629943e+000 3.289571e+000 164 147 112
1.145904e+000 -1.648527e+000 3.293942e+000 28 55 30
1.162564e+000 -1.706778e+000 3.293506e+000 154 24 35
1.162564e+000 -1.706778e+000 3.293506e+000 154 24 35
1.178317e+000 -1.713139e+000 3.296104e+000 19 74 113
1.053391e+000 -1.625036e+000 3.298596e+000 88 120 127
1.161035e+000 -1.567694e+000 3.369879e+000 152 49 47
1.166223e+000 -1.573760e+000 3.360796e+000 248 104 93
1.091766e+000 -2.071473e+000 3.299084e+000 190 132 100
1.005745e+000 -2.277373e+000 3.310287e+000 140 44 28
1.223225e+000 -1.796417e+000 3.293759e+000 156 117 93
8.809156e-001 -2.632675e+000 3.322395e+000 178 149 126
1.112857e+000 -2.135004e+000 3.301123e+000 202 130 69
1.122965e+000 -2.141996e+000 3.300394e+000 196 120 62
1.145065e+000 -2.113957e+000 3.290459e+000 197 92 46
1.160268e+000 -1.567140e+000 3.373610e+000 169 62 62
1.162714e+000 -1.569052e+000 3.362912e+000 163 39 45
1.240349e+000 -1.695535e+000 3.303268e+000 144 114 103
1.151821e+000 -2.012028e+000 3.303469e+000 199 57 55
1.164413e+000 -1.598314e+000 3.306309e+000 69 97 108
1.122852e+000 -2.055759e+000 3.301322e+000 194 133 92
1.175769e+000 -1.898375e+000 3.292302e+000 172 119 71
1.177496e+000 -1.589028e+000 3.359790e+000 27 58 35
9.685275e-001 -2.462978e+000 3.317833e+000 172 142 119
9.685275e-001 -2.462978e+000 3.317833e+000 172 142 119
1.099022e+000 -1.602823e+000 3.285446e+000 222 139 109
1.250748e+000 -1.613937e+000 3.309159e+000 146 72 49
1.232497e+000 -1.657359e+000 3.303897e+000 96 48 51
1.240778e+000 -1.652097e+000 3.305297e+000 82 61 64
1.235713e+000 -1.665751e+000 3.303561e+000 90 63 70
1.191551e+000 -1.757463e+000 3.296657e+000 81 35 37
1.253918e+000 -1.654969e+000 3.307483e+000 24 14 15
1.226651e+000 -1.757588e+000 3.299383e+000 120 66 76
1.195393e+000 -1.740182e+000 3.297964e+000 79 31 39
1.192665e+000 -1.713865e+000 3.298204e+000 187 136 79
1.208773e+000 -1.705845e+000 3.300209e+000 96 38 47
1.231360e+000 -1.615549e+000 3.306765e+000 223 141 106
1.163229e+000 -1.720112e+000 3.295107e+000 136 28 31
1.229596e+000 -1.638423e+000 3.304817e+000 42 68 81
1.233526e+000 -1.666501e+000 3.304273e+000 84 58 62
1.177473e+000 -1.564610e+000 3.304215e+000 153 40 40
1.093255e+000 -1.637469e+000 3.284612e+000 77 98 100
1.107295e+000 -1.593226e+000 3.291480e+000 176 32 38
1.238573e+000 -1.646044e+000 3.306599e+000 112 53 58
1.224835e+000 -1.625026e+000 3.305627e+000 84 33 28
1.198892e+000 -1.612842e+000 3.302161e+000 160 147 115
1.155175e+000 -1.682546e+000 3.294271e+000 178 143 116
1.168546e+000 -1.700966e+000 3.295114e+000 155 25 35
1.245411e+000 -1.575666e+000 3.312695e+000 90 35 18
1.221962e+000 -1.627774e+000 3.304313e+000 210 142 99
1.229079e+000 -1.618167e+000 3.306597e+000 206 135 97
1.230606e+000 -1.620356e+000 3.306536e+000 237 134 100
1.230606e+000 -1.620356e+000 3.306536e+000 237 134 100
1.238424e+000 -1.605452e+000 3.308752e+000 207 140 88
1.239414e+000 -1.607977e+000 3.308279e+000 208 131 79
1.225168e+000 -1.627950e+000 3.305534e+000 221 117 81
1.225168e+000 -1.627950e+000 3.305534e+000 221 117 81
1.251009e+000 -1.605687e+000 3.309552e+000 125 155 149
1.255734e+000 -1.597272e+000 3.311051e+000 37 58 59
1.254568e+000 -1.603747e+000 3.310720e+000 47 15 26
1.222666e+000 -1.671608e+000 3.302947e+000 70 25 23
1.249995e+000 -1.622865e+000 3.309126e+000 144 83 83
1.249995e+000 -1.622865e+000 3.309126e+000 144 83 83
1.251918e+000 -1.619365e+000 3.309314e+000 148 84 84
1.251918e+000 -1.619365e+000 3.309314e+000 148 84 84
1.220153e+000 -1.685851e+000 3.302191e+000 45 26 19
1.243598e+000 -1.648413e+000 3.306560e+000 148 114 108
1.253519e+000 -1.628864e+000 3.309641e+000 64 50 45
1.253519e+000 -1.628864e+000 3.309641e+000 64 50 45
1.241462e+000 -1.657952e+000 3.306064e+000 65 44 43
1.252577e+000 -1.576289e+000 3.313072e+000 199 132 93
1.231694e+000 -1.620759e+000 3.306507e+000 141 23 24
1.248873e+000 -1.607546e+000 3.310001e+000 35 49 57
1.211985e+000 -1.688279e+000 3.301150e+000 161 84 64
1.226582e+000 -1.688009e+000 3.303346e+000 115 79 62
1.254069e+000 -1.634654e+000 3.309144e+000 78 57 52
1.195910e+000 -1.555304e+000 3.314555e+000 152 22 20
1.252874e+000 -1.557300e+000 3.316557e+000 59 61 37
1.252874e+000 -1.557300e+000 3.316557e+000 59 61 37
1.241627e+000 -1.619719e+000 3.307571e+000 22 59 78
1.213808e+000 -1.689559e+000 3.301390e+000 166 84 63
1.252105e+000 -1.634563e+000 3.311524e+000 79 59 55
1.241278e+000 -1.603668e+000 3.308653e+000 141 22 23
1.257681e+000 -1.603473e+000 3.311079e+000 182 94 58
1.256406e+000 -1.607420e+000 3.310598e+000 70 55 57
1.219825e+000 -1.588172e+000 3.306282e+000 165 144 56
1.247127e+000 -1.580225e+000 3.310807e+000 162 139 95
1.246798e+000 -1.583540e+000 3.310799e+000 162 99 63
1.229636e+000 -1.618875e+000 3.306170e+000 102 36 18
1.225077e+000 -1.650870e+000 3.304572e+000 22 62 74
1.256073e+000 -1.634395e+000 3.309521e+000 128 97 76
1.256073e+000 -1.634395e+000 3.309521e+000 128 97 76
1.216168e+000 -1.620041e+000 3.302565e+000 157 142 101
1.257329e+000 -1.578397e+000 3.313810e+000 138 23 25
1.213573e+000 -1.610926e+000 3.304196e+000 156 139 96
1.213573e+000 -1.610926e+000 3.304196e+000 156 139 96
1.204093e+000 -1.633477e+000 3.301860e+000 160 141 99
1.204093e+000 -1.633477e+000 3.301860e+000 160 141 99
1.226276e+000 -1.601504e+000 3.306777e+000 153 139 95
1.231583e+000 -1.628606e+000 3.303066e+000 29 41 51
1.231583e+000 -1.628606e+000 3.303066e+000 29 41 51
1.253620e+000 -1.550530e+000 3.323279e+000 137 138 39
1.243469e+000 -1.761725e+000 3.310722e+000 150 139 171
9.764970e-001 -2.906747e+000 3.237834e+000 113 59 19
1.094312e+000 -2.371466e+000 3.272281e+000 192 165 146
1.200303e+000 -1.606167e+000 3.361222e+000 177 154 141
1.248130e+000 -1.600641e+000 3.367268e+000 160 102 86
1.248130e+000 -1.600641e+000 3.367268e+000 160 102 86
1.216488e+000 -1.610409e+000 3.361881e+000 195 125 96
1.202128e+000 -1.606589e+000 3.360843e+000 172 132 124
1.263700e+000 -1.652808e+000 3.304446e+000 141 84 83
1.267210e+000 -1.637042e+000 3.306630e+000 114 57 46
1.243561e+000 -1.723393e+000 3.304047e+000 117 78 80
1.167302e+000 -1.625612e+000 3.297293e+000 128 108 38
1.198463e+000 -1.589722e+000 3.303324e+000 22 38 12
1.242917e+000 -1.520897e+000 3.345162e+000 165 129 80
1.224483e+000 -1.643776e+000 3.306356e+000 76 110 104
1.222080e+000 -1.682960e+000 3.301113e+000 60 30 20
1.234188e+000 -1.665528e+000 3.304645e+000 54 32 29
1.244275e+000 -1.642656e+000 3.307795e+000 46 28 26
1.244275e+000 -1.642656e+000 3.307795e+000 46 28 26
1.277147e+000 -1.591772e+000 3.318442e+000 26 41 39
1.240652e+000 -1.681293e+000 3.305088e+000 103 72 46
1.235408e+000 -1.523481e+000 3.344600e+000 166 133 83
1.223192e+000 -1.630362e+000 3.307313e+000 94 12 13
1.253307e+000 -1.599949e+000 3.312135e+000 35 43 38
1.226537e+000 -1.669255e+000 3.303380e+000 60 29 24
1.245694e+000 -1.639945e+000 3.308035e+000 56 32 28
1.245694e+000 -1.639945e+000 3.308035e+000 56 32 28
1.248274e+000 -1.640788e+000 3.308656e+000 57 37 36
1.248274e+000 -1.640788e+000 3.308656e+000 57 37 36
1.275774e+000 -1.593506e+000 3.318220e+000 45 67 64
1.245973e+000 -1.519669e+000 3.344482e+000 121 92 64
1.223980e+000 -1.682606e+000 3.301546e+000 51 24 6
1.247120e+000 -1.697865e+000 3.311644e+000 109 72 54
1.265357e+000 -1.641525e+000 3.317251e+000 97 69 51
1.259244e+000 -1.579469e+000 3.311851e+000 118 99 53
1.226558e+000 -1.630843e+000 3.306286e+000 162 57 43
1.243217e+000 -1.616451e+000 3.309237e+000 15 42 49
1.246235e+000 -1.518017e+000 3.339438e+000 154 125 81
1.273589e+000 -1.591938e+000 3.316942e+000 11 38 47
1.259915e+000 -1.661678e+000 3.316345e+000 57 37 27
1.222554e+000 -1.576257e+000 3.302593e+000 123 103 46
1.238783e+000 -1.584557e+000 3.305104e+000 94 40 20
1.377261e+000 -1.472713e+000 3.276578e+000 0 255 0
1.416838e+000 -1.442779e+000 3.282706e+000 255 255 0
1.347346e+000 -1.509293e+000 3.271808e+000 255 0 0
1.388690e+000 -1.481174e+000 3.271908e+000 255 255 0
1.347662e+000 -1.492535e+000 3.381916e+000 0 255 0
1.307856e+000 -1.521032e+000 3.371747e+000 255 255 0
1.340805e+000 -1.494246e+000 3.378449e+000 255 0 0
1.302352e+000 -1.523492e+000 3.365562e+000 255 255 0
1.407610e+000 -1.404501e+000 3.395226e+000 0 255 0
1.370867e+000 -1.437528e+000 3.387534e+000 255 255 0
1.329174e+000 -1.501448e+000 3.377923e+000 255 0 0
1.291096e+000 -1.529781e+000 3.362196e+000 255 255 0
1.322852e+000 -1.503925e+000 3.378072e+000 0 255 0
1.284974e+000 -1.532876e+000 3.363003e+000 255 255 0
1.316751e+000 -1.505631e+000 3.378333e+000 255 0 0
1.281397e+000 -1.535810e+000 3.359912e+000 255 255 0
1.311261e+000 -1.507700e+000 3.377469e+000 0 255 0
1.275852e+000 -1.537583e+000 3.358675e+000 255 255 0
1.308845e+000 -1.508957e+000 3.377458e+000 255 0 0
1.272066e+000 -1.538467e+000 3.360832e+000 255 255 0
1.301456e+000 -1.511613e+000 3.374553e+000 0 255 0
1.266362e+000 -1.541201e+000 3.354731e+000 255 255 0
1.297169e+000 -1.510861e+000 3.372590e+000 255 0 0
1.265081e+000 -1.541884e+000 3.350053e+000 255 255 0
