ply
format ascii 1.0
element face 0
property list uchar int vertex_indices
element vertex 96
property float x
property float y
property float z
property uchar diffuse_red
property uchar diffuse_green
property uchar diffuse_blue
end_header
6.896249e-001 -2.538739e+000 3.037309e+000 152 24 38
2.077815e-001 -4.128252e+000 3.231241e+000 117 77 60
9.624522e-001 -1.403574e+000 2.978664e+000 36 52 23
8.632091e-001 -2.132220e+000 3.028030e+000 208 53 72
9.068386e-001 -2.084128e+000 3.023955e+000 179 121 99
8.498724e-001 -2.155392e+000 3.027572e+000 137 34 44
9.258886e-001 -2.125460e+000 3.015724e+000 148 21 33
5.147882e-001 -3.288428e+000 3.115973e+000 181 125 94
8.937555e-001 -3.116296e+000 3.072113e+000 119 74 32
2.077815e-001 -4.128252e+000 3.231241e+000 117 77 60
8.748835e-001 -2.164531e+000 3.021533e+000 122 30 39
8.499043e-001 -2.075790e+000 3.041462e+000 181 126 96
8.605392e-001 -2.083605e+000 3.038393e+000 179 120 103
1.109331e+000 -1.814510e+000 2.989923e+000 78 29 35
9.978607e-001 -3.142487e+000 3.058593e+000 60 21 38
1.099242e+000 -1.831881e+000 2.992518e+000 166 84 82
1.053391e+000 -2.223992e+000 2.979752e+000 56 16 24
9.122474e-001 -3.156366e+000 3.073833e+000 161 114 64
6.565787e-001 -2.359791e+000 3.052845e+000 133 33 41
1.087281e+000 -1.832871e+000 2.998610e+000 101 48 49
8.675599e-001 -2.149373e+000 3.023170e+000 152 21 37
1.078678e+000 -2.027175e+000 2.977299e+000 66 29 29
9.754553e-001 -1.386470e+000 2.977233e+000 143 146 128
-3.397281e-001 -7.090299e+000 3.499699e+000 178 123 93
1.077601e+000 -1.899194e+000 2.992635e+000 73 32 30
1.140275e+000 -1.823853e+000 2.966571e+000 126 91 95
1.159765e+000 -1.605610e+000 3.005984e+000 178 37 45
1.159765e+000 -1.605610e+000 3.005984e+000 178 37 45
1.173980e+000 -1.670783e+000 2.966478e+000 35 71 98
1.146550e+000 -1.813097e+000 2.965218e+000 62 40 40
8.805592e-001 -2.223308e+000 3.012597e+000 123 29 35
7.078431e-001 -2.338700e+000 3.038118e+000 183 52 63
1.150801e+000 -1.580513e+000 3.024244e+000 131 82 67
6.745818e-001 -2.435711e+000 3.041810e+000 206 74 87
1.169892e+000 -1.591384e+000 2.999242e+000 178 42 49
-2.184493e-001 -5.260197e+000 3.387263e+000 182 126 102
1.129545e+000 -1.751772e+000 2.986624e+000 179 105 80
1.134411e+000 -1.927398e+000 2.958801e+000 141 113 99
1.096979e+000 -2.156150e+000 2.965997e+000 139 105 95
1.115054e+000 -2.314667e+000 2.968667e+000 75 36 39
-3.608427e-001 -6.016812e+000 3.468459e+000 187 126 100
1.106612e+000 -1.780438e+000 2.996015e+000 172 130 80
4.409605e-001 -5.443908e+000 3.248021e+000 69 20 26
9.765312e-001 -2.224609e+000 2.998799e+000 42 15 24
1.141798e+000 -1.767674e+000 2.974337e+000 71 34 30
1.147259e+000 -1.763158e+000 2.971056e+000 164 85 88
8.805592e-001 -2.223308e+000 3.012597e+000 123 29 35
9.512687e-001 -3.048628e+000 3.060882e+000 128 83 40
1.100148e+000 -1.861179e+000 2.987794e+000 64 22 29
1.102109e+000 -1.991259e+000 2.971584e+000 165 116 112
7.952488e-001 -2.191367e+000 3.036906e+000 126 26 31
8.884418e-001 -2.083791e+000 3.028431e+000 179 117 103
9.082875e-001 -2.146494e+000 3.016082e+000 186 52 59
8.457646e-001 -2.243007e+000 3.017484e+000 188 59 70
1.151070e+000 -1.935277e+000 2.948744e+000 28 15 13
8.489843e-001 -2.095727e+000 3.034983e+000 137 25 34
1.150801e+000 -1.580513e+000 3.024244e+000 131 82 67
1.033267e+000 -2.057279e+000 2.991851e+000 112 57 27
1.157227e+000 -1.696689e+000 2.974515e+000 18 73 104
9.860861e-001 -3.513732e+000 3.073570e+000 81 52 56
1.183134e+000 -1.584695e+000 2.986793e+000 168 151 121
8.470949e-001 -2.057388e+000 3.044633e+000 176 124 102
1.110870e+000 -1.747270e+000 3.007048e+000 13 74 108
1.153641e+000 -1.727342e+000 2.972193e+000 191 117 93
1.157321e+000 -1.727747e+000 2.968690e+000 76 34 42
1.099235e+000 -1.820619e+000 2.995637e+000 172 85 84
1.121344e+000 -1.798985e+000 2.984287e+000 71 33 28
1.134887e+000 -1.782679e+000 2.977029e+000 162 83 81
1.127744e+000 -1.801877e+000 2.979025e+000 77 35 33
1.082710e+000 -1.837941e+000 3.002351e+000 73 20 20
1.125144e+000 -1.810182e+000 2.978043e+000 162 79 81
1.100960e+000 -1.875345e+000 2.985768e+000 127 58 68
8.090656e-001 -2.120346e+000 3.045131e+000 232 73 90
9.432522e-001 -2.542357e+000 3.016066e+000 120 73 33
1.148016e+000 -1.591404e+000 3.023873e+000 187 147 124
1.148016e+000 -1.591404e+000 3.023873e+000 187 147 124
1.143231e+000 -1.596195e+000 3.027570e+000 186 149 125
1.143231e+000 -1.596195e+000 3.027570e+000 186 149 125
1.171357e+000 -1.635982e+000 2.978282e+000 202 82 77
1.086045e+000 -1.886541e+000 2.990195e+000 147 75 81
1.146246e+000 -1.980992e+000 2.948995e+000 26 22 20
8.229573e-001 -2.281972e+000 3.023014e+000 143 27 40
9.931924e-001 -2.200182e+000 2.992998e+000 86 35 44
1.060388e+000 -2.472259e+000 2.993084e+000 73 37 41
-3.835569e-002 -5.356369e+000 3.369445e+000 184 127 100
1.190019e-001 -3.926472e+000 3.223882e+000 186 126 107
-1.166995e+000 -6.975901e+000 3.665097e+000 187 116 96
1.173954e+000 -1.702598e+000 2.959425e+000 76 52 65
1.002952e+000 -2.561993e+000 3.007510e+000 150 98 51
1.177917e+000 -1.574598e+000 2.995105e+000 168 155 121
1.177917e+000 -1.574598e+000 2.995105e+000 168 155 121
1.180574e+000 -1.633780e+000 2.966678e+000 19 72 104
1.242041e+000 -1.217250e+000 2.529066e+000 0 255 0
1.261358e+000 -1.197608e+000 2.487340e+000 255 255 0
1.085925e+000 -1.431365e+000 2.825215e+000 255 0 0
1.085054e+000 -1.422649e+000 2.775988e+000 255 255 0
