ply
format ascii 1.0
element face 0
property list uchar int vertex_indices
element vertex 867
property float x
property float y
property float z
property uchar diffuse_red
property uchar diffuse_green
property uchar diffuse_blue
end_header
2.631245e+000 -9.142603e+000 -5.959074e+000 73 71 84
-1.450417e-001 1.127612e+000 -7.262724e+000 145 117 104
3.176367e+000 -9.121493e+000 -5.626303e+000 71 72 84
4.086168e-001 3.673953e-001 -6.848061e+000 194 180 167
3.487667e-001 1.196713e+000 -6.945039e+000 217 60 67
-2.394504e-001 -2.192516e-001 -7.604206e+000 213 201 189
-2.006297e-001 -2.504812e-001 -7.567743e+000 209 197 183
-1.379196e-001 -4.129655e-002 -7.477767e+000 131 103 92
1.301374e-001 1.153393e+000 -7.218017e+000 206 43 54
4.971296e-001 -4.241069e-001 -6.646172e+000 209 194 142
9.181603e-001 6.882111e-001 -6.331776e+000 197 53 62
-3.435400e-001 -1.206997e-002 -6.622249e+000 67 19 17
2.985555e-001 1.125425e-002 -7.078470e+000 166 153 137
-2.862780e-001 7.264269e-001 -7.494488e+000 230 223 213
-2.197557e-001 1.069169e+000 -7.569414e+000 177 33 40
-2.663284e-001 1.338249e-001 -6.840350e+000 78 36 30
2.300080e+000 -9.529203e+000 -6.646963e+000 47 45 50
3.066839e+000 -9.117888e+000 -5.619721e+000 45 44 57
1.225601e+000 6.316271e-003 -6.032762e+000 168 48 46
-1.655046e-001 6.332851e-001 -7.482667e+000 172 160 148
8.961609e-001 4.742361e-001 -6.330830e+000 185 163 149
3.391584e+000 -9.001564e+000 -5.387159e+000 59 55 64
-4.691920e-001 -7.888804e-002 -6.481056e+000 121 43 32
2.755081e+000 -9.314970e+000 -5.857064e+000 74 77 87
3.027365e+000 -1.011176e+001 -5.525895e+000 87 92 115
2.973620e+000 -9.565603e+000 -5.813752e+000 32 28 42
-2.421262e-001 3.218953e-001 -7.613574e+000 210 198 186
-2.032603e-001 -1.688569e-001 -7.608390e+000 191 179 163
-2.032603e-001 -1.688569e-001 -7.608390e+000 191 179 163
-2.204238e-001 1.366293e+000 -6.975048e+000 215 55 61
-6.025819e-002 5.462774e-001 -7.205481e+000 182 172 160
5.240347e-001 1.733951e-002 -6.528386e+000 178 165 146
-7.493037e-001 -2.737725e-001 -6.786514e+000 126 28 21
5.253161e-001 5.519398e-001 -6.748712e+000 206 194 180
3.282012e+000 -1.065115e+001 -5.120272e+000 243 247 253
3.092091e+000 -1.079477e+001 -5.385240e+000 25 24 29
3.272289e-001 -3.369476e+000 -7.775922e+000 186 185 183
1.921167e-001 -1.697902e+000 -7.686453e+000 170 169 167
-1.520990e-001 3.811375e-001 -7.476797e+000 216 204 191
4.737329e-001 -2.924753e+000 -7.514769e+000 166 164 167
-2.211647e-002 -4.135133e-001 -7.356905e+000 182 131 86
-6.424070e-002 5.592659e-001 -7.169497e+000 196 186 174
-8.994164e-001 -2.526621e-001 -6.378154e+000 178 112 88
-2.687673e-001 1.381758e-001 -6.845467e+000 82 39 32
2.577623e+000 -9.273909e+000 -6.100224e+000 32 30 41
5.425208e-001 -1.937262e-001 -6.563405e+000 222 214 201
5.004416e-001 -6.088615e-002 -6.540682e+000 224 216 205
1.168642e+000 -1.670729e+000 -6.421761e+000 145 139 139
1.528366e+000 -1.091089e+000 -5.889449e+000 156 158 157
-4.962553e-001 8.142863e-001 -7.892136e+000 15 13 23
-1.567329e-001 -8.261036e-002 -7.523791e+000 198 186 170
-1.710009e-001 3.256811e-001 -7.319267e+000 153 141 127
5.449582e-001 -2.747512e+000 -7.416163e+000 139 137 140
-1.679796e-001 1.880748e-001 -7.047345e+000 146 129 115
-1.520149e-001 1.556000e-001 -6.789398e+000 152 135 121
1.117917e-001 2.421541e-001 -6.857346e+000 165 151 138
2.069165e-001 1.001348e+000 -7.076824e+000 199 192 182
1.301209e-001 1.187414e-001 -6.759297e+000 199 192 176
-5.875360e-001 5.926175e-001 -8.044530e+000 198 56 54
-5.902111e-001 5.944016e-001 -8.042385e+000 198 56 54
-1.460818e-001 6.674671e-001 -7.478892e+000 212 203 190
-2.962700e-001 1.198586e-001 -6.827203e+000 79 48 44
-4.793901e-001 -5.228455e-002 -6.507403e+000 149 62 44
-1.725601e-001 4.033678e-002 -6.669722e+000 192 178 167
-1.381796e-001 9.318934e-002 -6.711457e+000 135 121 108
4.285955e-001 2.589290e-001 -6.764687e+000 128 112 97
4.393392e-001 1.348572e+000 -6.845425e+000 76 64 62
5.491689e-001 -1.914550e-002 -6.494225e+000 184 171 152
1.016235e+000 -7.622474e-002 -6.297802e+000 242 237 230
9.336681e-001 5.817746e-001 -6.375547e+000 233 90 99
-1.966427e-001 -1.411702e-001 -7.334760e+000 166 151 132
-6.949212e-001 -1.371880e-001 -6.799137e+000 118 51 33
-5.736544e-002 7.833794e-001 -7.346978e+000 161 149 137
-2.781872e-001 1.269367e-001 -6.808279e+000 70 21 17
5.733870e-002 6.258357e-002 -6.728967e+000 197 188 173
2.998827e-001 7.402190e-002 -6.643064e+000 235 230 215
2.546332e-001 1.395178e+000 -7.114709e+000 64 55 56
2.782208e+000 -9.198082e+000 -5.965398e+000 19 18 22
4.378412e-001 1.040252e+000 -6.799749e+000 210 202 186
6.394679e-001 9.611402e-001 -6.632676e+000 230 81 91
-2.563250e-001 5.996182e-001 -7.554194e+000 231 223 212
-1.881988e-001 3.730891e-001 -7.328645e+000 205 196 182
2.745693e-001 5.895287e-001 -6.953478e+000 227 223 211
3.414863e-001 2.056296e-001 -6.692486e+000 208 200 183
5.227898e-001 5.358968e-001 -6.805917e+000 237 229 218
-1.728477e-001 5.709583e-001 -7.463011e+000 218 210 197
-1.686074e-001 2.977027e-001 -7.224501e+000 177 164 148
-1.686074e-001 2.977027e-001 -7.224501e+000 177 164 148
-1.101718e-001 6.340111e-001 -7.243692e+000 136 119 103
2.787435e+000 -1.032303e+001 -5.623161e+000 85 90 112
-1.930340e-001 8.230154e-001 -7.481211e+000 143 124 110
-1.493350e-001 4.408939e-001 -7.373737e+000 143 127 111
-1.281943e-001 8.811120e-001 -7.357550e+000 215 207 194
-9.850200e-002 8.634809e-001 -7.370382e+000 215 207 194
-1.704035e-001 -6.795265e-002 -7.530013e+000 208 200 183
-1.372168e-001 2.834471e-001 -7.474606e+000 198 181 166
9.134715e-003 5.696124e-001 -7.154262e+000 201 191 179
1.378892e-002 5.669177e-001 -7.155497e+000 201 191 179
3.643810e-002 7.579424e-001 -7.127308e+000 219 210 201
7.002495e-001 3.242866e-001 -6.615498e+000 236 228 215
-3.030143e-001 9.669123e-002 -7.631970e+000 149 31 31
-1.915925e-001 -2.301509e-001 -7.538134e+000 167 155 140
-7.505804e-001 -2.322523e-001 -6.708785e+000 89 22 15
2.794753e-001 6.992826e-001 -7.033067e+000 203 194 185
3.369433e+000 -1.062519e+001 -5.348056e+000 100 93 90
9.982616e-001 -6.722541e-001 -6.285506e+000 170 52 45
2.249534e+000 -1.083176e+001 -5.729631e+000 137 132 133
1.203725e+000 -1.812305e+000 -6.495617e+000 148 146 148
3.629138e+000 -8.860813e+000 -4.977696e+000 25 22 29
1.747927e+000 -3.631628e-001 -5.507138e+000 136 133 140
-2.489116e-001 1.513883e-001 -6.845643e+000 100 82 72
1.226508e-001 1.560380e-001 -6.753483e+000 217 207 192
5.746732e-001 1.268991e-002 -6.471423e+000 216 208 197
4.719172e+000 -1.147855e+001 -3.136250e+000 226 238 245
-9.073432e-002 1.258170e+000 -7.369999e+000 203 67 75
5.371897e-002 9.122610e-001 -7.132513e+000 189 177 165
5.488850e-002 9.113234e-001 -7.132772e+000 189 177 165
7.246455e-001 7.468686e-001 -6.549172e+000 190 176 167
-1.570301e-001 2.820942e-001 -7.388851e+000 157 140 125
-1.076550e-001 4.271557e-001 -7.428907e+000 133 120 104
1.929309e-001 7.378697e-002 -6.711347e+000 130 117 101
3.189131e+000 -1.020070e+001 -5.516562e+000 16 15 18
4.443840e+000 -9.012138e+000 -2.935295e+000 102 98 116
-4.428563e-001 7.541677e-001 -7.766568e+000 171 38 43
-1.380737e-001 1.038510e+000 -7.375105e+000 163 145 131
4.289592e+000 -8.137747e+000 -3.267258e+000 77 75 86
-5.273105e-001 7.120997e-001 -7.919249e+000 189 49 52
-1.769562e-001 8.831614e-001 -7.537102e+000 155 139 126
3.275282e+000 -1.065963e+001 -5.070945e+000 236 244 247
4.192805e+000 -8.973871e+000 -3.618618e+000 90 87 108
-5.153706e-001 6.144465e-001 -7.967653e+000 194 51 57
-8.905465e-001 -1.918688e-001 -6.288385e+000 40 19 12
3.355467e-001 8.872383e-001 -6.923218e+000 147 133 120
6.757353e-001 5.501804e-001 -6.613329e+000 128 112 97
-3.022301e-001 8.590828e-001 -7.597945e+000 217 61 70
5.041481e-001 -6.388285e-002 -6.558595e+000 251 244 233
-1.348239e-001 3.104563e-001 -7.011253e+000 144 129 113
-2.577572e-001 1.203860e-002 -6.716733e+000 99 65 58
-8.144429e-002 1.220458e+000 -7.378858e+000 140 15 24
3.182545e+000 -1.057892e+001 -4.749813e+000 253 254 255
-1.507427e-001 3.068689e-001 -7.298124e+000 119 104 89
-2.382611e-001 1.871219e-001 -6.883090e+000 124 107 97
2.138494e+000 -1.067329e+001 -5.774414e+000 126 120 120
2.214063e+000 -9.332989e+000 -6.625362e+000 41 40 46
-1.068223e-001 4.837406e-001 -7.339042e+000 134 118 103
-5.196881e-001 5.620418e-001 -7.885139e+000 193 162 133
2.862951e-002 -5.896070e-001 -7.478993e+000 241 92 97
-7.017368e-001 -1.854437e-001 -6.853510e+000 106 29 15
-3.019610e-001 4.106555e-001 -7.255271e+000 154 141 122
-1.880396e-001 1.530275e-001 -7.081066e+000 110 92 78
-5.173072e-002 2.296763e-001 -6.919763e+000 152 139 121
1.003380e+000 -6.667134e-001 -6.302451e+000 193 184 157
1.454829e+000 -1.264206e+000 -6.021961e+000 139 137 140
9.401646e-001 3.956687e-001 -6.255892e+000 236 80 92
-1.439529e-001 -1.803855e+000 -7.989898e+000 174 170 171
-1.950517e-001 -1.538609e+000 -7.914368e+000 177 173 176
-3.908517e-002 -1.680944e+000 -7.815962e+000 182 178 177
-2.542269e-001 -4.178338e-001 -7.683703e+000 130 118 112
-8.249920e-001 -3.428245e-001 -6.556223e+000 129 48 20
-2.297476e-001 1.124343e+000 -7.458032e+000 153 22 27
-9.450625e-002 4.945137e-001 -7.239672e+000 154 141 125
5.432347e-001 -4.294230e-001 -6.612394e+000 223 202 145
1.144121e+000 -3.930511e-001 -6.065055e+000 160 157 156
1.492230e+000 -7.221414e-001 -5.884229e+000 147 145 148
1.458082e+000 -6.734963e-001 -5.942833e+000 134 129 135
1.781968e+000 -1.137367e+000 -5.608031e+000 152 147 153
9.037909e-001 7.051659e-001 -6.327043e+000 191 57 62
9.558398e-001 6.555219e-001 -6.300607e+000 166 37 42
4.100413e-002 -1.991228e+000 -7.793336e+000 96 92 91
4.200465e-002 -1.941639e+000 -7.689752e+000 182 178 179
-3.414552e-001 3.332387e-001 -7.765046e+000 211 81 81
-2.562495e-001 2.271873e-001 -7.703825e+000 197 63 66
-1.077945e-002 -5.329413e-001 -7.483891e+000 149 38 43
-2.366724e-002 -4.830091e-001 -7.471932e+000 232 171 124
-2.765853e-001 1.046419e+000 -7.632800e+000 152 31 38
-1.560709e-001 3.237131e-001 -7.379724e+000 145 132 113
-1.602220e-001 6.809183e-001 -7.493867e+000 160 152 133
-8.897099e-001 -3.032784e-001 -6.443863e+000 147 67 38
-3.682659e-001 1.745209e-002 -6.868010e+000 46 12 11
-2.032082e-001 1.488624e-001 -7.065109e+000 141 125 110
-9.118315e-001 -2.882702e-001 -6.355579e+000 41 13 11
-4.770989e-001 -2.554111e-002 -6.682701e+000 44 4 2
-5.644592e-001 -1.194150e-001 -6.513627e+000 68 18 13
-2.823182e-001 1.342010e-001 -6.752858e+000 94 31 26
-2.113471e-001 6.726570e-002 -6.706793e+000 68 24 15
9.566199e-002 6.392089e-001 -7.098578e+000 201 192 174
1.040529e-001 1.208604e+000 -7.116026e+000 212 67 70
8.399571e-001 -8.188001e-001 -6.484184e+000 238 98 99
1.743340e+000 -1.017397e+000 -5.666694e+000 145 143 148
1.617325e+000 -3.773593e-001 -5.724794e+000 177 170 175
-5.534457e-001 5.757363e-001 -7.975859e+000 226 76 81
-2.727428e-001 1.887830e-001 -7.744335e+000 210 79 84
-4.414419e-002 -4.773728e-001 -7.505843e+000 173 47 44
-2.168906e-001 5.226052e-001 -7.566379e+000 185 176 162
-1.631522e-001 3.621520e-001 -7.401650e+000 202 189 176
-7.143806e-001 -1.885961e-001 -6.755044e+000 85 26 17
-8.700873e-001 -2.960246e-001 -6.517670e+000 114 41 21
3.166346e+000 -8.925948e+000 -5.448998e+000 29 26 35
2.888351e-003 4.418487e-001 -7.155440e+000 150 138 122
-7.194625e-002 8.450070e-001 -7.305302e+000 199 190 173
-9.210373e-001 -1.798350e-001 -6.222678e+000 64 37 25
8.398028e-001 -2.947846e-001 -6.400450e+000 234 226 209
6.885966e-001 6.479192e-001 -6.606300e+000 169 157 137
3.076827e+000 -9.357034e+000 -5.980124e+000 34 31 38
-6.050356e-002 4.244757e-001 -7.183447e+000 186 173 156
-8.299766e-001 -1.835953e-001 -6.210729e+000 63 37 23
-3.390080e-001 -2.327918e-001 -6.456671e+000 136 32 24
-2.319819e-002 5.019745e-002 -6.702295e+000 123 107 94
2.845951e-001 2.792272e-001 -6.790078e+000 187 171 160
8.504156e-001 -6.866080e-001 -6.476616e+000 240 232 215
4.598839e-001 7.540991e-002 -6.572096e+000 156 143 124
6.499221e-001 3.054015e-001 -6.649161e+000 226 217 202
7.478404e-001 -8.676506e-002 -6.389656e+000 234 222 205
7.929358e-001 -1.008206e-001 -6.350332e+000 148 130 106
1.397084e+000 -2.656864e-001 -5.922958e+000 166 151 163
7.701864e-001 9.548338e-001 -6.468530e+000 194 60 64
9.872079e-001 5.100136e-001 -6.202061e+000 221 86 92
-2.725907e-001 -3.570355e-001 -7.706335e+000 116 105 101
-4.286826e-001 1.652667e-002 -6.874995e+000 86 36 25
1.730215e-001 5.869887e-001 -6.967202e+000 216 207 190
1.796204e-001 7.247094e-001 -7.068848e+000 228 216 202
2.324292e-001 4.321380e-001 -6.913039e+000 148 135 118
4.004576e-001 1.494577e-001 -6.621070e+000 209 198 180
7.487862e-001 9.894812e-002 -6.532881e+000 145 132 113
1.241757e+000 -4.663471e-001 -6.039373e+000 164 157 164
5.535820e-001 1.223072e+000 -6.654835e+000 57 58 53
1.576642e+000 -2.625261e-001 -5.979858e+000 14 10 10
1.242792e+000 2.024338e-001 -6.052181e+000 163 152 158
1.197287e+000 3.073198e-001 -6.081594e+000 153 142 146
-9.416722e-001 -2.865218e-001 -6.467736e+000 172 91 79
5.801899e-002 5.851299e-001 -7.102914e+000 207 198 183
2.329298e-002 8.035005e-002 -6.743479e+000 183 173 155
1.073293e-001 2.831995e-002 -6.677621e+000 149 136 117
3.953263e-001 4.883491e-001 -6.932990e+000 184 172 158
2.922568e-001 9.856942e-001 -7.017760e+000 230 222 211
7.330862e-001 -4.549216e-001 -6.436960e+000 254 241 186
6.390803e-001 2.620189e-001 -6.719191e+000 222 213 199
1.180134e+000 -3.953238e-001 -6.100594e+000 100 85 61
1.299760e+000 -1.972445e-001 -5.981197e+000 254 243 203
1.142587e+000 1.704129e-001 -6.118045e+000 211 76 81
-2.521173e-001 -3.710386e-001 -7.625302e+000 217 210 191
-5.679711e-002 6.699417e-001 -7.181039e+000 208 199 184
1.022300e-001 6.806726e-001 -7.110969e+000 222 213 196
1.017936e+000 -7.460893e-001 -6.353891e+000 221 214 198
7.692418e-001 -2.900134e-002 -6.388437e+000 162 147 127
9.968045e-001 3.202633e-001 -6.286787e+000 237 228 213
7.740119e-001 9.617642e-001 -6.509954e+000 200 63 70
1.078719e+000 2.336348e-001 -6.198016e+000 187 53 57
-2.110054e-001 2.119228e-001 -7.621462e+000 124 17 23
1.270872e-001 1.381122e+000 -7.150142e+000 21 9 14
3.912947e-001 7.538844e-001 -6.870839e+000 237 228 211
1.328168e+000 -2.866778e-001 -5.996529e+000 246 227 184
-1.302695e-001 1.490879e-001 -7.286795e+000 143 126 108
8.305148e-002 8.991760e-001 -7.119610e+000 180 167 151
2.227072e-001 6.419005e-001 -7.022179e+000 145 130 111
6.234060e-001 -8.098436e-002 -6.408869e+000 244 237 221
7.800500e-001 7.454851e-001 -6.452506e+000 124 22 26
3.375530e-001 -2.219237e-002 -6.576177e+000 238 232 213
1.046691e+000 3.193935e-002 -6.282043e+000 242 236 220
3.875302e-001 6.549676e-001 -6.850011e+000 213 204 187
3.636269e-001 6.712622e-001 -6.848897e+000 213 204 187
-2.939057e-001 6.002892e-001 -7.648235e+000 214 207 191
-2.053497e-003 1.269456e+000 -7.432222e+000 17 11 13
-3.984417e-001 -1.614101e-001 -6.771030e+000 79 26 18
3.098948e-001 8.051679e-001 -6.972648e+000 194 182 165
4.879334e-001 -1.850950e+000 -7.243442e+000 118 114 111
-2.194869e-001 -2.102475e-001 -7.564388e+000 181 166 149
-1.665652e-001 -7.094960e-002 -7.521762e+000 198 187 167
2.941461e-001 -8.453608e-001 -7.415390e+000 134 126 124
-1.804966e-002 3.002900e-001 -6.884118e+000 152 139 122
7.922181e-001 -4.304976e-001 -6.357858e+000 175 154 111
1.186782e+000 -5.770376e-001 -6.127808e+000 171 165 169
4.687589e-001 -1.473467e+000 -7.314911e+000 149 146 139
6.996041e-001 -1.965347e+000 -7.150145e+000 156 153 149
-1.476387e-001 -5.193053e-002 -7.444761e+000 135 115 98
-7.104892e-001 -3.067313e-001 -6.791083e+000 123 35 19
-2.777896e-002 2.819068e-001 -7.037564e+000 126 110 94
-1.157380e-001 1.204928e+000 -7.386287e+000 147 26 30
9.041722e-001 -7.187083e-001 -6.435069e+000 211 197 182
9.041722e-001 -7.187083e-001 -6.435069e+000 211 197 182
9.191685e-001 -6.591350e-001 -6.387789e+000 238 230 212
1.105336e+000 -6.116682e-001 -6.142962e+000 159 149 154
8.487659e-001 1.025387e-001 -6.462689e+000 187 179 160
-7.147780e-001 -1.873461e-001 -6.872584e+000 160 79 51
-3.312363e-001 7.770160e-001 -7.617669e+000 167 152 133
-3.376483e-001 7.794742e-001 -7.615586e+000 167 152 133
-7.961072e-002 8.481171e-001 -7.234008e+000 196 188 167
4.303964e-001 6.257187e-001 -6.774310e+000 195 188 172
6.879908e-001 6.483627e-002 -6.469299e+000 156 141 120
5.594035e-001 -1.828016e+000 -7.213713e+000 120 116 115
5.594035e-001 -1.828016e+000 -7.213713e+000 120 116 115
5.379046e-001 -1.705890e+000 -7.220771e+000 147 146 142
-1.828211e-001 2.355103e-001 -7.521445e+000 192 171 154
-3.842922e-001 -1.404286e-001 -7.025299e+000 51 19 14
5.504869e-002 -3.379198e-001 -7.240402e+000 228 204 154
-3.491985e-001 9.765527e-002 -6.911303e+000 62 18 17
1.192009e+000 -3.508426e-002 -6.060392e+000 240 94 104
1.580247e-001 2.751510e-001 -6.798524e+000 212 205 186
4.500067e-001 2.412826e-002 -6.562196e+000 218 209 192
-1.755234e-001 3.851836e-001 -7.559956e+000 196 187 170
9.497297e-001 -6.973484e-001 -6.351710e+000 226 217 200
1.024446e+000 -6.800187e-001 -6.148487e+000 166 159 167
9.627878e-001 -3.574776e-001 -6.208485e+000 254 236 196
5.517298e-001 1.393847e-001 -6.547388e+000 150 135 116
1.438890e-001 -2.344548e-001 -6.501730e+000 214 201 184
-1.027299e-001 2.648267e-002 -7.798901e+000 129 22 27
-1.010117e+000 -1.233852e+001 -1.015961e+001 95 100 119
5.522158e-001 -1.782332e+000 -7.189913e+000 108 106 103
-2.197715e-001 2.343709e-001 -7.509478e+000 165 43 47
2.981819e-001 -1.429521e+000 -7.470222e+000 105 101 97
-2.003058e-001 -2.406130e-001 -7.548895e+000 186 173 154
-8.850302e-001 -3.365058e-001 -6.441082e+000 160 85 62
-5.266939e-001 -6.811579e-002 -6.527911e+000 119 49 39
-2.925183e-001 -9.850607e-003 -6.685786e+000 78 42 41
-7.664825e-001 -3.756143e-001 -6.544780e+000 155 136 120
1.436677e+000 -1.091062e+000 -6.044938e+000 139 137 140
-2.815467e-001 2.557312e-001 -7.679324e+000 186 55 60
-3.645042e-001 -1.215243e-001 -7.003359e+000 92 65 59
-1.220200e-001 5.606362e-001 -7.245731e+000 166 151 132
1.304943e-001 9.672777e-002 -6.734322e+000 190 179 160
1.195473e+000 -4.793522e-001 -6.053875e+000 176 171 172
2.536493e-001 2.367472e-001 -6.750032e+000 167 156 138
8.462537e-001 8.743719e-002 -6.505319e+000 196 188 169
5.013593e-001 7.143565e-001 -6.779803e+000 233 225 212
3.493957e-001 1.335189e+000 -6.904336e+000 199 63 66
3.066041e-001 1.030910e+000 -7.027422e+000 211 203 190
3.683162e-001 1.319339e+000 -6.860239e+000 211 68 71
3.981163e-001 1.352173e+000 -6.943327e+000 50 30 31
3.734316e-001 1.353068e+000 -6.874188e+000 71 38 38
5.340212e+000 -6.664201e+000 -1.369769e+000 79 74 80
1.179873e+000 -7.604020e-001 -6.169943e+000 162 151 157
1.048293e+000 -1.977441e-001 -6.262185e+000 206 198 179
4.359781e-001 1.268596e+000 -6.799775e+000 207 64 70
1.845427e-001 3.962381e-001 -6.905776e+000 190 177 162
6.644320e-001 9.666717e-001 -6.629868e+000 210 71 78
-4.906410e-001 4.725462e-001 -7.707280e+000 210 192 171
-2.427583e-002 -4.510353e-001 -7.374904e+000 170 106 60
-2.427583e-002 -4.510353e-001 -7.374904e+000 170 106 60
-1.113436e-002 -4.398784e-001 -7.359588e+000 219 166 119
1.402945e-001 -6.032622e-001 -7.339370e+000 92 25 6
-7.020986e-001 -2.910500e-001 -6.805994e+000 136 49 26
7.759154e-002 -3.966452e-001 -7.264498e+000 117 67 28
3.775593e-002 -3.591340e-001 -7.235681e+000 254 236 179
-8.975175e-001 -3.102999e-001 -6.373587e+000 62 24 14
-9.003680e-001 -2.891976e-001 -6.391941e+000 141 63 37
-4.758904e-001 -4.356570e-002 -6.612584e+000 88 33 26
-2.404287e-001 2.633470e-002 -6.724951e+000 68 31 22
1.550539e+000 -1.684698e+000 -6.041716e+000 152 152 150
5.468593e-001 -8.646313e-002 -6.525649e+000 233 226 208
-7.188599e-003 1.152724e+000 -7.248042e+000 208 50 58
9.709019e-001 -3.956235e-001 -6.335347e+000 175 160 138
9.661701e-001 -3.939349e-001 -6.336698e+000 175 160 138
1.440575e-002 1.346468e+000 -7.238848e+000 91 13 17
1.431685e+000 -1.082960e+000 -5.898847e+000 184 179 183
9.867529e-001 -3.969214e-001 -6.106682e+000 188 170 172
1.373482e+000 -1.408357e-001 -5.931681e+000 70 60 49
1.233326e+000 1.310079e-001 -6.043697e+000 152 134 136
1.197905e+000 2.717450e-001 -6.085323e+000 150 137 133
-5.708373e-001 5.971316e-001 -8.063469e+000 72 40 43
-5.887396e-001 -3.504290e-001 -6.924479e+000 153 57 26
-4.615017e-001 -2.358875e-001 -7.102789e+000 255 240 185
-1.541477e-001 -7.809345e-003 -7.471980e+000 139 110 94
-7.136573e-001 -1.613221e-001 -6.915943e+000 145 70 49
-7.136573e-001 -1.613221e-001 -6.915943e+000 145 70 49
-6.596464e-001 -3.066738e-001 -6.730849e+000 93 22 12
-4.517736e-001 -1.440982e-001 -7.001706e+000 114 85 81
-9.301112e-001 -3.482050e-001 -6.490480e+000 131 135 126
-8.113282e-001 -3.554087e-001 -6.558532e+000 127 53 33
-7.581246e-001 -3.543258e-001 -6.562334e+000 110 46 22
-3.929752e-001 1.013530e+000 -7.618300e+000 173 40 54
-3.449283e-001 1.019989e+000 -7.620464e+000 162 40 43
-2.766704e-001 7.496860e-003 -6.979352e+000 82 58 48
-8.874126e-002 6.469894e-001 -7.411419e+000 153 142 124
-8.164326e-002 6.463409e-001 -7.411660e+000 153 142 124
-3.182428e-001 3.885003e-001 -7.016268e+000 137 121 105
6.717367e-002 3.935035e-001 -7.290024e+000 145 132 113
-1.497601e-001 5.251110e-001 -7.284134e+000 139 124 105
-8.650317e-001 -2.013712e-001 -6.239786e+000 180 161 137
-8.650317e-001 -2.013712e-001 -6.239786e+000 180 161 137
-1.499728e-001 1.072702e+000 -7.501238e+000 159 28 33
-7.977495e-001 -2.052979e-001 -6.242065e+000 137 115 96
-1.666152e-001 3.399674e-002 -6.666383e+000 186 172 152
-2.670441e-001 1.164318e+000 -7.436083e+000 157 30 34
7.655397e-001 -3.209317e-001 -6.432427e+000 157 143 122
2.205732e-001 9.836803e-001 -7.073599e+000 187 181 164
1.623273e+000 -1.163894e+000 -5.862372e+000 143 138 142
1.604112e+000 -1.157222e+000 -5.804137e+000 190 185 189
1.719547e+000 -1.267679e+000 -5.727754e+000 175 170 176
1.807270e+000 -1.325641e+000 -5.712319e+000 175 170 176
1.656091e+000 -1.138707e+000 -5.707822e+000 194 189 195
1.686839e+000 -4.220226e-001 -5.679937e+000 141 136 142
9.049703e-001 4.281228e-001 -6.274189e+000 225 207 189
2.017879e+000 -6.445466e-001 -5.354807e+000 147 144 150
1.876349e+000 -4.309796e-001 -5.491890e+000 140 133 141
6.866432e-001 1.326730e+000 -6.597238e+000 85 76 74
2.909883e+000 -1.452959e+000 -4.466889e+000 185 183 188
2.069145e+000 -2.882672e-001 -5.252689e+000 151 145 149
-1.865234e-001 1.343925e-001 -7.802097e+000 17 16 17
-2.854328e-001 4.850242e-002 -7.657098e+000 206 76 78
-2.185495e-001 2.215416e-001 -7.798560e+000 202 72 74
-7.226025e-001 -2.345969e-001 -6.858772e+000 181 89 58
-7.321904e-001 -1.728483e-001 -6.874727e+000 171 97 65
4.068939e-002 -3.374882e-001 -7.270241e+000 243 223 166
-1.631643e-001 6.655265e-001 -7.452934e+000 162 151 133
-2.841401e-001 3.083215e-002 -6.715242e+000 89 55 48
-2.875665e-001 1.156855e-001 -6.830813e+000 81 50 40
-2.366319e-001 1.137057e-001 -6.839671e+000 77 30 22
-2.017230e-001 1.423826e-001 -6.809777e+000 100 82 72
-7.121667e-001 -2.544369e-001 -6.243124e+000 71 49 28
7.419436e-001 -5.894715e-001 -6.472095e+000 238 235 223
1.273350e-001 6.108776e-001 -7.031438e+000 180 167 150
5.637532e-001 1.683240e-001 -6.642179e+000 141 126 107
1.676312e+000 -1.154878e+000 -5.775696e+000 136 131 136
1.427342e+000 -7.703002e-001 -6.038961e+000 163 157 161
1.108021e+000 -4.205408e-001 -6.115200e+000 243 221 180
9.718961e-001 -1.902785e-001 -6.288471e+000 156 143 124
1.361182e+000 -4.049726e-001 -5.953436e+000 145 138 146
1.507596e+000 -4.235150e-001 -5.989772e+000 211 192 149
1.040236e+000 2.983903e-001 -6.242602e+000 230 96 94
1.270274e+000 8.095790e-002 -6.022724e+000 159 146 155
8.399723e-001 6.217479e-001 -6.411340e+000 222 202 188
8.399723e-001 6.217479e-001 -6.411340e+000 222 202 188
2.866734e+000 -1.313341e+000 -4.490574e+000 187 184 191
-2.989614e-001 3.099945e-001 -7.787220e+000 210 78 82
-4.535707e-001 -2.536708e-001 -7.079726e+000 74 22 12
-3.602366e-001 -1.158023e-001 -7.037622e+000 107 87 76
-3.646507e-001 -1.120813e-001 -7.037085e+000 107 87 76
-3.084841e-001 1.050448e+000 -7.618283e+000 157 34 36
-4.822389e-001 -2.267275e-002 -6.681431e+000 45 6 6
9.664137e-002 6.975784e-001 -7.092634e+000 222 214 203
3.540449e-001 6.614659e-002 -6.618474e+000 181 170 150
3.545446e-001 3.514576e-001 -6.857271e+000 151 140 122
4.290682e-001 3.393249e-001 -6.834976e+000 187 176 158
8.752747e-001 -3.265498e-001 -6.366128e+000 93 78 57
3.317719e-001 7.351841e-001 -6.961294e+000 188 178 160
3.194003e-001 7.371914e-001 -6.956562e+000 188 178 160
2.898511e-001 9.427103e-001 -7.016291e+000 154 145 130
1.986842e+000 -4.380853e-001 -5.289588e+000 162 156 160
-4.411350e-001 -3.128794e-001 -7.058683e+000 253 247 185
1.864505e-001 -4.198318e-001 -7.318961e+000 64 5 8
-3.613662e-001 -1.555694e-001 -7.028023e+000 61 23 21
-1.618474e-001 3.265583e-001 -7.378972e+000 144 129 110
-7.484628e-001 -4.065676e-001 -6.519826e+000 116 41 30
-2.680847e-001 -2.749481e-003 -7.047251e+000 102 85 74
-3.297609e-001 -3.243512e-002 -6.927989e+000 42 10 11
-2.142880e-001 4.123446e-002 -6.733275e+000 123 105 91
-2.213921e-001 4.718470e-002 -6.733381e+000 123 105 91
1.232965e+000 -6.144240e-001 -6.158262e+000 159 36 43
6.410737e-001 3.428675e-002 -6.460331e+000 198 190 171
4.295430e-001 1.212495e+000 -6.814010e+000 220 79 80
8.824378e-001 5.729677e-001 -6.377231e+000 176 41 45
5.340473e-001 1.255061e+000 -6.703879e+000 66 45 50
2.093965e+000 -4.237269e-001 -5.285129e+000 177 171 175
-1.570731e-002 3.635402e-001 -7.093313e+000 178 164 145
4.228945e-001 4.778088e-001 -6.931668e+000 180 171 155
-1.632326e-002 1.153351e+000 -7.259427e+000 181 47 48
1.452740e+000 -1.943885e-001 -5.979910e+000 18 8 8
1.299764e+000 1.164231e-001 -5.950542e+000 142 136 140
6.378503e-001 6.839834e-001 -6.668216e+000 227 220 204
1.049455e+000 2.812420e-001 -6.277184e+000 234 227 213
-1.977019e-001 2.156040e-001 -7.617970e+000 128 19 24
-5.719690e-001 -2.674573e-001 -6.383250e+000 92 34 18
-2.180132e-001 -1.181220e-002 -6.654002e+000 68 23 20
-4.135966e-001 -2.360027e-001 -6.399745e+000 143 141 142
-1.060822e-001 9.484898e-001 -6.943492e+000 210 201 184
-3.880068e+000 -7.053740e+000 -1.428788e+001 78 77 87
-6.943399e+000 -7.251669e+000 -2.496189e+001 91 83 80
-8.748029e+000 -9.370474e+000 -2.198891e+001 97 90 82
-8.748029e+000 -9.370474e+000 -2.198891e+001 97 90 82
-5.983018e-001 7.901738e-002 -6.437251e+000 84 20 12
-7.427109e-001 -1.859087e-001 -6.717193e+000 106 46 35
-1.540935e-001 3.303885e-001 -7.299696e+000 153 140 123
-8.278172e-002 9.714578e-001 -7.490807e+000 218 180 164
1.880912e+000 -1.319250e+000 -5.515360e+000 168 163 170
2.933616e-001 -1.386345e+000 -7.462337e+000 151 148 141
3.629479e-001 -1.042276e+000 -7.386804e+000 156 156 148
-1.947178e-002 -4.491618e-001 -7.476786e+000 143 46 23
-3.358626e-001 1.068415e-001 -7.641282e+000 143 28 29
-3.347192e-001 8.696342e-001 -7.589679e+000 217 58 58
1.778649e+000 -1.109187e+000 -5.626415e+000 194 189 195
1.553723e+000 -5.498853e-001 -5.815551e+000 171 167 171
-3.516501e-001 7.801058e-001 -7.666572e+000 161 146 127
-3.516501e-001 7.801058e-001 -7.666572e+000 161 146 127
-1.240394e-001 1.103308e+000 -7.294215e+000 130 95 81
4.566975e-001 -1.261643e+000 -7.248583e+000 135 134 129
-1.494459e-001 2.071988e-001 -7.369670e+000 136 110 97
-8.612017e-001 -1.541122e-001 -6.210811e+000 72 45 28
-8.612017e-001 -1.541122e-001 -6.210811e+000 72 45 28
2.730816e-001 -7.817106e-001 -7.382303e+000 26 10 13
-8.882579e-001 -3.362219e-001 -6.476504e+000 129 44 20
-8.993902e-001 -2.675644e-001 -6.390386e+000 198 109 75
1.457149e+000 -1.062785e+000 -5.924259e+000 201 196 202
3.891932e-001 -1.245440e+000 -7.350170e+000 139 139 131
-4.686654e-001 -8.834176e-002 -7.062722e+000 66 27 15
-2.698719e-001 1.715603e-001 -6.901480e+000 138 116 102
-1.881224e-001 2.110059e-001 -6.990544e+000 151 132 115
-1.881224e-001 2.110059e-001 -6.990544e+000 151 132 115
-1.360902e-001 7.613706e-001 -7.402515e+000 208 200 179
1.502984e+000 -1.112778e+000 -5.906496e+000 172 167 173
7.063993e-001 -1.610828e+000 -6.995702e+000 141 143 138
-4.734993e-001 -5.596547e-003 -6.800612e+000 77 33 28
-1.868257e-001 3.755446e-001 -7.298337e+000 156 143 122
-1.673570e-001 1.505306e-001 -6.810616e+000 159 142 124
5.420930e-001 -9.006950e-002 -6.506390e+000 213 200 176
3.765659e-001 -1.120851e+000 -7.369680e+000 174 170 167
-1.692122e-001 1.985989e-001 -7.115965e+000 122 105 89
-2.055364e-002 3.076500e-001 -7.045245e+000 175 160 139
1.204322e+000 -3.879471e-001 -6.060629e+000 166 163 168
6.722715e-001 6.543149e-001 -6.602844e+000 186 176 156
-7.457473e-001 -2.040766e-001 -6.697761e+000 121 51 42
7.408676e-001 -8.339623e-002 -6.391694e+000 248 243 227
1.466663e+000 -3.952985e-001 -5.902653e+000 169 167 175
-1.639323e-001 1.981463e-001 -7.484771e+000 138 33 40
-2.429317e-001 -1.064928e-001 -7.106300e+000 143 121 101
-2.035441e-001 6.124213e-002 -7.184363e+000 161 142 127
3.793363e-001 1.634636e-001 -6.625108e+000 228 214 195
-1.414274e-001 1.495787e-001 -7.330760e+000 166 149 131
1.986526e-001 3.170286e-001 -6.877713e+000 154 139 120
-2.667354e-001 3.221608e-002 -7.718343e+000 18 12 14
3.739138e-001 1.301323e+000 -6.881199e+000 218 63 67
6.846534e-002 9.003365e-001 -7.112929e+000 188 175 156
6.596125e-001 -1.613603e+000 -7.032440e+000 111 113 108
1.512830e+000 -1.055849e+000 -5.934581e+000 209 203 207
2.177110e+000 -1.201298e+000 -5.155048e+000 166 164 169
1.678926e+000 -5.330267e-001 -5.674106e+000 192 189 192
5.260813e-001 -1.247183e+000 -7.155884e+000 134 133 132
4.174613e+000 -7.723356e+000 -3.929884e+000 64 61 68
-9.066458e-001 -2.823874e-001 -6.370006e+000 246 165 136
-4.539778e-001 -2.428431e-003 -6.792577e+000 78 35 29
3.953176e-002 2.239992e-001 -6.961739e+000 159 142 126
5.118815e-001 2.839618e-002 -6.529998e+000 189 174 153
1.184932e+000 -5.582470e-001 -6.133675e+000 188 187 190
1.528610e+000 -5.200221e-001 -5.908631e+000 184 179 183
2.046486e+000 -1.153519e+000 -5.266933e+000 149 147 151
9.390814e-001 5.828520e-001 -6.361472e+000 232 81 86
-8.193985e-001 -3.488132e-001 -6.560451e+000 159 50 37
-6.976120e-001 -1.561252e-001 -6.751334e+000 98 30 17
-1.626997e-001 6.342817e-001 -7.320320e+000 145 128 108
-5.396738e-002 5.441649e-001 -7.212094e+000 194 181 162
1.000028e+000 -6.977824e-002 -6.296865e+000 254 251 237
1.331021e+000 -1.848997e-001 -5.927393e+000 184 172 172
7.445131e-001 6.610082e-001 -6.414241e+000 230 219 190
7.329582e-001 6.868126e-001 -6.449931e+000 165 130 110
-6.220813e-002 2.788983e-001 -7.014140e+000 166 151 130
-2.534768e-001 1.072480e+000 -7.498600e+000 176 35 41
2.651157e+000 -1.352697e+000 -4.593892e+000 211 208 215
6.979313e+000 -5.676224e+000 7.594925e-002 75 73 75
-3.438232e-001 8.155313e-002 -6.871088e+000 85 48 40
-8.030994e-002 4.617773e-001 -7.207318e+000 156 137 120
1.653498e-002 1.276965e+000 -7.226905e+000 169 29 32
-1.065829e-001 -2.344429e-001 -7.386124e+000 171 154 129
-6.752610e-001 -1.066947e-001 -6.792180e+000 86 26 15
3.945181e-001 -1.155901e+000 -7.265569e+000 255 254 210
-1.182099e-001 1.203199e+000 -7.425701e+000 221 75 78
-1.395291e-001 8.512194e-001 -7.383342e+000 236 227 210
-4.685961e-001 5.894178e-001 -7.986536e+000 224 70 72
4.839157e-001 -1.312661e+000 -7.226818e+000 175 176 169
5.023582e-001 -1.557960e-002 -6.532389e+000 211 200 178
-1.922873e-001 3.978544e-003 -7.575090e+000 162 92 81
-1.697502e-001 -5.713877e-002 -7.391139e+000 146 123 107
-1.121884e-001 7.907636e-001 -7.401193e+000 188 181 159
-1.925399e-001 1.073026e+000 -7.560200e+000 189 43 46
8.941141e-002 2.540751e-001 -6.859407e+000 168 155 138
5.605282e-001 5.619509e-001 -6.730354e+000 170 159 139
-2.375151e-001 -2.239362e-001 -7.607539e+000 222 211 192
-1.312745e-001 -4.697488e-003 -7.451881e+000 143 101 89
-8.212432e-002 7.389196e-001 -7.245593e+000 180 165 146
7.478818e-001 9.743548e-001 -6.501641e+000 215 69 72
6.438393e-001 -1.553144e+000 -7.042538e+000 160 162 157
5.880397e-001 -1.421184e+000 -7.103813e+000 151 147 144
-7.069928e-001 -1.485432e-001 -6.944328e+000 128 54 37
-5.790161e-002 7.170004e-002 -7.569889e+000 199 49 51
-1.467817e-001 5.934056e-001 -7.360766e+000 145 133 111
-1.006855e-001 5.196324e-001 -7.266055e+000 175 160 139
5.905102e-002 1.188858e+000 -7.154403e+000 234 184 169
-5.985214e-001 5.762721e-001 -8.025183e+000 76 59 55
-8.917746e-001 -2.664684e-001 -6.387832e+000 197 108 76
-2.649843e-001 1.150576e-001 -6.775162e+000 129 97 85
-4.322677e-001 -4.845372e-001 -6.096220e+000 197 192 195
-9.338942e-001 -3.330098e-001 -6.461860e+000 156 151 144
-1.349390e-001 5.084452e-001 -7.265978e+000 202 187 166
-1.591700e-001 3.818860e-001 -7.260242e+000 173 156 136
-1.496845e-001 6.486090e-001 -7.390861e+000 193 180 161
-1.248278e-001 4.459928e-001 -7.414425e+000 150 133 113
5.477806e-001 6.146963e-001 -6.739158e+000 238 231 214
6.882300e-001 6.898861e-001 -6.554458e+000 242 233 216
7.918735e-001 3.414077e-001 -6.477644e+000 184 171 152
6.483750e+000 -5.998983e+000 -3.692501e-001 28 23 29
-2.562252e-001 -8.385295e-002 -7.698176e+000 221 213 195
2.575326e-001 -1.136816e+000 -7.539755e+000 163 161 162
3.742279e-001 -9.816756e-001 -7.400362e+000 134 129 132
1.152947e+000 -2.078111e+000 -6.498567e+000 200 198 201
7.009014e-002 -5.523228e-001 -7.344605e+000 111 14 5
-2.667153e-001 -2.013379e-002 -7.764579e+000 78 65 49
7.110736e-001 -1.148405e+000 -6.953807e+000 133 130 131
5.702509e-001 -9.692442e-001 -7.074938e+000 179 174 176
-2.417274e-002 -4.330387e-001 -7.361478e+000 243 195 141
6.292222e-001 -9.795145e-001 -7.051631e+000 172 158 161
6.046892e-001 -9.655184e-001 -7.051922e+000 172 158 161
1.272873e+000 -1.844167e+000 -6.316465e+000 173 170 177
1.260507e+000 -1.795865e+000 -6.285597e+000 181 178 185
1.260507e+000 -1.795865e+000 -6.285597e+000 181 178 185
-7.212807e-001 -2.397666e-001 -6.869489e+000 167 67 35
-7.042169e-001 -2.100844e-001 -6.871684e+000 182 93 61
-4.974665e-001 -1.751745e-001 -7.043638e+000 170 170 149
-8.915538e-001 -3.396733e-001 -6.514968e+000 143 48 32
-8.471043e-001 -3.566960e-001 -6.512750e+000 231 233 233
-7.727970e-001 -2.575041e-001 -6.686898e+000 134 47 37
-7.465531e-001 -2.466917e-001 -6.746339e+000 148 62 40
-1.192943e-001 1.651012e-001 -7.490775e+000 111 8 15
1.886790e+000 -2.391365e+000 -5.627949e+000 221 214 221
-9.041888e-001 -2.757186e-001 -6.378000e+000 142 45 36
-1.978861e-001 3.323785e-001 -7.302443e+000 172 156 135
-3.015500e-001 1.066585e-001 -6.816214e+000 96 58 48
-3.015500e-001 1.066585e-001 -6.816214e+000 96 58 48
6.866284e-002 1.341470e-001 -6.791675e+000 137 123 105
1.171399e+000 -4.858597e-001 -6.107409e+000 220 99 90
2.443342e+000 -1.526834e+000 -4.852538e+000 171 172 176
8.609941e-001 6.206770e-001 -6.344865e+000 226 71 75
8.583779e-001 6.338189e-001 -6.331940e+000 217 64 69
8.933809e-001 7.479484e-001 -6.322976e+000 67 36 29
2.810499e-001 -1.421284e+000 -7.461598e+000 120 119 117
7.417837e-001 -1.567460e+000 -6.932287e+000 135 130 136
5.081472e-001 -1.196258e+000 -7.181512e+000 168 154 137
1.522000e+000 -2.620359e+000 -6.103644e+000 210 208 211
1.522000e+000 -2.620359e+000 -6.103644e+000 210 208 211
8.054837e-001 -1.489198e+000 -6.894207e+000 183 178 180
7.500612e-001 -1.384539e+000 -6.896637e+000 189 184 188
5.538299e-001 -1.107033e+000 -7.098618e+000 133 121 107
2.369719e-001 -7.088074e-001 -7.376673e+000 255 115 123
1.082480e+000 -1.724310e+000 -6.551935e+000 161 157 163
1.082480e+000 -1.724310e+000 -6.551935e+000 161 157 163
-5.681838e-001 -3.980997e-001 -6.862234e+000 191 51 41
-1.787712e-001 -1.155540e-002 -7.554557e+000 167 137 119
-5.171920e-001 -1.908644e-001 -7.029020e+000 213 208 186
1.422667e-001 -3.532444e-001 -7.199817e+000 106 37 9
-4.823664e-001 -1.365760e-001 -7.018025e+000 47 16 10
-9.281675e-001 -2.956884e-001 -6.363672e+000 204 195 200
-9.455769e-001 -2.059041e-001 -6.272261e+000 217 207 206
-9.451615e-001 -2.057369e-001 -6.272150e+000 217 207 206
-9.594496e-001 -1.892969e-001 -6.252234e+000 83 60 50
-2.404350e-001 2.081547e-001 -7.007752e+000 155 136 120
-7.940251e-001 -1.957463e-001 -6.232500e+000 185 181 178
1.576390e+000 -1.061776e+000 -5.792762e+000 181 177 181
8.454637e-001 -4.008105e-001 -6.391250e+000 243 235 214
1.102584e-001 1.316498e-001 -6.775196e+000 252 245 227
1.857112e+000 -1.329123e+000 -5.508196e+000 200 198 203
1.825056e+000 -1.122342e+000 -5.517652e+000 162 160 163
1.877880e+000 -1.123579e+000 -5.521184e+000 197 194 201
1.991503e+000 -1.107888e+000 -5.302681e+000 207 205 210
2.356401e+000 -1.402638e+000 -4.928608e+000 181 180 186
2.221244e+000 -1.237920e+000 -5.067141e+000 210 208 213
1.674190e+000 -5.429445e-001 -5.709614e+000 138 133 137
1.000410e+000 2.652756e-001 -6.254486e+000 234 218 197
6.563579e-001 6.573330e-001 -6.633671e+000 227 216 198
9.737727e-001 6.480527e-001 -6.300177e+000 189 40 42
9.540891e-001 6.507677e-001 -6.280831e+000 213 68 76
6.049286e-001 9.993590e-001 -6.668185e+000 245 81 86
2.314491e-001 -1.341007e+000 -7.456139e+000 171 170 167
3.726726e-001 -1.193468e+000 -7.269259e+000 253 248 190
3.726726e-001 -1.193468e+000 -7.269259e+000 253 248 190
9.996455e-001 -1.689895e+000 -6.619026e+000 198 195 200
6.286748e-001 -1.065122e+000 -7.030045e+000 134 128 130
3.370802e-001 -7.678827e-001 -7.145818e+000 188 46 48
-2.699826e-001 4.255674e-002 -7.659188e+000 234 95 96
-1.913064e-001 -4.362379e-002 -7.533057e+000 207 196 174
8.765019e-001 -3.021105e+000 -4.779958e+000 60 57 64
-7.303916e-001 -2.378892e-001 -6.754011e+000 119 30 14
-6.885488e-001 -1.477871e-001 -6.735857e+000 120 53 37
-2.016020e-001 1.199836e-001 -7.064341e+000 147 128 111
-3.214854e-001 1.057350e-001 -6.893542e+000 72 26 19
-2.921801e-001 1.119181e-001 -6.880192e+000 100 73 60
-1.189534e-001 2.672384e-001 -7.212269e+000 181 165 142
-2.666450e-001 3.529605e-001 -7.247319e+000 139 121 101
-1.652346e-001 3.540706e-001 -7.287569e+000 169 152 132
-2.703526e-001 1.367375e-001 -6.841317e+000 94 34 22
-2.817810e-002 1.171695e-001 -6.763730e+000 202 194 175
-3.062901e-003 1.330057e-001 -6.773202e+000 141 126 110
-6.927688e-002 5.505654e-001 -7.214381e+000 189 176 159
1.889397e+000 -1.209892e+000 -5.554932e+000 202 200 205
1.689688e+000 -9.858912e-001 -5.680432e+000 162 160 165
1.469200e+000 -4.549874e-001 -5.931107e+000 149 144 148
6.943559e-001 5.541626e-002 -6.464365e+000 172 157 134
7.190689e-001 2.690028e-001 -6.579467e+000 244 237 219
9.646783e-001 5.340875e-001 -6.226776e+000 152 29 32
4.370597e-001 1.117360e+000 -6.831227e+000 233 215 193
3.823883e-001 1.173075e+000 -6.900354e+000 225 68 67
9.356403e-001 6.871711e-001 -6.308710e+000 234 87 88
3.324870e-001 -1.450904e+000 -7.501941e+000 175 174 172
7.236533e-001 -1.641184e+000 -7.057908e+000 155 153 158
7.268988e-002 -6.160245e-001 -7.478139e+000 252 99 106
-6.858672e-001 -2.115893e-001 -6.892863e+000 115 32 17
-8.478742e-001 -2.715751e-001 -6.543636e+000 156 80 54
-8.570583e-001 -2.675207e-001 -6.542554e+000 156 80 54
-9.206047e-001 -2.811400e-001 -6.353962e+000 55 13 19
-1.794332e-001 2.552609e-001 -7.318094e+000 152 137 118
-1.014364e+000 -2.060676e-001 -6.280252e+000 204 197 205
-3.918000e-001 3.565398e-002 -6.876555e+000 58 14 15
-1.609740e-001 3.654007e-001 -7.402031e+000 221 209 187
-3.664415e-001 8.020008e-001 -7.672760e+000 221 201 184
-7.769604e-001 -1.980584e-001 -6.254684e+000 73 49 26
-2.687941e-001 6.578306e-002 -6.732677e+000 134 117 97
-2.687941e-001 6.578306e-002 -6.732677e+000 134 117 97
6.034609e-002 2.078420e-001 -6.849564e+000 241 229 212
1.887727e+000 -1.164136e+000 -5.431907e+000 205 203 208
4.782573e-001 3.332436e-001 -6.805376e+000 164 153 133
-1.478448e-001 8.288176e-001 -7.236194e+000 193 180 161
-1.478448e-001 8.288176e-001 -7.236194e+000 193 180 161
8.012640e-001 8.638759e-001 -6.417004e+000 108 15 22
4.442018e-001 1.230784e+000 -6.807482e+000 232 76 77
-2.203507e-001 -2.497223e-001 -7.747591e+000 91 82 84
2.752201e-001 -7.951601e-001 -7.435210e+000 145 137 136
-1.067668e-002 -3.896446e-001 -7.287609e+000 176 117 73
-2.122296e-001 -9.118692e-002 -7.236591e+000 185 170 149
-7.372922e-001 -1.787942e-001 -6.748332e+000 97 25 11
-3.063142e-001 9.910918e-002 -6.851005e+000 66 23 21
-9.420006e-001 -1.695760e-001 -6.228867e+000 104 75 50
-2.246542e-001 1.051879e+000 -7.546058e+000 216 70 71
-2.246542e-001 1.051879e+000 -7.546058e+000 216 70 71
1.127455e+000 -2.232016e-001 -6.131360e+000 120 105 67
1.571258e-001 6.242686e-001 -6.985245e+000 169 154 133
3.072472e-001 7.211766e-001 -6.999163e+000 228 221 203
2.646814e-001 1.043617e+000 -7.023975e+000 214 204 192
1.762719e-001 1.370241e+000 -7.164228e+000 31 6 16
4.530207e-001 1.075722e+000 -6.769870e+000 235 222 203
7.698858e-001 9.530492e-001 -6.469730e+000 212 61 66
4.725716e-001 1.281296e+000 -6.794452e+000 217 57 60
3.730111e-001 -1.121721e+000 -7.325588e+000 30 23 24
5.006296e-001 -1.104776e+000 -7.130398e+000 255 255 220
5.006296e-001 -1.104776e+000 -7.130398e+000 255 255 220
3.387009e-001 -8.623120e-001 -7.187510e+000 255 254 208
2.500275e-001 -6.985006e-001 -7.240532e+000 221 194 133
4.095612e-002 -3.346272e-001 -7.310116e+000 85 15 16
-8.460295e-001 -3.225592e-001 -6.537717e+000 146 45 27
-2.391517e-001 3.147910e-001 -7.613103e+000 220 204 188
-3.286108e-001 1.465222e-002 -6.980201e+000 71 27 22
-9.559104e-001 -2.310111e-001 -6.292413e+000 74 42 27
-9.763864e-001 -2.190207e-001 -6.298063e+000 74 42 27
-1.233725e-001 3.803898e-001 -7.432181e+000 169 154 131
4.218287e-001 4.334333e-002 -6.569478e+000 223 215 194
-2.492284e-002 7.401851e-001 -7.162678e+000 247 240 224
9.718292e-001 -1.629400e-001 -6.268541e+000 248 243 226
6.852684e-001 2.955742e-001 -6.642249e+000 243 236 220
3.674474e-001 4.980205e-001 -6.926468e+000 200 192 171
9.520432e-001 4.829803e-001 -6.213651e+000 233 85 85
2.406048e-001 -8.048684e-001 -7.320440e+000 255 248 189
7.619367e-003 -5.361945e-001 -7.511476e+000 182 50 48
-4.674080e-001 -1.833399e-002 -6.843906e+000 53 16 15
8.865516e-001 -6.915216e-002 -6.357927e+000 189 176 154
5.659318e-001 2.892591e-001 -6.720698e+000 232 225 212
1.385601e+000 -1.597166e-001 -5.992325e+000 12 7 5
9.467625e-001 9.463927e-002 -6.196831e+000 243 227 211
1.061814e+000 2.380842e-001 -6.202119e+000 211 50 61
5.941491e-001 9.756463e-001 -6.636239e+000 232 76 80
4.868355e-001 -1.203822e+000 -7.150154e+000 144 139 140
1.588558e-001 -6.204163e-001 -7.430963e+000 254 183 152
-4.465681e-001 5.286604e-001 -7.722932e+000 187 172 151
-9.040540e-001 -3.239543e-001 -6.481762e+000 151 46 27
-9.114572e-001 -2.391785e-001 -6.425566e+000 225 136 92
-3.258072e-001 8.240131e-001 -7.599612e+000 221 212 195
1.787145e-001 2.728366e-001 -6.801346e+000 241 232 215
6.771315e-002 1.214530e+000 -7.154203e+000 206 69 67
-1.938741e-001 2.308385e-001 -7.607891e+000 152 28 36
7.106006e-001 -1.354938e-001 -6.400611e+000 243 238 219
7.007245e-002 8.988469e-001 -7.110713e+000 184 171 154
8.904530e-001 5.081710e-001 -6.421843e+000 249 242 226
8.871536e-001 5.471122e-001 -6.316322e+000 154 28 31
-1.995589e-001 -4.056553e-001 -7.626579e+000 235 228 210
-1.995589e-001 -4.056553e-001 -7.626579e+000 235 228 210
-1.037422e-001 -2.192026e-001 -7.838542e+000 49 39 40
-2.525636e-001 2.954278e-002 -7.724491e+000 12 8 9
-4.486655e-001 5.526266e-001 -7.850531e+000 205 188 168
-7.351255e-001 -3.734905e-001 -6.622178e+000 217 210 218
-1.461525e-001 4.485287e-001 -7.372907e+000 154 136 114
8.585531e-001 5.068414e-001 -6.426901e+000 248 241 225
-9.016440e-001 -2.039315e-001 -6.306298e+000 50 21 13
9.313614e-001 6.071998e-002 -6.280657e+000 250 244 229
7.362092e-001 8.394552e-001 -6.683666e+000 242 235 219
-3.129986e-001 6.025328e-001 -7.642573e+000 233 224 207
1.170608e+000 -2.209354e+000 -6.443681e+000 178 175 182
1.395416e+000 -2.382086e+000 -6.255266e+000 195 190 197
6.938636e-001 -1.233241e+000 -6.999943e+000 178 169 172
2.743771e-001 -7.603412e-001 -7.431236e+000 149 138 136
1.186488e+000 -1.946105e+000 -6.443272e+000 208 207 213
1.614242e+000 -2.249494e+000 -5.963731e+000 194 189 196
1.438218e+000 -2.109700e+000 -6.155474e+000 189 186 193
1.209557e+000 -1.789952e+000 -6.343164e+000 216 211 218
9.013775e-001 -1.338606e+000 -6.720958e+000 202 195 202
-4.798228e-001 -3.038098e-001 -7.016792e+000 66 26 15
-3.793745e-002 -1.657583e-001 -7.384510e+000 201 190 167
-9.177216e-001 -3.120246e-001 -6.449920e+000 223 136 107
-4.119253e-001 -4.690892e-003 -6.956437e+000 88 53 49
-3.353587e-001 -1.023633e-002 -6.980430e+000 100 67 60
-7.915163e-001 -1.939330e-001 -6.288571e+000 215 205 204
2.270092e+000 -1.271800e+000 -5.093293e+000 177 176 181
1.932975e+000 -1.121327e+000 -5.235794e+000 197 197 201
1.929166e+000 -1.103387e+000 -5.267708e+000 159 158 163
1.298829e+000 -2.361343e+000 -6.399329e+000 202 199 206
7.038292e-001 -1.477500e+000 -7.035404e+000 177 171 175
5.817302e-001 -1.282492e+000 -7.131741e+000 173 167 171
1.705199e+000 -2.619485e+000 -5.870009e+000 223 218 225
1.486635e+000 -2.333618e+000 -6.084496e+000 223 218 225
1.455343e+000 -2.292593e+000 -6.035340e+000 203 198 205
1.647696e+000 -2.294099e+000 -5.935666e+000 225 220 227
1.334852e+000 -2.019821e+000 -6.257223e+000 201 196 203
1.582108e+000 -2.161996e+000 -5.931765e+000 223 218 224
-6.270239e-001 -3.394525e-001 -6.870178e+000 184 28 26
-5.102372e-001 -1.510427e-001 -7.038599e+000 61 21 14
-5.603216e-001 -3.668810e-002 -6.665215e+000 110 45 34
-6.176930e-002 1.757759e-001 -6.978572e+000 155 140 119
1.940198e+000 -1.109742e+000 -5.302627e+000 146 144 149
2.976057e-001 8.185607e-002 -6.622014e+000 211 199 183
9.038112e-001 -1.434905e-001 -6.324472e+000 178 160 129
2.322602e+000 -1.252889e+000 -4.863311e+000 206 204 209
4.796124e-001 -1.215679e+000 -7.358087e+000 161 155 159
7.370205e-001 -1.526191e+000 -7.029746e+000 147 140 147
9.007503e-001 -1.784046e+000 -6.778277e+000 174 169 175
6.058651e-001 -1.123750e+000 -7.047440e+000 188 179 182
1.305058e+000 -1.945704e+000 -6.202988e+000 198 193 200
1.305058e+000 -1.945704e+000 -6.202988e+000 198 193 200
1.140540e+000 -1.675637e+000 -6.457969e+000 177 172 178
1.140540e+000 -1.675637e+000 -6.457969e+000 177 172 178
1.808596e+000 -2.483197e+000 -5.727296e+000 202 195 202
-1.511464e-001 -8.142489e-002 -7.524280e+000 207 199 179
-5.207329e-001 -7.279868e-003 -6.816221e+000 84 37 31
-3.213440e-001 7.579625e-002 -6.943391e+000 100 73 63
-3.755974e-001 2.442306e-001 -7.019836e+000 160 139 122
-2.784413e-002 4.754687e-001 -7.211885e+000 202 189 170
6.905411e-002 1.181607e-001 -6.744481e+000 221 209 190
1.134844e+000 -4.264582e-001 -6.151736e+000 203 183 138
9.470142e-001 -1.143695e-001 -6.286171e+000 199 184 165
7.892109e-001 -1.523447e+000 -6.919087e+000 194 188 192
1.758181e+000 -2.709494e+000 -5.882173e+000 215 210 217
5.956610e-001 -1.039093e+000 -7.063589e+000 178 167 171
-2.440326e-001 1.852359e-001 -7.773842e+000 22 4 17
1.179521e+000 2.984686e-001 -6.086359e+000 63 46 46
9.462992e-001 7.483002e-001 -6.368858e+000 159 26 31
9.557812e-001 -1.842140e+000 -6.719164e+000 197 193 200
3.275731e-001 -8.467796e-001 -7.188454e+000 255 253 206
7.374583e-001 -1.092269e+000 -6.956583e+000 171 164 171
-1.144008e-001 5.296633e-001 -7.230498e+000 218 207 186
5.238503e-001 4.168412e-001 -6.853148e+000 223 216 200
-4.827670e-002 8.395271e-001 -7.303710e+000 212 201 183
9.255883e-002 8.731052e-001 -7.064588e+000 236 228 210
1.217909e+000 1.389078e-001 -6.080089e+000 231 82 88
-9.213746e-002 3.894961e-001 -7.423107e+000 167 152 131
1.145905e+000 8.496318e-002 -6.108655e+000 139 13 20
-4.929059e-002 1.823005e-001 -7.077445e+000 134 117 99
2.380621e-001 6.587310e-001 -6.939975e+000 236 229 213
3.552967e-001 8.203450e-001 -7.032169e+000 238 230 213
7.919328e-001 3.498083e-001 -6.457906e+000 186 171 148
-1.446521e-001 1.029905e+000 -7.274841e+000 151 129 115
4.153085e-001 1.254444e+000 -6.793459e+000 211 50 55
2.748652e-001 1.303572e+000 -6.898883e+000 218 63 67
5.637028e-001 8.474091e-002 -6.519593e+000 161 151 126
5.271244e-001 -1.065227e+000 -7.222034e+000 255 254 213
-1.548449e-001 4.751926e-001 -7.377726e+000 146 131 110
-9.315436e-002 4.204204e-002 -7.394190e+000 69 7 13
2.340271e-002 4.109041e-001 -6.995279e+000 155 140 121
-1.541777e-001 -1.805946e-001 -7.584791e+000 193 179 160
-5.939379e+000 -8.527789e+000 -1.651422e+001 106 105 113
7.825917e-001 -1.505560e+000 -6.875013e+000 181 179 182
5.601489e-001 -1.169441e+000 -7.104824e+000 152 148 138
8.485142e-001 -1.482341e+000 -6.788006e+000 190 185 189
-1.601000e-001 7.774661e-001 -7.410134e+000 183 171 151
-2.535243e-001 1.425405e-001 -6.908319e+000 131 114 96
-1.639723e-001 3.661874e-001 -7.401859e+000 221 209 187
