ply
format ascii 1.0
element face 0
property list uchar int vertex_indices
element vertex 871
property float x
property float y
property float z
property uchar diffuse_red
property uchar diffuse_green
property uchar diffuse_blue
end_header
1.224306e+000 -5.061796e-001 -6.167956e+000 248 66 76
4.415336e-001 1.342811e+000 -6.829371e+000 28 16 22
-4.672715e-001 4.721941e-001 -7.735891e+000 219 206 198
1.063452e+000 2.125927e-001 -6.215136e+000 209 192 183
1.076067e+000 1.693654e-001 -6.196578e+000 192 178 168
-2.490913e-001 1.506303e-001 -6.915743e+000 37 25 20
-2.637467e-001 1.015088e-001 -6.787612e+000 47 28 22
6.999133e-001 -4.862171e-002 -6.412541e+000 222 215 209
-1.646749e-001 -2.206091e-001 -6.601735e+000 80 58 21
-6.094808e-001 -3.845500e-001 -6.496015e+000 48 29 27
-3.131643e-001 -3.877911e-001 -6.466427e+000 180 170 168
-1.609417e-001 4.997039e-001 -7.227673e+000 209 202 192
-9.040760e-003 3.577293e-001 -6.952631e+000 166 156 146
-9.040760e-003 3.577293e-001 -6.952631e+000 166 156 146
5.781017e-001 -7.227585e-002 -6.524236e+000 195 190 184
-9.040108e-001 -1.918121e-001 -6.068885e+000 190 163 108
9.506960e-001 -1.748872e-001 -6.313548e+000 195 188 182
4.885804e-001 -4.450541e-001 -6.690613e+000 183 163 112
1.022492e+000 -4.718339e-001 -6.278447e+000 178 154 106
2.952541e-001 -7.783196e-001 -7.222353e+000 72 62 35
6.750841e-001 1.095051e+000 -6.560060e+000 202 42 51
-9.534209e-002 6.426077e-001 -7.176974e+000 150 141 131
1.619541e-001 4.016679e-001 -6.728443e+000 181 168 159
-8.126118e-001 -1.348488e-001 -6.190785e+000 146 69 42
-2.928659e-001 -2.441014e-001 -6.398410e+000 121 73 56
-2.928659e-001 -2.441014e-001 -6.398410e+000 121 73 56
1.651480e-001 -4.230056e-001 -6.719531e+000 47 30 18
5.844480e-001 -4.419328e-001 -6.770256e+000 102 84 47
5.396046e-001 -5.446406e-001 -6.847642e+000 85 66 41
1.004979e+000 -6.020500e-001 -6.368230e+000 180 158 145
1.011572e+000 -1.064306e+000 -6.478108e+000 224 60 67
1.011572e+000 -1.064306e+000 -6.478108e+000 224 60 67
9.755775e-001 2.306575e-001 -6.238341e+000 158 143 136
6.619784e-001 -2.499811e-002 -6.415414e+000 191 184 175
-6.802848e-001 -3.600476e-001 -6.317367e+000 255 211 172
7.640452e-001 9.483523e-001 -6.411809e+000 194 34 44
1.012788e+000 5.824307e-001 -6.137519e+000 19 0 9
-2.075642e-001 7.429441e-001 -7.506748e+000 223 216 209
2.770918e-001 6.467375e-001 -6.900694e+000 149 139 129
4.877502e-001 5.421995e-001 -6.696097e+000 222 213 208
-3.840642e-001 -7.089861e-002 -6.354162e+000 87 23 15
1.213530e+000 -3.614497e-002 -6.043730e+000 248 77 87
7.419147e-001 -1.025950e-001 -6.399285e+000 241 241 233
9.373880e-001 -2.892051e-001 -6.292113e+000 111 91 67
1.044411e+000 -3.150125e-001 -6.277632e+000 165 141 95
9.275229e-001 -3.679651e-001 -6.321635e+000 188 166 113
6.450161e-001 -5.779991e-001 -6.584504e+000 205 195 184
6.385028e-001 6.978260e-001 -6.511833e+000 209 202 194
-2.164831e-001 -2.013877e-001 -6.726032e+000 93 66 37
5.205931e-001 -2.794465e-001 -6.695671e+000 247 245 241
2.476948e-001 -4.939788e-001 -6.759823e+000 61 39 25
1.124045e+000 -7.102962e-001 -6.292448e+000 255 78 92
3.699122e-001 7.635321e-001 -6.849271e+000 228 221 214
4.371144e-001 -1.145998e+000 -7.297939e+000 144 123 80
-5.826619e-001 -5.041301e-001 -6.682931e+000 45 33 33
1.240051e+000 -5.926824e-001 -6.154247e+000 24 8 11
-8.061671e-002 1.256471e+000 -7.343417e+000 148 23 29
-5.544836e-002 8.411993e-001 -7.226167e+000 212 206 197
8.443202e-001 8.684506e-001 -6.355696e+000 98 12 21
1.238960e-001 6.669115e-001 -7.105552e+000 155 145 135
9.309798e-001 7.441226e-001 -6.308940e+000 188 53 56
-1.074659e-001 5.010286e-001 -7.240427e+000 151 141 131
3.862947e-001 2.745106e-001 -6.784740e+000 143 129 118
-1.085610e-001 6.989038e-002 -6.674204e+000 135 120 113
-1.428244e-002 9.351024e-002 -6.763165e+000 122 110 103
2.238566e-003 5.922434e-002 -6.729768e+000 153 143 133
2.146619e-001 6.822819e-002 -6.515298e+000 156 146 137
-6.210338e-001 -1.817823e-001 -6.485693e+000 156 71 47
-6.210338e-001 -1.817823e-001 -6.485693e+000 156 71 47
-5.232534e-001 -1.380802e-001 -6.468753e+000 176 90 62
-5.309323e-001 -1.430528e-001 -6.515019e+000 176 90 62
-2.706664e-001 -1.571217e-001 -6.500274e+000 145 58 35
-3.035359e-001 -1.822320e-001 -6.436291e+000 196 88 56
5.371453e-001 -1.585759e-002 -6.492155e+000 197 189 181
-5.985413e-001 -2.766552e-001 -6.542629e+000 187 84 56
-5.504167e-001 -2.657680e-001 -6.543796e+000 191 72 37
9.171370e-002 -2.513073e-001 -6.704930e+000 242 236 231
-5.686213e-002 -3.234527e-001 -6.763992e+000 44 33 15
-4.397247e-001 -3.839298e-001 -6.426574e+000 201 179 160
1.884344e-001 -3.745905e-001 -6.753347e+000 141 120 74
5.060938e-001 -6.419194e-001 -6.746672e+000 241 238 228
7.209903e-001 -8.271563e-001 -6.724577e+000 229 79 86
1.123612e+000 -6.557422e-001 -6.139644e+000 180 21 31
1.116257e+000 -6.784223e-001 -6.121330e+000 23 4 1
-3.546366e-001 8.137971e-001 -7.677407e+000 195 186 185
8.892475e-001 8.353742e-001 -6.345727e+000 18 6 10
1.030304e-001 7.079765e-001 -7.093713e+000 212 206 200
1.017227e-001 7.067789e-001 -7.072175e+000 212 206 200
8.055908e-001 6.128378e-001 -6.406262e+000 234 229 226
8.077302e-001 6.125164e-001 -6.417188e+000 234 229 226
1.739347e-001 3.109861e-001 -6.775733e+000 136 120 107
1.476497e-002 2.591571e-001 -6.937841e+000 152 139 130
9.444852e-004 1.243735e-001 -6.778063e+000 128 114 105
3.689600e-001 2.372564e-001 -6.746394e+000 140 127 111
-1.335610e-001 8.933966e-002 -6.699132e+000 123 110 102
-1.335610e-001 8.933966e-002 -6.699132e+000 123 110 102
-6.301345e-002 3.257143e-002 -6.668573e+000 147 134 126
6.506310e-002 -8.508113e-003 -6.674112e+000 125 112 104
7.537170e-002 1.143079e-002 -6.674717e+000 169 160 151
-2.872248e-001 -1.169945e-001 -6.520132e+000 65 4 1
-2.872364e-001 -1.169187e-001 -6.519609e+000 65 4 1
-1.705124e-001 -6.245853e-002 -6.610090e+000 172 87 71
-1.704194e-001 -1.147513e-001 -6.582107e+000 207 180 171
-7.298541e-001 -2.980975e-001 -6.287791e+000 230 112 81
-7.298541e-001 -2.980975e-001 -6.287791e+000 230 112 81
-5.569941e-001 -3.424611e-001 -6.556914e+000 66 24 20
-4.532217e-001 -3.729628e-001 -6.405427e+000 57 54 68
-2.235425e-001 -3.674914e-001 -6.591858e+000 179 166 158
4.583253e-001 -2.242591e-001 -6.691993e+000 230 227 220
-2.967283e-002 -4.527107e-001 -6.769976e+000 254 252 247
-1.225590e-002 -4.937053e-001 -6.868257e+000 46 35 29
8.119060e-001 -5.163036e-001 -6.349858e+000 211 186 130
1.345968e+000 -3.851068e-001 -6.023355e+000 198 175 121
2.796519e-001 -9.418207e-001 -6.979832e+000 41 31 23
4.748462e-001 -1.081984e+000 -7.109243e+000 150 128 79
1.138540e+000 -6.252746e-001 -6.161235e+000 211 46 55
6.005680e-001 1.219640e+000 -6.742683e+000 182 43 46
-3.374238e-001 7.907271e-001 -7.633565e+000 156 140 131
7.776027e-001 8.821170e-001 -6.369761e+000 113 9 17
-5.323104e-001 5.509395e-001 -7.910855e+000 34 24 16
-1.889960e-001 6.712266e-001 -7.526234e+000 205 198 188
-2.435055e-001 5.563630e-001 -7.570322e+000 217 210 200
-1.729046e-001 4.503023e-001 -7.313217e+000 144 131 120
-4.412274e-002 4.407156e-001 -7.179863e+000 172 162 152
7.690964e-001 5.606940e-001 -6.449856e+000 229 226 221
7.696290e-001 5.604403e-001 -6.453226e+000 229 226 221
1.680597e-001 2.542524e-001 -6.801610e+000 175 165 156
-1.648604e-001 1.515793e-001 -6.808679e+000 138 124 115
-1.098307e-002 4.736952e-002 -6.724846e+000 115 102 93
4.832876e-002 2.588219e-002 -6.706981e+000 123 113 104
-1.540317e-001 -9.495312e-002 -6.663472e+000 184 161 155
2.311343e-001 -2.418228e-002 -6.643914e+000 206 197 188
-8.062072e-001 -1.864422e-001 -6.259354e+000 77 22 2
-7.810366e-001 -2.089922e-001 -6.212980e+000 54 5 8
-2.781942e-001 -1.829497e-001 -6.476857e+000 219 97 66
-1.726822e-001 -2.209816e-001 -6.678073e+000 93 69 26
-6.419909e-001 -3.018089e-001 -6.386551e+000 225 183 143
-1.303413e-001 -2.807524e-001 -6.681768e+000 97 79 41
-1.978121e-001 -3.289284e-001 -6.638956e+000 203 193 181
-1.725536e-001 -4.584013e-001 -6.706650e+000 45 36 31
-3.313220e-001 -5.332794e-001 -6.656778e+000 234 233 229
1.213462e+000 -3.213801e-001 -6.068200e+000 152 124 77
6.115368e-001 -6.631351e-001 -6.604779e+000 160 147 126
6.961989e-001 -7.768585e-001 -6.664932e+000 174 33 33
1.104242e+000 -6.274230e-001 -6.144618e+000 214 52 58
-4.177270e-002 1.165028e+000 -7.264084e+000 173 35 41
-2.239407e-001 1.071784e+000 -7.545949e+000 195 44 52
-2.239407e-001 1.071784e+000 -7.545949e+000 195 44 52
-3.296302e-001 8.901242e-001 -7.590433e+000 210 44 53
-1.707035e-001 9.080291e-001 -7.507150e+000 203 195 185
-1.703356e-001 9.081983e-001 -7.507897e+000 203 195 185
-3.639837e-001 8.431419e-001 -7.688621e+000 183 34 41
-3.710248e-001 7.238872e-001 -7.680676e+000 178 166 154
2.715233e-001 7.655539e-001 -7.047572e+000 213 204 198
8.466512e-002 6.598148e-001 -7.088130e+000 195 185 177
3.105577e-001 7.336808e-001 -7.006489e+000 208 201 195
-1.036426e-001 5.333884e-001 -7.241360e+000 193 184 175
9.310563e-001 6.131735e-001 -6.330737e+000 203 45 53
9.515176e-001 6.569671e-001 -6.311105e+000 171 26 33
-2.842417e-001 2.112773e-001 -7.731006e+000 203 52 59
-4.423369e-002 2.451010e-001 -6.976356e+000 124 111 102
5.673455e-003 1.928730e-001 -6.900097e+000 122 114 103
-2.363132e-001 7.214415e-002 -6.733999e+000 130 108 100
7.746702e-001 1.359918e-001 -6.536396e+000 188 179 170
-9.498641e-001 -1.914758e-001 -6.191582e+000 158 135 82
1.175867e+000 1.669755e-001 -6.201012e+000 222 55 65
5.725531e-001 -6.945174e-002 -6.487622e+000 202 197 191
-8.465972e-001 -2.589742e-001 -6.238694e+000 98 31 28
-4.168879e-001 -3.025523e-001 -6.438197e+000 143 9 18
5.985948e-001 -3.078784e-001 -6.648166e+000 165 151 141
5.668015e-001 -4.154407e-001 -6.620199e+000 91 74 38
7.083457e-001 -3.322053e-001 -6.505885e+000 165 152 135
6.714159e-001 -3.657595e-001 -6.503531e+000 148 138 123
1.044810e+000 -2.457427e-001 -6.196495e+000 83 65 39
1.035561e+000 -2.408725e-001 -6.169687e+000 83 65 39
1.224971e+000 -1.951384e-001 -6.068535e+000 140 118 71
1.030935e+000 -5.262108e-001 -6.258302e+000 197 167 159
1.425967e+000 -3.759378e-001 -5.916357e+000 27 14 14
7.290503e-001 -8.264298e-001 -6.539244e+000 39 28 23
8.910616e-001 -8.476725e-001 -6.458062e+000 224 57 65
-3.867780e+000 9.866506e-001 -1.204341e+001 11 7 8
2.900949e-001 9.242062e-001 -7.015086e+000 192 179 173
7.834883e-001 9.636811e-001 -6.455909e+000 183 29 39
-3.060921e-002 6.036242e-001 -7.122097e+000 183 173 163
5.321380e-001 4.481297e-001 -6.755760e+000 183 175 163
-2.547486e-001 2.832578e-001 -7.627196e+000 168 33 38
2.697943e-001 9.351634e-002 -6.682179e+000 159 144 137
-3.614953e-001 -2.508960e-002 -6.606525e+000 123 51 35
4.685522e-001 1.116885e-001 -6.607611e+000 179 171 160
-9.467554e-001 -2.624792e-001 -6.268482e+000 32 23 24
-5.377676e-001 -1.850176e-001 -6.476540e+000 234 122 84
-5.185182e-001 -2.168167e-001 -6.461835e+000 166 35 18
-9.152177e-003 -1.175656e-001 -6.591946e+000 241 236 233
1.225253e+000 9.525044e-002 -6.031822e+000 119 10 23
-4.626805e-001 -4.226797e-001 -6.509215e+000 161 144 133
-2.173030e-001 -4.501251e-001 -6.637249e+000 211 204 198
9.757009e-001 -2.515981e-001 -6.285523e+000 147 129 119
9.624605e-001 -2.998829e-001 -6.205291e+000 174 151 101
7.261870e-001 -5.960712e-001 -6.444504e+000 194 185 174
1.009935e+000 -4.675295e-001 -6.226517e+000 175 151 105
1.412662e+000 -3.985200e-001 -5.926332e+000 206 183 115
1.412662e+000 -3.985200e-001 -5.926332e+000 206 183 115
9.097524e-001 -7.241741e-001 -6.426920e+000 208 200 189
4.209767e-001 -1.141150e+000 -7.222319e+000 134 114 69
5.474198e-001 -1.102817e+000 -7.098180e+000 13 5 8
1.116901e+000 -6.056516e-001 -6.158350e+000 150 2 16
-2.124964e+000 -3.011754e+000 -1.062728e+001 37 31 33
-2.106822e+000 -3.147387e+000 -1.062678e+001 37 31 33
-1.598163e+000 -2.326275e+000 -8.647669e+000 39 33 35
-5.505461e-001 7.399535e-001 -7.898221e+000 191 41 42
-7.013954e-002 6.961472e-001 -7.186139e+000 206 197 188
-4.636030e-001 4.760748e-001 -7.783729e+000 208 194 184
-1.788497e-001 5.026996e-001 -7.319738e+000 202 194 183
5.202455e-001 3.286150e-001 -6.815289e+000 141 133 122
1.689145e-001 1.303414e-001 -6.729047e+000 155 145 136
-8.920368e-001 -1.706943e-001 -6.162807e+000 39 24 28
-1.810337e-001 -1.369807e-001 -6.636287e+000 182 160 154
5.044309e-001 2.208771e-002 -6.542316e+000 220 216 210
5.045473e-001 2.196218e-002 -6.542561e+000 220 216 210
3.063670e-001 -1.129121e-001 -6.667448e+000 255 252 244
6.806763e-001 -2.365282e-002 -6.449444e+000 188 179 172
7.239081e-001 8.249926e-003 -6.440951e+000 213 205 196
8.080928e-001 -2.694370e-002 -6.410805e+000 180 172 160
8.087085e-001 -2.717638e-002 -6.412300e+000 180 172 160
5.926478e-001 -1.311213e-001 -6.535770e+000 226 221 217
5.926478e-001 -1.311213e-001 -6.535770e+000 226 221 217
1.196481e+000 -4.975228e-001 -6.132353e+000 229 58 69
-2.085265e+000 -2.932611e+000 -1.063402e+001 24 18 20
-2.033594e+000 -3.029004e+000 -1.054407e+001 20 14 16
-1.954595e+000 -3.177000e+000 -1.045770e+001 29 23 25
6.763189e-001 1.095954e+000 -6.590061e+000 199 40 48
-1.960928e-001 1.026035e+000 -7.556663e+000 191 41 48
-8.938046e-002 7.671432e-001 -7.196900e+000 177 168 159
-3.154950e-002 7.863436e-001 -7.172853e+000 218 211 201
7.519339e-001 8.213093e-001 -6.403941e+000 189 43 49
-5.455378e-001 5.385785e-001 -7.921912e+000 38 24 21
-1.172922e-001 4.821037e-001 -7.285335e+000 145 133 122
1.629859e-001 4.198532e-001 -6.906240e+000 188 175 166
4.122485e-001 3.735587e-001 -6.847915e+000 170 162 149
6.945456e-001 1.792206e-001 -6.621554e+000 155 145 134
-9.382913e-001 -2.032890e-001 -6.202214e+000 168 147 100
-9.382913e-001 -2.032890e-001 -6.202214e+000 168 147 100
-8.651114e-001 -1.944208e-001 -6.223144e+000 151 127 81
7.212195e-001 1.206032e-002 -6.427811e+000 213 205 196
1.232481e+000 -3.224608e-002 -6.073744e+000 247 80 90
5.180490e-001 -5.206013e-001 -6.705306e+000 81 64 37
6.461486e-001 -5.762724e-001 -6.573188e+000 204 191 182
1.355673e+000 -3.441336e-001 -5.967644e+000 163 139 91
4.669435e-001 -1.193001e+000 -7.161399e+000 41 28 23
-1.864820e+000 -3.137256e+000 -1.046985e+001 68 64 65
-1.200113e-001 9.751522e-001 -7.206837e+000 220 197 200
5.809713e-001 6.206508e-001 -6.731041e+000 210 201 194
1.279495e-001 4.825968e-001 -6.984393e+000 153 141 129
3.786951e-001 5.110092e-001 -6.925972e+000 178 169 160
1.545769e-002 4.175894e-001 -7.120317e+000 140 130 118
1.177973e-001 2.415667e-001 -6.844535e+000 128 116 106
1.934771e-001 2.343360e-001 -6.789826e+000 201 194 184
5.181556e-001 3.400283e-001 -6.828800e+000 151 143 132
8.183265e-001 2.741704e-001 -6.453186e+000 249 245 240
1.362357e-001 -2.572059e-003 -6.685816e+000 127 117 107
-7.428809e-001 -1.864000e-001 -6.295099e+000 155 66 34
3.226299e-002 -2.874296e-001 -6.716474e+000 244 241 236
8.168702e-001 -1.040189e-001 -6.350822e+000 133 119 108
7.275203e-001 -2.459831e-001 -6.476515e+000 234 230 221
5.633099e-001 1.074479e+000 -6.701112e+000 207 41 48
-4.048907e-001 3.631074e-001 -7.734943e+000 37 29 27
1.027853e+000 5.894502e-001 -6.184206e+000 17 7 8
-3.910837e-001 -6.731935e-002 -6.482006e+000 87 27 18
2.548153e-001 -4.863826e-001 -6.719522e+000 63 35 24
1.142397e+000 -1.999602e-001 -6.163985e+000 108 27 33
7.797144e-001 -4.023469e-001 -6.344823e+000 222 197 140
1.025648e+000 -3.083250e-001 -6.183134e+000 175 151 103
1.007264e+000 -5.312610e-001 -6.266209e+000 227 214 206
3.580196e-001 7.571168e-001 -6.732948e+000 230 221 214
6.399733e-001 7.121144e-001 -6.632348e+000 215 208 200
4.686581e-001 5.408432e-001 -6.773127e+000 211 204 196
4.714124e-001 5.405119e-001 -6.779296e+000 211 204 196
8.428124e-001 3.543678e-001 -6.425596e+000 174 159 147
4.244159e-001 1.518020e-001 -6.653694e+000 178 168 159
1.150876e+000 -3.619380e-001 -6.116717e+000 108 88 50
7.362842e-002 7.679155e-001 -7.088626e+000 217 208 201
1.144829e-002 5.531021e-001 -7.173984e+000 186 176 167
6.356442e-002 4.089380e-001 -6.999571e+000 131 121 111
9.550553e-001 3.479401e-001 -6.280094e+000 249 248 244
8.199366e-001 -2.113676e-001 -6.346517e+000 247 240 234
4.318037e-001 -1.133895e+000 -7.225923e+000 140 121 72
1.506428e-001 1.113795e+000 -7.095322e+000 210 201 196
4.352719e-001 6.574825e-001 -6.774286e+000 233 224 217
-2.785441e-001 -8.330344e-002 -6.538758e+000 76 21 19
5.922725e-001 1.399216e-001 -6.565225e+000 138 126 114
6.299255e-001 -4.417561e-001 -6.598861e+000 170 148 100
-3.053230e-001 6.081255e-001 -7.727960e+000 215 206 197
-1.803626e-002 -6.945283e-001 -6.790192e+000 39 31 29
7.838545e-001 4.642611e-001 -6.448182e+000 243 242 237
-2.304918e-001 3.479024e-002 -6.677268e+000 73 25 18
1.574956e-002 4.163508e-002 -6.724491e+000 142 132 122
-1.731229e-001 -3.669411e-001 -6.621419e+000 172 159 150
-2.478114e-001 -3.961523e-001 -6.559380e+000 171 161 150
2.746514e-001 7.381989e-001 -7.055786e+000 175 166 157
2.897096e-001 2.528967e-001 -6.796968e+000 124 113 103
-1.391725e-001 2.725307e-003 -6.672788e+000 149 136 128
-2.648853e-001 -3.075620e-001 -6.589613e+000 168 150 139
8.347677e-001 9.105694e-001 -6.405774e+000 122 32 33
-1.339446e-001 5.366301e-001 -7.311503e+000 164 156 145
-5.358529e-001 -7.391181e-002 -6.511230e+000 108 35 15
-3.777591e-001 -3.639915e-001 -6.391402e+000 168 149 148
1.255429e+000 8.756839e-002 -6.024115e+000 180 41 48
4.996717e-001 -1.043776e-001 -6.607066e+000 253 250 245
-1.492141e-001 -4.397985e-001 -6.728574e+000 240 237 230
6.961664e-001 -7.771102e-001 -6.664267e+000 181 39 35
9.190015e-001 7.005390e-001 -6.327731e+000 189 34 42
7.925635e-001 6.679429e-001 -6.403887e+000 249 64 78
1.133020e+000 2.618105e-001 -6.158846e+000 227 60 68
1.222521e+000 9.294613e-002 -6.043029e+000 121 11 20
-8.386145e+000 -6.064753e+000 -1.834958e+001 106 97 95
-4.489392e-001 9.634612e-001 -7.767369e+000 25 18 16
2.372915e-001 4.495106e-001 -6.920897e+000 134 124 111
-5.635824e-003 1.192966e+000 -7.235570e+000 181 36 41
1.375179e+000 -1.707408e-001 -5.927591e+000 190 165 111
1.375179e+000 -1.707408e-001 -5.927591e+000 190 165 111
1.919079e-001 5.962783e-002 -6.690626e+000 132 120 108
-6.285201e-001 -1.261018e-001 -6.457532e+000 69 22 15
5.872860e-001 1.007945e-001 -7.020731e+000 142 132 120
6.566296e-001 6.965657e-001 -6.597070e+000 194 186 177
-1.608301e-001 4.126268e-001 -7.257640e+000 152 140 128
-1.601123e-001 2.096648e-001 -6.963702e+000 137 127 117
-1.178203e-001 1.674144e-001 -6.693043e+000 102 88 79
-7.322888e-001 -1.395352e-001 -6.771870e+000 114 51 31
-4.797824e-001 -2.308099e-001 -6.467154e+000 186 45 12
2.599774e-001 9.502046e-001 -7.044099e+000 195 186 181
-9.376578e-001 -1.724390e-001 -6.126937e+000 140 113 65
-9.125290e-001 -3.596502e-001 -6.438650e+000 51 37 33
-5.029604e-001 -2.113552e-001 -6.381399e+000 146 24 8
-6.620755e-001 -3.402639e-001 -6.316340e+000 220 167 124
-6.326462e-001 -2.985735e-001 -6.275749e+000 82 29 13
-6.326462e-001 -2.985735e-001 -6.275749e+000 82 29 13
-4.307817e-001 9.690235e-001 -7.770267e+000 20 20 18
2.823277e-001 7.455740e-001 -6.742360e+000 209 200 191
6.499547e-001 8.414880e-001 -6.472467e+000 187 177 171
-7.481227e-002 4.959862e-001 -7.207143e+000 180 172 162
-1.918198e-001 4.672474e-002 -6.678909e+000 89 32 21
-7.008589e-001 -3.539212e-001 -6.363024e+000 252 220 167
-6.592815e-001 -3.181068e-001 -6.310762e+000 253 210 175
1.267551e-001 1.963973e-001 -6.765537e+000 162 152 142
-5.969586e-001 -3.007103e-001 -6.502186e+000 160 51 24
-5.483612e-001 -2.903679e-001 -6.478320e+000 239 157 124
-2.794409e-001 -1.765041e-001 -6.449396e+000 218 101 62
4.217136e-001 1.124599e+000 -6.819656e+000 227 214 213
-1.309047e-001 5.478391e-001 -7.302391e+000 165 155 145
7.601829e-001 7.024248e-001 -6.429758e+000 208 52 57
6.827779e-001 6.189025e-001 -6.799139e+000 150 140 128
-9.050022e-001 -1.911374e-001 -6.231435e+000 46 31 24
-2.452932e-001 -1.682303e-001 -6.422880e+000 99 24 18
-6.208330e-001 -3.344191e-001 -6.348392e+000 237 191 148
-4.423368e-001 -3.704998e-001 -6.336452e+000 99 81 63
-8.498114e-001 -1.777888e-001 -6.150617e+000 140 117 76
6.017184e-001 1.169350e+000 -6.654058e+000 196 44 50
-6.681230e-001 -3.384315e-001 -6.318253e+000 232 174 132
-8.640640e-001 -1.461678e-001 -6.333705e+000 137 59 23
-3.004652e-001 -2.120079e-001 -6.398718e+000 227 105 57
3.245822e-001 8.978948e-001 -6.919985e+000 153 142 134
-1.821707e-001 7.025450e-001 -7.499296e+000 171 163 153
-2.091000e+000 -2.699312e+000 -1.055107e+001 58 49 50
9.497210e-001 6.317316e-001 -6.309675e+000 200 52 59
7.680594e-001 -9.272374e-001 -6.566245e+000 230 98 105
-8.946740e+000 -1.026306e+001 -2.288424e+001 23 19 20
2.541450e-001 -4.905498e-001 -6.736265e+000 63 35 24
5.009369e-001 1.276571e+000 -6.712755e+000 174 44 51
1.024283e-001 7.079105e-001 -7.012637e+000 216 207 198
7.709134e-001 8.606057e-001 -6.346488e+000 188 44 48
3.696190e-001 2.705509e-001 -6.758691e+000 121 109 94
2.623624e-001 1.786858e-001 -6.638248e+000 191 178 169
-2.947580e-001 -1.227263e-001 -6.514140e+000 84 16 7
-4.104527e-001 -2.447585e-001 -6.402140e+000 167 86 64
5.095032e-001 -6.989734e-002 -6.525724e+000 214 209 202
5.135731e-001 -1.001694e-001 -6.565169e+000 223 217 211
1.275421e-002 7.169704e-001 -7.162410e+000 205 198 190
8.401489e-001 8.735969e-001 -6.386244e+000 82 12 15
7.670841e-001 8.484341e-001 -6.267008e+000 206 47 61
8.535152e-002 2.638180e-001 -6.840300e+000 152 142 133
-4.171845e-001 -2.325017e-002 -6.576217e+000 118 50 32
-4.171845e-001 -2.325017e-002 -6.576217e+000 118 50 32
-1.208940e-002 7.177352e-002 -6.740320e+000 164 151 143
-2.476443e-001 -5.232886e-002 -6.635367e+000 84 17 11
2.660218e-001 -1.215410e-001 -6.651442e+000 254 254 249
-1.842067e+000 -3.784650e+000 -1.038408e+001 45 39 41
3.580799e-001 1.353819e+000 -6.901870e+000 200 48 52
4.394563e-001 1.185644e+000 -6.893157e+000 214 51 52
4.269987e-001 1.182703e+000 -6.813639e+000 214 51 52
-1.651040e-001 9.188690e-001 -7.491029e+000 203 196 186
-2.047898e-001 6.207917e-001 -7.524116e+000 180 171 162
-1.905128e-001 6.652991e-002 -6.698440e+000 135 120 113
1.195541e+000 -3.332137e-001 -6.065336e+000 170 147 95
1.212515e+000 -3.184520e-001 -6.062010e+000 164 139 85
8.459360e-001 6.271626e-001 -6.342406e+000 245 68 80
7.088968e-001 2.507613e-001 -6.639818e+000 172 163 152
7.524171e-001 -2.648630e-001 -6.469553e+000 229 225 216
-6.487016e+000 -7.616217e+000 -1.756688e+001 31 32 36
-4.767693e+000 -6.709463e+000 -1.502954e+001 131 127 141
-4.535975e+000 -7.004106e+000 -1.515150e+001 21 19 22
-6.015123e+000 -8.806337e+000 -1.680935e+001 110 109 122
3.971289e-001 1.336094e+000 -6.850380e+000 204 47 54
4.461453e-001 1.300142e+000 -6.776648e+000 194 38 42
8.006180e-001 6.373417e-001 -6.406631e+000 250 245 244
1.307178e-001 -5.550288e-002 -6.657031e+000 160 146 135
3.184228e-001 -2.142723e-001 -6.720653e+000 218 209 202
3.184228e-001 -2.142723e-001 -6.720653e+000 218 209 202
4.540681e-001 -2.715489e-001 -6.720870e+000 217 210 200
1.257437e+000 -1.024751e-001 -6.046015e+000 25 9 12
9.145858e-001 -7.823100e-001 -6.464574e+000 210 205 196
1.027499e+000 -7.777669e-001 -6.333936e+000 250 75 86
1.191072e+000 -8.492530e-001 -6.251682e+000 250 86 94
1.191072e+000 -8.492530e-001 -6.251682e+000 250 86 94
-4.599095e+000 -6.966350e+000 -1.497548e+001 134 131 146
-5.542258e+000 -8.690458e+000 -1.687734e+001 51 51 59
1.641776e-001 -4.174966e-001 -6.713341e+000 44 28 15
1.376549e+000 -1.639812e-001 -5.913350e+000 204 174 122
1.376549e+000 -1.639812e-001 -5.913350e+000 204 174 122
1.177134e+000 -8.319891e-001 -6.232182e+000 250 78 90
1.177134e+000 -8.319891e-001 -6.232182e+000 250 78 90
1.109156e+000 4.176077e-001 -6.141948e+000 218 54 65
2.672615e-002 -5.330528e-001 -6.851879e+000 43 34 30
1.186129e+000 -1.524292e-001 -6.153680e+000 228 64 75
5.933107e-001 9.568429e-001 -6.663415e+000 230 219 215
2.697054e-001 6.583156e-001 -7.002319e+000 139 126 117
6.508842e-001 2.818352e-001 -6.682899e+000 209 202 194
-2.673755e-002 -3.383590e-001 -6.706675e+000 125 108 78
-6.301642e+000 -7.729596e+000 -1.728915e+001 115 112 119
-6.211539e+000 -8.103101e+000 -1.704827e+001 133 131 142
-6.211539e+000 -8.103101e+000 -1.704827e+001 133 131 142
5.971571e-001 9.492204e-001 -6.659165e+000 229 221 218
2.587244e-001 -4.979899e-001 -6.754049e+000 66 33 26
-4.862780e+000 -6.800362e+000 -1.555042e+001 167 169 184
-6.334571e+000 -6.409356e+000 -1.800238e+001 19 17 22
-3.041629e-001 6.102489e-001 -7.719424e+000 213 204 195
2.446300e-001 7.531272e-001 -7.164951e+000 177 170 162
8.707076e-001 8.564766e-001 -6.364978e+000 109 22 20
-1.709411e-001 1.380837e-001 -6.794999e+000 107 93 84
-1.317954e-001 1.045195e-001 -6.715972e+000 145 130 123
-4.087284e-001 -4.752837e-002 -6.603601e+000 87 19 8
-8.292413e-002 3.611188e-002 -6.660748e+000 128 114 109
-5.031286e-001 -1.272731e-001 -6.480404e+000 125 31 14
-7.776344e-001 -2.097214e-001 -6.274838e+000 87 29 14
-4.932508e+000 -6.358303e+000 -1.512609e+001 95 90 100
1.118860e+000 -6.731680e-001 -6.158533e+000 243 85 83
-1.327348e-001 9.358891e-001 -7.421908e+000 183 176 168
-5.204049e-001 6.202674e-001 -7.882031e+000 206 40 46
-1.759205e-001 6.499834e-001 -7.491630e+000 166 157 148
3.886278e-001 2.649107e-001 -6.912501e+000 144 130 119
-2.120622e-001 7.118403e-002 -6.706291e+000 79 33 28
-4.530869e-001 -5.397176e-002 -6.550087e+000 139 61 39
-6.322793e-001 -1.470096e-001 -6.441132e+000 74 17 10
3.692663e-001 -3.336630e-001 -6.734541e+000 126 110 95
7.132152e-001 -8.179504e-002 -6.409827e+000 218 214 205
7.132152e-001 -8.179504e-002 -6.409827e+000 218 214 205
-5.750037e+000 -8.856138e+000 -1.666000e+001 156 161 183
8.254680e-001 8.755572e-001 -6.406690e+000 76 7 10
1.635344e-001 2.317126e-001 -6.787439e+000 199 191 180
8.655903e-001 5.600636e-001 -6.413066e+000 207 201 195
1.097071e+000 4.055088e-001 -6.149114e+000 234 67 77
-2.802156e-001 -1.941868e-001 -6.510091e+000 214 102 65
9.014413e-001 -9.525355e-001 -6.556004e+000 226 78 79
-1.435484e+000 -2.835256e+000 -8.640419e+000 25 19 21
-5.675767e-001 5.977990e-001 -7.969880e+000 217 58 56
-1.529237e-001 3.903933e-001 -7.211285e+000 140 127 118
-6.859607e-002 4.698465e-001 -7.199243e+000 140 130 117
6.852694e-001 6.643516e-001 -6.593971e+000 166 156 146
3.242464e-001 3.024854e-001 -6.817156e+000 119 104 94
-2.713856e-001 6.411394e-002 -6.724285e+000 61 12 11
5.086743e-001 2.309624e-001 -6.703712e+000 120 108 94
-3.013565e-001 -6.373768e-002 -6.619604e+000 78 23 16
1.132356e+000 2.629413e-001 -6.159253e+000 242 73 82
-1.880667e-001 -3.878073e-001 -6.649660e+000 169 148 135
-5.025013e+000 -6.686901e+000 -1.497251e+001 9 8 14
-1.509644e+000 -5.028272e+000 -1.039870e+001 46 40 42
4.744767e-001 1.774826e-001 -6.640450e+000 203 195 185
8.268705e-001 9.889296e-002 -6.492271e+000 194 185 178
-6.211444e+000 -7.356508e+000 -1.788445e+001 84 84 92
1.144089e+000 -3.966511e-001 -6.102286e+000 110 86 48
-4.976866e+000 -6.825818e+000 -1.500436e+001 155 153 167
-4.962845e+000 -6.801907e+000 -1.496777e+001 155 153 167
-6.068967e+000 -8.842257e+000 -1.670977e+001 130 131 149
-1.968998e-001 8.888513e-001 -7.500184e+000 202 193 185
4.961896e-001 7.714764e-001 -6.792235e+000 168 157 153
4.940704e-001 7.698829e-001 -6.787643e+000 168 157 153
6.661325e-001 3.646403e-001 -6.638545e+000 194 185 176
1.003519e+000 -1.041773e+000 -6.463405e+000 231 66 80
1.003519e+000 -1.041773e+000 -6.463405e+000 231 66 80
6.712664e-001 1.093493e+000 -6.572335e+000 209 45 56
9.338025e-001 -2.862402e-001 -6.285044e+000 91 74 54
9.681787e-001 -8.636379e-002 -6.305792e+000 164 151 143
1.016857e+000 -2.900768e-001 -6.142995e+000 182 157 108
-4.588126e+000 -7.041640e+000 -1.459967e+001 161 161 173
-5.562470e+000 -8.163751e+000 -1.643147e+001 10 8 12
-5.540922e+000 -8.120576e+000 -1.636701e+001 10 8 12
1.278592e+000 -1.282385e-001 -6.022278e+000 37 26 27
-5.907614e+000 -8.839641e+000 -1.683917e+001 168 173 195
-2.202551e-001 2.697324e-001 -7.379396e+000 122 28 31
-1.383924e-001 1.482962e-001 -6.587242e+000 142 129 120
-1.596938e-001 -3.374536e-002 -6.605618e+000 109 37 21
-1.309669e-001 -2.453035e-001 -6.653273e+000 240 229 226
4.849089e-001 -1.051121e-001 -6.612155e+000 238 235 228
-3.046923e-001 1.113954e+000 -7.605148e+000 29 19 19
-2.231709e-001 8.952020e-001 -7.555321e+000 203 194 185
2.895978e-001 7.799088e-001 -7.014009e+000 190 181 174
2.947774e-001 7.707778e-001 -7.057172e+000 190 181 174
2.126350e-001 2.656219e-001 -6.716618e+000 157 141 126
-4.658555e-001 -5.616532e-002 -6.518096e+000 144 65 43
-8.901340e-002 7.428496e-002 -6.747439e+000 131 116 109
-8.491443e-001 -2.404079e-001 -6.214315e+000 91 24 17
-5.320299e-001 -2.085606e-001 -6.399525e+000 251 139 101
-1.404133e-001 -3.599847e-001 -6.631740e+000 191 183 174
-1.861112e+000 -3.713754e+000 -1.038588e+001 41 35 37
9.454678e-001 -2.560142e-001 -6.310530e+000 139 122 110
5.416585e-001 -1.156507e+000 -7.124895e+000 241 221 182
1.626903e-002 1.370958e+000 -7.186415e+000 186 39 40
-2.889814e-001 -6.288077e-003 -7.754592e+000 35 27 26
-2.889814e-001 -6.288077e-003 -7.754592e+000 35 27 26
-5.558058e-001 -2.582442e-002 -6.638496e+000 69 16 8
-5.558058e-001 -2.582442e-002 -6.638496e+000 69 16 8
9.222758e-001 6.011676e-001 -6.366184e+000 214 57 66
-6.418001e-001 -1.673064e-001 -6.319585e+000 147 63 39
4.974077e-001 7.893997e-002 -6.633993e+000 131 119 107
-1.086243e-002 -2.178298e-001 -6.636230e+000 253 250 243
1.412429e-001 -1.878539e-001 -6.684513e+000 232 225 219
-6.952098e-001 -3.356684e-001 -6.310288e+000 43 35 33
-1.940962e-001 -4.106422e-001 -6.623585e+000 232 225 221
4.497162e-001 -4.418340e-001 -6.686806e+000 196 183 131
-1.769007e+000 -3.837408e+000 -1.043455e+001 53 47 47
6.619292e-002 1.224622e+000 -7.167741e+000 203 42 49
-2.803437e-001 -1.859747e-001 -6.489934e+000 227 116 77
-3.962697e-002 -1.905144e-001 -6.607136e+000 227 224 219
-4.615638e-001 4.773508e-001 -7.705336e+000 213 200 191
9.065629e-001 5.709754e-001 -6.375296e+000 174 33 44
1.014596e-001 -3.048665e-002 -6.676650e+000 159 149 140
9.880840e-002 -2.148397e-002 -6.654648e+000 159 149 140
-1.462031e-001 -4.074369e-001 -6.670247e+000 242 236 232
1.136358e+000 2.049276e-001 -6.148464e+000 195 35 45
1.136358e+000 2.049276e-001 -6.148464e+000 195 35 45
5.406808e-001 -3.167259e-001 -6.698434e+000 244 237 231
1.222604e+000 5.555795e-002 -6.019988e+000 229 83 91
8.086671e-001 -8.600277e-001 -6.537994e+000 219 47 59
3.030517e-001 9.935119e-001 -7.050818e+000 223 217 213
-4.599435e-001 -2.058450e-001 -6.465670e+000 249 132 87
7.038661e-001 -5.980871e-001 -6.527801e+000 229 217 208
-5.874944e-001 -1.424681e-001 -6.472127e+000 94 33 26
4.262589e-001 8.283725e-002 -6.623285e+000 199 190 181
5.538986e-001 5.800125e-002 -6.519465e+000 146 134 120
5.538986e-001 5.800125e-002 -6.519465e+000 146 134 120
5.809456e-001 8.805892e-003 -6.464893e+000 214 207 199
6.218803e-001 -4.249091e-001 -6.514286e+000 178 156 106
1.372990e-001 1.357935e+000 -7.075219e+000 203 48 54
-1.797606e-001 2.821870e-001 -7.390062e+000 184 174 162
-2.678258e-001 7.167547e-002 -7.218386e+000 220 212 205
-1.129560e-001 6.733038e-001 -7.359542e+000 168 162 150
-1.129560e-001 6.733038e-001 -7.359542e+000 168 162 150
6.006532e-001 -8.108197e-001 -6.713000e+000 251 250 245
-6.411445e-001 -1.467992e-001 -6.526084e+000 65 17 12
7.312269e-001 -3.610884e-001 -6.449504e+000 100 85 64
8.448859e-001 -9.634035e-001 -6.508848e+000 50 36 36
-4.032721e-001 2.645650e-001 -7.519521e+000 38 27 27
-2.901645e-001 -9.264576e-002 -6.567591e+000 66 11 8
3.865822e-001 -1.333780e-001 -6.685030e+000 245 242 234
3.872261e-001 -1.323757e-001 -6.682438e+000 245 242 234
1.047895e-002 -6.965981e-001 -6.824173e+000 35 30 27
-2.016140e+000 -3.444264e+000 -1.060802e+001 38 32 34
7.730003e-001 -1.304811e-001 -6.352334e+000 228 220 210
-4.459689e+000 -6.761240e+000 -1.513416e+001 30 28 33
-4.540368e+000 -6.798436e+000 -1.502500e+001 165 161 175
-6.166632e+000 -8.455573e+000 -1.679396e+001 9 7 10
-7.267661e-003 2.559644e-001 -6.947967e+000 145 132 123
-4.649650e-001 -8.001305e-002 -6.517214e+000 121 37 16
-4.517979e-001 -1.202714e-001 -6.467662e+000 129 34 14
9.283233e-001 -1.027940e+000 -6.573610e+000 48 30 30
4.391496e-001 1.201401e+000 -6.847626e+000 214 50 57
6.592709e-001 6.661947e-001 -6.629436e+000 204 194 185
-5.903338e+000 -9.050902e+000 -1.667449e+001 12 10 16
1.292432e-001 1.217096e+000 -7.076248e+000 232 192 168
2.370357e-001 7.231899e-001 -7.078344e+000 181 174 164
3.752196e-001 1.194030e+000 -6.875381e+000 203 32 40
-1.619809e-002 5.628320e-001 -7.162093e+000 208 197 191
-1.619809e-002 5.628320e-001 -7.162093e+000 208 197 191
1.248637e-001 6.230849e-001 -7.029676e+000 176 167 154
6.217662e-001 6.593671e-001 -6.682032e+000 187 181 170
-4.635392e-002 2.600280e-001 -7.040838e+000 145 135 125
2.424779e-001 3.022960e-001 -6.823138e+000 122 108 97
-4.671289e-001 -5.954652e-002 -6.525494e+000 144 65 43
-2.217687e-001 -3.745898e-002 -6.643245e+000 90 21 15
-6.302532e+000 -7.863001e+000 -1.766643e+001 79 79 80
-4.967858e+000 -6.393586e+000 -1.506380e+001 101 99 108
-4.834189e+000 -7.148712e+000 -1.512956e+001 156 154 168
-4.078091e+000 -7.557877e+000 -1.486488e+001 84 87 96
-1.632607e+000 -4.525833e+000 -1.035708e+001 50 44 48
-1.779838e-001 9.357547e-001 -7.513806e+000 161 147 139
-3.548344e-002 2.881268e-001 -7.039438e+000 130 118 106
3.098944e-001 3.122700e-001 -6.899146e+000 127 115 102
-6.179260e+000 -7.689135e+000 -1.726007e+001 80 79 84
-2.260900e+000 -3.329281e+000 -1.078910e+001 55 50 54
-5.517897e+000 -8.750764e+000 -1.678330e+001 120 121 139
-1.577267e+000 -4.603729e+000 -1.027719e+001 53 48 52
6.549021e-001 6.288672e-001 -6.668466e+000 153 143 133
-2.605708e-001 2.525185e-003 -6.642376e+000 70 20 17
9.439971e-001 4.274491e-001 -6.253158e+000 252 81 93
8.887510e-001 8.060399e-001 -6.345317e+000 21 1 4
-6.101672e-001 6.909228e-001 -8.026099e+000 38 24 20
3.131963e-001 5.400612e-002 -6.644033e+000 244 240 231
6.525750e-001 1.276844e-001 -6.574176e+000 189 175 165
-4.817918e+000 -6.813003e+000 -1.523420e+001 142 138 153
-4.207375e+000 -7.849135e+000 -1.487624e+001 11 7 14
-5.782432e+000 -7.528201e+000 -1.683734e+001 10 10 12
6.903455e-001 1.094717e+000 -6.527380e+000 186 44 53
-6.182129e+000 -7.538316e+000 -1.720408e+001 80 77 84
-1.182493e-001 1.522381e-001 -6.789735e+000 108 94 83
-1.032095e-001 7.940693e-002 -6.706456e+000 162 147 140
-1.032095e-001 7.940693e-002 -6.706456e+000 162 147 140
-4.404763e+000 -6.495718e+000 -1.511751e+001 47 45 48
3.476955e-001 2.549915e-001 -6.725772e+000 143 130 114
-4.710551e-001 -1.326095e-001 -6.484956e+000 126 37 16
-5.015668e-001 -2.360530e-001 -6.436116e+000 144 27 9
-5.533585e+000 -9.013191e+000 -1.662847e+001 116 124 147
6.059192e-001 -3.988247e-001 -6.588218e+000 147 133 108
1.102115e+000 -2.596765e-001 -6.180406e+000 141 114 76
-6.097341e+000 -7.389635e+000 -1.768365e+001 66 66 74
-4.776696e+000 -6.278254e+000 -1.524127e+001 136 136 146
-2.221836e+000 -2.742901e+000 -1.067597e+001 40 36 37
7.555346e-001 5.432376e-001 -6.472920e+000 235 232 223
7.676484e-001 5.621004e-001 -6.450052e+000 236 231 227
-4.106472e-001 -1.170662e-001 -6.526214e+000 90 20 11
-6.038647e+000 -8.907849e+000 -1.664210e+001 3 4 8
5.183788e-001 -1.755868e-002 -6.522302e+000 199 192 174
-1.800730e+000 -3.924714e+000 -1.046305e+001 28 22 24
5.243685e-001 -1.179509e+000 -7.135119e+000 42 29 20
-1.420205e+000 -5.559977e+000 -1.003034e+001 22 15 17
-9.221807e-002 1.247700e+000 -7.364941e+000 142 21 30
1.414550e-002 1.400662e+000 -7.131296e+000 33 14 15
-2.287212e-001 5.366576e-001 -7.566043e+000 192 184 173
5.823044e-001 1.215764e+000 -6.663632e+000 185 40 45
1.328496e-001 4.124875e-001 -6.973570e+000 136 124 112
-5.980667e+000 -7.226372e+000 -1.769589e+001 66 66 78
-2.253159e+000 -2.592714e+000 -1.064102e+001 36 30 30
-4.996563e+000 -6.363227e+000 -1.526436e+001 130 130 139
-4.909646e+000 -6.555117e+000 -1.487392e+001 122 120 130
-4.767498e+000 -6.603207e+000 -1.504981e+001 137 137 149
-3.620734e-001 -9.898743e-003 -6.623605e+000 56 15 9
-8.132119e-001 -2.204314e-001 -6.261511e+000 136 109 66
1.616889e-001 5.523878e-002 -6.696039e+000 170 160 148
-6.041285e+000 -8.597628e+000 -1.664945e+001 105 103 115
-1.814583e-001 -2.462962e-001 -6.684052e+000 233 209 149
-2.009660e+000 -3.441262e+000 -1.058823e+001 40 34 38
-1.960651e+000 -3.562032e+000 -1.054826e+001 44 40 41
-4.393284e-001 -4.085083e-001 -6.449310e+000 164 143 123
-2.876741e-001 -4.304230e-001 -6.532831e+000 234 229 225
-2.506061e-001 -4.460065e-001 -6.575515e+000 251 251 246
6.744814e-001 -7.276648e-001 -6.640125e+000 174 161 141
9.253555e-001 -9.932640e-001 -6.616306e+000 235 82 88
-1.370874e+000 -5.566067e+000 -1.006012e+001 111 101 102
-1.369511e+000 -5.532040e+000 -1.002953e+001 111 101 102
3.828653e-001 1.374876e+000 -6.794507e+000 27 10 13
-2.645026e-001 1.041922e-001 -6.753510e+000 78 42 41
-6.168387e+000 -8.150032e+000 -1.671683e+001 11 9 17
-5.000291e+000 -6.611113e+000 -1.514539e+001 118 116 128
-1.910200e-001 -2.469541e-002 -6.679111e+000 112 43 32
-4.670158e+000 -6.877794e+000 -1.483865e+001 109 109 117
-2.052827e+000 -3.290829e+000 -1.059536e+001 49 44 46
-2.791003e-001 -1.912555e-001 -6.498384e+000 228 115 76
-3.822455e-002 -4.656310e-001 -6.758833e+000 40 33 25
1.179161e-001 -2.509958e-001 -6.677206e+000 199 189 179
1.178495e+000 3.490474e-001 -6.107748e+000 32 10 16
1.246379e+000 1.789451e-001 -6.050015e+000 32 18 19
-1.486379e+000 -4.922815e+000 -1.023684e+001 52 46 48
-1.430145e+000 -4.995416e+000 -1.012957e+001 45 40 44
-1.384650e+000 -5.000255e+000 -1.001353e+001 49 43 43
7.786221e-001 -9.436293e-001 -6.596060e+000 234 96 96
-3.948026e-001 7.558178e-001 -7.730814e+000 194 172 166
-1.614456e-001 3.899453e-001 -7.203135e+000 126 114 102
-1.614456e-001 3.899453e-001 -7.203135e+000 126 114 102
5.128434e-001 6.127344e-001 -6.781305e+000 184 177 167
5.128434e-001 6.127344e-001 -6.781305e+000 184 177 167
-5.195947e-001 -1.833183e-001 -6.473520e+000 180 74 42
4.547899e-001 -2.764022e-001 -6.727240e+000 216 210 197
4.596057e-001 -5.127935e-001 -6.717551e+000 251 251 241
-1.355455e+000 -5.462749e+000 -1.008091e+001 19 9 10
-2.092992e-001 3.696624e-002 -7.594574e+000 89 8 9
-5.452770e-001 -2.605720e-001 -6.477898e+000 212 107 66
1.266854e+000 -2.952895e-003 -6.046143e+000 32 11 18
-1.440661e+000 -5.383793e+000 -1.001757e+001 62 51 49
5.155254e-001 1.244769e+000 -6.722365e+000 211 51 56
-1.636691e-001 5.447288e-001 -7.505940e+000 203 195 184
-2.257958e-001 1.450801e-001 -7.685517e+000 132 17 24
6.843535e-001 -7.910253e-001 -6.595291e+000 45 34 32
1.599381e-001 3.430747e-001 -6.886697e+000 132 117 106
-4.032022e+000 -7.698591e+000 -1.512102e+001 15 13 18
1.049127e+000 3.360903e-001 -6.225554e+000 226 61 70
2.492321e-001 -5.077681e-001 -6.766051e+000 71 45 31
2.474614e-001 -5.007698e-001 -6.759642e+000 71 45 31
1.026598e+000 -2.912227e-001 -6.168390e+000 199 176 122
-1.934074e-001 1.165991e+000 -7.452003e+000 201 50 57
2.580585e-001 6.624564e-001 -6.994256e+000 140 128 116
5.678290e-001 -3.744845e-001 -6.673456e+000 99 84 64
8.180541e-001 -2.367750e-001 -6.384666e+000 255 252 247
-2.983319e-001 -1.482525e-001 -6.861170e+000 120 52 33
2.008427e-001 1.100471e+000 -7.097164e+000 219 212 206
9.652098e-001 1.861563e-001 -6.263258e+000 225 214 208
1.192082e-001 1.222948e+000 -7.109607e+000 219 54 62
2.827352e-001 7.848295e-001 -7.013455e+000 200 193 185
1.181533e-001 6.670822e-001 -7.064996e+000 161 147 136
-9.946632e-002 2.147212e-001 -6.958620e+000 140 127 113
6.170075e-001 5.858737e-001 -6.637736e+000 140 128 115
-1.231184e-001 6.310795e-002 -6.749044e+000 125 111 102
-8.894968e-002 4.311920e-002 -6.686629e+000 135 120 112
-9.112134e-001 -2.817169e-001 -6.392631e+000 141 75 51
-2.891306e-001 -8.853073e-002 -6.610997e+000 93 35 28
-8.153258e-001 -2.276478e-001 -6.246011e+000 77 23 21
-7.453965e-001 -2.458808e-001 -6.285618e+000 114 28 9
-2.748631e-001 -4.128468e-001 -6.554626e+000 183 174 167
4.900126e-002 -4.013177e-001 -6.695776e+000 196 180 165
5.958810e-001 -2.992045e-001 -6.572617e+000 161 145 128
-9.476063e-002 4.868281e-001 -7.282838e+000 164 153 143
1.012150e-001 7.084750e-001 -7.082612e+000 222 212 203
3.028231e-001 7.675828e-001 -6.990780e+000 190 181 172
-7.462781e-001 -1.750572e-001 -6.884773e+000 141 63 46
3.579788e-001 3.714912e-001 -6.844030e+000 162 150 138
8.722071e-001 5.632906e-001 -6.404207e+000 209 201 191
-1.786780e+000 -3.989587e+000 -1.047889e+001 29 25 26
-7.253678e-001 -3.396474e-001 -6.309366e+000 224 114 84
1.012513e+000 -7.081820e-001 -6.269244e+000 249 96 104
-1.968367e-001 1.039783e+000 -7.573189e+000 171 28 35
-2.382596e-001 -5.763307e-002 -6.643323e+000 84 20 11
-8.441486e-001 -3.373400e-001 -6.332422e+000 255 163 129
-2.636389e-001 -1.367938e-001 -6.518872e+000 116 44 32
-2.636389e-001 -1.367938e-001 -6.518872e+000 116 44 32
-1.075402e-001 -2.795518e-001 -6.673462e+000 240 231 226
-1.011129e-001 -1.860255e-001 -6.618558e+000 227 222 216
-6.965972e-003 -1.640372e-001 -6.609888e+000 253 248 242
2.720784e-001 -7.132831e-002 -6.635860e+000 221 214 206
9.783643e-001 6.646669e-001 -6.266398e+000 203 58 66
-3.679712e-001 -3.998099e-001 -6.444453e+000 198 194 187
9.116009e-003 -5.028170e-001 -6.803720e+000 36 27 22
4.829828e-001 -6.763185e-001 -6.766455e+000 252 252 240
2.234423e-002 1.360655e+000 -7.217160e+000 190 39 46
6.523951e-001 6.009376e-001 -6.613110e+000 171 159 145
7.973609e-001 6.418121e-001 -6.396962e+000 248 249 240
-3.378272e-001 -3.911057e-001 -6.462376e+000 222 213 207
8.989601e-001 4.856314e-001 -6.322305e+000 184 169 156
5.931997e-001 8.801864e-002 -6.481502e+000 191 181 168
5.228125e-001 -1.035958e-001 -6.507276e+000 217 210 200
6.831742e-001 -7.495191e-001 -6.579582e+000 56 42 40
6.831742e-001 -7.495191e-001 -6.579582e+000 56 42 40
-4.657925e-001 -8.884653e-003 -6.855714e+000 44 12 13
8.288085e-001 8.742149e-001 -6.417459e+000 88 7 15
-4.927971e-001 -3.566227e-001 -6.452301e+000 247 188 154
-9.279013e-003 -1.157499e-001 -6.596732e+000 239 232 229
-5.297338e-002 -3.147287e-001 -6.678328e+000 66 47 26
5.752432e-001 -1.099754e-001 -6.487481e+000 230 226 217
-4.397078e-001 8.801711e-001 -7.838637e+000 195 39 46
5.165522e-001 3.298358e-001 -6.810377e+000 141 129 119
8.979661e-001 7.635614e-001 -6.322708e+000 237 81 90
-8.022659e-001 -1.806268e-001 -6.257017e+000 74 22 10
-1.376290e-001 -8.117118e-002 -6.613848e+000 207 188 180
8.463638e-001 6.034655e-001 -6.387146e+000 253 253 251
-5.224198e-001 -3.498263e-001 -6.498910e+000 247 184 142
-3.539741e-001 -3.959180e-001 -6.467025e+000 190 178 171
-3.046555e-001 -3.268878e-001 -6.488895e+000 167 144 133
4.990127e-001 -3.903535e-001 -6.599085e+000 254 252 203
1.137816e+000 2.359362e-001 -6.132897e+000 207 45 57
-1.453989e-001 4.316519e-001 -7.349773e+000 133 121 109
3.822835e-001 5.066375e-001 -6.929995e+000 187 177 168
5.128177e-001 3.363657e-001 -6.802093e+000 141 130 119
8.002168e-001 8.033403e-001 -6.354192e+000 243 82 92
1.017964e+000 -5.339586e-001 -6.286000e+000 244 230 198
1.280051e-001 1.404631e+000 -7.159884e+000 14 3 9
-4.683333e-001 6.036597e-001 -7.852891e+000 188 177 168
-3.797830e-001 3.021120e-001 -7.826035e+000 42 31 29
2.093138e-001 5.571145e-001 -6.979477e+000 231 222 216
6.073400e-001 -7.947102e-001 -6.683932e+000 254 255 247
1.200250e+000 1.895063e-001 -6.086754e+000 221 60 68
1.140963e+000 -2.010649e-001 -6.166145e+000 77 11 15
-1.169313e-001 7.163244e-001 -7.258294e+000 169 160 145
4.122127e-001 -3.761300e-001 -6.724501e+000 80 62 41
9.460459e-001 3.617301e-001 -6.265579e+000 255 251 246
1.061748e+000 -6.285024e-001 -6.270415e+000 172 35 40
6.599189e-001 5.647425e-001 -6.610590e+000 136 122 111
1.875605e-002 -2.514142e-002 -6.686125e+000 136 119 111
-2.956206e-001 -3.789415e-001 -6.537043e+000 169 151 137
4.135829e-001 -5.348192e-001 -6.646253e+000 254 255 246
1.082084e+000 -4.378716e-002 -6.212350e+000 233 226 218
-6.497561e-001 -1.586179e-001 -6.555322e+000 63 22 19
8.014308e-001 5.601323e-001 -6.416382e+000 255 255 251
-4.576996e-003 5.089800e-002 -7.197236e+000 118 104 93
-4.002195e-001 1.831726e-001 -7.722943e+000 39 30 28
2.663996e-001 -2.536488e-001 -6.736081e+000 243 234 225
-7.390988e+000 -6.352477e+000 -2.201307e+001 135 124 120
-4.684722e+000 -6.907536e+000 -1.489448e+001 111 109 122
-4.947650e+000 -6.782364e+000 -1.494388e+001 165 163 172
-4.023731e-001 -2.649998e-002 -6.600044e+000 117 51 38
-8.149440e-002 3.584193e-002 -6.667224e+000 131 116 109
-2.036194e+000 -3.365269e+000 -1.059627e+001 41 35 39
7.241760e-001 2.585100e-001 -6.569569e+000 184 176 165
1.152174e+000 1.737132e-001 -6.140613e+000 227 69 77
1.150712e+000 1.716735e-001 -6.141029e+000 227 69 77
-5.270910e+000 -1.248310e+001 -1.744586e+001 43 59 116
6.541120e-001 6.306083e-001 -6.656492e+000 157 147 136
4.110117e-001 2.159293e-001 -6.831518e+000 131 115 100
1.212042e+000 2.257196e-001 -6.056432e+000 207 52 57
2.780082e-001 1.055837e+000 -7.033347e+000 203 196 188
2.773359e-001 1.056438e+000 -7.031127e+000 203 196 188
-1.906832e-001 1.566252e-001 -6.897941e+000 129 115 104
-1.443231e-001 9.523664e-002 -6.713046e+000 126 112 103
-1.405898e-001 8.832548e-002 -6.724049e+000 126 112 103
2.257695e-001 1.878837e-001 -6.707434e+000 197 187 175
4.874726e-002 6.828041e-001 -7.138536e+000 210 201 191
3.540986e-001 1.200988e+000 -6.948613e+000 209 42 51
-2.396759e-001 3.660681e-002 -6.720589e+000 108 90 76
-2.394375e-001 3.802144e-002 -6.719516e+000 108 90 76
9.737952e-001 6.655907e-001 -6.262127e+000 203 58 65
-1.981781e-001 8.912345e-001 -7.558748e+000 209 200 191
-1.582468e-001 9.972592e-001 -7.448251e+000 187 175 163
-1.307178e-001 5.311397e-001 -7.274155e+000 157 147 137
-2.383550e-001 -1.962955e-001 -7.507851e+000 202 195 182
-1.902200e-001 1.874314e-001 -7.030355e+000 120 106 95
8.646830e-001 8.740523e-001 -6.373243e+000 122 32 36
-6.586650e-001 -2.840568e-001 -6.301332e+000 49 19 16
9.231377e-001 8.635378e-002 -6.597202e+000 239 233 221
6.511221e-001 -6.085607e-001 -6.627148e+000 246 233 178
-6.145777e-001 6.201930e-001 -8.030208e+000 185 42 46
7.130398e-002 1.395631e+000 -7.186442e+000 81 18 27
-1.091011e-001 6.980575e-001 -7.257040e+000 168 159 145
-2.199336e+000 -2.913047e+000 -1.073242e+001 45 39 41
-1.763522e-001 4.877648e-001 -7.433860e+000 173 165 152
-2.743016e-001 6.819335e-003 -7.687117e+000 107 58 49
-1.672969e-001 3.705897e-001 -7.310132e+000 156 146 134
3.040776e-001 7.299356e-001 -7.094707e+000 219 215 206
6.031564e-001 1.194177e+000 -6.629906e+000 200 52 61
-2.761974e-001 -1.902789e-001 -7.537466e+000 176 169 155
-1.998114e-001 1.830207e-001 -7.056964e+000 152 138 127
-1.826294e+000 -3.830340e+000 -1.035409e+001 62 56 58
-1.822961e+000 -3.980140e+000 -1.047125e+001 64 58 60
-2.078575e-001 1.507019e-001 -6.801217e+000 101 84 76
-5.813701e-001 -6.068219e-002 -6.520951e+000 104 43 33
-9.264599e-001 -2.920837e-001 -6.389152e+000 48 16 11
-1.101527e-001 7.088366e-002 -6.684477e+000 139 127 116
4.295288e-001 2.165968e-001 -6.854662e+000 150 137 120
6.291933e-001 5.959152e-001 -6.590931e+000 126 114 99
-4.546540e-003 -1.682327e-001 -6.615061e+000 252 247 243
-1.595567e+000 -4.715157e+000 -1.003246e+001 45 41 38
4.821590e-001 1.202213e-001 -6.622591e+000 180 168 154
-1.513248e+000 -5.051863e+000 -1.007149e+001 62 54 52
9.259398e-001 5.820645e-001 -6.349926e+000 166 31 38
1.188048e+000 -4.912891e-001 -6.090001e+000 227 95 99
-2.535982e-001 5.492405e-001 -7.566997e+000 224 217 207
1.715581e-001 1.071975e+000 -7.088262e+000 212 205 197
1.717398e-001 1.067643e+000 -7.089961e+000 212 205 197
-2.202575e+000 -3.155197e+000 -1.051472e+001 60 54 54
-2.197378e-001 2.535629e-001 -7.523434e+000 207 189 185
-1.809144e+000 -3.770334e+000 -1.038629e+001 25 19 21
1.201864e-002 2.800443e-001 -6.946730e+000 121 112 98
-1.762018e+000 -3.855626e+000 -1.042167e+001 53 49 50
-1.756293e+000 -3.792615e+000 -1.034884e+001 53 49 50
-1.496135e-001 1.257696e-001 -6.841264e+000 154 138 127
5.783523e-001 5.655495e-001 -6.728527e+000 160 150 138
8.372100e-001 9.064240e-001 -6.408921e+000 159 45 49
-3.556947e-001 -1.559365e-001 -6.475985e+000 122 30 17
2.466482e-001 5.315967e-002 -6.659776e+000 194 184 175
9.294388e-001 6.199468e-001 -6.321215e+000 217 71 78
-1.274489e+000 -5.492318e+000 -1.005725e+001 73 68 71
1.186747e+000 -4.443337e-001 -6.075369e+000 153 33 37
-2.837865e-001 2.013914e-001 -7.746965e+000 215 73 82
-1.620199e-001 2.807871e-001 -7.217753e+000 174 161 145
-9.734174e-003 4.770614e-001 -7.100775e+000 148 136 124
-2.111901e-001 -1.289347e-001 -7.516341e+000 174 166 153
-4.334266e-001 2.306780e-002 -6.866671e+000 92 38 33
