ply
format ascii 1.0
element face 0
property list uchar int vertex_indices
element vertex 869
property float x
property float y
property float z
property uchar diffuse_red
property uchar diffuse_green
property uchar diffuse_blue
end_header
9.117725e-002 2.583048e-001 -6.856961e+000 168 155 138
5.804017e-001 5.657560e-001 -6.726061e+000 170 159 139
-2.379868e-001 -2.249256e-001 -7.611972e+000 222 211 192
-1.388639e-001 4.294913e-004 -7.453538e+000 143 101 89
-7.689821e-002 7.461803e-001 -7.244841e+000 180 165 146
7.609589e-001 9.842808e-001 -6.496338e+000 215 69 72
6.484362e-001 -1.563077e+000 -7.044575e+000 160 162 157
5.931932e-001 -1.430994e+000 -7.106226e+000 151 147 144
-7.132255e-001 -1.476297e-001 -6.941123e+000 128 54 37
-5.965494e-002 7.515668e-002 -7.573523e+000 199 49 51
-1.483740e-001 6.010431e-001 -7.361986e+000 145 133 111
-1.106915e-001 5.285879e-001 -7.270308e+000 175 160 139
6.242489e-002 1.201113e+000 -7.153678e+000 234 184 169
-6.069789e-001 5.846399e-001 -8.030427e+000 76 59 55
-8.957306e-001 -2.684723e-001 -6.379424e+000 197 108 76
-2.663829e-001 1.179487e-001 -6.771290e+000 129 97 85
-4.344415e-001 -4.868102e-001 -6.086748e+000 197 192 195
-9.411105e-001 -3.339131e-001 -6.454198e+000 156 151 144
-1.305069e-001 5.129818e-001 -7.266170e+000 202 187 166
-1.573549e-001 3.861492e-001 -7.260579e+000 173 156 136
-1.514936e-001 6.567972e-001 -7.392238e+000 193 180 161
-1.331354e-001 4.544609e-001 -7.415518e+000 150 133 113
5.885464e-001 6.137618e-001 -6.730103e+000 238 231 214
7.014577e-001 6.969790e-001 -6.549355e+000 242 233 216
8.035949e-001 3.456061e-001 -6.472925e+000 184 171 152
6.589489e+000 -6.075684e+000 -3.106153e-001 28 23 29
-2.605299e-001 -8.144704e-002 -7.702429e+000 221 213 195
2.591579e-001 -1.144085e+000 -7.544891e+000 163 161 162
3.752241e-001 -9.865836e-001 -7.404278e+000 134 129 132
1.162552e+000 -2.092411e+000 -6.497799e+000 200 198 201
3.208592e-002 -5.342318e-001 -7.351537e+000 111 14 5
-2.691657e-001 -1.802371e-002 -7.769740e+000 78 65 49
7.158571e-001 -1.154978e+000 -6.954919e+000 133 130 131
5.755177e-001 -9.753884e-001 -7.076578e+000 179 174 176
-2.765920e-002 -4.328525e-001 -7.363872e+000 243 195 141
6.365518e-001 -9.866099e-001 -7.053194e+000 172 158 161
6.105583e-001 -9.717833e-001 -7.053433e+000 172 158 161
1.285737e+000 -1.858051e+000 -6.313964e+000 173 170 177
1.276808e+000 -1.811699e+000 -6.282060e+000 181 178 185
1.276808e+000 -1.811699e+000 -6.282060e+000 181 178 185
-7.137645e-001 -2.473038e-001 -6.863840e+000 167 67 35
-7.267147e-001 -2.015121e-001 -6.869562e+000 182 93 61
-5.002122e-001 -1.752705e-001 -7.041729e+000 170 170 149
-8.961764e-001 -3.419891e-001 -6.507305e+000 143 48 32
-8.512989e-001 -3.591743e-001 -6.505180e+000 231 233 233
-7.769240e-001 -2.588506e-001 -6.681040e+000 134 47 37
-7.506649e-001 -2.478450e-001 -6.741097e+000 148 62 40
-1.200403e-001 1.688745e-001 -7.493575e+000 111 8 15
1.907661e+000 -2.410926e+000 -5.621287e+000 221 214 221
-9.082884e-001 -2.777376e-001 -6.368909e+000 142 45 36
-1.562477e-001 3.256511e-001 -7.303894e+000 172 156 135
-3.002284e-001 1.083570e-001 -6.812214e+000 96 58 48
-3.002284e-001 1.083570e-001 -6.812214e+000 96 58 48
7.459844e-002 1.358761e-001 -6.788201e+000 137 123 105
1.192043e+000 -4.914835e-001 -6.099706e+000 220 99 90
2.480225e+000 -1.543900e+000 -4.836166e+000 171 172 176
8.791995e-001 6.264623e-001 -6.337806e+000 226 71 75
8.765790e-001 6.397290e-001 -6.324728e+000 217 64 69
9.119056e-001 7.550588e-001 -6.315686e+000 67 36 29
2.831315e-001 -1.431045e+000 -7.466307e+000 120 119 117
7.466491e-001 -1.577268e+000 -6.933696e+000 135 130 136
5.108323e-001 -1.203131e+000 -7.184106e+000 168 154 137
1.540832e+000 -2.643344e+000 -6.099940e+000 210 208 211
1.540832e+000 -2.643344e+000 -6.099940e+000 210 208 211
8.116586e-001 -1.498880e+000 -6.895348e+000 183 178 180
7.585392e-001 -1.395173e+000 -6.897409e+000 189 184 188
5.519345e-001 -1.110614e+000 -7.100031e+000 133 121 107
2.363414e-001 -7.112662e-001 -7.379752e+000 255 115 123
1.091026e+000 -1.735631e+000 -6.551208e+000 161 157 163
1.091026e+000 -1.735631e+000 -6.551208e+000 161 157 163
-5.712439e-001 -4.003284e-001 -6.858662e+000 191 51 41
-1.816638e-001 -8.843357e-003 -7.557664e+000 167 137 119
-5.201200e-001 -1.911031e-001 -7.026940e+000 213 208 186
1.453174e-001 -3.548246e-001 -7.201078e+000 106 37 9
-4.860625e-001 -1.357400e-001 -7.015926e+000 47 16 10
-9.324612e-001 -2.978914e-001 -6.354423e+000 204 195 200
-9.520951e-001 -2.059145e-001 -6.262788e+000 217 207 206
-9.518431e-001 -2.055977e-001 -6.262676e+000 217 207 206
-9.634842e-001 -1.907710e-001 -6.241702e+000 83 60 50
-2.403527e-001 2.116161e-001 -7.005776e+000 155 136 120
-7.962843e-001 -1.973847e-001 -6.222091e+000 185 181 178
1.601411e+000 -1.073293e+000 -5.783407e+000 181 177 181
8.610234e-001 -4.049811e-001 -6.385854e+000 243 235 214
1.147917e-001 1.340358e-001 -6.771856e+000 252 245 227
1.885902e+000 -1.343633e+000 -5.496797e+000 200 198 203
1.854005e+000 -1.134965e+000 -5.505926e+000 162 160 163
1.907561e+000 -1.136290e+000 -5.509556e+000 197 194 201
2.023225e+000 -1.120724e+000 -5.288967e+000 207 205 210
2.392652e+000 -1.418662e+000 -4.912270e+000 181 180 186
2.256007e+000 -1.252275e+000 -5.051650e+000 210 208 213
1.702435e+000 -5.498923e-001 -5.698635e+000 138 133 137
1.019083e+000 2.676105e-001 -6.247352e+000 234 218 197
6.649051e-001 6.649977e-001 -6.630236e+000 227 216 198
9.925749e-001 6.542624e-001 -6.293044e+000 189 40 42
9.907899e-001 6.549648e-001 -6.270454e+000 213 68 76
6.189924e-001 1.009390e+000 -6.663768e+000 245 81 86
2.331067e-001 -1.350105e+000 -7.460621e+000 171 170 167
3.686310e-001 -1.196945e+000 -7.271918e+000 253 248 190
3.686310e-001 -1.196945e+000 -7.271918e+000 253 248 190
1.008501e+000 -1.701667e+000 -6.618455e+000 198 195 200
6.343661e-001 -1.072013e+000 -7.031514e+000 134 128 130
3.454342e-001 -7.771398e-001 -7.148993e+000 188 46 48
-2.720711e-001 4.508448e-002 -7.663369e+000 234 95 96
-1.923856e-001 -4.198233e-002 -7.536353e+000 207 196 174
8.943060e-001 -3.049755e+000 -4.762727e+000 60 57 64
-7.370553e-001 -2.373604e-001 -6.749329e+000 119 30 14
-7.051488e-001 -1.414064e-001 -6.731875e+000 120 53 37
-2.003091e-001 1.222161e-001 -7.063054e+000 147 128 111
-3.207833e-001 1.075815e-001 -6.890285e+000 72 26 19
-2.928432e-001 1.145729e-001 -6.877023e+000 100 73 60
-1.503550e-001 2.818251e-001 -7.211868e+000 181 165 142
-2.676745e-001 3.580284e-001 -7.247412e+000 139 121 101
-1.592308e-001 3.574428e-001 -7.288246e+000 169 152 132
-2.701409e-001 1.393224e-001 -6.837746e+000 94 34 22
-2.333418e-002 1.187414e-001 -6.759774e+000 202 194 175
2.081508e-003 1.347268e-001 -6.769380e+000 141 126 110
-6.724790e-002 5.572771e-001 -7.214479e+000 189 176 159
1.918828e+000 -1.223339e+000 -5.543839e+000 202 200 205
1.716860e+000 -9.970107e-001 -5.669928e+000 162 160 165
1.494440e+000 -4.607492e-001 -5.921988e+000 149 144 148
7.092732e-001 5.563041e-002 -6.458815e+000 172 157 134
7.333024e-001 2.717837e-001 -6.575127e+000 244 237 219
9.843822e-001 5.388498e-001 -6.218742e+000 152 29 32
4.707880e-001 1.126886e+000 -6.822032e+000 233 215 193
3.929450e-001 1.185049e+000 -6.897750e+000 225 68 67
9.546107e-001 6.936915e-001 -6.301474e+000 234 87 88
3.349015e-001 -1.460857e+000 -7.507149e+000 175 174 172
7.308439e-001 -1.653420e+000 -7.060320e+000 155 153 158
7.139246e-002 -6.180747e-001 -7.481682e+000 252 99 106
-6.994474e-001 -2.078646e-001 -6.887881e+000 115 32 17
-8.550266e-001 -2.714281e-001 -6.537022e+000 156 80 54
-8.613885e-001 -2.691979e-001 -6.535135e+000 156 80 54
-9.277402e-001 -2.812552e-001 -6.345651e+000 55 13 19
-1.507212e-001 2.500971e-001 -7.319307e+000 152 137 118
-1.019067e+000 -2.076253e-001 -6.269906e+000 204 197 205
-3.934163e-001 3.753475e-002 -6.873169e+000 58 14 15
-1.581864e-001 3.709750e-001 -7.402592e+000 221 209 187
-3.494600e-001 8.082154e-001 -7.677962e+000 221 201 184
-7.820269e-001 -1.979139e-001 -6.245611e+000 73 49 26
-2.683362e-001 6.761600e-002 -6.728142e+000 134 117 97
-2.683362e-001 6.761600e-002 -6.728142e+000 134 117 97
6.430078e-002 2.109832e-001 -6.846750e+000 241 229 212
1.917604e+000 -1.177276e+000 -5.419469e+000 205 203 208
4.885437e-001 3.370710e-001 -6.802837e+000 164 153 133
-8.846236e-002 8.385223e-001 -7.235217e+000 193 180 161
-8.875084e-002 8.385715e-001 -7.235079e+000 193 180 161
8.281968e-001 8.719496e-001 -6.409019e+000 108 15 22
4.556355e-001 1.243250e+000 -6.804014e+000 232 76 77
-2.227238e-001 -2.495200e-001 -7.752828e+000 91 82 84
2.776427e-001 -7.998421e-001 -7.439262e+000 145 137 136
-3.380472e-002 -3.801723e-001 -7.287405e+000 176 117 73
-2.125245e-001 -9.038573e-002 -7.237124e+000 185 170 149
-7.429628e-001 -1.783853e-001 -6.743298e+000 97 25 11
-3.034528e-001 1.008390e-001 -6.848251e+000 66 23 21
-9.457418e-001 -1.709257e-001 -6.218114e+000 104 75 50
-2.252139e-001 1.063454e+000 -7.548300e+000 216 70 71
-2.252139e-001 1.063454e+000 -7.548300e+000 216 70 71
1.146219e+000 -2.255072e-001 -6.123982e+000 120 105 67
1.646152e-001 6.308668e-001 -6.983491e+000 169 154 133
3.191315e-001 7.281105e-001 -6.996944e+000 228 221 203
2.738315e-001 1.054355e+000 -7.022391e+000 214 204 192
1.832822e-001 1.384318e+000 -7.163674e+000 31 6 16
4.655663e-001 1.086677e+000 -6.766440e+000 235 222 203
7.869372e-001 9.623870e-001 -6.463552e+000 212 61 66
4.857230e-001 1.294141e+000 -6.790707e+000 217 57 60
3.756547e-001 -1.128299e+000 -7.329904e+000 30 23 24
5.402175e-001 -1.131793e+000 -7.127143e+000 255 255 220
5.024596e-001 -1.110385e+000 -7.132412e+000 255 255 220
3.426208e-001 -8.680167e-001 -7.189534e+000 255 254 208
2.531274e-001 -7.027638e-001 -7.242698e+000 221 194 133
3.995332e-002 -3.343055e-001 -7.312891e+000 85 15 16
-8.502774e-001 -3.247148e-001 -6.530343e+000 146 45 27
-2.339813e-001 3.177882e-001 -7.617546e+000 220 204 188
-3.286940e-001 1.589798e-002 -6.977888e+000 71 27 22
-9.630221e-001 -2.308532e-001 -6.283435e+000 74 42 27
-9.833313e-001 -2.190622e-001 -6.288781e+000 74 42 27
-1.233058e-001 3.858307e-001 -7.434308e+000 169 154 131
4.328518e-001 4.371429e-002 -6.564514e+000 223 215 194
-2.017528e-002 7.481441e-001 -7.162230e+000 247 240 224
9.897588e-001 -1.649727e-001 -6.261876e+000 248 243 226
6.948861e-001 2.996766e-001 -6.638964e+000 243 236 220
3.774329e-001 5.032925e-001 -6.924702e+000 200 192 171
9.706548e-001 4.874282e-001 -6.205712e+000 233 85 85
2.430641e-001 -8.097976e-001 -7.323383e+000 255 248 189
4.692087e-003 -5.371031e-001 -7.514927e+000 182 50 48
-4.706984e-001 -1.650566e-002 -6.840229e+000 53 16 15
9.039420e-001 -7.035910e-002 -6.351775e+000 189 176 154
5.787744e-001 2.921608e-001 -6.717383e+000 232 225 212
1.410376e+000 -1.624719e-001 -5.983290e+000 12 7 5
9.659106e-001 9.481120e-002 -6.188843e+000 243 227 211
1.081492e+000 2.401358e-001 -6.194835e+000 211 50 61
6.086273e-001 9.853433e-001 -6.631412e+000 232 76 80
4.878751e-001 -1.209838e+000 -7.152415e+000 144 139 140
1.588053e-001 -6.227611e-001 -7.434365e+000 254 183 152
-4.398969e-001 5.322437e-001 -7.726069e+000 187 172 151
-9.111080e-001 -3.245339e-001 -6.474288e+000 151 46 27
-9.186944e-001 -2.389225e-001 -6.417798e+000 225 136 92
-3.096753e-001 8.310152e-001 -7.605015e+000 221 212 195
1.845942e-001 2.763925e-001 -6.798229e+000 241 232 215
7.281786e-002 1.227166e+000 -7.153380e+000 206 69 67
-2.010420e-001 2.366120e-001 -7.609753e+000 152 28 36
7.253624e-001 -1.371739e-001 -6.394664e+000 243 238 219
8.805836e-002 9.064682e-001 -7.108030e+000 184 171 154
9.079111e-001 5.130808e-001 -6.415942e+000 249 242 226
9.147557e-001 5.523811e-001 -6.311794e+000 154 28 31
-2.192877e-001 -3.980880e-001 -7.623694e+000 235 228 210
-2.249150e-001 -3.962259e-001 -7.624830e+000 235 228 210
-1.077340e-001 -2.175355e-001 -7.844113e+000 49 39 40
-2.565394e-001 3.284982e-002 -7.728874e+000 12 8 9
-4.519328e-001 5.596772e-001 -7.855696e+000 205 188 168
-7.387392e-001 -3.759302e-001 -6.615919e+000 217 210 218
-1.516581e-001 4.555317e-001 -7.373353e+000 154 136 114
8.764985e-001 5.115196e-001 -6.420804e+000 248 241 225
-9.053343e-001 -2.054677e-001 -6.296417e+000 50 21 13
9.490486e-001 6.096360e-002 -6.273795e+000 250 244 229
7.517616e-001 8.479059e-001 -6.679811e+000 242 235 219
-3.590595e-001 6.191871e-001 -7.640712e+000 233 224 207
1.176555e+000 -2.222046e+000 -6.443366e+000 178 175 182
1.403702e+000 -2.396304e+000 -6.254235e+000 195 190 197
6.978128e-001 -1.240248e+000 -7.001582e+000 178 169 172
2.734463e-001 -7.630008e-001 -7.434938e+000 149 138 136
1.193629e+000 -1.957690e+000 -6.442578e+000 208 207 213
1.619410e+000 -2.260114e+000 -5.960844e+000 194 189 196
1.450533e+000 -2.124351e+000 -6.152875e+000 189 186 193
1.218036e+000 -1.801049e+000 -6.341509e+000 216 211 218
9.050702e-001 -1.345244e+000 -6.721247e+000 202 195 202
-4.854380e-001 -3.035089e-001 -7.014971e+000 66 26 15
-3.953242e-002 -1.644589e-001 -7.386718e+000 201 190 167
-9.268035e-001 -3.115066e-001 -6.442803e+000 223 136 107
-4.158075e-001 -2.407245e-003 -6.953952e+000 88 53 49
-3.383715e-001 -8.072825e-003 -6.978322e+000 100 67 60
-7.987178e-001 -1.929153e-001 -6.280245e+000 215 205 204
2.302693e+000 -1.285306e+000 -5.079452e+000 177 176 181
1.961309e+000 -1.133024e+000 -5.222605e+000 197 197 201
1.957619e+000 -1.114986e+000 -5.254715e+000 159 158 163
1.305819e+000 -2.375127e+000 -6.399138e+000 202 199 206
7.057131e-001 -1.485079e+000 -7.037634e+000 177 171 175
5.817204e-001 -1.288155e+000 -7.134219e+000 173 167 171
1.717475e+000 -2.636213e+000 -5.866948e+000 223 218 225
1.496397e+000 -2.347907e+000 -6.082305e+000 223 218 225
1.465316e+000 -2.306844e+000 -6.032602e+000 203 198 205
1.659998e+000 -2.308881e+000 -5.932486e+000 225 220 227
1.344070e+000 -2.032415e+000 -6.255455e+000 201 196 203
1.594421e+000 -2.176143e+000 -5.928150e+000 223 218 224
-6.339904e-001 -3.393063e-001 -6.866885e+000 184 28 26
-5.158524e-001 -1.496288e-001 -7.036743e+000 61 21 14
-5.650938e-001 -3.480127e-002 -6.659946e+000 110 45 34
-6.139316e-002 1.792853e-001 -6.976887e+000 155 140 119
1.968641e+000 -1.121366e+000 -5.290008e+000 146 144 149
3.037993e-001 8.374470e-002 -6.617796e+000 211 199 183
9.194530e-001 -1.448330e-001 -6.318521e+000 178 160 129
2.355422e+000 -1.266006e+000 -4.847716e+000 206 204 209
4.787377e-001 -1.220879e+000 -7.361991e+000 161 155 159
7.390169e-001 -1.534031e+000 -7.032060e+000 147 140 147
9.041982e-001 -1.793699e+000 -6.779353e+000 174 169 175
6.092279e-001 -1.129992e+000 -7.049152e+000 188 179 182
1.314622e+000 -1.958079e+000 -6.200577e+000 198 193 200
1.314622e+000 -1.958079e+000 -6.200577e+000 198 193 200
1.165154e+000 -1.696132e+000 -6.453583e+000 177 172 178
1.149295e+000 -1.686472e+000 -6.456715e+000 177 172 178
1.822481e+000 -2.499402e+000 -5.723159e+000 202 195 202
-1.547464e-001 -7.904900e-002 -7.527127e+000 207 199 179
-5.255346e-001 -4.999755e-003 -6.812365e+000 84 37 31
-3.240262e-001 7.863199e-002 -6.940913e+000 100 73 63
-3.791864e-001 2.486765e-001 -7.017771e+000 160 139 122
-6.812800e-002 4.909227e-001 -7.213030e+000 202 189 170
7.183627e-002 1.207627e-001 -6.740960e+000 221 209 190
1.153784e+000 -4.309532e-001 -6.144739e+000 203 183 138
9.633251e-001 -1.154893e-001 -6.279886e+000 199 184 165
7.924553e-001 -1.531735e+000 -6.920654e+000 194 188 192
1.770844e+000 -2.726872e+000 -5.879409e+000 215 210 217
5.995328e-001 -1.044990e+000 -7.065319e+000 178 167 171
-2.954799e-001 2.037916e-001 -7.777666e+000 22 4 17
1.195039e+000 3.019471e-001 -6.079049e+000 63 46 46
9.623081e-001 7.558651e-001 -6.362728e+000 159 26 31
9.597632e-001 -1.852243e+000 -6.719987e+000 197 193 200
3.264125e-001 -8.497286e-001 -7.190386e+000 255 253 206
7.435638e-001 -1.099115e+000 -6.957763e+000 171 164 171
-8.135375e-002 5.303660e-001 -7.230031e+000 218 207 186
5.337789e-001 4.216478e-001 -6.851152e+000 223 216 200
-3.980787e-002 8.481597e-001 -7.304383e+000 212 201 183
9.865135e-002 8.823357e-001 -7.063150e+000 236 228 210
1.211396e+000 1.450154e-001 -6.077108e+000 231 82 88
-9.366346e-002 3.954247e-001 -7.425080e+000 167 152 131
1.160826e+000 8.649958e-002 -6.101533e+000 139 13 20
-1.141147e-001 2.056704e-001 -7.080837e+000 134 117 99
2.452603e-001 6.658866e-001 -6.937908e+000 236 229 213
3.613480e-001 8.294214e-001 -7.031287e+000 238 230 213
8.020732e-001 3.538299e-001 -6.451847e+000 186 171 148
-1.275702e-001 1.038972e+000 -7.272197e+000 151 129 115
4.532861e-001 1.264923e+000 -6.790225e+000 211 50 55
2.823130e-001 1.316810e+000 -6.895968e+000 218 63 67
5.737442e-001 8.629662e-002 -6.514868e+000 161 151 126
5.269293e-001 -1.069502e+000 -7.224863e+000 255 254 213
-1.823516e-001 4.869731e-001 -7.378901e+000 146 131 110
-1.219570e-001 5.335632e-002 -7.393448e+000 69 7 13
5.053484e-002 4.114498e-001 -6.993374e+000 155 140 121
-1.586423e-001 -1.787012e-001 -7.588114e+000 193 179 160
-6.009503e+000 -8.606549e+000 -1.659612e+001 106 105 113
7.967920e-001 -1.520129e+000 -6.875953e+000 181 179 182
5.623057e-001 -1.175393e+000 -7.106803e+000 152 148 138
8.541547e-001 -1.491222e+000 -6.788398e+000 190 185 189
-1.586309e-001 7.861950e-001 -7.411537e+000 183 171 151
-2.537489e-001 1.454677e-001 -6.905451e+000 131 114 96
-1.566936e-001 3.714415e-001 -7.402488e+000 221 209 187
2.762969e-001 -8.475162e-001 -7.343850e+000 255 240 180
3.491928e-001 -7.954522e-001 -7.164383e+000 250 238 175
3.721940e-001 -7.175109e-001 -7.141284e+000 185 45 46
-4.620879e-004 1.356073e+000 -7.239885e+000 94 10 14
-7.095063e-001 -1.525022e-001 -6.745519e+000 90 20 7
2.809820e-001 9.326035e-002 -6.642614e+000 242 235 217
7.745878e-001 -1.375351e+000 -6.962384e+000 192 186 188
-2.010036e-001 7.024211e-001 -7.488124e+000 181 165 146
2.714604e-001 1.053950e+000 -7.021589e+000 212 205 189
-3.898691e-001 7.500130e-001 -7.728509e+000 204 191 172
-1.180032e-001 8.702193e-001 -7.367756e+000 225 217 198
3.327893e-001 -7.883310e-001 -7.165276e+000 251 244 175
-3.652236e-001 -5.619598e-001 -6.648758e+000 180 157 157
-4.134046e-001 -5.167434e-001 -6.613587e+000 223 83 30
-4.593833e-001 -1.837118e-001 -7.040661e+000 120 94 79
-3.076702e-001 1.277761e-001 -6.776009e+000 117 89 71
-8.574960e-003 -5.291036e-001 -7.447322e+000 247 183 130
3.510757e-001 -7.990005e-001 -7.115955e+000 224 116 123
-6.098368e-001 -4.075609e-001 -6.729572e+000 190 52 22
-5.568343e-001 -3.269694e-001 -6.936558e+000 158 89 74
1.341649e-001 -5.489149e-001 -7.046242e+000 197 174 152
-6.899784e-001 -3.136051e-001 -6.673942e+000 195 93 54
-4.199158e-001 -1.582315e-001 -6.988131e+000 97 62 56
-7.206674e-001 -2.198039e-001 -6.198954e+000 193 193 193
8.590071e-001 -1.284493e-001 -6.328455e+000 185 169 148
-8.716643e-002 5.063709e-001 -7.230512e+000 172 160 143
-1.064637e-001 -4.658378e-001 -7.714240e+000 101 91 92
3.551183e-001 -6.937802e-001 -7.125496e+000 245 101 101
-5.075393e-001 -4.304673e-001 -6.852582e+000 184 41 41
-5.075393e-001 -4.304673e-001 -6.852582e+000 184 41 41
-1.731914e-001 -3.879842e-001 -7.096669e+000 235 231 211
-3.975416e-001 -5.192249e-001 -6.590152e+000 227 164 148
-2.245195e-001 -3.804935e-002 -7.019016e+000 79 28 23
-4.508982e-002 1.035501e-001 -7.071151e+000 124 105 88
-1.622906e-001 1.882811e-001 -7.022666e+000 127 108 91
-1.525159e-001 1.864264e-001 -7.022184e+000 127 108 91
-2.673910e-001 1.094759e-001 -6.818543e+000 105 72 63
-1.991072e-001 6.462002e-001 -7.479497e+000 179 168 150
1.265509e+000 3.161476e-002 -5.996100e+000 54 51 47
3.134631e-001 -8.163791e-001 -7.213041e+000 170 150 90
3.256902e-001 -6.940547e-001 -7.192203e+000 202 173 115
-7.313471e-001 -2.267476e-001 -6.854870e+000 189 92 57
-8.159029e-001 -4.005633e-001 -6.416845e+000 192 192 194
3.480711e-001 1.331023e-001 -6.640144e+000 198 185 166
2.166264e-001 5.900552e-001 -6.960294e+000 227 217 198
8.526548e-001 5.938740e-001 -6.419582e+000 250 236 217
2.588544e-001 1.368726e+000 -7.030102e+000 208 45 49
-6.492054e-001 6.106353e-001 -8.032161e+000 231 78 77
-1.660502e-001 1.282992e-001 -7.370106e+000 79 13 17
-4.568178e-001 4.604527e-001 -7.714441e+000 223 209 185
-2.769277e-001 1.227034e-001 -6.867843e+000 111 83 71
-1.519640e-002 3.319096e-001 -7.070709e+000 135 120 101
6.951862e-002 1.397497e+000 -7.160621e+000 38 24 30
2.976481e-001 -7.289642e-001 -7.244631e+000 214 188 127
-4.573786e-001 -1.769051e-001 -7.012120e+000 54 15 13
1.538210e+000 -4.222940e-001 -5.926897e+000 235 221 172
1.055753e+000 -1.241165e-001 -6.292709e+000 194 179 160
1.177015e+000 -1.747422e-002 -6.060240e+000 249 104 107
-3.365931e-001 -3.455420e-001 -7.041449e+000 226 215 200
6.312588e-002 -3.330254e-001 -7.242561e+000 218 187 133
-9.038495e-001 -2.965474e-001 -6.289012e+000 194 192 197
-2.325001e-001 -1.059897e-002 -7.064178e+000 126 102 91
-1.817720e-001 -7.309112e-002 -7.089548e+000 23 4 6
-5.565247e-001 -2.629648e-001 -6.970548e+000 67 17 14
-1.809322e-001 8.338291e-001 -7.469143e+000 148 130 110
-7.527916e-003 1.288834e+000 -7.290483e+000 174 41 42
-8.888012e-003 -4.912937e-001 -7.264427e+000 255 237 178
4.399783e-002 -5.670598e-001 -7.115817e+000 190 48 50
4.399783e-002 -5.670598e-001 -7.115817e+000 190 48 50
-1.533066e-001 -1.213710e-001 -7.370250e+000 216 207 184
6.586320e-001 1.703826e-001 -6.470592e+000 230 221 204
1.206860e+000 7.731016e-001 -6.077005e+000 39 27 26
8.463222e-001 -1.526782e+000 -6.816125e+000 204 198 202
-7.489483e-001 -2.038577e-001 -6.685849e+000 135 65 52
-1.633280e-001 1.099054e+000 -7.509416e+000 229 78 83
-1.186666e-001 5.115861e-001 -7.265632e+000 205 193 171
1.016568e+000 1.039542e-001 -6.271641e+000 253 247 231
-9.505005e-002 1.235720e+000 -7.375512e+000 153 16 23
5.894905e-001 5.993443e-001 -6.736093e+000 230 223 205
1.149664e+000 -1.777896e+000 -6.523902e+000 201 193 204
1.179654e+000 -1.786745e+000 -6.434637e+000 195 193 198
1.164298e+000 -1.754091e+000 -6.460431e+000 206 199 206
-1.175667e-001 5.421506e-001 -7.271051e+000 189 174 155
-2.577988e-001 -4.461419e-001 -7.676275e+000 108 97 95
-7.036698e-001 -2.502515e-001 -6.862089e+000 164 57 26
3.358376e-002 2.581376e-001 -6.926728e+000 176 161 140
-3.141268e-001 1.019118e-001 -7.692612e+000 133 17 24
-6.650443e-001 -1.836277e-001 -6.946248e+000 71 12 6
9.665789e-001 7.529561e-001 -6.299387e+000 54 34 36
-1.804020e-001 7.728252e-001 -7.387193e+000 200 192 173
-1.913238e-001 6.629899e-002 -7.185122e+000 163 146 128
-2.034549e-001 1.136272e+000 -7.522639e+000 225 68 67
-1.717366e-001 1.555943e-002 -7.560606e+000 151 87 77
-2.276819e-002 5.795839e-001 -7.387635e+000 172 158 138
1.169700e+000 6.447261e-002 -6.043700e+000 207 66 65
-1.727754e-001 1.126119e+000 -7.470777e+000 172 31 35
-7.351570e-001 -2.759544e-001 -6.813634e+000 194 85 52
-3.667723e-001 -6.798510e-002 -6.957709e+000 52 13 10
-3.450979e-001 4.070672e-002 -6.951121e+000 95 62 55
8.945085e-001 4.371221e-001 -6.273923e+000 231 216 195
-7.349598e-001 -1.904842e-001 -6.731926e+000 96 24 12
-3.725356e-001 3.407963e-002 -6.881801e+000 58 12 14
-3.442765e-002 2.594188e-001 -7.031744e+000 157 141 125
-1.107220e-002 3.107133e-001 -7.045409e+000 171 159 137
2.985833e-001 7.750531e-001 -7.024609e+000 210 202 188
3.100128e-001 7.760293e-001 -7.023839e+000 210 202 188
-2.056851e-001 1.095192e+000 -7.553246e+000 183 35 39
-2.297207e-001 8.905312e-001 -7.566574e+000 215 205 194
1.013355e+000 4.907137e-001 -6.203230e+000 238 74 79
5.415877e-001 7.583469e-001 -6.771672e+000 194 187 171
1.087798e+000 6.039071e-002 -6.164021e+000 233 228 210
3.148991e-001 9.972575e-001 -7.011529e+000 241 235 219
-1.603126e-001 1.509072e-001 -7.322694e+000 162 143 128
1.198893e-001 1.384300e+000 -7.298493e+000 20 11 12
-4.838403e+000 -6.624839e+000 -1.485824e+001 120 118 129
2.324178e-001 -7.091347e-001 -7.379923e+000 229 106 99
-2.885807e-001 1.229528e-001 -7.710593e+000 145 23 26
-2.198716e-001 7.349872e-001 -7.521445e+000 239 232 214
-2.237782e-001 5.349194e-002 -7.604806e+000 133 16 23
1.025667e+000 5.684145e-001 -6.170747e+000 201 50 57
3.888222e-001 1.183866e+000 -6.918865e+000 233 189 165
-7.533654e-001 -2.024510e-001 -6.687334e+000 128 59 43
-7.416736e-001 -1.897062e-001 -6.711256e+000 129 58 40
-1.698230e-001 3.630853e-001 -7.307483e+000 153 140 121
5.522701e-001 5.806500e-001 -6.761665e+000 187 184 165
4.203853e-001 1.344456e+000 -6.823646e+000 42 30 28
-1.070407e-001 9.580879e-001 -7.494523e+000 171 159 140
-6.762606e-001 -2.987776e-001 -6.872010e+000 209 98 55
-4.927316e-001 -2.606244e-001 -7.071129e+000 189 177 165
-7.615400e-002 -1.501554e-001 -7.387873e+000 193 180 163
-7.446854e-001 -2.594139e-001 -6.686333e+000 133 51 42
-5.161970e-001 5.588136e-001 -7.929257e+000 232 75 76
1.251784e+000 2.443097e-001 -6.069977e+000 251 75 82
4.297561e-001 1.140422e+000 -6.831805e+000 216 183 172
2.453684e-001 -8.329086e-001 -7.345768e+000 237 225 147
4.514650e-002 -5.336672e-001 -7.354634e+000 76 6 4
6.162959e-005 -5.298475e-001 -7.447044e+000 239 190 140
-4.251232e-002 -4.302072e-001 -7.365056e+000 241 196 139
-2.943865e-002 -4.324395e-001 -7.363387e+000 241 196 139
-6.038618e-001 -3.830734e-001 -6.882454e+000 218 199 187
-4.859656e-001 -2.196193e-001 -7.065231e+000 129 101 89
9.665106e-002 -2.341536e-001 -7.159254e+000 71 36 16
9.665106e-002 -2.341536e-001 -7.159254e+000 71 36 16
-7.355102e-001 -2.732567e-001 -6.641880e+000 101 32 22
1.259464e+000 2.306746e-001 -6.051500e+000 53 29 24
9.939181e-001 6.572882e-001 -6.296723e+000 192 37 37
4.424534e-001 1.139914e+000 -6.812590e+000 231 61 61
2.392228e-001 -7.095639e-001 -7.380082e+000 249 104 109
-6.359043e-001 -3.243985e-001 -6.872160e+000 185 30 26
-6.359043e-001 -3.243985e-001 -6.872160e+000 185 30 26
-6.038732e-001 -3.253614e-001 -6.906146e+000 238 131 86
-1.921816e-001 -8.169256e-002 -7.524071e+000 204 196 177
-1.953867e-001 -6.211512e-002 -7.532622e+000 207 199 181
-7.373374e-001 -1.894391e-001 -6.711604e+000 136 60 43
-3.618368e-001 1.967526e-002 -6.899511e+000 72 39 32
-3.618368e-001 1.967526e-002 -6.899511e+000 72 39 32
-6.162333e-002 6.081493e-001 -7.170602e+000 200 194 180
9.764017e-001 6.925040e-001 -6.297520e+000 219 64 63
3.468582e-001 -8.245335e-001 -7.197349e+000 161 145 86
-5.917708e-001 -3.635456e-001 -6.897139e+000 137 32 14
-4.946822e-001 4.838175e-001 -7.810480e+000 10 8 7
2.228558e-002 2.877122e-001 -7.030687e+000 141 128 111
7.992352e-001 9.017515e-001 -6.389544e+000 50 26 28
7.205780e-001 9.549554e-001 -6.477294e+000 211 54 59
4.001270e-001 1.190860e+000 -6.890457e+000 220 59 60
-5.273849e-002 -4.407880e-001 -7.500124e+000 186 33 37
-4.848681e-001 -2.352868e-001 -7.079157e+000 72 18 9
-3.440658e-001 -1.312631e-002 -6.993106e+000 94 67 58
7.181270e-001 6.714055e-001 -6.506770e+000 146 129 111
-2.120909e-001 1.088603e+000 -7.519330e+000 216 56 61
3.525709e-001 1.365489e+000 -6.889529e+000 41 27 29
1.330509e-001 -5.471344e-001 -7.038857e+000 205 196 181
-3.453875e-001 5.267740e-002 -6.948906e+000 99 69 59
-4.476454e-001 4.323187e-001 -7.738752e+000 171 14 28
6.804828e-001 9.949863e-001 -6.520668e+000 216 57 62
-1.010855e-001 1.266670e+000 -7.416433e+000 18 9 11
-8.462267e-001 -2.751745e-001 -6.544621e+000 158 75 43
-2.888871e-001 1.946406e-001 -7.740334e+000 215 58 62
-4.584626e-001 -2.028275e-002 -6.831808e+000 51 13 12
3.079323e-001 6.691869e-001 -6.940988e+000 233 225 212
-4.331913e-002 7.838901e-001 -7.156764e+000 237 231 219
6.289927e+000 3.145782e-001 1.493476e-001 20 12 17
-1.016995e-001 2.869127e-001 -7.159778e+000 141 125 109
1.134706e-001 5.861853e-001 -7.088572e+000 235 228 218
6.619790e-001 9.189155e-001 -6.649267e+000 234 230 218
1.972137e-001 1.230790e+000 -7.058557e+000 215 50 54
-8.751325e-001 -2.255248e-001 -6.306956e+000 42 18 14
-1.637615e-001 4.531071e-001 -7.371353e+000 147 132 113
-3.656083e-001 1.048634e+000 -7.671402e+000 11 5 7
6.313640e+000 3.849646e-001 1.355371e-001 22 13 15
1.228658e-001 7.735511e-001 -7.095321e+000 235 226 216
5.579659e-001 -1.101882e+000 -7.207423e+000 255 244 198
-3.296432e-001 1.603052e-001 -7.829411e+000 27 17 16
5.804929e-001 -1.016906e+000 -7.052329e+000 93 86 88
2.840495e-002 -4.915075e-001 -7.591480e+000 241 83 90
3.211316e-001 -6.540924e-001 -7.096695e+000 160 31 41
1.096927e-001 -4.718347e-001 -7.248745e+000 224 126 66
-1.325707e-001 -3.951947e-001 -7.084690e+000 253 254 240
-2.703362e-002 -3.293679e-001 -7.234010e+000 140 91 55
-5.853709e-001 -3.483910e-001 -6.877140e+000 231 138 105
-2.118103e-001 -3.736889e-001 -6.975891e+000 198 189 172
-8.276199e-001 -3.573646e-001 -6.547338e+000 201 97 58
-9.058475e-001 -3.283349e-001 -6.518688e+000 169 73 51
-8.429928e-001 -3.261645e-001 -6.517204e+000 148 54 33
-7.434759e-001 -3.154278e-001 -6.613742e+000 172 52 30
-7.259072e-001 -1.819487e-001 -6.883720e+000 163 62 32
-3.967787e-001 -5.639892e-002 -6.989963e+000 104 65 60
-1.117721e-001 2.509400e-003 -7.146144e+000 113 60 46
-3.736588e-002 1.943379e-001 -7.504920e+000 142 20 31
8.146668e-001 9.080339e-001 -6.412374e+000 181 46 51
6.369802e-001 1.124873e+000 -6.596001e+000 244 71 74
7.030019e-001 -1.037856e+000 -6.991375e+000 77 68 73
1.725407e-001 -6.508904e-001 -7.502510e+000 35 26 28
5.305038e-002 -4.574170e-001 -7.084113e+000 254 207 160
-5.945239e-001 -4.138085e-001 -6.729131e+000 190 56 25
2.173962e-001 -3.149193e-001 -7.252815e+000 136 83 55
1.094050e-001 -2.200534e-001 -7.170694e+000 179 140 125
1.173601e-001 -2.209840e-001 -7.189893e+000 62 26 10
-1.348900e-001 -1.328707e-001 -7.423328e+000 225 216 199
-8.965947e-001 -3.609138e-001 -6.477600e+000 210 105 77
-7.166197e-001 -1.922316e-001 -6.912495e+000 118 24 13
-2.566467e-001 2.385191e-002 -7.674754e+000 236 66 59
-3.557453e-001 -1.331685e-001 -7.017566e+000 55 14 12
-9.851559e-001 -2.294404e-001 -6.287828e+000 58 35 19
-9.441649e-001 -2.654279e-001 -6.340068e+000 183 155 108
-4.266961e-001 -3.738900e-002 -6.999570e+000 68 29 22
1.148921e-001 1.233027e-001 -7.342076e+000 123 57 41
-7.842885e-002 1.724391e-001 -7.435682e+000 103 4 14
5.718461e-001 5.887825e-001 -6.730803e+000 232 226 214
1.142545e-001 5.939081e-001 -7.029886e+000 195 185 170
8.469692e-001 -9.345141e-001 -6.537661e+000 252 109 114
3.892416e-001 -5.798117e-001 -7.159637e+000 149 33 27
-2.549005e-001 -3.389983e-001 -7.013981e+000 175 160 145
-4.879754e-001 -4.100639e-001 -6.522859e+000 251 211 166
-6.090628e-001 -3.254597e-001 -6.907565e+000 251 133 90
-6.160108e-001 -2.914032e-001 -6.962490e+000 103 23 14
-5.106332e-001 -2.649396e-001 -7.022328e+000 107 27 23
7.932653e-003 -2.407779e-001 -7.151692e+000 160 125 103
-4.661561e-001 -1.729288e-001 -7.008763e+000 77 28 27
-9.072250e-001 -3.169807e-001 -6.348341e+000 255 185 152
-9.844197e-001 -2.822668e-001 -6.376302e+000 59 14 11
-3.682791e-001 -1.889346e-003 -7.028768e+000 95 37 29
-1.011739e+000 -2.234628e-001 -6.269254e+000 53 45 39
-5.584785e-001 -3.800932e-002 -6.700391e+000 120 53 37
-5.158955e-001 -2.026406e-002 -6.792479e+000 75 28 21
-3.623732e-001 3.108150e-002 -6.918766e+000 90 52 44
-2.302096e-001 1.415258e-001 -6.882438e+000 128 110 96
1.530335e-002 4.016198e-001 -7.080890e+000 175 164 146
-1.416299e-001 5.174290e-001 -7.291695e+000 164 151 132
-6.248359e-001 6.182058e-001 -8.052522e+000 17 12 12
7.748564e-001 6.699054e-001 -6.403275e+000 240 220 205
2.523487e-001 7.562365e-001 -7.053406e+000 253 253 241
1.927847e-001 9.235669e-001 -7.085858e+000 211 204 189
9.571794e-004 1.171095e+000 -7.245576e+000 223 62 64
8.895948e-001 -1.186021e+000 -7.112258e+000 221 201 150
4.442858e-001 -8.922937e-001 -7.217157e+000 231 209 152
3.400266e-001 -8.506757e-001 -7.191179e+000 253 254 216
1.039741e+000 -1.102811e+000 -6.569612e+000 92 86 90
9.934472e-001 -1.029165e+000 -6.565556e+000 35 10 16
3.501343e-001 -7.935985e-001 -7.170818e+000 254 254 202
4.250312e-001 -7.317603e-001 -7.143564e+000 196 38 40
-1.713154e-001 -4.690636e-001 -7.622569e+000 33 13 22
9.838072e-001 -8.981693e-001 -6.482928e+000 252 115 117
7.100214e-001 -7.492396e-001 -6.549938e+000 238 235 217
3.197610e-001 -5.236946e-001 -7.157221e+000 120 17 20
-9.193334e-001 -3.372771e-001 -6.466848e+000 64 11 10
-8.023497e-001 -3.236088e-001 -6.567948e+000 140 53 25
-9.594920e-001 -2.354524e-001 -6.302948e+000 50 26 15
-6.875503e-001 -1.078273e-001 -6.799604e+000 90 26 15
-3.924578e-001 -1.447063e-002 -7.002782e+000 105 77 70
9.238328e-002 2.400771e-001 -6.836999e+000 162 150 136
9.728669e-001 4.335540e-001 -6.256409e+000 243 228 207
7.808977e-001 6.693043e-001 -6.402209e+000 238 216 201
-1.687275e-001 9.331589e-001 -7.506616e+000 185 171 155
-1.901469e-001 9.258685e-001 -7.511440e+000 185 171 155
5.030236e-001 1.095012e+000 -6.762361e+000 242 234 218
1.221607e-001 1.376024e+000 -7.121515e+000 222 60 65
5.254405e-003 1.379229e+000 -7.176928e+000 43 28 32
6.080481e-001 -9.185230e-001 -7.050291e+000 77 69 67
1.046785e+000 -1.052787e+000 -6.510222e+000 253 107 107
1.050382e+000 -1.053520e+000 -6.509084e+000 253 107 107
8.258774e-001 -8.320084e-001 -6.562340e+000 213 57 66
-1.698405e-001 -3.793000e-001 -7.097518e+000 245 238 227
-1.754662e-001 -3.791464e-001 -7.098046e+000 245 238 227
2.256547e-002 -3.856153e-001 -7.276376e+000 184 121 78
-4.684179e-001 -4.299497e-001 -6.804915e+000 253 230 176
-4.734020e-001 -4.303249e-001 -6.805873e+000 253 230 176
-5.197857e-002 -3.134932e-001 -7.209555e+000 161 141 119
-6.029374e-001 -3.233882e-001 -6.896515e+000 254 143 100
-6.828381e-001 -2.432485e-001 -6.935122e+000 112 24 15
6.826841e-003 2.056985e-001 -6.864941e+000 235 226 212
2.638676e-001 2.835761e-001 -6.786054e+000 254 250 237
-4.903634e-001 4.836876e-001 -7.818578e+000 22 6 19
-5.294012e-001 5.486883e-001 -7.891737e+000 222 199 188
8.001086e-001 8.454260e-001 -6.540844e+000 239 232 218
1.698275e-001 1.380016e+000 -7.072325e+000 49 25 29
3.106035e-001 -8.812050e-001 -7.263015e+000 225 203 142
1.106574e+000 -1.107095e+000 -6.585593e+000 98 91 93
3.246016e-001 -8.246474e-001 -7.155266e+000 62 59 57
3.652249e-001 -7.417015e-001 -7.147290e+000 199 42 43
-4.252471e-001 -4.786113e-001 -6.807583e+000 157 29 32
-6.196648e-002 -4.252804e-001 -7.075156e+000 166 51 50
-6.344932e-002 -4.251917e-001 -7.076214e+000 166 51 50
-4.832664e-001 -4.171359e-001 -6.631281e+000 254 225 167
-7.515906e-003 -1.561265e-001 -7.220035e+000 155 122 101
-8.458807e-001 -3.228044e-001 -6.534701e+000 128 37 19
-5.075128e-002 3.685252e-001 -7.108457e+000 209 196 180
1.058035e+000 4.383306e-001 -6.238708e+000 232 217 200
-9.839997e-002 6.780512e-001 -7.204797e+000 237 229 216
-9.839997e-002 6.780512e-001 -7.204797e+000 237 229 216
5.451873e-001 -8.601373e-001 -7.028800e+000 28 18 17
3.831699e-001 -7.286140e-001 -7.062901e+000 118 12 22
3.851761e-002 -5.348399e-001 -7.491624e+000 203 28 43
-5.918793e-001 -3.635878e-001 -6.874953e+000 210 61 46
-2.319480e-001 -3.145333e-001 -7.088778e+000 141 118 100
-7.786935e-001 -3.720812e-001 -6.480362e+000 210 105 67
-5.140128e-001 -1.900998e-001 -7.046046e+000 119 91 77
-1.576491e-001 3.436603e-001 -7.485449e+000 223 216 198
-1.335163e-001 4.685157e-001 -7.255647e+000 175 161 145
1.798265e-001 6.164298e-001 -7.003360e+000 199 191 172
1.154591e-001 -6.355289e-001 -7.450442e+000 255 103 113
-3.251442e-002 -4.334182e-001 -7.152205e+000 253 247 227
6.570694e-002 -2.553925e-001 -7.195372e+000 82 47 27
-7.601067e-001 -2.619265e-001 -6.780021e+000 163 58 36
-1.355146e-001 1.991950e-001 -7.088803e+000 142 125 109
-1.533667e-001 3.340207e-001 -7.283394e+000 146 128 112
-1.741076e-001 3.821259e-001 -7.329251e+000 220 211 193
4.807525e-002 1.343799e+000 -7.170149e+000 214 49 55
-5.456995e-001 -3.807542e-001 -6.786658e+000 254 227 176
-2.854719e-001 3.394959e-002 -7.722252e+000 12 7 11
-2.267367e-001 7.952228e-002 -7.195684e+000 170 159 140
-1.469547e-001 1.538377e-001 -7.324576e+000 174 154 143
-1.953423e-001 2.390107e-001 -7.595294e+000 163 26 36
-4.991482e-001 5.710823e-001 -7.848179e+000 210 196 183
-3.475984e-001 3.113099e-001 -7.943421e+000 56 38 34
1.652927e-001 4.529055e-001 -6.988800e+000 166 150 134
7.777653e-001 5.112083e-001 -6.461864e+000 255 255 251
5.938699e-001 5.675528e-001 -6.814487e+000 244 241 226
2.647158e-001 -8.113497e-001 -7.263952e+000 255 254 223
4.929839e-001 -8.782268e-001 -7.072027e+000 57 46 45
4.595705e-001 -8.730641e-001 -7.077162e+000 57 46 45
3.276699e-001 -5.784814e-001 -7.099524e+000 117 21 30
-2.206390e-001 -2.845813e-001 -7.783727e+000 41 25 26
-6.424716e-001 -2.729404e-001 -6.321688e+000 225 117 70
-2.872667e-002 -1.928168e-001 -7.556758e+000 230 221 204
-7.248526e-002 6.894968e-001 -7.219114e+000 217 205 191
-7.248526e-002 6.894968e-001 -7.219114e+000 217 205 191
1.067894e+000 -1.094920e+000 -6.492312e+000 246 92 98
9.182251e-001 -9.807886e-001 -6.582640e+000 235 87 93
-8.452305e-001 -3.577611e-001 -6.510801e+000 212 112 79
-7.337157e-001 -2.049992e-001 -6.713066e+000 121 40 23
-7.001527e-001 -1.365846e-001 -6.963554e+000 85 25 19
-8.421934e-001 -1.772336e-001 -6.192126e+000 208 188 130
-8.421934e-001 -1.772336e-001 -6.192126e+000 208 188 130
-5.171343e-002 9.167559e-002 -7.318707e+000 115 47 36
8.230192e-001 6.242931e-001 -6.394057e+000 217 75 70
1.035138e+000 6.632117e-001 -6.238333e+000 54 29 24
1.538920e-001 1.225029e+000 -7.114415e+000 240 223 206
1.047140e+000 -1.075008e+000 -6.533828e+000 51 36 39
-5.709865e-002 -4.067357e-001 -6.997760e+000 233 226 208
5.039984e-003 -4.450278e-001 -7.073095e+000 61 46 36
-4.478588e-001 -3.231708e-001 -7.015043e+000 198 185 174
-6.933276e-001 -3.678834e-001 -6.529650e+000 174 56 25
-6.126221e-001 -3.481714e-001 -6.547581e+000 197 66 26
-9.058185e-001 -3.457829e-001 -6.432395e+000 234 132 91
-8.635171e-001 -3.453639e-001 -6.511081e+000 154 53 29
-8.450361e-001 -3.294405e-001 -6.482428e+000 123 25 9
-8.170275e-001 -3.111394e-001 -6.510503e+000 103 22 4
-7.230656e-001 -2.452996e-001 -6.708418e+000 107 25 13
-6.259095e-001 -9.828739e-002 -6.855872e+000 79 15 11
-2.881609e-001 1.044004e-001 -6.853170e+000 66 28 19
7.868273e-001 6.976182e-001 -6.428716e+000 167 140 123
-8.259164e-002 -5.550269e-001 -7.387254e+000 243 56 61
-3.901296e-001 -4.922885e-001 -6.606613e+000 234 88 39
-7.115508e-002 -4.307878e-001 -7.017027e+000 214 204 193
-6.956059e-001 -1.500647e-001 -6.958030e+000 153 74 49
-3.765617e-001 -6.636541e-002 -6.959943e+000 55 13 14
-8.933112e-001 -2.014145e-001 -6.201721e+000 148 124 86
-3.851304e-001 3.858507e-002 -6.902219e+000 59 14 9
-2.600512e-001 1.182649e-001 -6.909024e+000 126 111 98
-2.862080e-001 1.658239e-001 -7.045521e+000 130 114 99
-1.730443e-001 3.339992e-001 -7.319497e+000 160 151 134
6.919873e-001 6.668212e-001 -6.628121e+000 226 224 210
-5.711052e-001 -3.155053e-001 -6.951952e+000 223 128 79
-1.843710e-001 -1.574382e-001 -7.091713e+000 118 100 86
-1.496699e-001 1.880627e-001 -7.047770e+000 164 149 133
-2.113023e-001 3.352349e-001 -7.575427e+000 185 173 163
-2.113023e-001 3.352349e-001 -7.575427e+000 185 173 163
-1.182663e-001 4.645638e-001 -7.226778e+000 164 151 135
7.757101e-001 9.625487e-001 -6.434545e+000 42 32 28
9.537178e-001 -1.080698e+000 -6.705170e+000 85 75 80
-3.326571e-001 -5.112830e-001 -6.816547e+000 249 254 253
-6.735448e-001 -1.180226e-001 -6.933723e+000 62 17 14
-6.056447e-001 6.038816e-001 -8.046652e+000 231 71 74
4.610069e-002 -4.317369e-001 -7.249557e+000 255 227 174
-7.069604e-002 -3.626412e-001 -7.419706e+000 149 16 22
-6.633880e-001 -1.833836e-001 -6.952017e+000 76 14 6
4.012945e-002 8.964831e-001 -7.110486e+000 200 193 183
3.675950e-001 -6.481092e-001 -7.157472e+000 162 29 32
2.466012e-002 -3.266966e-001 -7.313018e+000 87 6 12
-5.551789e-001 -4.030297e-001 -6.709014e+000 189 52 16
-3.339750e-001 -2.905790e-001 -7.032395e+000 142 129 114
8.263685e-001 -9.301597e-001 -6.644914e+000 19 9 10
-2.546807e-002 -4.780588e-001 -7.010171e+000 253 254 249
-1.628074e-001 3.075458e-001 -7.223896e+000 186 180 161
-3.379564e-001 8.271298e-001 -7.606298e+000 223 214 203
3.305355e-001 -6.083582e-001 -7.256182e+000 216 195 134
-1.542216e-001 9.447493e-001 -7.508972e+000 184 172 158
-8.265412e-002 -4.655035e-001 -7.292537e+000 254 240 186
-4.258962e-002 -4.675442e-001 -7.287817e+000 254 240 186
-3.262797e-001 7.752779e-002 -6.812367e+000 65 17 13
1.100931e-001 -3.050240e-001 -7.242966e+000 84 38 20
-9.018774e-001 -1.523190e-001 -6.680376e+000 60 17 15
6.384731e+000 8.264527e-002 1.305315e-001 162 155 140
6.756316e+000 1.233191e+000 6.287237e-001 82 73 71
6.686561e+000 6.399371e-001 3.624750e-001 64 58 60
6.726894e-001 -9.596559e-001 -6.771612e+000 61 54 52
3.566780e-001 -7.573684e-001 -7.165960e+000 181 160 104
3.890256e-001 -7.020285e-001 -7.155941e+000 254 103 105
3.890256e-001 -7.020285e-001 -7.155941e+000 254 103 105
8.036676e-002 -6.653143e-001 -7.374916e+000 233 63 70
9.820138e-001 -8.780970e-001 -6.417860e+000 64 37 26
3.984358e-001 -6.866149e-001 -7.140376e+000 186 34 39
-2.783413e-002 -5.219413e-001 -7.597068e+000 22 10 24
-7.035233e-001 -2.752068e-001 -6.855363e+000 223 102 61
-2.699371e-001 1.553577e-001 -6.738237e+000 117 41 11
9.793286e-001 6.538759e-001 -6.298031e+000 194 34 42
-2.788288e-001 9.490356e-002 -6.928858e+000 116 94 81
-6.819346e-002 6.041561e-001 -7.170889e+000 211 209 196
4.630345e+000 2.403548e+000 -1.057348e+000 46 38 42
-3.777420e-001 2.894584e-002 -6.919807e+000 81 48 41
-1.724589e-001 1.867862e-001 -7.004687e+000 158 142 127
8.214715e-001 7.203008e-001 -6.361970e+000 234 66 68
-1.860949e-001 -2.741542e-001 -7.541067e+000 175 163 146
3.466349e-002 -4.987496e-001 -6.879461e+000 230 230 220
-1.510908e-001 -3.840834e-001 -7.033035e+000 187 179 166
-9.617895e-001 -3.254751e-001 -6.457495e+000 197 84 53
-9.517940e-001 -3.492530e-001 -6.527749e+000 212 122 95
-7.489742e-001 -3.047831e-001 -6.623946e+000 194 86 65
-7.859136e-001 -2.964998e-001 -6.715364e+000 235 126 88
-7.721170e-001 -3.116675e-001 -6.756686e+000 206 68 29
-6.892005e-001 -2.674774e-001 -6.975153e+000 117 35 21
-1.035788e+000 -2.480582e-001 -6.304532e+000 158 140 101
-4.020926e-001 -5.212092e-002 -6.964088e+000 89 48 46
1.934593e-001 -6.767138e-001 -7.371177e+000 232 63 70
-4.711091e-001 -4.700357e-001 -6.645083e+000 220 147 99
-2.047685e-001 -3.762762e-001 -6.997668e+000 174 165 148
-1.840394e-001 -4.010544e-001 -7.077046e+000 169 33 35
-1.977833e-001 -2.463325e-001 -7.542805e+000 194 185 170
-9.660970e-001 -3.507243e-001 -6.520886e+000 59 10 9
-8.643880e-001 -3.405423e-001 -6.566005e+000 187 126 85
-7.581887e-001 -2.045791e-001 -6.688979e+000 138 64 52
-9.262532e-001 -2.753049e-001 -6.297941e+000 145 76 71
-1.025443e+000 -1.813858e-001 -6.394714e+000 38 31 27
-4.981937e-001 1.526865e-004 -6.794647e+000 84 45 38
6.296050e-001 5.944910e-001 -6.716537e+000 213 209 200
-4.585912e-002 5.675174e-001 -7.209765e+000 189 185 174
8.094627e-001 8.926907e-001 -6.395374e+000 41 31 25
2.279731e-001 -6.823596e-001 -7.469246e+000 32 19 23
-5.119602e-001 -3.859649e-001 -6.727859e+000 223 130 71
-5.845057e-001 -3.870905e-001 -6.881771e+000 194 181 172
-6.068592e-001 -3.128780e-001 -6.927334e+000 135 43 14
-4.747509e-001 -2.933830e-001 -6.977260e+000 148 129 118
1.282204e-001 -2.361273e-001 -7.156678e+000 63 30 13
-6.400821e-003 -2.111770e-001 -7.162326e+000 131 96 77
-1.005007e+000 -2.688932e-001 -6.315725e+000 44 34 25
-1.005007e+000 -2.688932e-001 -6.315725e+000 44 34 25
-1.002126e+000 -1.925991e-001 -6.237875e+000 151 128 87
-3.616722e-001 -2.529446e-003 -7.027992e+000 75 24 20
-2.266999e-001 8.493588e-001 -7.545683e+000 191 185 173
4.314737e-001 1.349847e+000 -6.830093e+000 38 37 32
-3.244082e-002 1.155053e+000 -7.243651e+000 226 63 69
-1.450597e-001 1.136904e+000 -7.468617e+000 182 34 42
3.664394e-001 1.364326e+000 -6.887837e+000 46 30 33
9.709673e-001 -8.825144e-001 -6.424213e+000 43 47 37
2.392623e-001 -6.914926e-001 -7.115134e+000 125 15 25
9.092988e-001 -7.265328e-001 -6.430135e+000 218 210 199
-5.717614e-001 -3.996416e-001 -6.580426e+000 206 70 32
-2.587731e-001 -3.392669e-001 -7.014498e+000 160 151 142
-2.313068e-001 -2.241938e-001 -7.612835e+000 221 213 202
-7.173142e-001 -1.508526e-001 -6.748695e+000 91 25 13
-1.006916e+000 -1.933854e-001 -6.240370e+000 152 129 86
-6.263049e-001 -6.043313e-002 -6.563814e+000 110 47 37
-4.956512e-001 -5.638024e-003 -6.806328e+000 76 37 29
-1.088456e-001 5.161199e-001 -7.256425e+000 207 203 189
-1.774099e-001 6.958341e-001 -7.493178e+000 186 182 170
5.965599e-002 -4.613768e-001 -7.094653e+000 248 202 155
-8.251422e-001 -3.257522e-001 -6.577328e+000 115 32 10
1.614755e-001 3.869137e-001 -6.889241e+000 216 211 200
-6.632213e-002 8.505377e-001 -7.303919e+000 205 199 186
-1.025009e-001 1.228062e+000 -7.376091e+000 153 23 31
-5.025333e-001 -2.488500e-002 -6.840160e+000 54 14 14
-5.025333e-001 -2.488500e-002 -6.840160e+000 54 14 14
-2.776092e-001 9.028547e-001 -7.593016e+000 228 57 65
1.747327e-001 1.221298e+000 -7.070670e+000 219 54 62
7.641178e-002 1.228691e+000 -7.160565e+000 218 53 59
3.461749e-001 -8.325177e-001 -7.146615e+000 55 44 45
-5.945786e-001 -4.032061e-001 -6.722525e+000 190 66 30
-9.073231e-001 -3.369310e-001 -6.371184e+000 254 186 151
8.390938e-001 -9.745608e-001 -6.561816e+000 203 57 58
9.949259e-002 -6.342703e-001 -7.457318e+000 250 87 98
5.517089e-001 5.574903e-001 -6.812851e+000 234 229 223
3.048647e-001 8.829365e-001 -6.924713e+000 158 148 136
7.047145e-001 -7.300293e-001 -6.467638e+000 246 239 229
-4.096170e-001 4.414512e-001 -7.863228e+000 14 8 10
3.575156e-001 -7.122850e-001 -7.142869e+000 184 30 37
-2.323002e-002 -4.166202e-001 -7.406045e+000 156 27 19
-7.561912e-001 -3.075431e-001 -6.627874e+000 194 86 65
-5.178450e-001 5.606445e-001 -7.908832e+000 225 83 85
7.519215e-002 1.201076e+000 -7.153156e+000 237 205 194
-5.932776e-001 -3.504921e-001 -6.879162e+000 208 126 98
-8.190098e-001 -3.087971e-001 -6.549303e+000 110 32 13
-7.602194e-001 -2.063649e-001 -6.690373e+000 138 64 52
7.296066e-002 1.372387e+000 -7.134982e+000 198 46 53
6.843043e+000 2.014664e+000 7.191993e-001 63 53 54
5.462591e+000 4.579516e-001 -6.570479e-001 35 29 30
-9.088923e-001 -2.834410e-001 -6.354134e+000 39 8 15
-5.122852e-002 7.668997e-001 -7.283000e+000 130 118 104
6.671588e-002 1.227134e+000 -7.161490e+000 218 53 59
-1.422037e-001 5.744320e-001 -7.477322e+000 209 203 191
4.305783e-001 -6.537621e-001 -6.782744e+000 229 225 213
-2.265846e-002 -4.930687e-001 -7.487748e+000 183 93 77
-2.265846e-002 -4.930687e-001 -7.487748e+000 183 93 77
8.359611e-002 -4.470310e-001 -7.234020e+000 228 165 107
-6.286657e-003 -4.868892e-001 -7.368103e+000 185 50 25
-5.564855e-001 -3.280538e-001 -6.943098e+000 137 73 56
-7.015190e-001 -3.143057e-001 -6.680573e+000 180 53 21
-7.111126e-001 -3.131057e-001 -6.712358e+000 232 108 70
-7.827119e-001 -2.916262e-001 -6.594146e+000 144 63 42
-1.569450e-001 3.416702e-001 -7.300443e+000 161 152 137
-6.060851e-001 6.712572e-001 -7.990898e+000 135 27 30
3.579568e-001 -5.598856e-001 -7.156431e+000 163 28 37
5.607132e-002 -5.031430e-001 -6.977358e+000 255 254 246
-2.782964e-002 -4.845522e-001 -7.496371e+000 236 166 133
-5.861870e-001 -3.788438e-001 -6.903501e+000 142 125 114
4.043089e-002 -2.879949e-001 -7.272067e+000 54 4 1
-8.120490e-001 -3.656773e-001 -6.514136e+000 155 54 24
3.725217e-001 -7.039853e-001 -7.129303e+000 235 74 82
-7.668861e-002 -4.091140e-001 -7.001116e+000 213 204 189
-1.149746e-001 -4.003752e-001 -6.908176e+000 154 144 120
-5.922240e-001 -3.858219e-001 -6.880635e+000 195 174 165
-7.544347e-001 -2.437505e-001 -6.668738e+000 82 21 14
-7.544347e-001 -2.437505e-001 -6.668738e+000 82 21 14
-1.841923e-001 3.042141e-001 -7.326590e+000 146 134 122
-4.777604e-001 4.652133e-001 -7.737870e+000 205 176 160
-6.147082e-001 6.507188e-001 -8.003450e+000 152 37 37
-1.190660e-001 -1.162711e-001 -7.436933e+000 206 201 182
6.340943e+000 3.960408e-001 3.440820e-002 35 29 29
-6.831026e-001 -2.185805e-001 -6.935184e+000 122 46 29
2.944185e-001 7.736913e-001 -7.025334e+000 205 201 192
-1.193923e-001 -4.155361e-001 -6.891649e+000 232 231 219
-7.510044e-001 -1.909093e-001 -6.709576e+000 128 55 39
-6.423809e-002 7.960026e-001 -7.382221e+000 195 189 177
9.592941e-001 -1.042907e+000 -6.528971e+000 247 89 97
9.292334e-001 -1.023253e+000 -6.577555e+000 25 9 12
-4.888592e-001 -3.163521e-001 -6.985471e+000 73 12 11
-6.117939e-001 -3.248252e-001 -6.897746e+000 235 128 90
-5.444767e-001 5.725338e-001 -7.943296e+000 233 67 69
2.168548e-001 1.405350e+000 -7.058023e+000 35 30 26
2.354477e-002 1.348447e+000 -7.195916e+000 196 46 51
5.968135e-002 -5.310150e-001 -6.952327e+000 228 226 214
6.419562e-002 -5.300622e-001 -6.946476e+000 228 226 214
-1.511711e-002 -4.857676e-001 -7.471973e+000 196 130 87
-1.640268e-001 3.416133e-001 -7.485683e+000 203 196 183
