ply
format ascii 1.0
element face 0
property list uchar int vertex_indices
element vertex 868
property float x
property float y
property float z
property uchar diffuse_red
property uchar diffuse_green
property uchar diffuse_blue
end_header
5.199776e-001 1.244605e+000 -6.718851e+000 222 69 74
5.228513e-001 -4.408446e-001 -6.628514e+000 254 251 203
1.031848e+000 5.126398e-001 -6.187540e+000 232 85 86
-3.296701e-002 7.872793e-001 -7.163470e+000 233 225 214
3.137220e-001 -2.811628e-001 -6.661325e+000 101 79 56
-1.919870e-001 1.049172e+000 -7.505303e+000 200 53 60
-1.505263e-001 8.994923e-001 -7.346425e+000 229 221 208
1.963787e-001 8.473971e-002 -6.688380e+000 157 145 129
9.534077e-001 2.257717e-001 -6.357990e+000 252 251 241
-5.759456e-001 6.675537e-001 -7.930810e+000 207 52 56
-1.447106e-001 2.847471e-001 -7.471072e+000 199 187 173
-8.189732e-001 -1.578885e-001 -6.825209e+000 152 157 143
7.781919e-001 7.425776e-001 -6.440153e+000 149 35 40
8.835339e-001 7.283882e-001 -6.354954e+000 242 76 86
2.128178e-001 6.598119e-001 -7.017630e+000 155 140 126
-2.386034e-001 -2.586075e-002 -6.643367e+000 93 34 29
3.400671e-001 8.969484e-001 -6.926205e+000 156 142 129
9.180194e-001 5.571693e-001 -6.281073e+000 152 25 33
-2.391081e-001 1.483005e-001 -7.660960e+000 135 15 28
1.088454e+000 -9.380654e-003 -6.259103e+000 243 236 226
4.388660e-001 6.315184e-001 -6.862059e+000 230 222 211
5.239672e-001 9.094938e-001 -6.706248e+000 241 234 228
-7.179307e-002 1.338913e+000 -7.388059e+000 29 20 23
1.070178e+000 7.265709e-001 -6.395642e+000 83 69 66
5.259690e-002 9.413415e-001 -6.839970e+000 216 208 195
-1.468177e-001 1.008048e+000 -7.476665e+000 214 207 190
-1.626369e-001 3.369009e-001 -7.306118e+000 163 151 137
-3.066194e-001 7.906794e-001 -7.640001e+000 211 200 188
-8.680521e-001 -3.529990e-001 -6.513755e+000 154 152 151
-1.411226e-001 1.942165e-001 -7.014790e+000 121 105 92
-5.354737e-001 -4.090844e-002 -6.522288e+000 144 70 54
6.577366e-001 7.757818e-001 -6.572112e+000 204 190 178
8.144849e-001 8.681997e-001 -6.363975e+000 167 54 60
1.466404e+000 -1.120410e+000 -6.042560e+000 135 131 132
1.182494e+000 1.338637e-001 -6.157166e+000 224 83 90
-1.239315e-001 6.502519e-001 -7.477480e+000 165 154 138
9.856332e-002 7.089626e-001 -7.081699e+000 229 221 210
-3.368733e-001 -1.780327e-001 -6.461100e+000 132 41 27
1.233189e+000 -8.606477e-001 -6.211261e+000 133 127 128
9.952271e-001 2.677129e-001 -6.284212e+000 249 239 232
-4.994833e-001 -2.022307e-001 -7.058027e+000 58 18 19
-4.994833e-001 -2.022307e-001 -7.058027e+000 58 18 19
5.343745e-001 5.598469e-001 -6.744996e+000 206 194 180
5.853066e-001 5.542764e-001 -6.781362e+000 171 161 149
7.136697e-001 -3.381638e-001 -6.517213e+000 177 165 146
7.505452e-001 8.430150e-001 -6.524223e+000 210 63 73
-3.583841e-001 3.409098e-001 -7.800160e+000 70 56 56
-2.685217e-001 -3.712842e-001 -7.724710e+000 98 88 85
-1.666388e-001 1.315342e-001 -6.876441e+000 110 92 80
-4.035424e-001 -3.935774e-001 -6.429418e+000 110 26 26
7.101392e-001 -8.210351e-001 -6.580733e+000 164 40 44
1.023640e+000 2.051581e-001 -6.250700e+000 246 237 228
1.059090e+000 2.992187e-001 -6.238523e+000 234 90 97
1.441375e+000 -2.348333e-001 -5.946896e+000 255 243 193
-4.087710e-002 4.981914e-001 -7.204664e+000 200 189 179
9.660551e-001 -8.555279e-001 -6.416211e+000 247 238 229
8.203373e-001 -2.719873e-001 -6.394278e+000 248 242 231
2.743532e-002 1.212273e+000 -7.219687e+000 196 46 48
-9.241295e-001 -3.182302e-001 -6.464569e+000 114 59 47
-6.386325e-001 -2.405677e-001 -6.379285e+000 125 57 35
6.446450e-001 -6.687573e-001 -6.662859e+000 154 137 111
2.892433e+000 -9.460404e+000 -6.000821e+000 17 16 22
1.324669e+000 -5.967037e-002 -5.997371e+000 158 154 153
5.966492e-001 1.170003e+000 -6.649172e+000 216 71 74
1.205983e+000 -4.156898e-001 -6.093159e+000 135 118 82
2.010805e-001 8.598345e-001 -7.046622e+000 236 229 221
7.746001e-001 7.467022e-001 -6.439861e+000 138 38 36
-7.740047e-001 -2.853020e-001 -6.823704e+000 102 34 16
-7.375673e-001 -2.263832e-001 -6.793963e+000 123 32 23
5.754442e-001 1.142744e+000 -6.672020e+000 232 78 85
8.835466e-001 1.201358e-001 -6.437720e+000 240 232 220
1.185929e+000 -5.500216e-001 -6.126025e+000 178 144 145
-2.913169e-001 1.085630e+000 -7.571277e+000 171 32 39
4.978418e-001 2.424461e-001 -6.719212e+000 138 124 108
5.993454e-001 5.889504e-001 -6.653878e+000 146 134 118
9.155312e-001 6.073552e-001 -6.344867e+000 230 85 92
9.627569e-001 -2.502994e-001 -6.290001e+000 158 144 125
1.458249e+000 -1.114297e+000 -6.042603e+000 124 120 119
8.851031e-001 1.049210e+000 -6.356351e+000 63 51 51
1.119040e+000 2.559523e-001 -6.159119e+000 239 90 96
2.682504e+000 -9.289941e+000 -5.967175e+000 73 71 84
-1.503965e-001 1.142700e+000 -7.262207e+000 145 117 104
3.237227e+000 -9.269738e+000 -5.630661e+000 71 72 84
4.109767e-001 3.738129e-001 -6.846318e+000 194 180 167
3.490618e-001 1.212302e+000 -6.942498e+000 217 60 67
-2.453503e-001 -2.186039e-001 -7.609816e+000 213 201 189
-2.060213e-001 -2.501984e-001 -7.573105e+000 209 197 183
-1.426480e-001 -3.865960e-002 -7.481859e+000 131 103 92
1.277622e-001 1.168709e+000 -7.217846e+000 206 43 54
5.018957e-001 -4.269760e-001 -6.643899e+000 209 194 142
9.262943e-001 6.979072e-001 -6.325330e+000 197 53 62
-3.489282e-001 -9.337130e-003 -6.616294e+000 67 19 17
2.995088e-001 1.398197e-002 -7.079466e+000 166 153 137
-2.931776e-001 7.374462e-001 -7.496867e+000 230 223 213
-2.261958e-001 1.083754e+000 -7.572306e+000 177 33 40
-2.714762e-001 1.382527e-001 -6.836655e+000 78 36 30
2.348457e+000 -9.691819e+000 -6.666390e+000 47 45 50
3.127031e+000 -9.268363e+000 -5.623643e+000 45 44 57
1.238967e+000 8.013053e-003 -6.025128e+000 168 48 46
-1.711036e-001 6.433689e-001 -7.485403e+000 172 160 148
9.051059e-001 4.811842e-001 -6.324883e+000 185 163 149
3.457810e+000 -9.151020e+000 -5.388356e+000 59 55 64
-4.755844e-001 -7.687111e-002 -6.473364e+000 121 43 32
2.808386e+000 -9.465101e+000 -5.864065e+000 74 77 87
3.087748e+000 -1.027904e+001 -5.529488e+000 87 92 115
3.031370e+000 -9.721773e+000 -5.820992e+000 32 28 42
-2.485826e-001 3.287500e-001 -7.618093e+000 210 198 186
-2.088278e-001 -1.676208e-001 -7.614042e+000 191 179 163
-2.088278e-001 -1.676208e-001 -7.614042e+000 191 179 163
-2.261670e-001 1.383449e+000 -6.970894e+000 215 55 61
-6.405219e-002 5.551510e-001 -7.205750e+000 182 172 160
5.288735e-001 1.943804e-002 -6.524184e+000 178 165 146
-7.590135e-001 -2.738798e-001 -6.781630e+000 126 28 21
5.289687e-001 5.602783e-001 -6.745957e+000 206 194 180
3.349141e+000 -1.083065e+001 -5.118869e+000 243 247 253
3.154897e+000 -1.097540e+001 -5.387628e+000 25 24 29
3.308075e-001 -3.410679e+000 -7.792207e+000 186 185 183
1.922056e-001 -1.715422e+000 -7.697443e+000 170 169 167
-1.574337e-001 3.885645e-001 -7.479968e+000 216 204 191
4.791444e-001 -2.959464e+000 -7.527228e+000 166 164 167
-2.490595e-002 -4.153134e-001 -7.360846e+000 182 131 86
-6.806130e-002 5.682769e-001 -7.169332e+000 196 186 174
-9.096242e-001 -2.529353e-001 -6.368588e+000 178 112 88
-2.737299e-001 1.423717e-001 -6.841987e+000 82 39 32
2.626841e+000 -9.421633e+000 -6.110371e+000 32 30 41
5.477187e-001 -1.939898e-001 -6.559978e+000 222 214 201
5.049844e-001 -5.958111e-002 -6.536637e+000 224 216 205
1.183630e+000 -1.689726e+000 -6.420888e+000 145 139 139
1.547840e+000 -1.103155e+000 -5.882648e+000 156 158 157
-5.064925e-001 8.267882e-001 -7.897759e+000 15 13 23
-1.618558e-001 -8.028988e-002 -7.528380e+000 198 186 170
-1.755431e-001 3.318980e-001 -7.320991e+000 153 141 127
5.512688e-001 -2.779795e+000 -7.427251e+000 139 137 140
-1.720446e-001 1.926926e-001 -7.046365e+000 146 129 115
-1.555724e-001 1.598684e-001 -6.785667e+000 152 135 121
1.109267e-001 2.473248e-001 -6.855007e+000 165 151 138
2.059120e-001 1.014869e+000 -7.075758e+000 199 192 182
1.301093e-001 1.221779e-001 -6.756284e+000 199 192 176
-5.994277e-001 6.031019e-001 -8.051336e+000 198 56 54
-6.022900e-001 6.051149e-001 -8.049163e+000 198 56 54
-1.515667e-001 6.779644e-001 -7.481546e+000 212 203 190
-3.013783e-001 1.237605e-001 -6.823499e+000 79 48 44
-4.856809e-001 -5.038922e-002 -6.500078e+000 149 62 44
-1.759000e-001 4.317188e-002 -6.664875e+000 192 178 167
-1.413508e-001 9.668990e-002 -6.707055e+000 135 121 108
4.315170e-001 2.640522e-001 -6.762322e+000 128 112 97
4.408146e-001 1.365441e+000 -6.842022e+000 76 64 62
5.543946e-001 -1.747807e-002 -6.489781e+000 184 171 152
1.027282e+000 -7.553939e-002 -6.292666e+000 242 237 230
9.426161e-001 5.900100e-001 -6.369999e+000 233 90 99
-2.016540e-001 -1.397349e-001 -7.337282e+000 166 151 132
-7.018106e-001 -1.380758e-001 -6.794657e+000 118 51 33
-6.180355e-002 7.950471e-001 -7.348235e+000 161 149 137
-2.827243e-001 1.305300e-001 -6.804562e+000 70 21 17
5.637210e-002 6.561997e-002 -6.725408e+000 197 188 173
3.020448e-001 7.681278e-002 -6.639368e+000 235 230 215
2.534750e-001 1.412848e+000 -7.113396e+000 64 55 56
2.835090e+000 -9.345231e+000 -5.973939e+000 19 18 22
4.397684e-001 1.053950e+000 -6.796383e+000 210 202 186
6.441773e-001 9.737490e-001 -6.628359e+000 230 81 91
-2.632369e-001 6.095678e-001 -7.557328e+000 231 223 212
-1.930465e-001 3.798520e-001 -7.330340e+000 205 196 182
2.749901e-001 5.985080e-001 -6.952060e+000 227 223 211
3.438161e-001 2.099756e-001 -6.689211e+000 208 200 183
5.265746e-001 5.440182e-001 -6.803871e+000 237 229 218
-1.785131e-001 5.804103e-001 -7.465592e+000 218 210 197
-1.735745e-001 3.040220e-001 -7.224966e+000 177 164 148
-1.735745e-001 3.040220e-001 -7.224966e+000 177 164 148
-1.099138e-001 6.414876e-001 -7.245604e+000 136 119 103
2.843381e+000 -1.049257e+001 -5.627950e+000 85 90 112
-1.986869e-001 8.348367e-001 -7.483610e+000 143 124 110
-1.543093e-001 4.487459e-001 -7.375745e+000 143 127 111
-1.335161e-001 8.938189e-001 -7.358466e+000 215 207 194
-1.077378e-001 8.771496e-001 -7.368694e+000 215 207 194
-1.756425e-001 -6.552011e-002 -7.534619e+000 208 200 183
-1.419594e-001 2.895467e-001 -7.478147e+000 198 181 166
6.958776e-003 5.781529e-001 -7.154420e+000 201 191 179
1.175657e-002 5.759896e-001 -7.158268e+000 201 191 179
3.455778e-002 7.684318e-001 -7.126943e+000 219 210 201
7.064458e-001 3.299774e-001 -6.612240e+000 236 228 215
-3.100906e-001 1.011164e-001 -7.636913e+000 149 31 31
-1.968706e-001 -2.296341e-001 -7.543123e+000 167 155 140
-7.599888e-001 -2.321845e-001 -6.703038e+000 89 22 15
2.796474e-001 7.095714e-001 -7.032305e+000 203 194 185
3.435170e+000 -1.080020e+001 -5.350417e+000 100 93 90
1.009559e+000 -6.782538e-001 -6.281056e+000 170 52 45
2.294272e+000 -1.100219e+001 -5.735433e+000 137 132 133
1.218805e+000 -1.832680e+000 -6.495939e+000 148 146 148
3.696391e+000 -9.001885e+000 -4.973072e+000 25 22 29
1.770562e+000 -3.673382e-001 -5.495713e+000 136 133 140
-2.525790e-001 1.548002e-001 -6.842456e+000 100 82 72
1.222980e-001 1.600681e-001 -6.750224e+000 217 207 192
5.800726e-001 1.476069e-002 -6.466734e+000 216 208 197
4.815172e+000 -1.167462e+001 -3.107882e+000 226 238 245
-8.694075e-002 1.271769e+000 -7.372578e+000 203 67 75
5.138979e-002 9.247072e-001 -7.131822e+000 189 177 165
5.246002e-002 9.238280e-001 -7.132047e+000 189 177 165
7.308019e-001 7.570815e-001 -6.544590e+000 190 176 167
-1.620223e-001 2.882363e-001 -7.391286e+000 157 140 125
-1.123421e-001 4.349376e-001 -7.431647e+000 133 120 104
1.935918e-001 7.680404e-002 -6.708022e+000 130 117 101
3.253786e+000 -1.037293e+001 -5.520656e+000 16 15 18
4.529270e+000 -9.157824e+000 -2.902613e+000 102 98 116
-4.524484e-001 7.660828e-001 -7.771016e+000 171 38 43
-1.251332e-001 1.046983e+000 -7.379965e+000 163 145 131
4.369649e+000 -8.266733e+000 -3.238645e+000 77 75 86
-5.522248e-001 7.289884e-001 -7.920938e+000 189 49 52
-1.823200e-001 8.955311e-001 -7.540066e+000 155 139 126
3.340486e+000 -1.083576e+001 -5.068754e+000 236 244 247
4.272482e+000 -9.118313e+000 -3.595239e+000 90 87 108
-5.261703e-001 6.250944e-001 -7.974253e+000 194 51 57
-9.005601e-001 -1.915439e-001 -6.277725e+000 40 19 12
3.365136e-001 8.993192e-001 -6.921179e+000 147 133 120
6.828428e-001 5.576482e-001 -6.609759e+000 128 112 97
-3.099401e-001 8.718394e-001 -7.600849e+000 217 61 70
5.085721e-001 -6.249318e-002 -6.554704e+000 251 244 233
-1.388265e-001 3.165972e-001 -7.009603e+000 144 129 113
-2.623207e-001 1.479448e-002 -6.712042e+000 99 65 58
-8.672452e-002 1.236761e+000 -7.379422e+000 140 15 24
3.247094e+000 -1.075345e+001 -4.742371e+000 253 254 255
-1.557331e-001 3.133661e-001 -7.299351e+000 119 104 89
-2.428680e-001 1.917107e-001 -6.879990e+000 124 107 97
2.181586e+000 -1.084146e+001 -5.780459e+000 126 120 120
2.256524e+000 -9.481730e+000 -6.642812e+000 41 40 46
-1.111120e-001 4.918669e-001 -7.340801e+000 134 118 103
-5.309183e-001 5.725472e-001 -7.890572e+000 193 162 133
2.498319e-002 -5.922407e-001 -7.484191e+000 241 92 97
-7.109629e-001 -1.847880e-001 -6.849367e+000 106 29 15
-3.086766e-001 4.183158e-001 -7.255339e+000 154 141 122
-1.920634e-001 1.571332e-001 -7.080442e+000 110 92 78
-5.385545e-002 2.343499e-001 -6.917746e+000 152 139 121
1.015071e+000 -6.729758e-001 -6.298219e+000 193 184 157
1.473306e+000 -1.278304e+000 -6.016659e+000 139 137 140
9.488027e-001 4.022039e-001 -6.249314e+000 236 80 92
-1.487710e-001 -1.821947e+000 -8.003505e+000 174 170 171
-2.007709e-001 -1.552971e+000 -7.926144e+000 177 173 176
-4.292374e-002 -1.696912e+000 -7.827266e+000 182 178 177
-2.605859e-001 -4.190653e-001 -7.690435e+000 130 118 112
-8.344772e-001 -3.443792e-001 -6.548903e+000 129 48 20
-2.368720e-001 1.139819e+000 -7.459072e+000 153 22 27
-9.865702e-002 5.028405e-001 -7.240250e+000 154 141 125
5.476038e-001 -4.316137e-001 -6.609700e+000 223 202 145
1.156820e+000 -3.957678e-001 -6.058205e+000 160 157 156
1.509135e+000 -7.286633e-001 -5.876788e+000 147 145 148
1.477493e+000 -6.814447e-001 -5.935684e+000 134 129 135
1.804305e+000 -1.149835e+000 -5.598777e+000 152 147 153
9.121159e-001 7.148337e-001 -6.320716e+000 191 57 62
9.648001e-001 6.646552e-001 -6.294226e+000 166 37 42
3.843816e-002 -2.011264e+000 -7.805328e+000 96 92 91
3.955129e-002 -1.960958e+000 -7.700361e+000 182 178 179
-3.496256e-001 3.405721e-001 -7.770697e+000 211 81 81
-2.635507e-001 2.335536e-001 -7.709224e+000 197 63 66
-1.491631e-002 -5.349126e-001 -7.488900e+000 149 38 43
-2.656511e-002 -4.855053e-001 -7.476065e+000 232 171 124
-2.844895e-001 1.061294e+000 -7.635695e+000 152 31 38
-1.608741e-001 3.302211e-001 -7.382087e+000 145 132 113
-1.662954e-001 6.918443e-001 -7.496438e+000 160 152 133
-8.987916e-001 -3.054078e-001 -6.435232e+000 147 67 38
-3.733827e-001 1.960827e-002 -6.864871e+000 46 12 11
-2.078926e-001 1.532957e-001 -7.064160e+000 141 125 110
-9.208312e-001 -2.902666e-001 -6.345958e+000 41 13 11
-4.834139e-001 -2.357260e-002 -6.677229e+000 44 4 2
-5.718156e-001 -1.181324e-001 -6.506078e+000 68 18 13
-2.859230e-001 1.372453e-001 -6.748556e+000 94 31 26
-2.149362e-001 7.020566e-002 -6.702227e+000 68 24 15
9.361797e-002 6.490147e-001 -7.098017e+000 201 192 174
1.023508e-001 1.224031e+000 -7.114839e+000 212 67 70
8.497597e-001 -8.268458e-001 -6.481768e+000 238 98 99
1.764886e+000 -1.028295e+000 -5.657859e+000 145 143 148
1.634590e+000 -3.795213e-001 -5.715565e+000 177 170 175
-5.644408e-001 5.858048e-001 -7.982310e+000 226 76 81
-2.798538e-001 1.943189e-001 -7.750242e+000 210 79 84
-4.862779e-002 -4.787827e-001 -7.510920e+000 173 47 44
-2.205022e-001 5.304678e-001 -7.569916e+000 185 176 162
-1.677969e-001 3.689076e-001 -7.404200e+000 202 189 176
-7.223867e-001 -1.891234e-001 -6.750013e+000 85 26 17
-8.808402e-001 -2.962212e-001 -6.509458e+000 114 41 21
3.234298e+000 -9.083370e+000 -5.449414e+000 29 26 35
1.376041e-004 4.494392e-001 -7.155566e+000 150 138 122
-7.567499e-002 8.568457e-001 -7.306208e+000 199 190 173
-9.296981e-001 -1.805305e-001 -6.211748e+000 64 37 25
8.481632e-001 -2.959671e-001 -6.396194e+000 234 226 209
6.941309e-001 6.572427e-001 -6.602375e+000 169 157 137
3.142950e+000 -9.523534e+000 -5.989780e+000 34 31 38
-6.445112e-002 4.321599e-001 -7.183534e+000 186 173 156
-8.392890e-001 -1.832268e-001 -6.199411e+000 63 37 23
-3.438238e-001 -2.328293e-001 -6.449389e+000 136 32 24
-2.535176e-002 5.332526e-002 -6.698085e+000 123 107 94
2.862459e-001 2.844052e-001 -6.787598e+000 187 171 160
8.588173e-001 -6.919690e-001 -6.473792e+000 240 232 215
4.642863e-001 7.797396e-002 -6.568101e+000 156 143 124
6.580485e-001 3.096634e-001 -6.646266e+000 226 217 202
7.559953e-001 -8.623528e-002 -6.384746e+000 234 222 205
8.011942e-001 -1.001929e-001 -6.345147e+000 148 130 106
1.411695e+000 -2.665174e-001 -5.915095e+000 166 151 163
7.765080e-001 9.672760e-001 -6.462911e+000 194 60 64
9.960013e-001 5.178850e-001 -6.194873e+000 221 86 92
-2.794082e-001 -3.574536e-001 -7.713060e+000 116 105 101
-4.282197e-001 1.494932e-002 -6.871759e+000 86 36 25
1.735588e-001 5.953603e-001 -6.965839e+000 216 207 190
1.784754e-001 7.353919e-001 -7.068087e+000 228 216 202
2.332517e-001 4.390546e-001 -6.911442e+000 148 135 118
4.035868e-001 1.531751e-001 -6.617287e+000 209 198 180
7.559975e-001 1.020205e-001 -6.529247e+000 145 132 113
1.255545e+000 -4.698435e-001 -6.032624e+000 164 157 164
5.570299e-001 1.238442e+000 -6.650115e+000 57 58 53
1.593623e+000 -2.635074e-001 -5.973123e+000 14 10 10
1.255117e+000 2.068014e-001 -6.044635e+000 163 152 158
1.208931e+000 3.128594e-001 -6.074083e+000 153 142 146
-9.530160e-001 -2.866591e-001 -6.458792e+000 172 91 79
5.622791e-002 5.940009e-001 -7.102543e+000 207 198 183
2.287831e-002 8.291377e-002 -6.740068e+000 183 173 155
1.079629e-001 3.026508e-002 -6.673827e+000 149 136 117
3.967291e-001 4.964718e-001 -6.931757e+000 184 172 158
2.944959e-001 9.981950e-001 -7.016703e+000 230 222 211
7.411021e-001 -4.584365e-001 -6.433103e+000 254 241 186
6.446382e-001 2.670567e-001 -6.717002e+000 222 213 199
1.194112e+000 -3.986761e-001 -6.094141e+000 100 85 61
1.318459e+000 -2.001984e-001 -5.973194e+000 254 243 203
1.154619e+000 1.740352e-001 -6.110954e+000 211 76 81
-2.581325e-001 -3.719850e-001 -7.631328e+000 217 210 191
-5.879746e-002 6.791715e-001 -7.181153e+000 208 199 184
9.997970e-002 6.910116e-001 -7.110361e+000 222 213 196
1.028709e+000 -7.524008e-001 -6.350329e+000 221 214 198
7.770361e-001 -2.748591e-002 -6.383487e+000 162 147 127
1.006130e+000 3.259926e-001 -6.280813e+000 237 228 213
7.788623e-001 9.748965e-001 -6.504556e+000 200 63 70
1.089390e+000 2.382562e-001 -6.191500e+000 187 53 57
-2.176583e-001 2.179734e-001 -7.626071e+000 124 17 23
1.243711e-001 1.398771e+000 -7.148766e+000 21 9 14
3.950335e-001 7.637325e-001 -6.868874e+000 237 228 211
1.342275e+000 -2.879145e-001 -5.989295e+000 246 227 184
-1.350872e-001 1.539814e-001 -7.288228e+000 143 126 108
8.156156e-002 9.113003e-001 -7.118977e+000 180 167 151
2.307492e-001 6.477052e-001 -7.021169e+000 145 130 111
6.299131e-001 -8.024083e-002 -6.403809e+000 244 237 221
7.880956e-001 7.556583e-001 -6.448499e+000 124 22 26
3.408342e-001 -2.082560e-002 -6.572032e+000 238 232 213
1.057653e+000 3.408246e-002 -6.276649e+000 242 236 220
3.893648e-001 6.645613e-001 -6.847716e+000 213 204 187
3.656456e-001 6.808121e-001 -6.846596e+000 213 204 187
-3.009557e-001 6.100593e-001 -7.652458e+000 214 207 191
-5.564634e-003 1.285892e+000 -7.433952e+000 17 11 13
-4.031105e-001 -1.616730e-001 -6.767077e+000 79 26 18
3.098701e-001 8.167751e-001 -6.970985e+000 194 182 165
4.966955e-001 -1.875091e+000 -7.251387e+000 118 114 111
-2.240730e-001 -2.101632e-001 -7.569855e+000 181 166 149
-1.698960e-001 -6.975435e-002 -7.526890e+000 198 187 167
2.970641e-001 -8.537483e-001 -7.422345e+000 134 126 124
-1.891928e-002 3.052354e-001 -6.881727e+000 152 139 122
8.016289e-001 -4.341965e-001 -6.353208e+000 175 154 111
1.199606e+000 -5.816514e-001 -6.122037e+000 171 165 169
4.747086e-001 -1.490230e+000 -7.322481e+000 149 146 139
7.111875e-001 -1.991058e+000 -7.157724e+000 156 153 149
-1.519988e-001 -4.969422e-002 -7.448538e+000 135 115 98
-7.175324e-001 -3.093525e-001 -6.786703e+000 123 35 19
-2.892328e-002 2.867226e-001 -7.036898e+000 126 110 94
-1.197446e-001 1.220410e+000 -7.387316e+000 147 26 30
9.144029e-001 -7.253507e-001 -6.432086e+000 211 197 182
9.144029e-001 -7.253507e-001 -6.432086e+000 211 197 182
9.294272e-001 -6.650007e-001 -6.384228e+000 238 230 212
1.120471e+000 -6.186735e-001 -6.136889e+000 159 149 154
8.608342e-001 1.038739e-001 -6.458449e+000 187 179 160
-7.219559e-001 -1.886763e-001 -6.868922e+000 160 79 51
-3.326130e-001 7.861278e-001 -7.622193e+000 167 152 133
-3.446281e-001 7.908085e-001 -7.619026e+000 167 152 133
-8.227190e-002 8.594869e-001 -7.234263e+000 196 188 167
4.340946e-001 6.343984e-001 -6.771514e+000 195 188 172
6.951628e-001 6.720957e-002 -6.464844e+000 156 141 120
5.685438e-001 -1.851163e+000 -7.221337e+000 120 116 115
5.685438e-001 -1.851163e+000 -7.221337e+000 120 116 115
5.465697e-001 -1.727265e+000 -7.228167e+000 147 146 142
-1.877161e-001 2.409597e-001 -7.525503e+000 192 171 154
-3.887289e-001 -1.406523e-001 -7.024196e+000 51 19 14
5.510558e-002 -3.402272e-001 -7.243499e+000 228 204 154
-3.324129e-001 8.931137e-002 -6.907853e+000 62 18 17
1.206536e+000 -3.462170e-002 -6.052945e+000 240 94 104
1.596137e-001 2.795507e-001 -6.795832e+000 212 205 186
4.548343e-001 2.585541e-002 -6.558138e+000 218 209 192
-1.804528e-001 3.922954e-001 -7.564172e+000 196 187 170
9.607566e-001 -7.039145e-001 -6.347896e+000 226 217 200
1.036644e+000 -6.864850e-001 -6.142614e+000 166 159 167
9.731977e-001 -3.597626e-001 -6.202618e+000 254 236 196
5.576987e-001 1.423718e-001 -6.543290e+000 150 135 116
1.462745e-001 -2.361746e-001 -6.496527e+000 214 201 184
-1.066027e-001 2.950227e-002 -7.807086e+000 129 22 27
-1.023675e+000 -1.254384e+001 -1.023051e+001 95 100 119
5.618284e-001 -1.805522e+000 -7.197251e+000 108 106 103
-2.242123e-001 2.392426e-001 -7.513591e+000 165 43 47
3.037715e-001 -1.447628e+000 -7.479722e+000 105 101 97
-2.036708e-001 -2.416478e-001 -7.554704e+000 186 173 154
-8.924670e-001 -3.405672e-001 -6.432394e+000 160 85 62
-5.308402e-001 -6.867871e-002 -6.520814e+000 119 49 39
-2.948381e-001 -9.296381e-003 -6.681023e+000 78 42 41
-7.729816e-001 -3.799167e-001 -6.537657e+000 155 136 120
1.452640e+000 -1.101533e+000 -6.039681e+000 139 137 140
-2.873183e-001 2.611903e-001 -7.685045e+000 186 55 60
-3.683886e-001 -1.218360e-001 -7.002118e+000 92 65 59
-1.260037e-001 5.693767e-001 -7.246357e+000 166 151 132
1.320697e-001 9.902875e-002 -6.731101e+000 190 179 160
1.208224e+000 -4.827656e-001 -6.047167e+000 176 171 172
2.562791e-001 2.407339e-001 -6.747152e+000 167 156 138
8.548696e-001 9.024313e-002 -6.501678e+000 196 188 169
5.298044e-001 7.181152e-001 -6.776697e+000 233 225 212
3.609941e-001 1.349900e+000 -6.901569e+000 199 63 66
3.081377e-001 1.044304e+000 -7.026340e+000 211 203 190
3.933199e-001 1.331795e+000 -6.856742e+000 211 68 71
4.004503e-001 1.368983e+000 -6.941036e+000 50 30 31
3.759864e-001 1.369671e+000 -6.871103e+000 71 38 38
5.432444e+000 -6.764814e+000 -1.318555e+000 79 74 80
1.192909e+000 -7.672152e-001 -6.164851e+000 162 151 157
1.059239e+000 -1.980349e-001 -6.256904e+000 206 198 179
4.391528e-001 1.284331e+000 -6.796200e+000 207 64 70
1.866249e-001 4.019296e-001 -6.904124e+000 190 177 162
6.700895e-001 9.792582e-001 -6.625610e+000 210 71 78
-4.969110e-001 4.794262e-001 -7.712660e+000 210 192 171
-2.677460e-002 -4.533714e-001 -7.379253e+000 170 106 60
-2.677460e-002 -4.533714e-001 -7.379253e+000 170 106 60
-1.387876e-002 -4.419046e-001 -7.363650e+000 219 166 119
1.396162e-001 -6.073699e-001 -7.344117e+000 92 25 6
-7.090712e-001 -2.933940e-001 -6.801754e+000 136 49 26
7.694845e-002 -3.989130e-001 -7.267913e+000 117 67 28
3.637870e-002 -3.607289e-001 -7.238474e+000 254 236 179
-9.044075e-001 -3.143000e-001 -6.364021e+000 62 24 14
-9.065582e-001 -2.938507e-001 -6.382468e+000 141 63 37
-4.796520e-001 -4.365275e-002 -6.606477e+000 88 33 26
-2.419124e-001 2.717703e-002 -6.720687e+000 68 31 22
1.566303e+000 -1.700934e+000 -6.037833e+000 152 152 150
5.532304e-001 -8.619990e-002 -6.521656e+000 233 226 208
-7.043507e-003 1.166755e+000 -7.248250e+000 208 50 58
9.828381e-001 -3.991840e-001 -6.330833e+000 175 160 138
9.754980e-001 -3.959984e-001 -6.332377e+000 175 160 138
1.297811e-002 1.363014e+000 -7.238590e+000 91 13 17
1.445492e+000 -1.092102e+000 -5.892229e+000 184 179 183
9.967081e-001 -3.992377e-001 -6.099937e+000 188 170 172
1.391606e+000 -1.422181e-001 -5.923196e+000 70 60 49
1.244318e+000 1.351205e-001 -6.036314e+000 152 134 136
1.208699e+000 2.772330e-001 -6.078053e+000 150 137 133
-5.826632e-001 6.077958e-001 -8.070492e+000 72 40 43
-5.953447e-001 -3.528409e-001 -6.921944e+000 153 57 26
-4.638753e-001 -2.394885e-001 -7.102981e+000 255 240 185
-1.587888e-001 -4.862412e-003 -7.475996e+000 139 110 94
-7.217984e-001 -1.613515e-001 -6.912405e+000 145 70 49
-7.179705e-001 -1.632306e-001 -6.913095e+000 145 70 49
-6.659212e-001 -3.093385e-001 -6.725938e+000 93 22 12
-4.567856e-001 -1.444021e-001 -7.000122e+000 114 85 81
-9.402012e-001 -3.499514e-001 -6.482442e+000 131 135 126
-8.206391e-001 -3.570723e-001 -6.551442e+000 127 53 33
-7.646034e-001 -3.580790e-001 -6.555356e+000 110 46 22
-3.978724e-001 1.026297e+000 -7.621955e+000 173 40 54
-3.516080e-001 1.033583e+000 -7.623482e+000 162 40 43
-2.796882e-001 8.823948e-003 -6.977807e+000 82 58 48
-9.296118e-002 6.569500e-001 -7.413747e+000 153 142 124
-8.576034e-002 6.563127e-001 -7.414021e+000 153 142 124
-3.212839e-001 3.937621e-001 -7.014402e+000 137 121 105
6.664275e-002 3.998710e-001 -7.292295e+000 145 132 113
-1.507485e-001 5.318765e-001 -7.285794e+000 139 124 105
-8.738630e-001 -2.019632e-001 -6.229091e+000 180 161 137
-8.738630e-001 -2.019632e-001 -6.229091e+000 180 161 137
-1.526818e-001 1.086359e+000 -7.504085e+000 159 28 33
-8.032842e-001 -2.082573e-001 -6.231157e+000 137 115 96
-1.676555e-001 3.521205e-002 -6.661651e+000 186 172 152
-2.704055e-001 1.178635e+000 -7.437772e+000 157 30 34
7.746190e-001 -3.233851e-001 -6.428337e+000 157 143 122
2.217022e-001 9.963780e-001 -7.072856e+000 187 181 164
1.639414e+000 -1.173989e+000 -5.856029e+000 143 138 142
1.626868e+000 -1.171668e+000 -5.795977e+000 190 185 189
1.744093e+000 -1.283701e+000 -5.719169e+000 175 170 176
1.825313e+000 -1.337389e+000 -5.705148e+000 175 170 176
1.679790e+000 -1.153096e+000 -5.698590e+000 194 189 195
1.700169e+000 -4.223680e-001 -5.671278e+000 141 136 142
9.184504e-001 4.329372e-001 -6.267318e+000 225 207 189
2.035536e+000 -6.475874e-001 -5.344027e+000 147 144 150
1.893651e+000 -4.324014e-001 -5.481619e+000 140 133 141
6.909928e-001 1.343252e+000 -6.592156e+000 85 76 74
2.936448e+000 -1.463914e+000 -4.451307e+000 185 183 188
2.087298e+000 -2.877353e-001 -5.240663e+000 151 145 149
-1.919058e-001 1.390409e-001 -7.809469e+000 17 16 17
-2.747207e-001 4.551882e-002 -7.661738e+000 206 76 78
-2.235640e-001 2.267124e-001 -7.805853e+000 202 72 74
-7.299088e-001 -2.362630e-001 -6.854956e+000 181 89 58
-7.368551e-001 -1.756552e-001 -6.869284e+000 171 97 65
3.901379e-002 -3.387331e-001 -7.273313e+000 243 223 166
-1.682984e-001 6.757506e-001 -7.455410e+000 162 151 133
-2.860891e-001 3.170950e-002 -6.710732e+000 89 55 48
-2.921004e-001 1.191141e-001 -6.827300e+000 81 50 40
-2.371886e-001 1.149440e-001 -6.836658e+000 77 30 22
-2.033788e-001 1.449059e-001 -6.806355e+000 100 82 72
-7.169513e-001 -2.578142e-001 -6.232557e+000 71 49 28
7.491167e-001 -5.938939e-001 -6.468901e+000 238 235 223
1.281737e-001 6.192683e-001 -7.030606e+000 180 167 150
5.689252e-001 1.721424e-001 -6.639097e+000 141 126 107
1.691620e+000 -1.164023e+000 -5.768712e+000 136 131 136
1.440859e+000 -7.759056e-001 -6.033379e+000 163 157 161
1.122437e+000 -4.248589e-001 -6.108528e+000 243 221 180
9.811409e-001 -1.900699e-001 -6.283339e+000 156 143 124
1.374251e+000 -4.067985e-001 -5.946226e+000 145 138 146
1.520855e+000 -4.247893e-001 -5.983490e+000 211 192 149
1.046831e+000 3.045801e-001 -6.237084e+000 230 96 94
1.281936e+000 8.443261e-002 -6.015293e+000 159 146 155
8.466306e-001 6.309831e-001 -6.405885e+000 222 202 188
8.466306e-001 6.309831e-001 -6.405885e+000 222 202 188
2.892488e+000 -1.322704e+000 -4.475043e+000 187 184 191
-3.041374e-001 3.156918e-001 -7.794233e+000 210 78 82
-4.591817e-001 -2.547933e-001 -7.079142e+000 74 22 12
-3.638585e-001 -1.161280e-001 -7.036757e+000 107 87 76
-3.688070e-001 -1.119838e-001 -7.036112e+000 107 87 76
-3.126689e-001 1.063750e+000 -7.622096e+000 157 34 36
-4.884108e-001 -2.090305e-002 -6.675996e+000 45 6 6
9.695840e-002 7.069598e-001 -7.092272e+000 222 214 203
3.579452e-001 6.824757e-002 -6.614694e+000 181 170 150
3.574344e-001 3.572308e-001 -6.855630e+000 151 140 122
4.327258e-001 3.450106e-001 -6.833331e+000 187 176 158
8.857722e-001 -3.291810e-001 -6.361623e+000 93 78 57
3.332539e-001 7.454893e-001 -6.960202e+000 188 178 160
3.216746e-001 7.472249e-001 -6.955248e+000 188 178 160
3.051372e-001 9.513176e-001 -7.012499e+000 154 145 130
2.003446e+000 -4.387214e-001 -5.277989e+000 162 156 160
-4.466700e-001 -3.145951e-001 -7.057995e+000 253 247 185
1.867014e-001 -4.221633e-001 -7.323358e+000 64 5 8
-3.651369e-001 -1.562423e-001 -7.027098e+000 61 23 21
-1.571140e-001 3.284871e-001 -7.381893e+000 144 129 110
-7.544310e-001 -4.113322e-001 -6.512485e+000 116 41 30
-2.692130e-001 -2.786187e-003 -7.046801e+000 102 85 74
-3.327373e-001 -3.198853e-002 -6.925838e+000 42 10 11
-2.155306e-001 4.227597e-002 -6.729156e+000 123 105 91
-2.230579e-001 4.854066e-002 -6.729210e+000 123 105 91
1.244936e+000 -6.186751e-001 -6.153142e+000 159 36 43
6.475181e-001 3.642028e-002 -6.455709e+000 198 190 171
4.355193e-001 1.226852e+000 -6.810706e+000 220 79 80
9.019013e-001 5.774766e-001 -6.369207e+000 176 41 45
5.375267e-001 1.270718e+000 -6.699568e+000 66 45 50
2.111279e+000 -4.240085e-001 -5.273816e+000 177 171 175
-1.696095e-002 3.694295e-001 -7.093132e+000 178 164 145
4.268362e-001 4.848537e-001 -6.930898e+000 180 171 155
-1.668663e-002 1.167485e+000 -7.259690e+000 181 47 48
1.465927e+000 -1.935367e-001 -5.972981e+000 18 8 8
1.310065e+000 1.209864e-001 -5.942573e+000 142 136 140
6.443349e-001 6.931867e-001 -6.664803e+000 227 220 204
1.062236e+000 2.853947e-001 -6.271181e+000 234 227 213
-2.015634e-001 2.201680e-001 -7.623515e+000 128 19 24
-5.757611e-001 -2.707554e-001 -6.374660e+000 92 34 18
-2.192077e-001 -1.140407e-002 -6.649071e+000 68 23 20
-4.160472e-001 -2.386525e-001 -6.391762e+000 143 141 142
-1.064893e-001 9.597960e-001 -6.940545e+000 210 201 184
-3.939609e+000 -7.128909e+000 -1.436924e+001 78 77 87
-7.061359e+000 -7.306614e+000 -2.514554e+001 91 83 80
-8.890535e+000 -9.470151e+000 -2.215814e+001 97 90 82
-8.890535e+000 -9.470151e+000 -2.215814e+001 97 90 82
-6.055690e-001 8.217605e-002 -6.428938e+000 84 20 12
-7.509546e-001 -1.862023e-001 -6.711607e+000 106 46 35
-1.582554e-001 3.367469e-001 -7.301240e+000 153 140 123
-8.656775e-002 9.847224e-001 -7.493419e+000 218 180 164
1.907875e+000 -1.336250e+000 -5.504878e+000 168 163 170
2.923436e-001 -1.397805e+000 -7.469995e+000 151 148 141
3.700069e-001 -1.054435e+000 -7.395521e+000 156 156 148
-2.316678e-002 -4.508102e-001 -7.481951e+000 143 46 23
-3.429773e-001 1.111976e-001 -7.646027e+000 143 28 29
-3.300882e-001 8.786223e-001 -7.594592e+000 217 58 58
1.805093e+000 -1.124075e+000 -5.616508e+000 194 189 195
1.574479e+000 -5.563838e-001 -5.806875e+000 171 167 171
-3.590804e-001 7.917214e-001 -7.670392e+000 161 146 127
-3.590804e-001 7.917214e-001 -7.670392e+000 161 146 127
-8.699002e-002 1.111101e+000 -7.299559e+000 130 95 81
4.591170e-001 -1.272952e+000 -7.254369e+000 135 134 129
-1.510458e-001 2.113054e-001 -7.372924e+000 136 110 97
-8.690399e-001 -1.547554e-001 -6.199694e+000 72 45 28
-8.690399e-001 -1.547554e-001 -6.199694e+000 72 45 28
2.403981e-001 -7.671452e-001 -7.390038e+000 26 10 13
-8.979482e-001 -3.378540e-001 -6.468262e+000 129 44 20
-9.093930e-001 -2.684277e-001 -6.381413e+000 198 109 75
1.478633e+000 -1.076420e+000 -5.916808e+000 201 196 202
3.891435e-001 -1.255387e+000 -7.356762e+000 139 139 131
-4.755261e-001 -8.693457e-002 -7.061507e+000 66 27 15
-2.740192e-001 1.753772e-001 -6.898737e+000 138 116 102
-1.928469e-001 2.160262e-001 -6.988879e+000 151 132 115
-1.928469e-001 2.160262e-001 -6.988879e+000 151 132 115
-1.399104e-001 7.720953e-001 -7.404487e+000 208 200 179
1.525762e+000 -1.127415e+000 -5.898899e+000 172 167 173
7.126022e-001 -1.626822e+000 -7.000078e+000 141 143 138
-4.807904e-001 -3.024978e-003 -6.796470e+000 77 33 28
-1.906031e-001 3.818499e-001 -7.299744e+000 156 143 122
-1.713012e-001 1.546218e-001 -6.807233e+000 159 142 124
5.477203e-001 -8.951131e-002 -6.502174e+000 213 200 176
3.767413e-001 -1.129770e+000 -7.376227e+000 174 170 167
-1.738352e-001 2.035697e-001 -7.115692e+000 122 105 89
-1.839585e-002 3.116043e-001 -7.044910e+000 175 160 139
1.221542e+000 -3.926734e-001 -6.053246e+000 166 163 168
6.984065e-001 6.579126e-001 -6.594553e+000 186 176 156
-7.565401e-001 -2.021834e-001 -6.693949e+000 121 51 42
7.495612e-001 -8.315045e-002 -6.386704e+000 248 243 227
1.488863e+000 -4.009317e-001 -5.893829e+000 169 167 175
-1.694257e-001 2.036371e-001 -7.488418e+000 138 33 40
-2.480102e-001 -1.049093e-001 -7.106251e+000 143 121 101
-2.074603e-001 6.413235e-002 -7.185031e+000 161 142 127
3.824368e-001 1.671570e-001 -6.621335e+000 228 214 195
-1.463932e-001 1.543846e-001 -7.332957e+000 166 149 131
1.987324e-001 3.228711e-001 -6.875872e+000 154 139 120
-2.738822e-001 3.613295e-002 -7.724216e+000 18 12 14
3.786775e-001 1.317143e+000 -6.879263e+000 218 63 67
6.939544e-002 9.116306e-001 -7.112299e+000 188 175 156
6.668801e-001 -1.630812e+000 -7.037081e+000 111 113 108
1.536218e+000 -1.070007e+000 -5.927171e+000 209 203 207
2.215799e+000 -1.220949e+000 -5.138440e+000 166 164 169
1.706209e+000 -5.414760e-001 -5.662848e+000 192 189 192
5.295324e-001 -1.258470e+000 -7.160786e+000 134 133 132
4.269453e+000 -7.866226e+000 -3.903073e+000 64 61 68
-9.160996e-001 -2.837262e-001 -6.360738e+000 246 165 136
-4.594371e-001 -7.645416e-004 -6.788424e+000 78 35 29
3.776753e-002 2.289352e-001 -6.960459e+000 159 142 126
5.191700e-001 2.936642e-002 -6.525601e+000 189 174 153
1.202033e+000 -5.650450e-001 -6.127317e+000 188 187 190
1.553671e+000 -5.281426e-001 -5.899880e+000 184 179 183
2.084136e+000 -1.172830e+000 -5.251318e+000 149 147 151
9.521612e-001 5.899607e-001 -6.355429e+000 232 81 86
-8.292468e-001 -3.500408e-001 -6.553444e+000 159 50 37
-7.103167e-001 -1.534975e-001 -6.746178e+000 98 30 17
-1.655408e-001 6.431569e-001 -7.321592e+000 145 128 108
-5.772983e-002 5.529321e-001 -7.212586e+000 194 181 162
1.013337e+000 -7.002908e-002 -6.291321e+000 254 251 237
1.354166e+000 -1.890501e-001 -5.917741e+000 184 172 172
7.568771e-001 6.684780e-001 -6.407969e+000 230 219 190
7.407614e-001 6.949973e-001 -6.443163e+000 165 130 110
-6.365238e-002 2.837436e-001 -7.013075e+000 166 151 130
-2.602211e-001 1.086870e+000 -7.500348e+000 176 35 41
2.702851e+000 -1.377770e+000 -4.569392e+000 211 208 215
7.155724e+000 -5.805994e+000 1.822663e-001 75 73 75
-3.463072e-001 8.328310e-002 -6.867868e+000 85 48 40
-8.194319e-002 4.686516e-001 -7.207958e+000 156 137 120
1.673837e-002 1.292712e+000 -7.226834e+000 169 29 32
-8.972755e-002 -2.454895e-001 -7.391577e+000 171 154 129
-6.835305e-001 -1.057595e-001 -6.787577e+000 86 26 15
3.965316e-001 -1.166116e+000 -7.271114e+000 255 254 210
-1.329942e-001 1.219448e+000 -7.427005e+000 221 75 78
-1.419141e-001 8.623916e-001 -7.384992e+000 236 227 210
-4.782718e-001 5.993932e-001 -7.993447e+000 224 70 72
4.863044e-001 -1.324214e+000 -7.232501e+000 175 176 169
5.102620e-001 -1.557253e-002 -6.528096e+000 211 200 178
-1.978022e-001 7.122980e-003 -7.580098e+000 162 92 81
-1.789345e-001 -5.258480e-002 -7.394155e+000 146 123 107
-1.155855e-001 8.016559e-001 -7.403268e+000 188 181 159
-1.971062e-001 1.086996e+000 -7.563167e+000 189 43 46
8.998690e-002 2.583370e-001 -6.857212e+000 168 155 138
5.801632e-001 5.662092e-001 -6.726205e+000 170 159 139
-2.401856e-001 -2.252012e-001 -7.613734e+000 222 211 192
-1.406183e-001 3.812788e-004 -7.454962e+000 143 101 89
-7.852789e-002 7.474002e-001 -7.245258e+000 180 165 146
7.605753e-001 9.854221e-001 -6.495911e+000 215 69 72
6.495351e-001 -1.568395e+000 -7.047095e+000 160 162 157
5.942620e-001 -1.435979e+000 -7.108757e+000 151 147 144
-7.157803e-001 -1.480287e-001 -6.941243e+000 128 54 37
-6.148977e-002 7.536745e-002 -7.575101e+000 199 49 51
-1.504075e-001 6.021557e-001 -7.362625e+000 145 133 111
-1.120489e-001 5.293795e-001 -7.270939e+000 175 160 139
6.064955e-002 1.203043e+000 -7.153667e+000 234 184 169
-6.103612e-001 5.863767e-001 -8.031555e+000 76 59 55
-8.980484e-001 -2.695223e-001 -6.378587e+000 197 108 76
-2.680196e-001 1.176818e-001 -6.771221e+000 129 97 85
-4.358433e-001 -4.887951e-001 -6.085751e+000 197 192 195
-9.437375e-001 -3.348730e-001 -6.453542e+000 156 151 144
-1.322930e-001 5.138151e-001 -7.266766e+000 202 187 166
-1.591460e-001 3.867441e-001 -7.261251e+000 173 156 136
-1.535091e-001 6.580017e-001 -7.392882e+000 193 180 161
-1.349229e-001 4.552699e-001 -7.416441e+000 150 133 113
5.882378e-001 6.143324e-001 -6.730230e+000 238 231 214
7.012549e-001 6.975873e-001 -6.549135e+000 242 233 216
8.038944e-001 3.454163e-001 -6.472865e+000 184 171 152
6.636555e+000 -6.124323e+000 -2.787479e-001 28 23 29
-2.628756e-001 -8.132928e-002 -7.704181e+000 221 213 195
2.579915e-001 -1.146913e+000 -7.547935e+000 163 161 162
3.743593e-001 -9.891519e-001 -7.406969e+000 134 129 132
1.165701e+000 -2.100561e+000 -6.499570e+000 200 198 201
3.080490e-002 -5.356134e-001 -7.353478e+000 111 14 5
-2.715750e-001 -1.771893e-002 -7.771575e+000 78 65 49
7.167689e-001 -1.158973e+000 -6.956979e+000 133 130 131
5.758041e-001 -9.785832e-001 -7.078678e+000 179 174 176
-2.924448e-002 -4.339057e-001 -7.365600e+000 243 195 141
6.372323e-001 -9.900255e-001 -7.055286e+000 172 158 161
6.109997e-001 -9.750387e-001 -7.055501e+000 172 158 161
1.289733e+000 -1.865871e+000 -6.315019e+000 173 170 177
1.280409e+000 -1.819118e+000 -6.283039e+000 181 178 185
1.280409e+000 -1.819118e+000 -6.283039e+000 181 178 185
-7.155558e-001 -2.483032e-001 -6.863787e+000 167 67 35
-7.285266e-001 -2.023999e-001 -6.869469e+000 182 93 61
-5.023539e-001 -1.758338e-001 -7.042188e+000 170 170 149
-8.986045e-001 -3.430669e-001 -6.506699e+000 143 48 32
-8.536611e-001 -3.603157e-001 -6.504608e+000 231 233 233
-7.792762e-001 -2.597105e-001 -6.680733e+000 134 47 37
-7.530207e-001 -2.486497e-001 -6.740901e+000 148 62 40
-1.219127e-001 1.692409e-001 -7.494889e+000 111 8 15
1.915856e+000 -2.422981e+000 -5.620330e+000 221 214 221
-9.105776e-001 -2.788249e-001 -6.368017e+000 142 45 36
-1.578540e-001 3.261284e-001 -7.304709e+000 172 156 135
-3.018961e-001 1.081089e-001 -6.812191e+000 96 58 48
-3.018961e-001 1.081089e-001 -6.812191e+000 96 58 48
7.357109e-002 1.355653e-001 -6.788389e+000 137 123 105
1.194406e+000 -4.943741e-001 -6.099436e+000 220 99 90
2.491218e+000 -1.553578e+000 -4.831941e+000 171 172 176
8.795548e-001 6.267672e-001 -6.337356e+000 226 71 75
8.769253e-001 6.400516e-001 -6.324244e+000 217 64 69
9.122606e-001 7.556037e-001 -6.315137e+000 67 36 29
2.819173e-001 -1.434622e+000 -7.469447e+000 120 119 117
7.475218e-001 -1.582476e+000 -6.936070e+000 135 130 136
5.106369e-001 -1.206675e+000 -7.186606e+000 168 154 137
1.545650e+000 -2.654296e+000 -6.101032e+000 210 208 211
1.545650e+000 -2.654296e+000 -6.101032e+000 210 208 211
8.128794e-001 -1.504032e+000 -6.897600e+000 183 178 180
7.597382e-001 -1.400050e+000 -6.899525e+000 189 184 188
5.520400e-001 -1.114076e+000 -7.102310e+000 133 121 107
2.352657e-001 -7.131099e-001 -7.382012e+000 255 115 123
1.093745e+000 -1.742343e+000 -6.552842e+000 161 157 163
1.093745e+000 -1.742343e+000 -6.552842e+000 161 157 163
-5.734266e-001 -4.014407e-001 -6.858919e+000 191 51 41
-1.836893e-001 -8.758557e-003 -7.559205e+000 167 137 119
-5.222857e-001 -1.917003e-001 -7.027370e+000 213 208 186
1.444134e-001 -3.560293e-001 -7.202556e+000 106 37 9
-4.883357e-001 -1.361620e-001 -7.016321e+000 47 16 10
-9.347809e-001 -2.990113e-001 -6.353510e+000 204 195 200
-9.544490e-001 -2.068701e-001 -6.261682e+000 217 207 206
-9.542037e-001 -2.065440e-001 -6.261569e+000 217 207 206
-9.656922e-001 -1.917973e-001 -6.240508e+000 83 60 50
-2.420167e-001 2.116879e-001 -7.006062e+000 155 136 120
-7.982458e-001 -1.985263e-001 -6.220944e+000 185 181 178
1.605853e+000 -1.078638e+000 -5.782693e+000 181 177 181
8.623086e-001 -4.072657e-001 -6.386050e+000 243 235 214
1.140012e-001 1.336398e-001 -6.772022e+000 252 245 227
1.891799e+000 -1.350423e+000 -5.495412e+000 200 198 203
1.859497e+000 -1.140901e+000 -5.504517e+000 162 160 163
1.913237e+000 -1.142265e+000 -5.508174e+000 197 194 201
2.029388e+000 -1.126868e+000 -5.286963e+000 207 205 210
2.400843e+000 -1.426560e+000 -4.909171e+000 181 180 186
2.263337e+000 -1.259275e+000 -5.048977e+000 210 208 213
1.706492e+000 -5.534737e-001 -5.697592e+000 138 133 137
1.020254e+000 2.669680e-001 -6.246933e+000 234 218 197
6.646939e-001 6.656094e-001 -6.630174e+000 227 216 198
9.931741e-001 6.545798e-001 -6.292543e+000 189 40 42
9.912683e-001 6.552557e-001 -6.269866e+000 213 68 76
6.185227e-001 1.010660e+000 -6.663504e+000 245 81 86
2.317977e-001 -1.353434e+000 -7.463626e+000 171 170 167
3.677254e-001 -1.200084e+000 -7.274515e+000 253 248 190
3.677254e-001 -1.200084e+000 -7.274515e+000 253 248 190
1.010869e+000 -1.708104e+000 -6.620207e+000 198 195 200
6.348858e-001 -1.075584e+000 -7.033630e+000 134 128 130
3.406060e-001 -7.791088e-001 -7.151105e+000 188 46 48
-2.743414e-001 4.540093e-002 -7.664958e+000 234 95 96
-1.943687e-001 -4.199764e-002 -7.537886e+000 207 196 174
8.976753e-001 -3.062282e+000 -4.759686e+000 60 57 64
-7.395767e-001 -2.380401e-001 -6.749166e+000 119 30 14
-7.065375e-001 -1.424660e-001 -6.731434e+000 120 53 37
-2.019557e-001 1.221522e-001 -7.063553e+000 147 128 111
-3.225297e-001 1.073963e-001 -6.890386e+000 72 26 19
-2.944807e-001 1.143570e-001 -6.877101e+000 100 73 60
-1.519828e-001 2.821619e-001 -7.212547e+000 181 165 142
-2.695919e-001 3.585879e-001 -7.247978e+000 139 121 101
-1.609369e-001 3.579921e-001 -7.288990e+000 169 152 132
-2.717326e-001 1.391268e-001 -6.837760e+000 94 34 22
-2.450738e-002 1.183961e-001 -6.759849e+000 202 194 175
9.444695e-004 1.344155e-001 -6.769480e+000 141 126 110
-6.880899e-002 5.581321e-001 -7.214996e+000 189 176 159
1.924655e+000 -1.229642e+000 -5.542578e+000 202 200 205
1.721627e+000 -1.002221e+000 -5.668915e+000 162 160 165
1.497669e+000 -4.637901e-001 -5.921408e+000 149 144 148
7.097150e-001 5.472907e-002 -6.458825e+000 172 157 134
7.339365e-001 2.713798e-001 -6.575217e+000 244 237 219
9.850828e-001 5.388698e-001 -6.218164e+000 152 29 32
4.684033e-001 1.128460e+000 -6.822006e+000 233 215 193
3.919496e-001 1.186761e+000 -6.897586e+000 225 68 67
9.548686e-001 6.941342e-001 -6.300974e+000 234 87 88
3.337797e-001 -1.464529e+000 -7.510464e+000 175 174 172
7.316756e-001 -1.658815e+000 -7.063069e+000 155 153 158
6.967892e-002 -6.193906e-001 -7.483880e+000 252 99 106
-7.006498e-001 -2.089678e-001 -6.887744e+000 115 32 17
-8.575646e-001 -2.722732e-001 -6.536473e+000 156 80 54
-8.637548e-001 -2.701492e-001 -6.534540e+000 156 80 54
-9.302053e-001 -2.822475e-001 -6.344763e+000 55 13 19
-1.522548e-001 2.504174e-001 -7.320226e+000 152 137 118
-1.021383e+000 -2.086228e-001 -6.268746e+000 204 197 205
-3.952948e-001 3.723356e-002 -6.873238e+000 58 14 15
-1.592030e-001 3.715501e-001 -7.403567e+000 221 209 187
-3.517722e-001 8.098802e-001 -7.678737e+000 221 201 184
-7.840827e-001 -1.989894e-001 -6.244533e+000 73 49 26
-2.698367e-001 6.718591e-002 -6.728010e+000 134 117 97
-2.698367e-001 6.718591e-002 -6.728010e+000 134 117 97
6.334094e-002 2.108258e-001 -6.846970e+000 241 229 212
1.923417e+000 -1.183480e+000 -5.417832e+000 205 203 208
4.884627e-001 3.370460e-001 -6.803195e+000 164 153 133
-9.082435e-002 8.398580e-001 -7.235474e+000 193 180 161
-9.115277e-002 8.399182e-001 -7.235330e+000 193 180 161
8.280572e-001 8.728204e-001 -6.408522e+000 108 15 22
4.547899e-001 1.244984e+000 -6.803696e+000 232 76 77
-2.250731e-001 -2.497076e-001 -7.754912e+000 91 82 84
2.768550e-001 -8.020267e-001 -7.441788e+000 145 137 136
-3.530031e-002 -3.811887e-001 -7.288926e+000 176 117 73
-2.142687e-001 -9.076118e-002 -7.238122e+000 185 170 149
-7.454688e-001 -1.789631e-001 -6.743078e+000 97 25 11
-3.047648e-001 1.004644e-001 -6.848235e+000 66 23 21
-9.478952e-001 -1.719498e-001 -6.216874e+000 104 75 50
-2.274130e-001 1.065429e+000 -7.548745e+000 216 70 71
-2.274130e-001 1.065429e+000 -7.548745e+000 216 70 71
1.148533e+000 -2.277054e-001 -6.123521e+000 120 105 67
1.633980e-001 6.317018e-001 -6.983732e+000 169 154 133
3.181207e-001 7.291340e-001 -6.997276e+000 228 221 203
2.723907e-001 1.055981e+000 -7.022468e+000 214 204 192
1.818579e-001 1.386488e+000 -7.163602e+000 31 6 16
4.643727e-001 1.088191e+000 -6.766230e+000 235 222 203
7.863684e-001 9.634957e-001 -6.463140e+000 212 61 66
4.841843e-001 1.295996e+000 -6.790423e+000 217 57 60
3.746195e-001 -1.131127e+000 -7.332643e+000 30 23 24
5.398512e-001 -1.135003e+000 -7.129645e+000 255 255 220
5.023989e-001 -1.113772e+000 -7.134706e+000 255 255 220
3.422680e-001 -8.706844e-001 -7.191607e+000 255 254 208
2.525002e-001 -7.048851e-001 -7.244669e+000 221 194 133
3.860407e-002 -3.352434e-001 -7.314494e+000 85 15 16
-8.526460e-001 -3.257737e-001 -6.529788e+000 146 45 27
-2.354157e-001 3.184469e-001 -7.618909e+000 220 204 188
-3.304950e-001 1.559507e-002 -6.978214e+000 71 27 22
-9.654340e-001 -2.318120e-001 -6.282387e+000 74 42 27
-9.857720e-001 -2.199877e-001 -6.287718e+000 74 42 27
-1.250809e-001 3.865495e-001 -7.435319e+000 169 154 131
4.326786e-001 4.293086e-002 -6.564572e+000 223 215 194
-2.181238e-002 7.493317e-001 -7.162529e+000 247 240 224
9.917513e-001 -1.669097e-001 -6.261618e+000 248 243 226
6.952223e-001 2.994356e-001 -6.639161e+000 243 236 220
3.766736e-001 5.038156e-001 -6.925106e+000 200 192 171
9.715599e-001 4.872797e-001 -6.205074e+000 233 85 85
2.423147e-001 -8.120993e-001 -7.325622e+000 255 248 189
2.852957e-003 -5.381878e-001 -7.517058e+000 182 50 48
-4.726676e-001 -1.691640e-002 -6.840216e+000 53 16 15
9.049949e-001 -7.172329e-002 -6.351741e+000 189 176 154
5.786370e-001 2.920445e-001 -6.717690e+000 232 225 212
1.412937e+000 -1.645068e-001 -5.982723e+000 12 7 5
9.669998e-001 9.375510e-002 -6.188408e+000 243 227 211
1.082979e+000 2.393308e-001 -6.194299e+000 211 50 61
6.077611e-001 9.865992e-001 -6.631147e+000 232 76 80
4.876330e-001 -1.213398e+000 -7.154830e+000 144 139 140
1.574163e-001 -6.242386e-001 -7.436567e+000 254 183 152
-4.411488e-001 5.334190e-001 -7.727131e+000 187 172 151
-9.137079e-001 -3.254722e-001 -6.473648e+000 151 46 27
-9.211850e-001 -2.397919e-001 -6.416995e+000 225 136 92
-3.119323e-001 8.326686e-001 -7.605699e+000 221 212 195
1.838655e-001 2.763107e-001 -6.798397e+000 241 232 215
7.094840e-002 1.229126e+000 -7.153343e+000 206 69 67
-2.030828e-001 2.372118e-001 -7.611142e+000 152 28 36
7.260574e-001 -1.386361e-001 -6.394652e+000 243 238 219
8.651711e-002 9.078921e-001 -7.108214e+000 184 171 154
9.084145e-001 5.131836e-001 -6.415707e+000 249 242 226
9.153850e-001 5.524624e-001 -6.311270e+000 154 28 31
-2.201039e-001 -3.991171e-001 -7.625759e+000 235 228 210
-2.268117e-001 -3.969510e-001 -7.626860e+000 235 228 210
-1.100010e-001 -2.176043e-001 -7.846438e+000 49 39 40
-2.590491e-001 3.327741e-002 -7.730553e+000 12 8 9
-4.547133e-001 5.611485e-001 -7.856860e+000 205 188 168
-7.410151e-001 -3.770850e-001 -6.615614e+000 217 210 218
-1.533816e-001 4.563285e-001 -7.374180e+000 154 136 114
8.768892e-001 5.116449e-001 -6.420582e+000 248 241 225
-9.075230e-001 -2.064984e-001 -6.295352e+000 50 21 13
9.506147e-001 5.971560e-002 -6.273446e+000 250 244 229
7.513573e-001 8.489446e-001 -6.679815e+000 242 235 219
-3.613370e-001 6.205151e-001 -7.641611e+000 233 224 207
1.180052e+000 -2.230882e+000 -6.445036e+000 178 175 182
1.408770e+000 -2.406661e+000 -6.255442e+000 195 190 197
6.983249e-001 -1.244264e+000 -7.003833e+000 178 169 172
2.720822e-001 -7.647858e-001 -7.437389e+000 149 138 136
1.197150e+000 -1.965599e+000 -6.444063e+000 208 207 213
1.623479e+000 -2.269134e+000 -5.961593e+000 194 189 196
1.455377e+000 -2.133529e+000 -6.153653e+000 189 186 193
1.221540e+000 -1.808426e+000 -6.342603e+000 216 211 218
9.067375e-001 -1.350183e+000 -6.723007e+000 202 195 202
