ply
format ascii 1.0
element face 0
property list uchar int vertex_indices
element vertex 871
property float x
property float y
property float z
property uchar diffuse_red
property uchar diffuse_green
property uchar diffuse_blue
end_header
-1.303129e-001 -2.577589e-002 -6.614640e+000 109 37 21
-1.045758e-001 -2.223567e-001 -6.658505e+000 240 229 226
4.659471e-001 -9.419942e-002 -6.620449e+000 238 235 228
-2.614208e-001 1.033785e+000 -7.543318e+000 29 19 19
-1.864187e-001 8.308449e-001 -7.499903e+000 203 194 185
2.881815e-001 7.238510e-001 -6.996011e+000 190 181 174
2.929078e-001 7.154649e-001 -7.035392e+000 190 181 174
2.153231e-001 2.492778e-001 -6.719131e+000 157 141 126
-4.134554e-001 -4.390893e-002 -6.531125e+000 144 65 43
-6.454470e-002 7.287600e-002 -6.747423e+000 131 116 109
-7.673090e-001 -2.106796e-001 -6.249050e+000 91 24 17
-4.749996e-001 -1.842826e-001 -6.421644e+000 251 139 101
-1.137664e-001 -3.283743e-001 -6.637911e+000 191 183 174
-1.764537e+000 -3.551740e+000 -1.022385e+001 41 35 37
8.904189e-001 -2.328791e-001 -6.339196e+000 139 122 110
5.160751e-001 -1.075044e+000 -7.093938e+000 241 221 182
3.652387e-002 1.270873e+000 -7.150784e+000 186 39 40
-2.513635e-001 -9.340770e-003 -7.693177e+000 35 27 26
-2.513635e-001 -9.340770e-003 -7.693177e+000 35 27 26
-4.967454e-001 -1.631049e-002 -6.642946e+000 69 16 8
-4.967454e-001 -1.631049e-002 -6.642946e+000 69 16 8
8.709509e-001 5.589987e-001 -6.393771e+000 214 57 66
-5.759742e-001 -1.449315e-001 -6.347317e+000 147 63 39
4.781429e-001 7.597899e-002 -6.641585e+000 131 119 107
6.714077e-003 -1.971254e-001 -6.642602e+000 253 250 243
1.476789e-001 -1.703492e-001 -6.687823e+000 232 225 219
-6.260471e-001 -3.003120e-001 -6.337952e+000 43 35 33
-1.636618e-001 -3.750660e-001 -6.630134e+000 232 225 221
4.324040e-001 -4.066492e-001 -6.688448e+000 196 183 131
-1.677488e+000 -3.668782e+000 -1.026747e+001 53 47 47
8.238871e-002 1.135647e+000 -7.135328e+000 203 42 49
-2.424697e-001 -1.648642e-001 -6.505335e+000 227 116 77
-1.978830e-002 -1.715223e-001 -6.615714e+000 227 224 219
-4.097408e-001 4.427453e-001 -7.643156e+000 213 200 191
8.550746e-001 5.326634e-001 -6.399178e+000 174 33 44
1.112118e-001 -2.391676e-002 -6.680006e+000 159 149 140
1.089791e-001 -1.583357e-002 -6.660639e+000 159 149 140
-1.193436e-001 -3.727119e-001 -6.673644e+000 242 236 232
1.066453e+000 1.939694e-001 -6.189928e+000 195 35 45
1.066453e+000 1.939694e-001 -6.189928e+000 195 35 45
5.172951e-001 -2.914225e-001 -6.700542e+000 244 237 231
1.145125e+000 5.661519e-002 -6.070625e+000 229 83 91
7.621054e-001 -7.921464e-001 -6.544946e+000 219 47 59
3.010729e-001 9.213399e-001 -7.029452e+000 223 217 213
-4.088541e-001 -1.829094e-001 -6.482981e+000 249 132 87
6.663792e-001 -5.499615e-001 -6.538184e+000 229 217 208
-5.262084e-001 -1.231685e-001 -6.488431e+000 94 33 26
4.121618e-001 8.017606e-002 -6.630978e+000 199 190 181
5.300159e-001 5.729335e-002 -6.534716e+000 146 134 120
5.300159e-001 5.729335e-002 -6.534716e+000 146 134 120
5.544290e-001 1.218123e-002 -6.483308e+000 214 207 199
5.912144e-001 -3.895360e-001 -6.527069e+000 178 156 106
1.490960e-001 1.254214e+000 -7.054865e+000 203 48 54
-1.483307e-001 2.618306e-001 -7.348729e+000 184 174 162
-2.306876e-001 6.749227e-002 -7.188209e+000 220 212 205
-8.498015e-002 6.252128e-001 -7.318325e+000 168 162 150
-8.498015e-002 6.252128e-001 -7.318325e+000 168 162 150
5.706515e-001 -7.486428e-001 -6.709550e+000 251 250 245
-5.759326e-001 -1.278819e-001 -6.539764e+000 65 17 12
6.927013e-001 -3.308019e-001 -6.468229e+000 100 85 64
7.948084e-001 -8.869409e-001 -6.516222e+000 50 36 36
-3.561419e-001 2.454571e-001 -7.470047e+000 38 27 27
-2.512105e-001 -7.954919e-002 -6.579018e+000 66 11 8
3.749605e-001 -1.206185e-001 -6.688213e+000 245 242 234
3.755919e-001 -1.196657e-001 -6.685826e+000 245 242 234
2.464492e-002 -6.430498e-001 -6.816021e+000 35 30 27
-1.912248e+000 -3.298955e+000 -1.044025e+001 38 32 34
7.312632e-001 -1.161899e-001 -6.378057e+000 228 220 210
-4.383870e+000 -6.692780e+000 -1.503108e+001 30 28 33
-4.467624e+000 -6.737784e+000 -1.493916e+001 165 161 175
-6.148185e+000 -8.480373e+000 -1.680958e+001 9 7 10
1.145984e-002 2.404557e-001 -6.932401e+000 145 132 123
-4.130212e-001 -6.599691e-002 -6.530198e+000 121 37 16
-4.007190e-001 -1.025920e-001 -6.483600e+000 129 34 14
8.747460e-001 -9.523186e-001 -6.582874e+000 48 30 30
4.274106e-001 1.112893e+000 -6.842065e+000 214 50 57
6.287519e-001 6.191533e-001 -6.637107e+000 204 194 185
-5.895462e+000 -9.087062e+000 -1.670438e+001 12 10 16
1.410546e-001 1.128484e+000 -7.053384e+000 232 192 168
2.393930e-001 6.715179e-001 -7.055182e+000 181 174 164
3.681062e-001 1.106726e+000 -6.866282e+000 203 32 40
4.289576e-003 5.234574e-001 -7.133071e+000 208 197 191
4.289576e-003 5.234574e-001 -7.133071e+000 208 197 191
1.351551e-001 5.798004e-001 -7.008903e+000 176 167 154
5.944700e-001 6.125986e-001 -6.686536e+000 187 181 170
-2.455736e-002 2.432730e-001 -7.020422e+000 145 135 125
2.428306e-001 2.829106e-001 -6.816860e+000 122 108 97
-4.147275e-001 -4.743065e-002 -6.538475e+000 144 65 43
-1.878902e-001 -2.873178e-002 -6.648190e+000 90 21 15
-6.310912e+000 -7.940034e+000 -1.774577e+001 79 79 80
-4.880995e+000 -6.333461e+000 -1.497030e+001 101 99 108
-4.760041e+000 -7.085960e+000 -1.504332e+001 156 154 168
-4.019929e+000 -7.493306e+000 -1.478645e+001 84 87 96
-1.552001e+000 -4.328015e+000 -1.019610e+001 50 44 48
-1.444940e-001 8.684537e-001 -7.460951e+000 161 147 139
-1.445525e-002 2.694628e-001 -7.018622e+000 130 118 106
3.054293e-001 2.913496e-001 -6.888097e+000 127 115 102
-6.169627e+000 -7.740058e+000 -1.730477e+001 80 79 84
-2.146636e+000 -3.194070e+000 -1.061929e+001 55 50 54
-5.525438e+000 -8.821189e+000 -1.685410e+001 120 121 139
-1.503302e+000 -4.421595e+000 -1.014333e+001 53 48 52
6.249482e-001 5.843144e-001 -6.673874e+000 153 143 133
-2.236278e-001 8.523894e-003 -6.647270e+000 70 20 17
8.897879e-001 3.994194e-001 -6.287475e+000 252 81 93
8.361294e-001 7.524166e-001 -6.368184e+000 21 1 4
-5.475516e-001 6.410169e-001 -7.941794e+000 38 24 20
3.088579e-001 4.548580e-002 -6.655742e+000 244 240 231
6.213849e-001 1.211823e-001 -6.585333e+000 189 175 165
-4.742227e+000 -6.755711e+000 -1.514677e+001 142 138 153
-4.151797e+000 -7.787703e+000 -1.480562e+001 11 7 14
-5.755716e+000 -7.553593e+000 -1.684751e+001 10 10 12
6.575615e-001 1.014667e+000 -6.542518e+000 186 44 53
-6.169423e+000 -7.588535e+000 -1.724905e+001 80 77 84
-9.180132e-002 1.464753e-001 -6.783298e+000 108 94 83
-7.810205e-002 7.850138e-002 -6.707442e+000 162 147 140
-7.810205e-002 7.850138e-002 -6.707442e+000 162 147 140
-4.332288e+000 -6.441731e+000 -1.503014e+001 47 45 48
3.395959e-001 2.399218e-001 -6.725030e+000 143 130 114
-4.185940e-001 -1.139617e-001 -6.499487e+000 126 37 16
-4.472117e-001 -2.099313e-001 -6.454917e+000 144 27 9
-5.535846e+000 -9.071641e+000 -1.668383e+001 116 124 147
5.774667e-001 -3.674070e-001 -6.598428e+000 147 133 108
1.035073e+000 -2.364714e-001 -6.219431e+000 141 114 76
-6.097635e+000 -7.460373e+000 -1.775471e+001 66 66 74
-4.697084e+000 -6.228957e+000 -1.515572e+001 136 136 146
-2.103248e+000 -2.628645e+000 -1.050364e+001 40 36 37
7.164708e-001 5.062795e-001 -6.490649e+000 235 232 223
7.280589e-001 5.234476e-001 -6.470461e+000 236 231 227
-3.629363e-001 -1.007072e-001 -6.538844e+000 90 20 11
-6.036858e+000 -8.960391e+000 -1.669284e+001 3 4 8
4.967697e-001 -1.225879e-002 -6.536491e+000 199 192 174
-1.712184e+000 -3.770784e+000 -1.031865e+001 28 22 24
5.019451e-001 -1.101460e+000 -7.110693e+000 42 29 20
-1.359378e+000 -5.355435e+000 -9.919567e+000 22 15 17
-6.389853e-002 1.156923e+000 -7.320356e+000 142 21 30
3.612660e-002 1.297150e+000 -7.110301e+000 33 14 15
-1.930532e-001 4.994433e-001 -7.508832e+000 192 184 173
5.585269e-001 1.126332e+000 -6.668936e+000 185 40 45
1.417884e-001 3.848029e-001 -6.956978e+000 136 124 112
-5.978026e+000 -7.294331e+000 -1.776237e+001 66 66 78
-2.131361e+000 -2.484137e+000 -1.046864e+001 36 30 30
-4.914721e+000 -6.313655e+000 -1.518068e+001 130 130 139
-4.822394e+000 -6.489644e+000 -1.478088e+001 122 120 130
-4.695944e+000 -6.561671e+000 -1.498591e+001 137 137 149
-3.178546e-001 -2.431915e-003 -6.629626e+000 56 15 9
-7.343523e-001 -1.925868e-001 -6.292300e+000 136 109 66
1.672125e-001 5.527299e-002 -6.698200e+000 170 160 148
-6.033150e+000 -8.642839e+000 -1.669173e+001 105 103 115
-1.515061e-001 -2.230096e-001 -6.686372e+000 233 209 149
-1.907611e+000 -3.304403e+000 -1.043421e+001 40 34 38
-1.861733e+000 -3.418505e+000 -1.039324e+001 44 40 41
-3.904632e-001 -3.702900e-001 -6.467193e+000 164 143 123
-2.504008e-001 -3.920795e-001 -6.545121e+000 234 229 225
-2.161984e-001 -4.071371e-001 -6.584952e+000 251 251 246
6.408135e-001 -6.744144e-001 -6.647211e+000 174 161 141
8.732156e-001 -9.226569e-001 -6.625039e+000 235 82 88
-1.311057e+000 -5.349349e+000 -9.937261e+000 111 101 102
-1.311662e+000 -5.344778e+000 -9.932336e+000 111 101 102
3.761475e-001 1.272816e+000 -6.794195e+000 27 10 13
-2.272131e-001 1.028453e-001 -6.749220e+000 78 42 41
-6.152449e+000 -8.188231e+000 -1.675029e+001 11 9 17
-4.919755e+000 -6.557598e+000 -1.506372e+001 118 116 128
-1.595365e-001 -1.727684e-002 -6.681738e+000 112 43 32
-4.599577e+000 -6.828991e+000 -1.477329e+001 109 109 117
-1.947428e+000 -3.157918e+000 -1.043685e+001 49 44 46
-2.414443e-001 -1.695068e-001 -6.512663e+000 228 115 76
-1.955242e-002 -4.280628e-001 -6.756309e+000 40 33 25
1.257124e-001 -2.284265e-001 -6.680197e+000 199 189 179
1.105108e+000 3.273473e-001 -6.152361e+000 32 10 16
1.167686e+000 1.700058e-001 -6.099213e+000 32 18 19
-1.418955e+000 -4.739185e+000 -1.011369e+001 52 46 48
-1.364359e+000 -4.796753e+000 -9.999819e+000 45 40 44
-1.318758e+000 -4.790641e+000 -9.879133e+000 49 43 43
7.370419e-001 -8.756825e-001 -6.606233e+000 234 96 96
-3.465376e-001 7.017988e-001 -7.664150e+000 194 172 166
-1.311134e-001 3.642730e-001 -7.169520e+000 126 114 102
-1.311134e-001 3.642730e-001 -7.169520e+000 126 114 102
4.936558e-001 5.698280e-001 -6.778054e+000 184 177 167
4.936558e-001 5.698280e-001 -6.778054e+000 184 177 167
-4.639949e-001 -1.620917e-001 -6.490370e+000 180 74 42
4.381573e-001 -2.545755e-001 -6.728351e+000 216 210 197
4.422729e-001 -4.748746e-001 -6.719784e+000 251 251 241
-1.297481e+000 -5.270121e+000 -9.974508e+000 19 9 10
-1.770912e-001 3.386370e-002 -7.537375e+000 89 8 9
-4.877086e-001 -2.323134e-001 -6.492992e+000 212 107 66
1.186349e+000 1.850214e-003 -6.095156e+000 32 11 18
-1.377659e+000 -5.181259e+000 -9.903518e+000 62 51 49
4.970991e-001 1.153191e+000 -6.723401e+000 211 51 56
-1.325629e-001 5.057111e-001 -7.454947e+000 203 195 184
-1.917636e-001 1.335003e-001 -7.624411e+000 132 17 24
6.497148e-001 -7.329571e-001 -6.605331e+000 45 34 32
1.665606e-001 3.207955e-001 -6.875954e+000 132 117 106
-3.986637e+000 -7.660932e+000 -1.507037e+001 15 13 18
9.863438e-001 3.150449e-001 -6.261402e+000 226 61 70
2.470115e-001 -4.694721e-001 -6.764449e+000 71 45 31
2.452763e-001 -4.622229e-001 -6.757802e+000 71 45 31
9.647973e-001 -2.646927e-001 -6.207344e+000 199 176 122
-1.572343e-001 1.080547e+000 -7.409307e+000 201 50 57
2.584611e-001 6.155953e-001 -6.976641e+000 140 128 116
5.411094e-001 -3.417308e-001 -6.674603e+000 99 84 64
7.734094e-001 -2.159618e-001 -6.408931e+000 255 252 247
-2.595874e-001 -1.321933e-001 -6.850092e+000 120 52 33
1.998494e-001 1.027596e+000 -7.056681e+000 219 212 206
9.090761e-001 1.766328e-001 -6.296166e+000 225 214 208
1.308363e-001 1.134643e+000 -7.080580e+000 219 54 62
2.812637e-001 7.293889e-001 -6.993022e+000 200 193 185
1.314989e-001 6.174233e-001 -7.047177e+000 161 147 136
-7.367492e-002 2.013088e-001 -6.944607e+000 140 127 113
5.894538e-001 5.452178e-001 -6.644497e+000 140 128 115
-9.613382e-002 6.234917e-002 -6.748544e+000 125 111 102
-6.479061e-002 4.409205e-002 -6.690005e+000 135 120 112
-8.258062e-001 -2.514276e-001 -6.415207e+000 141 75 51
-2.502870e-001 -7.653420e-002 -6.619436e+000 93 35 28
-7.362636e-001 -2.005104e-001 -6.279497e+000 77 23 21
-6.723297e-001 -2.184646e-001 -6.316167e+000 114 28 9
-2.384101e-001 -3.766211e-001 -6.566147e+000 183 174 167
6.146436e-002 -3.687486e-001 -6.698226e+000 196 180 165
5.677209e-001 -2.735772e-001 -6.582413e+000 161 145 128
-6.857577e-002 4.523608e-001 -7.246987e+000 164 153 143
1.129760e-001 6.593366e-001 -7.056888e+000 222 212 203
2.995683e-001 7.141661e-001 -6.971217e+000 190 181 172
-6.744564e-001 -1.578410e-001 -6.875157e+000 141 63 46
3.503005e-001 3.460205e-001 -6.837589e+000 162 150 138
8.202932e-001 5.288062e-001 -6.422060e+000 209 201 191
-1.699834e+000 -3.837248e+000 -1.033834e+001 29 25 26
-6.540139e-001 -3.051272e-001 -6.338198e+000 224 114 84
9.505964e-001 -6.502272e-001 -6.298174e+000 249 96 104
-1.624689e-001 9.665136e-001 -7.510608e+000 171 28 35
-2.032395e-001 -4.829054e-002 -6.649418e+000 84 20 11
-7.637876e-001 -3.029280e-001 -6.359772e+000 255 163 129
-2.268513e-001 -1.204175e-001 -6.533306e+000 116 44 32
-2.268513e-001 -1.204175e-001 -6.533306e+000 116 44 32
-8.305517e-002 -2.546503e-001 -6.677269e+000 240 231 226
-7.676076e-002 -1.673787e-001 -6.626108e+000 227 222 216
1.028994e-002 -1.471110e-001 -6.617780e+000 253 248 242
2.689072e-001 -6.211283e-002 -6.642095e+000 221 214 206
9.213900e-001 6.186270e-001 -6.299535e+000 203 58 66
-3.244994e-001 -3.637658e-001 -6.463946e+000 198 194 187
2.427899e-002 -4.637849e-001 -6.798879e+000 36 27 22
4.637192e-001 -6.276098e-001 -6.765215e+000 252 252 240
4.103326e-002 1.262806e+000 -7.176646e+000 190 39 46
6.219744e-001 5.593752e-001 -6.621261e+000 171 159 145
7.551338e-001 5.973718e-001 -6.420772e+000 248 249 240
-2.964764e-001 -3.552642e-001 -6.480118e+000 222 213 207
8.484426e-001 4.532972e-001 -6.351373e+000 184 169 156
5.659065e-001 8.569813e-002 -6.498508e+000 191 181 168
5.003236e-001 -9.144025e-002 -6.521809e+000 217 210 200
6.485903e-001 -6.942496e-001 -6.590339e+000 56 42 40
6.485903e-001 -6.942496e-001 -6.590339e+000 56 42 40
-4.140207e-001 -3.500043e-003 -6.846771e+000 44 12 13
7.850081e-001 8.110762e-001 -6.441085e+000 88 7 15
-4.397567e-001 -3.233154e-001 -6.471233e+000 247 188 154
8.305822e-003 -1.022102e-001 -6.605547e+000 239 232 229
-3.267966e-002 -2.874374e-001 -6.681668e+000 66 47 26
5.488689e-001 -9.761657e-002 -6.503709e+000 230 226 217
-3.884965e-001 8.192106e-001 -7.758296e+000 195 39 46
4.965656e-001 3.079550e-001 -6.804960e+000 141 129 119
8.475009e-001 7.100592e-001 -6.351633e+000 237 81 90
-7.241965e-001 -1.572185e-001 -6.289584e+000 74 22 10
-1.103050e-001 -6.992700e-002 -6.621542e+000 207 188 180
8.002969e-001 5.618971e-001 -6.411644e+000 253 253 251
-4.672174e-001 -3.172872e-001 -6.514574e+000 247 184 142
-3.114232e-001 -3.597903e-001 -6.484525e+000 190 178 171
-2.655431e-001 -2.961677e-001 -6.505030e+000 167 144 133
4.781601e-001 -3.587165e-001 -6.607690e+000 254 252 203
1.068065e+000 2.223994e-001 -6.176123e+000 207 45 57
-1.157480e-001 4.009442e-001 -7.309806e+000 133 121 109
3.732236e-001 4.712264e-001 -6.916707e+000 187 177 168
4.934727e-001 3.132335e-001 -6.798504e+000 141 130 119
7.575843e-001 7.467364e-001 -6.380944e+000 243 82 92
9.567050e-001 -4.900516e-001 -6.315388e+000 244 230 198
1.402280e-001 1.301544e+000 -7.128126e+000 14 3 9
-4.159741e-001 5.614972e-001 -7.776182e+000 188 177 168
-3.346221e-001 2.793242e-001 -7.755913e+000 42 31 29
2.144988e-001 5.205463e-001 -6.963470e+000 231 222 216
5.786080e-001 -7.373965e-001 -6.687959e+000 254 255 247
1.124563e+000 1.805826e-001 -6.132071e+000 221 60 68
1.070062e+000 -1.808811e-001 -6.204771e+000 77 11 15
-8.420052e-002 6.605604e-001 -7.238636e+000 169 160 145
-8.857487e-002 6.659151e-001 -7.222211e+000 169 160 145
3.980135e-001 -3.460842e-001 -6.724380e+000 80 62 41
8.895681e-001 3.405344e-001 -6.296265e+000 255 251 246
9.970595e-001 -5.777645e-001 -6.300784e+000 172 35 40
6.099556e-001 5.430795e-001 -6.599118e+000 136 122 111
3.479445e-002 -2.006155e-002 -6.689955e+000 136 119 111
-2.574515e-001 -3.449613e-001 -6.549850e+000 169 151 137
3.984953e-001 -4.923002e-001 -6.650608e+000 254 255 246
1.016114e+000 -3.556794e-002 -6.248001e+000 233 226 218
-5.842090e-001 -1.396176e-001 -6.566737e+000 63 22 19
7.446753e-001 5.339195e-001 -6.424411e+000 255 255 251
1.386114e-002 4.695912e-002 -7.168627e+000 118 104 93
-3.539778e-001 1.707003e-001 -7.656993e+000 39 30 28
2.633605e-001 -2.321996e-001 -6.735588e+000 243 234 225
-7.499728e+000 -6.540755e+000 -2.231387e+001 135 124 120
-4.593955e+000 -6.815171e+000 -1.476816e+001 111 109 122
-4.848446e+000 -6.687914e+000 -1.481127e+001 165 163 172
-3.551731e-001 -1.743002e-002 -6.607518e+000 117 51 38
-5.823129e-002 3.745394e-002 -6.671605e+000 131 116 109
-1.932553e+000 -3.231461e+000 -1.044140e+001 41 35 39
6.877820e-001 2.424982e-001 -6.580727e+000 184 176 165
1.078975e+000 1.668728e-001 -6.179973e+000 227 69 77
1.079736e+000 1.632741e-001 -6.183019e+000 227 69 77
-5.365444e+000 -1.273794e+001 -1.766665e+001 43 59 116
6.204554e-001 5.897851e-001 -6.657611e+000 157 147 136
3.986665e-001 2.023894e-001 -6.824719e+000 131 115 100
1.135706e+000 2.135598e-001 -6.104746e+000 207 52 57
2.776956e-001 9.796320e-001 -7.011710e+000 203 196 188
2.769016e-001 9.803061e-001 -7.009126e+000 203 196 188
-1.587156e-001 1.489070e-001 -6.886121e+000 129 115 104
-1.159854e-001 9.287287e-002 -6.713858e+000 126 112 103
-1.125472e-001 8.602015e-002 -6.724449e+000 126 112 103
2.268156e-001 1.777137e-001 -6.708871e+000 197 187 175
6.708573e-002 6.319877e-001 -7.115469e+000 210 201 191
3.478830e-001 1.113656e+000 -6.931943e+000 209 42 51
-2.044510e-001 3.843604e-002 -6.721135e+000 108 90 76
-2.042469e-001 3.972264e-002 -6.720134e+000 108 90 76
9.174567e-001 6.191409e-001 -6.296031e+000 203 58 65
-1.630747e-001 8.270550e-001 -7.503446e+000 209 200 191
-1.263658e-001 9.265740e-001 -7.396485e+000 187 175 163
-1.023735e-001 4.953292e-001 -7.235507e+000 157 147 137
-2.048801e-001 -1.825043e-001 -7.457246e+000 202 195 182
-1.571381e-001 1.821021e-001 -7.007312e+000 120 106 95
8.158386e-001 8.128489e-001 -6.397162e+000 122 32 36
-5.923827e-001 -2.545347e-001 -6.331099e+000 49 19 16
8.710929e-001 8.333053e-002 -6.605276e+000 239 233 221
6.190970e-001 -5.627559e-001 -6.634131e+000 246 233 178
-5.514496e-001 5.751131e-001 -7.946617e+000 185 42 46
8.584710e-002 1.294545e+000 -7.148868e+000 81 18 27
-8.187836e-002 6.501683e-001 -7.218880e+000 168 159 145
-2.084008e+000 -2.797253e+000 -1.056857e+001 45 39 41
-1.444450e-001 4.535208e-001 -7.387067e+000 173 165 152
-2.375875e-001 6.262222e-003 -7.624590e+000 107 58 49
-1.368265e-001 3.463625e-001 -7.269644e+000 156 146 134
3.008524e-001 6.784894e-001 -7.068669e+000 219 215 206
5.768403e-001 1.107057e+000 -6.636040e+000 200 52 61
-2.400720e-001 -1.773325e-001 -7.485308e+000 176 169 155
-1.688061e-001 1.803860e-001 -7.029352e+000 152 138 127
-1.734654e+000 -3.678187e+000 -1.021314e+001 62 56 58
-1.733879e+000 -3.828983e+000 -1.033289e+001 64 58 60
-1.664503e-001 1.249826e-001 -6.814542e+000 101 84 76
-5.205745e-001 -4.881948e-002 -6.534791e+000 104 43 33
-8.400059e-001 -2.599156e-001 -6.410869e+000 48 16 11
-8.421155e-002 7.038347e-002 -6.687869e+000 139 127 116
4.154927e-001 2.036504e-001 -6.845404e+000 150 137 120
6.003547e-001 5.550055e-001 -6.600558e+000 126 114 99
1.243438e-002 -1.510723e-001 -6.622537e+000 252 247 243
-1.519420e+000 -4.524064e+000 -9.904657e+000 45 41 38
4.635987e-001 1.152122e-001 -6.629524e+000 180 168 154
-1.443848e+000 -4.852110e+000 -9.945748e+000 62 54 52
8.731955e-001 5.424776e-001 -6.376613e+000 166 31 38
1.112992e+000 -4.493709e-001 -6.133613e+000 227 95 99
-2.158913e-001 5.101180e-001 -7.511898e+000 224 217 207
1.788237e-001 9.951329e-001 -7.061186e+000 212 205 197
1.757599e-001 9.949113e-001 -7.056281e+000 212 205 197
-2.087959e+000 -3.028701e+000 -1.036181e+001 60 54 54
-1.855203e-001 2.365001e-001 -7.470600e+000 207 189 185
-1.718032e+000 -3.620722e+000 -1.024364e+001 25 19 21
2.933735e-002 2.628554e-001 -6.931590e+000 121 112 98
-1.674242e+000 -3.704669e+000 -1.027963e+001 53 49 50
-1.667862e+000 -3.642122e+000 -1.020756e+001 53 49 50
-1.210467e-001 1.211554e-001 -6.832617e+000 154 138 127
5.541047e-001 5.262581e-001 -6.728736e+000 160 150 138
7.889931e-001 8.438463e-001 -6.428370e+000 159 45 49
-3.121777e-001 -1.380917e-001 -6.493627e+000 122 30 17
2.459477e-001 5.281978e-002 -6.665006e+000 194 184 175
8.762520e-001 5.776043e-001 -6.349991e+000 217 71 78
-1.219590e+000 -5.304314e+000 -9.954865e+000 73 68 71
1.111524e+000 -4.053405e-001 -6.119902e+000 153 33 37
-2.448027e-001 1.850951e-001 -7.682885e+000 215 73 82
-1.321958e-001 2.632620e-001 -7.183673e+000 174 161 145
9.664466e-003 4.452326e-001 -7.074430e+000 148 136 124
-1.794036e-001 -1.201047e-001 -7.465259e+000 174 166 153
-3.841985e-001 2.658018e-002 -6.856198e+000 92 38 33
1.130279e-001 -2.510352e-002 -6.690622e+000 164 154 144
1.130279e-001 -2.510352e-002 -6.690622e+000 164 154 144
5.668983e-001 4.973739e-002 -6.506359e+000 198 188 179
5.979291e-001 4.954029e-002 -6.510584e+000 173 161 149
4.045007e-001 -4.172104e-001 -6.709157e+000 119 102 62
-1.065158e-001 4.504881e-001 -7.332345e+000 148 138 126
-2.402571e-001 5.008820e-002 -6.733021e+000 68 23 18
-6.832348e-001 -1.857760e-001 -6.311613e+000 163 82 52
2.688241e-001 8.317767e-002 -6.669324e+000 171 159 147
6.371409e-001 3.223648e-002 -6.495645e+000 197 187 177
4.966823e-001 -1.055241e+000 -7.087612e+000 245 230 171
4.956599e-001 -4.845264e-001 -6.709216e+000 78 60 27
8.704341e-001 2.335819e-001 -6.315028e+000 254 254 246
-1.023319e-001 2.856737e-001 -7.122124e+000 131 117 101
6.149991e-001 1.829683e-001 -6.698591e+000 158 150 139
5.539660e-001 -4.171189e-001 -6.626395e+000 114 96 56
9.942907e-001 2.824327e-001 -6.271813e+000 232 71 79
4.060615e-001 1.040895e+000 -6.809963e+000 240 236 232
6.107105e-001 9.210855e-001 -6.627383e+000 217 57 64
1.067533e+000 -7.286393e-001 -6.299105e+000 244 88 99
-2.308123e-002 1.253646e+000 -7.259267e+000 24 17 18
2.316646e-001 2.839189e-001 -6.862029e+000 136 124 110
6.347504e-001 -5.013540e-001 -6.604482e+000 232 215 159
6.231439e-001 -4.812527e-001 -6.582496e+000 232 215 159
-8.487927e-002 1.061168e+000 -7.286782e+000 144 26 31
4.105610e-003 7.474100e-001 -7.116751e+000 222 218 209
4.105610e-003 7.474100e-001 -7.116751e+000 222 218 209
3.210441e-001 8.434904e-001 -6.897103e+000 155 146 131
6.954636e-001 -1.563568e-001 -6.470178e+000 251 248 243
9.899609e-001 -3.716301e-001 -6.240938e+000 216 197 138
6.576808e-002 1.285666e+000 -7.173398e+000 81 15 23
-1.282887e-001 9.755784e-001 -7.241329e+000 178 159 153
-8.776282e-002 8.500094e-001 -7.208912e+000 198 191 181
-1.500060e-001 3.850056e-001 -7.371076e+000 212 201 189
-9.297677e-002 4.947247e-001 -7.308663e+000 165 153 138
-1.853288e-001 3.888959e-003 -7.535837e+000 159 85 79
-7.016527e-001 -2.661033e-001 -6.832909e+000 38 28 28
-1.130858e-001 1.246724e-001 -6.897734e+000 107 90 80
-4.368911e-001 -1.890852e-001 -6.485206e+000 236 131 101
-4.447598e-001 -2.157369e-001 -6.446380e+000 126 21 1
-3.642517e-001 -9.541490e-002 -6.481001e+000 120 29 12
9.277322e-002 3.600598e-003 -6.702898e+000 190 177 168
1.431578e-001 -5.307392e-002 -6.735936e+000 170 157 147
-4.188104e-001 -3.550628e-001 -6.474964e+000 95 90 90
-3.865908e-001 -3.566129e-001 -6.458940e+000 212 200 178
-2.413409e-001 -3.447551e-001 -6.547136e+000 175 150 146
-5.108033e-002 -2.654249e-001 -6.646982e+000 163 146 127
1.621292e-001 -5.029898e-001 -6.846438e+000 155 138 120
4.260443e-001 -4.573246e-002 -6.608855e+000 254 250 241
6.161751e-001 1.083930e-001 -6.571179e+000 192 180 166
3.363566e-001 -3.862637e-001 -6.569942e+000 225 219 207
3.363566e-001 -3.862637e-001 -6.569942e+000 225 219 207
5.605035e-001 -8.171569e-002 -6.521345e+000 222 217 211
-5.686968e-002 7.827939e-001 -7.338296e+000 217 210 200
-5.487788e-002 6.950600e-001 -7.208246e+000 164 153 141
-6.809429e-002 4.722821e-001 -7.201251e+000 168 156 147
-1.671299e-001 -3.390319e-003 -7.509522e+000 155 125 114
-1.268870e-001 3.473932e-001 -7.244149e+000 163 151 141
-2.512494e-001 1.352739e-001 -6.746478e+000 121 63 51
-2.261632e-001 9.869204e-002 -6.771183e+000 83 42 40
-2.353223e-001 5.197548e-002 -6.715695e+000 67 27 25
7.461291e-002 2.909809e-001 -6.784590e+000 161 149 136
-6.150565e-002 7.295372e-002 -6.726870e+000 133 120 110
-2.224883e-002 8.534241e-002 -6.721638e+000 137 124 114
-8.845129e-001 -2.054866e-001 -6.298779e+000 146 128 79
-8.845129e-001 -2.054866e-001 -6.298779e+000 146 128 79
-2.173373e-001 -1.279777e-001 -6.563877e+000 114 54 44
-1.063069e-001 -2.537275e-001 -6.685413e+000 87 68 37
8.125553e-002 4.022745e-004 -6.714192e+000 140 123 116
-6.522133e-001 -3.041240e-001 -6.341857e+000 213 115 70
4.553569e-001 1.322339e-001 -6.647379e+000 166 150 136
-2.177412e-001 -3.799690e-001 -6.558813e+000 252 250 246
-2.451959e-001 -3.781355e-001 -6.530288e+000 229 220 215
4.315781e-001 -2.068820e-001 -6.725535e+000 254 255 247
4.744209e-001 -6.890784e-002 -6.599466e+000 235 231 222
5.931060e-001 1.020582e-001 -6.538684e+000 185 176 161
5.589334e-001 -4.457162e-001 -6.780867e+000 155 139 123
4.605591e-001 -5.233174e-001 -6.734916e+000 229 225 211
4.331211e-001 -4.752749e-001 -6.689705e+000 229 225 211
6.018289e-001 -4.311301e-001 -6.670014e+000 179 172 146
5.465806e-001 -2.251884e-001 -6.607362e+000 177 171 159
1.048623e+000 4.360907e-001 -6.220380e+000 214 70 78
1.090083e+000 4.165897e-001 -6.201992e+000 75 69 66
1.061041e+000 3.887065e-001 -6.169912e+000 239 89 101
8.570234e-001 -1.408657e-001 -5.974333e+000 205 186 130
1.175830e+000 8.813169e-002 -6.079826e+000 226 85 101
1.186673e+000 1.599603e-001 -6.038818e+000 80 71 72
1.186673e+000 1.599603e-001 -6.038818e+000 80 71 72
1.074865e+000 -3.780708e-001 -6.147954e+000 169 147 98
2.795237e-002 1.096396e+000 -7.162353e+000 210 201 197
-1.472318e-001 6.059265e-001 -7.426912e+000 168 157 144
3.532975e-001 1.200838e+000 -6.896187e+000 222 62 70
3.532975e-001 1.200838e+000 -6.896187e+000 222 62 70
-8.451909e-001 -2.388971e-001 -6.426203e+000 33 9 12
-1.622704e-001 6.831462e-002 -6.697010e+000 131 119 108
3.186714e-001 3.239362e-001 -6.767497e+000 149 135 124
3.186714e-001 3.239362e-001 -6.767497e+000 149 135 124
-8.498079e-001 -1.535057e-001 -6.236443e+000 117 93 57
-8.232188e-001 -1.897312e-001 -6.288316e+000 55 27 11
6.285470e-001 6.237951e-001 -6.631776e+000 209 204 190
-7.378253e-001 -1.639463e-001 -6.262881e+000 187 159 114
-2.400168e-001 -1.630354e-001 -6.516971e+000 238 123 103
-2.400168e-001 -1.630354e-001 -6.516971e+000 238 123 103
-8.109821e-002 -2.592869e-001 -6.681803e+000 243 236 228
-7.246962e-002 -1.755810e-001 -6.637419e+000 226 221 216
-2.248759e-002 -3.974079e-001 -6.741699e+000 248 241 231
-3.254632e-002 -2.679183e-001 -6.666498e+000 71 53 29
8.110779e-001 7.175608e-001 -6.266564e+000 195 43 55
9.595723e-001 5.215174e-001 -6.448222e+000 181 35 45
9.582229e-001 5.259717e-001 -6.235010e+000 17 7 18
6.310598e-001 -6.534862e-001 -6.612393e+000 177 159 139
7.150161e-001 -3.122213e-001 -6.495621e+000 158 147 129
1.005656e+000 2.311540e-001 -6.253570e+000 232 68 73
1.048955e+000 -5.045475e-001 -6.149742e+000 180 33 44
1.343349e+000 6.028713e-001 -5.836103e+000 71 62 63
-7.280608e-002 1.181842e+000 -7.320846e+000 208 70 75
-1.625394e-001 3.779055e-001 -7.365873e+000 198 190 178
-1.148532e-001 4.608446e-001 -7.253503e+000 177 165 153
-1.707408e-001 -1.022432e-001 -7.306635e+000 194 188 174
-1.389441e-001 -2.208719e-002 -6.648947e+000 145 111 102
2.862665e-001 -1.529192e-001 -6.673331e+000 224 218 206
4.680434e-001 -3.073641e-001 -6.693376e+000 98 81 61
5.934841e-001 -2.753953e-001 -6.601983e+000 253 248 240
5.934841e-001 -2.753953e-001 -6.601983e+000 253 248 240
6.627839e-001 -4.406175e-001 -6.652403e+000 202 196 174
1.120427e+000 3.475026e-002 -6.076353e+000 181 47 54
1.192219e+000 5.031422e-002 -6.086323e+000 224 90 94
-1.592816e-001 2.866797e-001 -7.470424e+000 154 140 129
-1.261290e-001 4.135708e-001 -7.396592e+000 218 211 197
-5.910831e-002 6.914847e-001 -7.170897e+000 133 119 110
3.792782e-001 1.243687e+000 -6.827467e+000 226 64 74
-1.723526e-001 -1.331884e-001 -7.485793e+000 176 166 154
-5.215527e-001 -2.254987e-001 -6.494039e+000 138 43 34
-7.801154e-001 -1.636398e-001 -6.235684e+000 154 114 87
-7.801154e-001 -1.636398e-001 -6.235684e+000 154 114 87
-4.898953e-001 -3.017717e-001 -6.465828e+000 45 35 34
-1.945312e-002 -2.603270e-001 -6.693832e+000 250 250 243
9.257995e-001 5.213206e-001 -6.220504e+000 243 81 94
1.069533e+000 2.018472e-001 -6.191173e+000 203 52 57
1.040701e+000 -3.794392e-001 -6.210770e+000 204 181 131
3.481370e-002 1.264256e+000 -7.153935e+000 190 42 46
-1.044564e-001 3.369195e-001 -7.410956e+000 145 133 121
-1.044564e-001 3.369195e-001 -7.410956e+000 145 133 121
-1.268954e-001 3.206013e-001 -7.240343e+000 127 115 103
3.963008e-001 5.618521e-001 -7.156246e+000 205 197 186
-2.867953e-001 -3.145415e-003 -6.647054e+000 53 11 13
-1.447087e-001 -1.313199e-001 -6.613703e+000 209 194 183
-1.447087e-001 -1.313199e-001 -6.613703e+000 209 194 183
-1.891143e-001 -1.886529e-001 -6.544998e+000 102 25 19
5.419994e-001 -3.954931e-001 -6.607642e+000 132 110 69
6.521444e-001 -6.319751e-001 -6.578751e+000 229 217 203
8.287737e-001 -7.344330e-001 -6.485173e+000 255 254 249
1.061927e+000 -1.953008e-001 -6.148527e+000 196 171 115
-4.847626e-001 5.092651e-001 -7.812227e+000 43 31 31
2.752687e-002 1.271623e+000 -7.134825e+000 192 43 49
-1.111760e-001 9.813770e-001 -7.220697e+000 139 121 111
-1.060806e-001 9.714733e-001 -7.237110e+000 139 121 111
-1.466296e-001 5.232552e-001 -7.405942e+000 213 205 194
-7.829898e-002 5.944047e-001 -7.213020e+000 139 125 114
-8.484380e-002 1.173266e-001 -6.763428e+000 126 109 99
6.773526e-001 9.589703e-001 -6.505842e+000 215 63 71
-3.347388e-001 -1.295657e-001 -6.444370e+000 134 30 21
4.096846e-003 -2.128630e-001 -6.600092e+000 62 39 29
1.045421e+000 2.448827e-001 -6.013884e+000 221 67 75
1.132096e+000 1.605414e-001 -6.093784e+000 221 67 75
-2.009878e-001 1.857646e-001 -7.309777e+000 76 4 11
-1.519913e-001 2.661333e-001 -7.216134e+000 181 169 157
-1.098826e-001 2.012680e-001 -7.060320e+000 120 106 97
-7.801948e-001 -1.221655e-001 -6.259048e+000 34 11 6
-7.801948e-001 -1.221655e-001 -6.259048e+000 34 11 6
8.473387e-001 1.084802e-001 -6.436520e+000 224 217 209
6.156981e-001 -6.913571e-001 -6.546292e+000 116 106 111
6.178846e-001 -6.975601e-001 -6.549906e+000 116 106 111
7.221987e-001 -4.228489e-001 -6.440535e+000 254 254 203
8.893964e-001 -2.659120e-001 -6.321424e+000 84 67 47
1.147071e+000 -5.849022e-002 -6.117233e+000 249 94 102
-4.226701e-001 5.533494e-001 -7.764841e+000 189 179 167
-1.052143e-002 1.187533e+000 -7.247151e+000 175 38 46
5.486013e-002 -1.562694e-001 -6.631627e+000 231 223 220
5.303219e-001 -4.981322e-001 -6.617230e+000 145 125 91
1.138727e+000 1.651972e-001 -6.143522e+000 228 73 81
9.898131e-001 -5.759017e-001 -6.293768e+000 166 35 40
-1.576852e-001 9.136913e-001 -7.381151e+000 167 153 140
-7.897838e-002 8.557547e-001 -7.245068e+000 218 214 205
-4.492206e-001 -7.565854e-002 -6.539035e+000 125 32 14
4.150963e-001 -5.402152e-001 -6.705641e+000 228 224 210
8.342226e-001 -1.293783e-001 -6.328277e+000 238 233 227
-4.969386e-002 -2.044424e-001 -6.688164e+000 241 238 233
8.783150e-001 5.004869e-001 -6.317707e+000 148 26 33
-2.677689e-001 -6.320151e-001 -6.829446e+000 161 25 25
4.271328e-001 2.294637e-001 -6.818548e+000 122 109 93
1.050470e+000 1.197257e-001 -6.017063e+000 193 56 64
-2.524136e-001 -1.286621e-001 -6.857487e+000 56 14 15
-6.377955e-002 1.044641e+000 -6.363938e+000 209 200 194
-4.680817e+000 -7.815819e+000 -1.548811e+001 129 128 134
-9.286860e+000 -9.955212e+000 -2.254329e+001 110 99 97
5.986346e-002 1.277385e+000 -7.160102e+000 78 8 14
-1.039226e-001 5.466151e-001 -7.364641e+000 155 145 133
-2.016162e-001 1.457604e-002 -7.600017e+000 87 7 6
-1.896180e-001 -1.024504e-002 -7.635163e+000 87 7 6
-2.137943e-001 -2.030139e-001 -7.552616e+000 211 203 192
-9.254265e-002 7.172079e-002 -6.758883e+000 152 136 128
-2.361219e-001 -5.069499e-002 -6.639228e+000 85 19 7
-4.530588e-001 -2.039627e-001 -6.467017e+000 147 20 3
8.281851e-001 7.844636e-001 -6.375063e+000 221 83 87
4.670763e-001 -5.908385e-001 -6.756505e+000 227 223 210
4.606605e-001 -5.801895e-001 -6.746219e+000 227 223 210
9.727414e-001 3.076349e-001 -6.280240e+000 250 87 97
-2.314862e-001 8.214702e-002 -6.752307e+000 92 43 39
-1.193500e+000 -5.326081e+000 -9.911338e+000 14 10 13
9.219328e-001 5.935601e-001 -6.329969e+000 214 65 75
1.210077e+000 3.089891e-001 -6.047493e+000 92 85 85
9.174277e-001 -6.035945e-001 -6.267713e+000 250 105 111
-3.120556e-001 7.648425e-001 -7.594145e+000 205 189 180
-1.935011e-001 1.019682e+000 -7.493858e+000 175 28 34
-1.669402e+000 -3.682379e+000 -1.025436e+001 49 45 46
-1.687262e+000 -3.988806e+000 -1.033397e+001 59 53 57
7.276450e-002 1.129353e-002 -6.738710e+000 137 120 112
1.587333e-001 8.597754e-002 -6.727192e+000 200 190 178
3.512503e-001 1.273407e+000 -6.905835e+000 16 2 8
-1.811906e-001 2.328102e-001 -7.476616e+000 206 194 178
-2.416432e-002 3.246166e-001 -6.774646e+000 118 104 93
-2.293746e-001 -1.842185e-002 -6.665302e+000 73 18 22
1.042857e+000 5.044557e-001 -6.228762e+000 67 57 58
-1.919325e-004 1.106581e+000 -7.173242e+000 187 46 45
-1.375691e+000 -5.184666e+000 -9.908106e+000 89 76 67
7.216524e-001 7.723397e-001 -6.536270e+000 207 53 61
6.021667e-001 -3.516681e-001 -6.636076e+000 134 121 104
-3.026298e-001 2.591424e-001 -7.800715e+000 30 36 25
-1.271723e-001 3.199340e-001 -7.240315e+000 127 115 103
-1.211186e+000 -1.174200e+001 -1.025038e+001 57 59 72
-4.107621e-003 1.097825e+000 -7.217039e+000 200 50 59
6.696154e-001 8.417986e-001 -6.579850e+000 220 61 68
7.415405e-001 -7.568834e-001 -6.556523e+000 252 246 237
8.343831e-001 -8.579216e-001 -6.532413e+000 201 64 68
9.273861e-001 -7.349343e-001 -6.408242e+000 253 247 241
1.194493e+000 -1.101904e-001 -6.071536e+000 16 10 14
-2.056832e-001 -8.760943e-002 -7.543786e+000 213 207 195
7.438037e-001 5.353188e-001 -6.423701e+000 254 254 249
-2.212135e-001 -8.276217e-003 -7.604380e+000 171 110 93
-1.478605e-001 -5.002401e-002 -7.467566e+000 197 185 167
1.246861e-001 6.277555e-001 -7.074220e+000 193 185 174
1.331521e-001 6.339554e-001 -7.053001e+000 197 187 175
1.819403e-001 7.693657e-001 -6.936096e+000 181 174 164
-6.660503e-001 -1.463981e-001 -6.856664e+000 122 35 18
-1.419925e+000 -4.836938e+000 -1.007841e+001 29 23 26
-6.351950e-001 -1.707209e-001 -6.848726e+000 99 21 14
-8.953128e-002 1.658544e-001 -6.976382e+000 114 98 85
-1.069035e-002 8.126184e-002 -6.773505e+000 170 157 143
-4.377876e-001 -9.836092e-002 -6.486391e+000 126 31 9
-6.003040e-002 4.146693e-002 -6.669019e+000 135 118 108
3.165281e-001 1.971522e-001 -6.806596e+000 155 141 128
4.765680e-001 -5.911939e-001 -6.733600e+000 252 249 235
4.765680e-001 -5.911939e-001 -6.733600e+000 252 249 235
1.179598e+000 1.560523e-001 -6.109186e+000 32 16 19
1.053962e+000 -5.769226e-001 -6.206482e+000 163 17 27
-1.881025e+000 -3.444645e+000 -1.048135e+001 47 42 46
-1.791976e+000 -3.675768e+000 -1.039282e+001 51 46 50
-1.686672e+000 -3.956121e+000 -1.030145e+001 63 59 60
2.028869e-001 9.649525e-001 -7.079986e+000 208 201 191
1.180779e-001 6.535196e-001 -7.069765e+000 235 226 217
-1.990605e-001 1.356483e-001 -6.885252e+000 128 111 101
-1.348518e+000 -4.938955e+000 -1.004287e+001 69 61 65
-1.196988e+000 -5.294121e+000 -9.980494e+000 43 33 36
1.682984e-002 7.662048e-002 -6.763395e+000 126 112 99
9.579796e-002 -2.080687e-001 -6.676894e+000 248 244 234
5.235125e-001 1.960291e-001 -6.723144e+000 135 122 105
4.498278e-001 1.055195e-001 -6.614659e+000 191 177 164
4.159340e-001 -6.724355e-003 -6.593907e+000 248 241 231
4.159340e-001 -6.724355e-003 -6.593907e+000 248 241 231
6.583898e-001 -6.559988e-001 -6.627045e+000 231 218 201
1.077802e+000 3.937659e-001 -6.182065e+000 26 10 15
4.591121e-001 -3.722862e+000 -7.575882e+000 179 181 193
1.142679e+000 7.087447e-002 -6.045008e+000 99 87 84
5.192746e-002 1.295932e+000 -7.100411e+000 70 10 20
-7.735720e-002 6.097073e-001 -7.287935e+000 167 157 146
-5.076399e-002 6.915386e-001 -7.214907e+000 169 157 145
-1.644439e+000 -4.062675e+000 -1.024269e+001 55 49 52
-1.647959e+000 -4.025052e+000 -1.036696e+001 31 25 27
-1.493440e-001 1.967651e-001 -7.113291e+000 155 141 128
-5.165603e-001 -2.686623e-002 -6.680806e+000 101 41 29
-1.267391e+000 -5.304439e+000 -1.011165e+001 78 69 74
-1.310838e+000 -5.360414e+000 -9.941429e+000 124 114 116
-5.217533e-001 -8.111486e-002 -6.479258e+000 114 38 26
5.715346e-001 1.537227e-001 -6.636626e+000 146 133 117
7.754882e-001 8.239324e-001 -6.375121e+000 73 4 9
7.575264e-001 7.727546e-001 -6.369527e+000 250 96 104
7.341128e-001 -1.844966e+000 -6.953123e+000 167 173 175
3.419296e-001 1.118649e+000 -6.915123e+000 211 55 54
4.810497e-001 1.026439e+000 -6.737798e+000 237 75 85
-4.921103e-001 -6.955497e-002 -6.475741e+000 132 42 21
-3.901947e-001 -2.294510e-001 -6.457856e+000 163 22 24
7.606480e-001 1.067722e-001 -6.652502e+000 186 174 162
9.849142e-001 2.432750e-001 -6.268523e+000 253 224 210
9.873874e-001 4.954060e-001 -6.194545e+000 249 97 103
1.027244e+000 -1.322720e-003 -6.167902e+000 236 87 87
1.054377e+000 -3.838593e-001 -6.133795e+000 248 231 179
-3.500582e-001 7.021732e-001 -7.662346e+000 193 183 173
-6.402762e-002 7.005108e-001 -7.365401e+000 200 191 176
2.862569e-001 8.628980e-001 -6.981679e+000 199 191 182
2.862569e-001 8.628980e-001 -6.981679e+000 199 191 182
-2.903623e-001 -1.533038e-001 -6.491166e+000 128 37 22
1.042668e+000 2.685423e-001 -6.257780e+000 241 84 93
6.217592e-002 1.278802e+000 -7.221530e+000 18 8 10
-3.546460e-002 7.319416e-001 -7.324670e+000 171 161 149
-3.546460e-002 7.319416e-001 -7.324670e+000 171 161 149
1.075882e+000 1.555611e-001 -6.176245e+000 228 73 81
9.188299e-002 1.136011e+000 -7.134478e+000 214 48 58
4.326634e-001 1.196114e+000 -6.786400e+000 213 51 62
4.403838e-001 9.550603e-001 -6.802374e+000 218 208 199
4.350967e-001 9.600680e-001 -6.794692e+000 218 208 199
6.159611e-001 9.137694e-001 -6.634693e+000 220 58 66
3.993105e-001 1.930586e-001 -6.665962e+000 152 139 122
7.442827e-001 8.893509e-001 -6.480188e+000 205 60 66
4.957899e-001 -2.538820e-001 -6.686467e+000 254 254 246
-9.507984e-001 -1.136676e+001 -9.937036e+000 45 43 56
1.270805e+000 -1.592216e-001 -5.981772e+000 255 245 192
-1.659392e-001 3.277742e-001 -7.314582e+000 197 184 173
-2.099551e-001 -2.312785e-001 -7.634577e+000 207 197 185
4.012113e-001 1.176957e-001 -6.619564e+000 212 203 190
-1.455440e-001 1.063059e+000 -7.464230e+000 214 63 69
9.692827e-001 4.713273e-001 -6.223640e+000 247 81 93
-3.388524e-001 2.834753e-001 -7.718707e+000 40 28 28
1.225296e+000 -2.249335e-001 -6.010852e+000 254 251 196
-2.745178e-001 5.719887e-001 -7.587707e+000 225 218 207
2.486941e-001 6.837045e-001 -6.952157e+000 197 189 180
-9.113748e-001 -8.178833e-003 -6.174857e+000 44 19 4
3.567592e-002 1.250687e+000 -7.227756e+000 130 23 33
-8.141267e-001 3.167116e-002 -6.092815e+000 210 134 120
5.482574e-003 1.092991e+000 -7.452470e+000 150 26 34
-8.046385e-001 6.546245e-002 -6.123634e+000 60 25 15
4.104036e-002 1.115618e+000 -7.191671e+000 204 45 60
4.407924e-001 1.199449e+000 -6.908630e+000 220 69 78
2.876726e-001 1.245664e+000 -5.864033e+000 63 51 51
-3.003064e-002 5.212327e-001 -7.146723e+000 190 180 168
2.511449e-001 6.980959e-001 -7.033566e+000 190 181 172
-1.616174e-001 1.834466e-001 -7.049817e+000 114 97 88
-1.596033e-001 1.853152e-001 -7.002530e+000 122 106 93
-8.217901e-002 2.285368e-001 -6.886098e+000 111 95 82
8.590517e-002 1.790056e-001 -6.898585e+000 131 114 101
-4.162387e-001 -3.723193e-002 -6.532529e+000 151 67 46
-4.162387e-001 -3.723193e-002 -6.532529e+000 151 67 46
-1.951176e-002 1.182303e-001 -6.753062e+000 132 117 104
2.294059e-001 2.278634e-001 -6.770509e+000 167 151 135
6.255932e-001 6.506561e-001 -6.629030e+000 205 197 184
5.237599e-002 1.274831e+000 -7.126693e+000 179 35 45
-1.389756e+000 -4.823824e+000 -1.007007e+001 67 58 61
2.907802e-001 9.712213e-001 -6.999221e+000 207 200 192
2.907802e-001 9.712213e-001 -6.999221e+000 207 200 192
-6.230849e-001 -8.383484e-002 -6.769286e+000 75 16 8
8.533818e-001 5.112839e-001 -6.379459e+000 198 52 59
3.747157e-001 1.103144e+000 -6.884831e+000 209 48 56
-4.903625e-002 2.469817e-001 -6.978347e+000 120 107 91
3.136466e-001 2.871588e-001 -6.812703e+000 123 107 92
1.079295e+000 1.697494e-001 -6.179011e+000 235 81 89
-3.736341e-001 -2.044061e-001 -6.475764e+000 239 136 95
2.985883e-002 1.047686e+000 -7.163274e+000 214 205 198
-1.224096e+000 -5.219604e+000 -9.999317e+000 48 39 42
4.167421e-001 1.224622e+000 -6.809581e+000 175 38 44
-4.317684e-001 -8.469824e-003 -6.554981e+000 139 64 45
-9.473544e-002 1.518835e-001 -6.783305e+000 119 103 90
-4.849596e-001 -8.081477e-002 -6.481356e+000 114 28 13
-4.089144e-001 -4.358474e-003 -6.558612e+000 107 31 15
-2.649176e-001 -8.296676e-003 -6.673489e+000 48 13 12
-1.140202e-001 1.087537e-001 -6.723519e+000 150 133 125
-3.361673e-001 -8.925116e-002 -6.480834e+000 114 27 12
1.536095e-001 1.199428e-001 -6.748707e+000 211 199 187
-4.340138e-001 -3.246772e-001 -6.445324e+000 87 89 104
3.409801e-001 2.802648e-001 -6.713963e+000 133 117 101
6.396205e-001 1.042330e+000 -6.598503e+000 213 61 71
3.104897e-001 -3.185382e+000 -7.748718e+000 151 154 166
3.851480e-001 -3.457799e+000 -7.719983e+000 221 230 238
5.092768e-001 -2.662240e+000 -7.445635e+000 189 199 198
1.054314e+000 1.381861e-001 -6.188128e+000 206 68 72
1.106143e+000 -2.875809e+000 -6.704682e+000 141 142 136
-3.243779e-001 9.673821e-001 -7.559252e+000 168 36 45
-1.977544e-001 8.710103e-001 -7.512078e+000 219 62 70
-1.423940e+000 -4.693822e+000 -1.007665e+001 70 65 69
-1.247293e-001 1.232618e-002 -7.478663e+000 146 93 82
-1.410625e-001 -3.161737e-002 -7.435658e+000 212 204 191
-6.576684e-002 4.607871e-001 -7.186537e+000 183 171 159
-5.046796e-001 -5.181404e-002 -6.505426e+000 102 20 8
-4.241680e-001 -2.427481e-002 -6.545236e+000 112 30 15
-3.159660e-003 8.379465e-002 -6.729184e+000 172 164 151
-7.889572e-001 1.700625e-002 -6.102353e+000 197 128 114
2.906173e-002 7.180560e-002 -6.711980e+000 137 125 113
3.504767e-001 2.281766e-001 -6.739416e+000 154 140 120
2.864143e-001 -5.376057e-001 -6.685344e+000 113 111 104
4.695412e-001 9.072657e-002 -6.615081e+000 143 130 114
5.196543e-001 -2.628518e+000 -7.411741e+000 133 142 141
8.253434e-001 1.731847e-001 -6.393988e+000 245 238 228
1.052052e+000 -8.208592e-002 -6.209599e+000 223 82 86
-2.328777e-001 9.813248e-001 -7.549622e+000 165 29 37
-1.426348e-001 6.459165e-001 -7.445136e+000 173 164 149
-1.463620e+000 -4.535145e+000 -1.007446e+001 66 61 65
-6.550384e-002 6.143679e-001 -7.351199e+000 182 170 156
-1.221133e+000 -5.257005e+000 -9.919769e+000 90 84 88
3.639923e-001 1.145948e+000 -6.901727e+000 230 75 82
-7.208183e-001 -4.870355e+000 -9.292765e+000 84 76 77
-2.502322e-001 9.815533e-003 -6.667920e+000 77 42 36
3.408326e-001 3.511012e-001 -6.855261e+000 172 160 146
-4.808046e-001 -2.089315e-001 -6.446566e+000 198 106 65
-3.616998e-001 -8.960155e-002 -6.521216e+000 88 25 16
1.359394e-001 1.839408e-001 -6.766414e+000 166 150 137
5.781978e-001 1.451263e-001 -6.641601e+000 142 129 113
5.591599e-001 -1.799748e+000 -7.247353e+000 112 118 115
7.421024e-001 2.024476e-001 -6.589323e+000 208 200 185
7.738479e-001 7.812436e-001 -6.376850e+000 107 14 25
9.024382e-001 5.206847e-001 -6.395280e+000 167 33 42
1.171219e+000 -1.684822e+000 -6.462887e+000 178 180 175
-1.503934e-001 9.910700e-001 -7.460677e+000 169 32 39
-1.609316e-001 3.619150e-001 -7.369554e+000 206 196 184
4.245981e-001 1.096255e+000 -6.817865e+000 234 78 82
4.367456e-001 1.026998e+000 -6.794112e+000 211 178 166
-5.868853e-001 -2.482287e-001 -6.314618e+000 64 22 24
1.702451e-001 -5.977601e-002 -6.657154e+000 235 227 214
4.839594e-001 -5.162667e-001 -6.692237e+000 248 244 227
8.521005e-001 8.077293e-001 -6.411683e+000 21 11 12
6.724402e-001 -3.044518e-001 -6.528738e+000 178 165 147
1.057615e+000 2.104548e-001 -6.184795e+000 215 59 70
-4.083358e-001 4.339577e-001 -7.658633e+000 220 209 191
-1.208085e-001 4.122147e-001 -7.407521e+000 215 207 194
-1.238525e-001 4.214730e-001 -7.252088e+000 131 117 106
-2.291841e-001 2.549595e-001 -7.654738e+000 185 46 50
-1.547971e-001 2.874929e-001 -7.466691e+000 157 139 127
-1.307021e-001 2.263048e-001 -7.109478e+000 159 146 130
1.638259e-001 7.477190e-001 -7.028163e+000 182 172 162
4.989638e-001 3.048498e-001 -6.808335e+000 145 136 121
6.680112e-001 6.446822e-001 -6.562753e+000 235 226 211
7.615109e-001 8.228368e-001 -6.416289e+000 89 13 18
9.860543e-001 4.895914e-001 -6.213074e+000 234 78 88
-1.239004e-001 4.940801e-001 -7.450289e+000 228 220 209
-1.655346e-001 2.857836e-002 -7.544799e+000 75 11 16
-4.278914e-002 2.339221e-001 -6.966722e+000 123 111 96
-1.301882e-001 -1.503287e-001 -6.616233e+000 230 220 213
9.107986e-001 1.238196e-001 -6.375421e+000 229 222 211
1.062562e+000 -3.177330e-001 -6.147390e+000 174 151 101
7.663625e-001 -5.004523e-001 -6.501041e+000 254 252 203
8.209095e-001 -1.722808e-001 -6.349508e+000 245 237 228
-3.386400e-001 9.108857e-001 -7.571260e+000 211 63 69
1.330663e-001 4.409367e-001 -6.966813e+000 151 142 127
-5.561742e-001 -1.136082e-001 -6.459217e+000 74 20 18
5.418019e-001 -5.366373e-001 -6.633828e+000 145 122 98
8.384170e-001 -1.210104e-001 -6.329667e+000 231 222 213
2.151130e-001 6.156791e-001 -6.996783e+000 144 132 122
3.667991e-001 -1.022959e-001 -6.663169e+000 252 250 240
4.124967e-001 2.584334e-001 -6.798733e+000 136 123 107
1.354722e-002 1.296805e+000 -7.144767e+000 85 13 23
-1.332186e-001 5.660523e-001 -7.194813e+000 162 148 134
-1.249287e-001 1.923756e-001 -6.948202e+000 118 103 89
2.149070e-001 6.993529e-001 -7.004500e+000 191 184 174
-4.990085e-001 -6.074111e-002 -6.546936e+000 126 56 44
-3.841145e-001 -9.151838e-002 -6.477251e+000 126 31 15
5.051781e-001 -2.548274e+000 -7.388803e+000 180 193 183
4.586206e-001 -5.174000e-001 -6.732696e+000 232 228 216
-3.502177e-001 7.776597e-001 -7.554798e+000 174 152 139
2.019137e-001 9.594983e-001 -7.059851e+000 205 198 190
-1.848817e-001 1.378367e-001 -7.071171e+000 123 109 96
-2.556419e-001 8.425075e-002 -6.887646e+000 67 24 18
-1.353259e-001 1.022336e-001 -6.857066e+000 140 124 111
-3.897571e-002 1.887610e-001 -6.916896e+000 115 99 86
-4.292726e-002 2.945121e-001 -6.804252e+000 174 165 150
6.707570e-002 2.042756e-001 -6.954824e+000 161 148 132
-5.204409e-001 -6.356963e-002 -6.510153e+000 81 17 8
-4.705168e-001 -3.179112e-002 -6.554578e+000 86 21 12
2.096158e-001 2.576564e-001 -6.766686e+000 163 147 131
1.196554e-001 -2.156479e-001 -6.669157e+000 209 197 184
5.866981e-001 5.951290e-001 -6.567252e+000 160 148 133
4.823295e-001 -1.000768e-001 -6.567056e+000 238 232 220
4.997987e-001 -1.855104e-002 -6.542180e+000 201 192 177
8.232430e-001 -4.637581e-001 -6.336239e+000 225 212 179
1.254674e+000 -2.198494e+000 -6.331764e+000 169 167 170
-1.819058e-001 3.130883e-001 -7.531581e+000 175 163 149
-1.819058e-001 3.130883e-001 -7.531581e+000 175 163 149
-9.857006e-002 6.081935e-001 -7.315408e+000 148 136 122
-4.288192e-001 -6.318556e-002 -6.515675e+000 180 88 59
-4.288192e-001 -6.318556e-002 -6.515675e+000 180 88 59
1.989189e-001 4.314176e-003 -6.666106e+000 179 169 156
7.965055e-001 7.349331e-002 -6.564159e+000 208 198 189
8.978979e-001 5.328068e-001 -6.408670e+000 230 84 95
1.005971e+000 5.008491e-001 -6.206477e+000 30 15 15
1.124350e+000 -4.268174e-001 -6.126851e+000 162 56 53
-3.044015e-001 8.417961e-001 -7.504405e+000 224 69 77
-1.583118e-003 2.529885e-001 -7.036146e+000 135 121 108
-1.383339e-001 1.576382e-001 -6.787623e+000 155 139 124
2.207702e-002 1.255172e-001 -6.772781e+000 128 115 99
4.528168e-001 1.638552e-001 -6.646543e+000 197 183 170
7.546237e-001 1.459045e-001 -6.534320e+000 194 184 172
1.028951e+000 -3.580268e-001 -6.190464e+000 216 193 139
7.057534e-002 6.291309e-002 -6.725960e+000 196 186 176
4.887521e-001 5.725469e-001 -6.775996e+000 193 181 174
5.934960e-001 -6.665040e-001 -6.600904e+000 252 252 242
1.028267e+000 -6.206657e-001 -6.212026e+000 237 98 109
1.317620e+000 -3.528835e-001 -5.989039e+000 255 246 198
1.317620e+000 -3.528835e-001 -5.989039e+000 255 246 198
-3.971955e-001 7.200341e-001 -7.679079e+000 178 38 48
2.501090e-002 1.270512e+000 -7.144423e+000 200 53 55
1.945118e-001 5.750659e-001 -6.979295e+000 149 137 121
