ply
format ascii 1.0
element face 0
property list uchar int vertex_indices
element vertex 870
property float x
property float y
property float z
property uchar diffuse_red
property uchar diffuse_green
property uchar diffuse_blue
end_header
1.266336e+000 -3.548116e-001 -6.067326e+000 198 175 121
2.731417e-001 -8.786294e-001 -6.960137e+000 41 31 23
4.552046e-001 -1.012880e+000 -7.082752e+000 150 128 79
1.072823e+000 -5.785650e-001 -6.194191e+000 211 46 55
5.820013e-001 1.137069e+000 -6.748026e+000 182 43 46
-2.940151e-001 7.378196e-001 -7.584857e+000 156 140 131
7.438395e-001 8.240409e-001 -6.396458e+000 113 9 17
-4.779242e-001 5.130052e-001 -7.846790e+000 34 24 16
-1.558830e-001 6.261224e-001 -7.482581e+000 205 198 188
-2.074296e-001 5.188680e-001 -7.524354e+000 217 210 200
-1.420287e-001 4.211871e-001 -7.280459e+000 144 131 120
-2.186999e-002 4.124898e-001 -7.154727e+000 172 162 152
7.349387e-001 5.249043e-001 -6.470208e+000 229 226 221
7.354007e-001 5.246863e-001 -6.473151e+000 229 226 221
1.747489e-001 2.402151e-001 -6.798744e+000 175 165 156
-1.360394e-001 1.462832e-001 -6.804396e+000 138 124 115
6.433119e-003 4.853870e-002 -6.725677e+000 115 102 93
6.189164e-002 2.875864e-002 -6.708481e+000 123 113 104
-1.273495e-001 -8.248002e-002 -6.667649e+000 184 161 155
2.322382e-001 -1.974315e-002 -6.653135e+000 206 197 188
-7.342838e-001 -1.605132e-001 -6.288635e+000 77 22 2
-7.109060e-001 -1.812130e-001 -6.245203e+000 54 5 8
-2.433290e-001 -1.620914e-001 -6.492194e+000 219 97 66
-1.453071e-001 -1.999424e-001 -6.680446e+000 93 69 26
-5.827007e-001 -2.701270e-001 -6.407364e+000 225 183 143
-1.061721e-001 -2.559815e-001 -6.683870e+000 97 79 41
-1.692680e-001 -2.998900e-001 -6.642542e+000 203 193 181
-1.464608e-001 -4.216549e-001 -6.706088e+000 45 36 31
-2.948299e-001 -4.901002e-001 -6.658740e+000 234 233 229
1.143499e+000 -2.952441e-001 -6.109711e+000 152 124 77
5.833436e-001 -6.158190e-001 -6.609329e+000 160 147 126
6.618630e-001 -7.229538e-001 -6.664751e+000 174 33 33
1.040740e+000 -5.802373e-001 -6.178788e+000 214 52 58
-1.595542e-002 1.087198e+000 -7.235654e+000 173 35 41
-1.863614e-001 1.000057e+000 -7.502264e+000 195 44 52
-1.863614e-001 1.000057e+000 -7.502264e+000 195 44 52
-2.861604e-001 8.308288e-001 -7.543802e+000 210 44 53
-1.375965e-001 8.471399e-001 -7.465308e+000 203 195 185
-1.371649e-001 8.472914e-001 -7.465447e+000 203 195 185
-3.185909e-001 7.866097e-001 -7.637061e+000 183 34 41
-3.257812e-001 6.753108e-001 -7.629405e+000 178 166 154
2.740381e-001 7.145672e-001 -7.031801e+000 213 204 198
9.931144e-002 6.167120e-001 -7.070028e+000 195 185 177
3.094031e-001 6.861191e-001 -6.984606e+000 208 201 195
-7.650841e-002 4.993545e-001 -7.213083e+000 193 184 175
8.855458e-001 5.735457e-001 -6.359401e+000 203 45 53
9.044877e-001 6.143365e-001 -6.340951e+000 171 26 33
-2.475844e-001 1.950734e-001 -7.675959e+000 203 52 59
-2.308538e-002 2.314120e-001 -6.963354e+000 124 111 102
2.314108e-002 1.830478e-001 -6.891292e+000 122 114 103
-2.017232e-001 7.464111e-002 -6.735056e+000 130 108 100
7.386347e-001 1.289706e-001 -6.549350e+000 188 179 170
-8.676961e-001 -1.638048e-001 -6.225254e+000 158 135 82
1.111146e+000 1.582371e-001 -6.236705e+000 222 55 65
5.494438e-001 -6.102619e-002 -6.503024e+000 202 197 191
-7.722188e-001 -2.275931e-001 -6.268862e+000 98 31 28
-3.729732e-001 -2.722291e-001 -6.454663e+000 143 9 18
5.730204e-001 -2.848120e-001 -6.652101e+000 165 151 141
5.428734e-001 -3.848113e-001 -6.625650e+000 91 74 38
6.749551e-001 -3.068582e-001 -6.519292e+000 165 152 135
6.401613e-001 -3.377332e-001 -6.516040e+000 148 138 123
9.874722e-001 -2.251805e-001 -6.230125e+000 83 65 39
9.785626e-001 -2.202461e-001 -6.204688e+000 83 65 39
1.154643e+000 -1.777736e-001 -6.110599e+000 140 118 71
9.734431e-001 -4.867336e-001 -6.285599e+000 197 167 159
1.340244e+000 -3.457284e-001 -5.967816e+000 27 14 14
6.918671e-001 -7.679062e-001 -6.546399e+000 39 28 23
8.426894e-001 -7.880401e-001 -6.471141e+000 224 57 65
-3.638937e+000 9.163257e-001 -1.178778e+001 11 7 8
2.920173e-001 8.624342e-001 -7.002059e+000 192 179 173
7.490806e-001 9.005652e-001 -6.472882e+000 183 29 39
-8.455278e-003 5.646932e-001 -7.101614e+000 183 173 163
5.148500e-001 4.192853e-001 -6.756564e+000 183 175 163
-2.194463e-001 2.632643e-001 -7.576409e+000 168 33 38
2.686054e-001 9.075712e-002 -6.686475e+000 159 144 137
-3.206903e-001 -1.680559e-002 -6.615115e+000 123 51 35
4.536905e-001 1.073090e-001 -6.616207e+000 179 171 160
-8.654866e-001 -2.305852e-001 -6.296562e+000 32 23 24
-4.848069e-001 -1.623512e-001 -6.490745e+000 234 122 84
-4.672923e-001 -1.935990e-001 -6.480507e+000 166 35 18
7.553982e-003 -1.036185e-001 -6.600141e+000 241 236 233
1.155920e+000 9.261757e-002 -6.078226e+000 119 10 23
-4.165685e-001 -3.848048e-001 -6.521131e+000 161 144 133
-1.880909e-001 -4.129939e-001 -6.641020e+000 211 204 198
9.239982e-001 -2.337469e-001 -6.317226e+000 147 129 119
9.103356e-001 -2.750696e-001 -6.237313e+000 174 151 101
6.900019e-001 -5.521807e-001 -6.459555e+000 194 185 174
9.540894e-001 -4.316826e-001 -6.256399e+000 175 151 105
1.327939e+000 -3.668516e-001 -5.977216e+000 206 183 115
1.327939e+000 -3.668516e-001 -5.977216e+000 206 183 115
8.594343e-001 -6.692024e-001 -6.438777e+000 208 200 189
4.052837e-001 -1.070799e+000 -7.192115e+000 134 114 69
5.227988e-001 -1.032125e+000 -7.070637e+000 13 5 8
1.052665e+000 -5.601147e-001 -6.191550e+000 150 2 16
-2.021250e+000 -2.891187e+000 -1.046650e+001 37 31 33
-2.004506e+000 -3.021166e+000 -1.046704e+001 37 31 33
-1.498842e+000 -2.193980e+000 -8.535790e+000 39 33 35
-4.938391e-001 6.900308e-001 -7.834789e+000 191 41 42
-4.238574e-002 6.480521e-001 -7.176187e+000 206 197 188
-4.134472e-001 4.435925e-001 -7.721957e+000 208 194 184
-1.472791e-001 4.700484e-001 -7.287070e+000 202 194 183
5.033304e-001 3.075885e-001 -6.811818e+000 141 133 122
1.748272e-001 1.252822e-001 -6.730265e+000 155 145 136
-8.137331e-001 -1.445228e-001 -6.198520e+000 39 24 28
-1.526091e-001 -1.210236e-001 -6.640944e+000 182 160 154
4.847181e-001 2.637712e-002 -6.548623e+000 220 216 210
4.847181e-001 2.637712e-002 -6.548623e+000 220 216 210
3.016507e-001 -1.017105e-001 -6.671389e+000 255 252 244
6.484538e-001 -1.707028e-002 -6.462538e+000 188 179 172
6.897587e-001 1.447003e-002 -6.454164e+000 213 205 196
7.686566e-001 -2.192232e-002 -6.431037e+000 180 172 160
7.687181e-001 -2.177534e-002 -6.431182e+000 180 172 160
5.679913e-001 -1.190000e-001 -6.547796e+000 226 221 217
5.679913e-001 -1.190000e-001 -6.547796e+000 226 221 217
1.127120e+000 -4.596278e-001 -6.168066e+000 229 58 69
-1.982002e+000 -2.814975e+000 -1.047247e+001 24 18 20
-1.933268e+000 -2.906410e+000 -1.038595e+001 20 14 16
-1.854011e+000 -3.035539e+000 -1.027944e+001 29 23 25
6.515641e-001 1.022369e+000 -6.604834e+000 199 40 48
-1.606104e-001 9.571895e-001 -7.512323e+000 191 41 48
-6.240311e-002 7.170362e-001 -7.172781e+000 177 168 159
-8.402619e-003 7.347506e-001 -7.149882e+000 218 211 201
7.196909e-001 7.675520e-001 -6.427857e+000 189 43 49
-4.904066e-001 5.014425e-001 -7.856138e+000 38 24 21
-8.984352e-002 4.507427e-001 -7.253064e+000 145 133 122
1.723521e-001 3.910843e-001 -6.905721e+000 188 175 166
4.030079e-001 3.499298e-001 -6.842421e+000 170 162 149
6.653395e-001 1.673759e-001 -6.633041e+000 155 145 134
-8.570457e-001 -1.749601e-001 -6.235139e+000 168 147 100
-8.570457e-001 -1.749601e-001 -6.235139e+000 168 147 100
-7.894294e-001 -1.675536e-001 -6.255772e+000 151 127 81
6.880617e-001 1.461531e-002 -6.447624e+000 213 205 196
1.162397e+000 -2.634108e-002 -6.116597e+000 247 80 90
4.979033e-001 -4.843952e-001 -6.707584e+000 81 64 37
6.159144e-001 -5.346866e-001 -6.580356e+000 204 191 182
1.275169e+000 -3.162007e-001 -6.015671e+000 163 139 91
4.472173e-001 -1.116493e+000 -7.128789e+000 41 28 23
-1.768531e+000 -2.998335e+000 -1.029116e+001 68 64 65
-8.978839e-002 9.108453e-001 -7.180900e+000 220 197 200
5.610409e-001 5.798639e-001 -6.734351e+000 210 201 194
1.386716e-001 4.519376e-001 -6.971633e+000 153 141 129
3.724761e-001 4.775421e-001 -6.916585e+000 178 169 160
3.161553e-002 3.954697e-001 -7.094002e+000 140 130 118
1.278521e-001 2.283132e-001 -6.838885e+000 128 116 106
1.959590e-001 2.203351e-001 -6.784233e+000 201 194 184
5.015299e-001 3.180879e-001 -6.825270e+000 151 143 132
7.797771e-001 2.579546e-001 -6.472850e+000 249 245 240
1.427134e-001 -1.608515e-003 -6.692918e+000 127 117 107
-6.755647e-001 -1.612129e-001 -6.321460e+000 155 66 34
4.536019e-002 -2.634404e-001 -6.716519e+000 244 241 236
7.763768e-001 -9.331737e-002 -6.374879e+000 133 119 108
6.929134e-001 -2.261988e-001 -6.491608e+000 234 230 221
5.473630e-001 1.003693e+000 -6.706333e+000 207 41 48
-3.591734e-001 3.380400e-001 -7.675674e+000 37 29 27
9.786924e-001 5.536597e-001 -6.227203e+000 17 7 8
-3.477768e-001 -5.387261e-002 -6.497850e+000 87 27 18
2.518453e-001 -4.502587e-001 -6.718231e+000 63 35 24
1.080267e+000 -1.797376e-001 -6.199933e+000 108 27 33
7.404360e-001 -3.709359e-001 -6.367611e+000 222 197 140
9.692799e-001 -2.831860e-001 -6.217174e+000 175 151 103
9.515861e-001 -4.915675e-001 -6.293629e+000 227 214 206
3.540506e-001 7.080110e-001 -6.736689e+000 230 221 214
6.161151e-001 6.652957e-001 -6.642563e+000 215 208 200
4.560858e-001 5.058686e-001 -6.773019e+000 211 204 196
4.587466e-001 5.054758e-001 -6.779631e+000 211 204 196
8.026003e-001 3.327536e-001 -6.446637e+000 174 159 147
4.129066e-001 1.444804e-001 -6.660115e+000 178 168 159
1.085644e+000 -3.332027e-001 -6.155336e+000 108 88 50
8.812728e-002 7.195177e-001 -7.059731e+000 217 208 201
3.057192e-002 5.171368e-001 -7.149736e+000 186 176 167
8.161215e-002 3.753422e-001 -7.007153e+000 131 121 111
9.065384e-001 3.271767e-001 -6.310825e+000 249 248 244
7.786852e-001 -1.932122e-001 -6.370053e+000 247 240 234
4.148520e-001 -1.062235e+000 -7.190953e+000 140 121 72
1.631301e-001 1.039143e+000 -7.076855e+000 210 201 196
4.256122e-001 6.146207e-001 -6.774810e+000 233 224 217
-2.431804e-001 -6.985886e-002 -6.550837e+000 76 21 19
5.718210e-001 1.331404e-001 -6.581076e+000 138 126 114
6.015085e-001 -4.094323e-001 -6.605415e+000 170 148 100
-2.651182e-001 5.664260e-001 -7.674199e+000 215 206 197
-3.674397e-003 -6.435336e-001 -6.782444e+000 39 31 29
7.484710e-001 4.350813e-001 -6.469028e+000 243 242 237
-1.978590e-001 3.872570e-002 -6.681326e+000 73 25 18
3.161548e-002 4.344451e-002 -6.725457e+000 142 132 122
-1.465631e-001 -3.354850e-001 -6.626536e+000 172 159 150
-2.162569e-001 -3.616904e-001 -6.568218e+000 171 161 150
2.768241e-001 6.890175e-001 -7.039348e+000 175 166 157
2.880776e-001 2.383555e-001 -6.794230e+000 124 113 103
-1.129560e-001 8.401976e-003 -6.676989e+000 149 136 128
-2.317286e-001 -2.793512e-001 -6.597119e+000 168 150 139
7.974115e-001 8.500285e-001 -6.430799e+000 122 32 33
-1.051468e-001 5.016005e-001 -7.278778e+000 164 156 145
-4.827175e-001 -5.955585e-002 -6.525248e+000 108 35 15
-3.370271e-001 -3.293985e-001 -6.411107e+000 168 149 148
1.183742e+000 8.540023e-002 -6.070594e+000 180 41 48
4.816821e-001 -9.421433e-002 -6.614906e+000 253 250 245
-1.246621e-001 -4.045825e-001 -6.726471e+000 240 237 230
6.618110e-001 -7.231830e-001 -6.664163e+000 181 39 35
8.743496e-001 6.548443e-001 -6.356039e+000 189 34 42
7.575048e-001 6.262267e-001 -6.425819e+000 249 64 78
1.071077e+000 2.470827e-001 -6.196824e+000 227 60 68
1.152896e+000 9.044983e-002 -6.087716e+000 121 11 20
-8.245984e+000 -6.009214e+000 -1.817980e+001 106 97 95
-3.971066e-001 8.990147e-001 -7.708976e+000 25 18 16
2.418446e-001 4.196883e-001 -6.917703e+000 134 124 111
1.796012e-002 1.113221e+000 -7.209488e+000 181 36 41
1.293733e+000 -1.546219e-001 -5.979275e+000 190 165 111
1.293733e+000 -1.546219e-001 -5.979275e+000 190 165 111
1.952873e-001 5.891563e-002 -6.694004e+000 132 120 108
-5.691521e-001 -1.071925e-001 -6.474705e+000 69 22 15
5.653875e-001 9.324853e-002 -7.003665e+000 142 132 120
6.313160e-001 6.509865e-001 -6.608912e+000 194 186 177
-1.309760e-001 3.862299e-001 -7.228799e+000 152 140 128
-1.313223e-001 1.991415e-001 -6.950810e+000 137 127 117
-9.212266e-002 1.616532e-001 -6.696569e+000 102 88 79
-6.664185e-001 -1.219573e-001 -6.769292e+000 114 51 31
-4.310237e-001 -2.049416e-001 -6.481017e+000 186 45 12
2.640340e-001 8.867920e-001 -7.027785e+000 195 186 181
-8.561723e-001 -1.458334e-001 -6.165943e+000 140 113 65
-8.348968e-001 -3.232837e-001 -6.456526e+000 51 37 33
-4.525462e-001 -1.864788e-001 -6.402808e+000 146 24 8
-6.012769e-001 -3.051730e-001 -6.341576e+000 220 167 124
-5.735710e-001 -2.661080e-001 -6.303829e+000 82 29 13
-5.735710e-001 -2.661080e-001 -6.303829e+000 82 29 13
-3.804275e-001 9.040549e-001 -7.714949e+000 20 20 18
2.833395e-001 6.976775e-001 -6.744467e+000 209 200 191
6.252413e-001 7.865038e-001 -6.492371e+000 187 177 171
-5.063314e-002 4.636311e-001 -7.180412e+000 180 172 162
-1.634878e-001 4.660274e-002 -6.685196e+000 89 32 21
-6.375641e-001 -3.181915e-001 -6.385323e+000 252 220 167
-5.985305e-001 -2.844836e-001 -6.336438e+000 253 210 175
1.358813e-001 1.868284e-001 -6.764453e+000 162 152 142
-5.407760e-001 -2.704535e-001 -6.515705e+000 160 51 24
-4.954154e-001 -2.608047e-001 -6.493273e+000 239 157 124
-2.443902e-001 -1.558459e-001 -6.466673e+000 218 101 62
4.148930e-001 1.049200e+000 -6.817871e+000 227 214 213
-1.023613e-001 5.120375e-001 -7.270802e+000 165 155 145
7.267564e-001 6.571164e-001 -6.450734e+000 208 52 57
6.560547e-001 5.772904e-001 -6.798564e+000 150 140 128
-8.262276e-001 -1.643590e-001 -6.263452e+000 46 31 24
-2.125468e-001 -1.480807e-001 -6.441903e+000 99 24 18
-5.629105e-001 -3.002173e-001 -6.371458e+000 237 191 148
-3.969798e-001 -3.346164e-001 -6.359942e+000 99 81 63
-7.745658e-001 -1.514336e-001 -6.187826e+000 140 117 76
5.822336e-001 1.090551e+000 -6.663161e+000 196 44 50
-6.068915e-001 -3.034377e-001 -6.343331e+000 232 174 132
-7.881322e-001 -1.236023e-001 -6.359179e+000 137 59 23
-2.641269e-001 -1.883852e-001 -6.419210e+000 227 105 57
3.237360e-001 8.382636e-001 -6.912057e+000 153 142 134
-1.494332e-001 6.554518e-001 -7.457300e+000 171 163 153
-1.982618e+000 -2.584555e+000 -1.037866e+001 58 49 50
9.027824e-001 5.908600e-001 -6.339597e+000 200 52 59
7.284443e-001 -8.637570e-001 -6.574382e+000 230 98 105
-9.157971e+000 -1.057826e+001 -2.331304e+001 23 19 20
2.511875e-001 -4.542914e-001 -6.733814e+000 63 35 24
4.893205e-001 1.190523e+000 -6.719287e+000 174 44 51
1.159942e-001 6.619257e-001 -6.998669e+000 216 207 198
7.369348e-001 8.043907e-001 -6.373378e+000 188 44 48
3.625438e-001 2.548362e-001 -6.758114e+000 121 109 94
2.620139e-001 1.706036e-001 -6.645019e+000 191 178 169
-2.583493e-001 -1.060800e-001 -6.526730e+000 84 16 7
-3.664863e-001 -2.176917e-001 -6.420084e+000 167 86 64
4.906812e-001 -6.117396e-002 -6.537756e+000 214 209 202
4.945822e-001 -8.999484e-002 -6.575600e+000 223 217 211
3.269017e-002 6.707933e-001 -7.138531e+000 205 198 190
8.019432e-001 8.158790e-001 -6.411401e+000 82 12 15
7.335754e-001 7.935149e-001 -6.299935e+000 206 47 61
9.767751e-002 2.494149e-001 -6.834368e+000 152 142 133
-3.718374e-001 -1.322651e-002 -6.584924e+000 118 50 32
-3.718374e-001 -1.322651e-002 -6.584924e+000 118 50 32
5.736116e-003 7.040797e-002 -6.741146e+000 164 151 143
-2.141585e-001 -4.162895e-002 -6.639981e+000 84 17 11
2.638924e-001 -1.091193e-001 -6.655254e+000 254 254 249
-1.757052e+000 -3.631181e+000 -1.023518e+001 45 39 41
3.561857e-001 1.262452e+000 -6.892373e+000 200 48 52
4.320784e-001 1.105579e+000 -6.888210e+000 214 51 52
4.197418e-001 1.103391e+000 -6.810878e+000 214 51 52
-1.322837e-001 8.573617e-001 -7.450735e+000 203 196 186
-1.710096e-001 5.790464e-001 -7.480642e+000 180 171 162
-1.603523e-001 6.822365e-002 -6.699874e+000 135 120 113
1.126973e+000 -3.063875e-001 -6.107600e+000 170 147 95
1.142495e+000 -2.923851e-001 -6.103816e+000 164 139 85
8.061775e-001 5.871119e-001 -6.369368e+000 245 68 80
6.781013e-001 2.355029e-001 -6.646332e+000 172 163 152
7.160529e-001 -2.439205e-001 -6.485166e+000 229 225 216
-6.459579e+000 -7.634253e+000 -1.756702e+001 31 32 36
-4.688057e+000 -6.633598e+000 -1.492487e+001 131 127 141
-4.452504e+000 -6.904602e+000 -1.501204e+001 21 19 22
-5.987290e+000 -8.797277e+000 -1.678578e+001 110 109 122
3.929090e-001 1.245836e+000 -6.846845e+000 204 47 54
4.384332e-001 1.212422e+000 -6.778732e+000 194 38 42
7.643188e-001 5.964025e-001 -6.429513e+000 250 245 244
1.382410e-001 -4.712260e-002 -6.661766e+000 160 146 135
3.125453e-001 -1.968984e-001 -6.721176e+000 218 209 202
3.125453e-001 -1.968984e-001 -6.721176e+000 218 209 202
4.388460e-001 -2.511685e-001 -6.721512e+000 217 210 200
1.185126e+000 -9.156068e-002 -6.090221e+000 25 9 12
8.658650e-001 -7.288042e-001 -6.481058e+000 210 205 196
9.703848e-001 -7.232021e-001 -6.357553e+000 250 75 86
1.122671e+000 -7.906571e-001 -6.281821e+000 250 86 94
1.122671e+000 -7.906571e-001 -6.281821e+000 250 86 94
-4.519033e+000 -6.876556e+000 -1.485657e+001 134 131 146
-5.506100e+000 -8.662641e+000 -1.682128e+001 51 51 59
1.677186e-001 -3.855607e-001 -6.713150e+000 44 28 15
1.294978e+000 -1.482524e-001 -5.966189e+000 204 174 122
1.294978e+000 -1.482524e-001 -5.966189e+000 204 174 122
1.109612e+000 -7.741780e-001 -6.263531e+000 250 78 90
1.109612e+000 -7.741780e-001 -6.263531e+000 250 78 90
1.049254e+000 3.922908e-001 -6.181466e+000 218 54 65
3.906978e-002 -4.943175e-001 -6.843279e+000 43 34 30
1.116199e+000 -1.281825e-001 -6.185952e+000 228 64 75
5.731676e-001 8.951283e-001 -6.667222e+000 230 219 215
2.716390e-001 6.149263e-001 -6.988668e+000 139 126 117
6.243373e-001 2.665435e-001 -6.683846e+000 209 202 194
-9.882039e-003 -3.105342e-001 -6.706962e+000 125 108 78
-6.268085e+000 -7.734703e+000 -1.727434e+001 115 112 119
-6.177009e+000 -8.099165e+000 -1.702520e+001 133 131 142
-6.177009e+000 -8.099165e+000 -1.702520e+001 133 131 142
5.771990e-001 8.859791e-001 -6.667465e+000 229 221 218
2.554702e-001 -4.614546e-001 -6.750519e+000 66 33 26
-4.788024e+000 -6.734903e+000 -1.544736e+001 167 169 184
-6.293070e+000 -6.429493e+000 -1.798731e+001 19 17 22
-2.639594e-001 5.685084e-001 -7.665713e+000 213 204 195
2.489017e-001 7.024348e-001 -7.142021e+000 177 170 162
8.301014e-001 7.999012e-001 -6.391773e+000 109 22 20
-1.419328e-001 1.338527e-001 -6.791365e+000 107 93 84
-1.054927e-001 1.033051e-001 -6.716121e+000 145 130 123
-3.640538e-001 -3.579543e-002 -6.609586e+000 87 19 8
-6.033445e-002 3.947712e-002 -6.665285e+000 128 114 109
-4.526063e-001 -1.091062e-001 -6.495170e+000 125 31 14
-7.075781e-001 -1.820271e-001 -6.301514e+000 87 29 14
-4.833881e+000 -6.267500e+000 -1.498683e+001 95 90 100
1.054959e+000 -6.237910e-001 -6.192916e+000 243 85 83
-1.020282e-001 8.733134e-001 -7.385464e+000 183 176 168
-4.664270e-001 5.778649e-001 -7.819187e+000 206 40 46
-1.438977e-001 6.063184e-001 -7.450226e+000 166 157 148
3.803283e-001 2.484081e-001 -6.901832e+000 144 130 119
-1.811516e-001 7.157314e-002 -6.708070e+000 79 33 28
-4.055078e-001 -4.163369e-002 -6.560894e+000 139 61 39
-5.726379e-001 -1.263507e-001 -6.458252e+000 74 17 10
3.592104e-001 -3.082756e-001 -6.732436e+000 126 110 95
6.801230e-001 -7.247921e-002 -6.429977e+000 218 214 205
6.801230e-001 -7.247921e-002 -6.429977e+000 218 214 205
-5.725913e+000 -8.849965e+000 -1.664086e+001 156 161 183
7.914953e-001 8.189522e-001 -6.434000e+000 76 7 10
1.703938e-001 2.193414e-001 -6.785378e+000 199 191 180
8.244438e-001 5.241517e-001 -6.435655e+000 207 201 195
1.037708e+000 3.812547e-001 -6.187274e+000 234 67 77
-2.451681e-001 -1.721910e-001 -6.521199e+000 214 102 65
8.538817e-001 -8.900881e-001 -6.568225e+000 226 78 79
-1.352898e+000 -2.688217e+000 -8.547172e+000 25 19 21
-5.107643e-001 5.566392e-001 -7.902876e+000 217 58 56
-1.237483e-001 3.658675e-001 -7.184223e+000 140 127 118
-4.461792e-002 4.396471e-001 -7.173539e+000 140 130 117
6.544045e-001 6.246269e-001 -6.595265e+000 166 156 146
3.205533e-001 2.842221e-001 -6.813733e+000 119 104 94
-2.358015e-001 6.617166e-002 -6.724393e+000 61 12 11
4.916138e-001 2.177339e-001 -6.705752e+000 120 108 94
-2.644463e-001 -5.226721e-002 -6.626191e+000 78 23 16
1.070352e+000 2.482856e-001 -6.196998e+000 242 73 82
-1.604865e-001 -3.552108e-001 -6.653102e+000 169 148 135
-4.934300e+000 -6.601279e+000 -1.485645e+001 9 8 14
-1.453973e+000 -4.852009e+000 -1.027944e+001 46 40 42
4.595910e-001 1.683518e-001 -6.647217e+000 203 195 185
7.843939e-001 9.778363e-002 -6.501515e+000 194 185 178
-6.194028e+000 -7.394455e+000 -1.790719e+001 84 84 92
1.078893e+000 -3.653585e-001 -6.141300e+000 110 86 48
-4.889976e+000 -6.741000e+000 -1.489114e+001 155 153 167
-4.866227e+000 -6.700285e+000 -1.482954e+001 155 153 167
-6.043073e+000 -8.837578e+000 -1.669369e+001 130 131 149
-1.625685e-001 8.279135e-001 -7.461046e+000 202 193 185
4.837753e-001 7.199569e-001 -6.793478e+000 168 157 153
4.837753e-001 7.199569e-001 -6.793478e+000 168 157 153
6.386196e-001 3.419264e-001 -6.645117e+000 194 185 176
9.489154e-001 -9.737242e-001 -6.482140e+000 231 66 80
9.489154e-001 -9.737242e-001 -6.482140e+000 231 66 80
6.461611e-001 1.020995e+000 -6.584390e+000 209 45 56
8.844198e-001 -2.632223e-001 -6.312875e+000 91 74 54
9.213586e-001 -8.056840e-002 -6.339825e+000 164 151 143
9.612905e-001 -2.660626e-001 -6.180468e+000 182 157 108
-4.496518e+000 -6.926111e+000 -1.445773e+001 161 161 173
-5.515179e+000 -8.128378e+000 -1.637194e+001 10 8 12
-5.498098e+000 -8.094091e+000 -1.632128e+001 10 8 12
1.204526e+000 -1.154082e-001 -6.067793e+000 37 26 27
-5.878806e+000 -8.828119e+000 -1.680989e+001 168 173 195
-1.872291e-001 2.517053e-001 -7.344729e+000 122 28 31
-1.112441e-001 1.444443e-001 -6.597716e+000 142 129 120
-1.320015e-001 -2.552097e-002 -6.614819e+000 109 37 21
-1.063439e-001 -2.235579e-001 -6.658979e+000 240 229 226
4.683140e-001 -9.548958e-002 -6.620867e+000 238 235 228
-2.616834e-001 1.039433e+000 -7.559458e+000 29 19 19
-1.866377e-001 8.358231e-001 -7.508367e+000 203 194 185
2.909757e-001 7.278568e-001 -7.001368e+000 190 181 174
2.955207e-001 7.197814e-001 -7.039392e+000 190 181 174
2.165041e-001 2.507137e-001 -6.720440e+000 157 141 126
-4.172670e-001 -4.318280e-002 -6.530465e+000 144 65 43
-6.557873e-002 7.357381e-002 -6.748651e+000 131 116 109
-7.741544e-001 -2.104700e-001 -6.246297e+000 91 24 17
-4.794686e-001 -1.844403e-001 -6.420280e+000 251 139 101
-1.157486e-001 -3.303270e-001 -6.638304e+000 191 183 174
-1.773091e+000 -3.558425e+000 -1.022979e+001 41 35 37
8.955272e-001 -2.354022e-001 -6.336921e+000 139 122 110
5.170471e-001 -1.082756e+000 -7.096978e+000 241 221 182
3.907181e-002 1.279050e+000 -7.164030e+000 186 39 40
-2.532174e-001 -9.907404e-003 -7.700747e+000 35 27 26
-2.532174e-001 -9.907404e-003 -7.700747e+000 35 27 26
-5.010238e-001 -1.539113e-002 -6.643226e+000 69 16 8
-5.010238e-001 -1.539113e-002 -6.643226e+000 69 16 8
8.776800e-001 5.620048e-001 -6.393113e+000 214 57 66
-5.811956e-001 -1.445933e-001 -6.345374e+000 147 63 39
4.808538e-001 7.587448e-002 -6.642156e+000 131 119 107
5.738009e-003 -1.983267e-001 -6.642981e+000 253 250 243
1.477114e-001 -1.716209e-001 -6.688531e+000 232 225 219
-6.318507e-001 -3.010400e-001 -6.335925e+000 43 35 33
-1.660513e-001 -3.772882e-001 -6.630515e+000 232 225 221
4.340615e-001 -4.101483e-001 -6.689401e+000 196 183 131
-1.684879e+000 -3.671356e+000 -1.026717e+001 53 47 47
8.489451e-002 1.142624e+000 -7.146407e+000 203 42 49
-2.452508e-001 -1.651921e-001 -6.504339e+000 227 116 77
-2.090212e-002 -1.725479e-001 -6.616036e+000 227 224 219
-4.119848e-001 4.446559e-001 -7.653756e+000 213 200 191
8.637949e-001 5.336589e-001 -6.402796e+000 174 33 44
1.111864e-001 -2.404794e-002 -6.680537e+000 159 149 140
1.089867e-001 -1.598594e-002 -6.661277e+000 159 149 140
-1.214161e-001 -3.749464e-001 -6.674223e+000 242 236 232
1.074100e+000 1.941129e-001 -6.187268e+000 195 35 45
1.074100e+000 1.941129e-001 -6.187268e+000 195 35 45
5.194465e-001 -2.935299e-001 -6.700259e+000 244 237 231
1.153021e+000 5.577587e-002 -6.066585e+000 229 83 91
7.656710e-001 -7.992068e-001 -6.545376e+000 219 47 59
3.045920e-001 9.265853e-001 -7.036821e+000 223 217 213
-4.127053e-001 -1.825921e-001 -6.481418e+000 249 132 87
6.696168e-001 -5.550731e-001 -6.538501e+000 229 217 208
-5.309935e-001 -1.229305e-001 -6.487659e+000 94 33 26
4.143507e-001 8.038799e-002 -6.631072e+000 199 190 181
5.331371e-001 5.699169e-002 -6.534675e+000 146 134 120
5.331371e-001 5.699169e-002 -6.534675e+000 146 134 120
5.531924e-001 1.637050e-002 -6.472275e+000 214 207 199
5.941423e-001 -3.933075e-001 -6.527209e+000 178 156 106
1.537618e-001 1.258843e+000 -7.070491e+000 203 48 54
-1.493398e-001 2.630992e-001 -7.354723e+000 184 174 162
-2.326126e-001 6.795730e-002 -7.192533e+000 220 212 205
-8.490601e-002 6.284853e-001 -7.326391e+000 168 162 150
-8.490601e-002 6.284853e-001 -7.326391e+000 168 162 150
5.727184e-001 -7.547287e-001 -6.710644e+000 251 250 245
-5.809459e-001 -1.275190e-001 -6.539232e+000 65 17 12
6.961466e-001 -3.336712e-001 -6.466781e+000 100 85 64
7.984527e-001 -8.946889e-001 -6.516345e+000 50 36 36
-3.584272e-001 2.466316e-001 -7.477455e+000 38 27 27
-2.538327e-001 -7.946723e-002 -6.578957e+000 66 11 8
3.765531e-001 -1.217065e-001 -6.688505e+000 245 242 234
3.771800e-001 -1.207451e-001 -6.686091e+000 245 242 234
2.319830e-002 -6.473802e-001 -6.817555e+000 35 30 27
-1.921167e+000 -3.306535e+000 -1.044897e+001 38 32 34
7.354392e-001 -1.177689e-001 -6.376280e+000 228 220 210
-4.380586e+000 -6.675239e+000 -1.500920e+001 30 28 33
-4.465987e+000 -6.722344e+000 -1.492053e+001 165 161 175
-6.133691e+000 -8.444564e+000 -1.676801e+001 9 7 10
1.133990e-002 2.417082e-001 -6.935759e+000 145 132 123
-4.168773e-001 -6.558383e-002 -6.529734e+000 121 37 16
-4.045148e-001 -1.023357e-001 -6.482654e+000 129 34 14
8.784057e-001 -9.599084e-001 -6.582339e+000 48 30 30
4.316321e-001 1.120326e+000 -6.845122e+000 214 50 57
6.335344e-001 6.228226e-001 -6.637753e+000 204 194 185
-5.881471e+000 -9.047136e+000 -1.666007e+001 12 10 16
1.434595e-001 1.135703e+000 -7.059753e+000 232 192 168
2.416014e-001 6.755460e-001 -7.059362e+000 181 174 164
3.720713e-001 1.113850e+000 -6.870557e+000 203 32 40
4.662920e-003 5.263500e-001 -7.138629e+000 208 197 191
4.662920e-003 5.263500e-001 -7.138629e+000 208 197 191
1.354368e-001 5.851927e-001 -7.008347e+000 176 167 154
5.990141e-001 6.161353e-001 -6.687756e+000 187 181 170
-2.491788e-002 2.446721e-001 -7.024066e+000 145 135 125
2.443004e-001 2.844135e-001 -6.818979e+000 122 108 97
-4.185891e-001 -4.687808e-002 -6.538123e+000 144 65 43
-1.900177e-001 -2.839910e-002 -6.648491e+000 90 21 15
-6.295815e+000 -7.911159e+000 -1.770852e+001 79 79 80
-4.880729e+000 -6.323633e+000 -1.495966e+001 101 99 108
-4.755803e+000 -7.065527e+000 -1.501933e+001 156 154 168
-4.017050e+000 -7.469975e+000 -1.475968e+001 84 87 96
-1.561103e+000 -4.335877e+000 -1.020091e+001 50 44 48
-1.443186e-001 8.733286e-001 -7.470558e+000 161 147 139
-1.473704e-002 2.711925e-001 -7.021876e+000 130 118 106
3.073761e-001 2.926900e-001 -6.890842e+000 127 115 102
-6.156425e+000 -7.712891e+000 -1.727061e+001 80 79 84
-2.155313e+000 -3.200024e+000 -1.062722e+001 55 50 54
-5.514226e+000 -8.785734e+000 -1.681271e+001 120 121 139
-1.508455e+000 -4.408270e+000 -1.012428e+001 53 48 52
6.296511e-001 5.876263e-001 -6.674974e+000 153 143 133
-2.259536e-001 9.159334e-003 -6.647620e+000 70 20 17
8.961988e-001 4.014308e-001 -6.285348e+000 252 81 93
8.406070e-001 7.594959e-001 -6.362851e+000 21 1 4
-5.502345e-001 6.438967e-001 -7.955414e+000 38 24 20
3.092250e-001 4.087038e-002 -6.658262e+000 244 240 231
6.251750e-001 1.213197e-001 -6.585264e+000 189 175 165
-4.737463e+000 -6.736546e+000 -1.512309e+001 142 138 153
-4.149038e+000 -7.764047e+000 -1.477928e+001 11 7 14
-5.740838e+000 -7.521779e+000 -1.680603e+001 10 10 12
6.631859e-001 1.021729e+000 -6.542519e+000 186 44 53
-6.160418e+000 -7.569285e+000 -1.722522e+001 80 77 84
-9.291365e-002 1.475560e-001 -6.785100e+000 108 94 83
-8.114577e-002 8.529684e-002 -6.698321e+000 162 147 140
-8.114577e-002 8.529684e-002 -6.698321e+000 162 147 140
-4.333067e+000 -6.434738e+000 -1.502212e+001 47 45 48
3.416262e-001 2.411128e-001 -6.726306e+000 143 130 114
-4.226033e-001 -1.135501e-001 -6.498290e+000 126 37 16
-4.515814e-001 -2.104077e-001 -6.453811e+000 144 27 9
-5.524042e+000 -9.035764e+000 -1.664408e+001 116 124 147
5.798446e-001 -3.700505e-001 -6.597433e+000 147 133 108
1.041365e+000 -2.392894e-001 -6.216409e+000 141 114 76
-6.088022e+000 -7.442620e+000 -1.773116e+001 66 66 74
-4.698370e+000 -6.223614e+000 -1.515041e+001 136 136 146
-2.112588e+000 -2.636968e+000 -1.051717e+001 40 36 37
7.215868e-001 5.092485e-001 -6.489979e+000 235 232 223
7.332448e-001 5.266259e-001 -6.469466e+000 236 231 227
-3.664690e-001 -1.006466e-001 -6.538538e+000 90 20 11
-6.024825e+000 -8.926871e+000 -1.665619e+001 3 4 8
4.991905e-001 -1.233731e-002 -6.535196e+000 199 192 174
-1.719973e+000 -3.775313e+000 -1.032153e+001 28 22 24
5.024469e-001 -1.107888e+000 -7.111876e+000 42 29 20
-1.374746e+000 -5.429222e+000 -9.979511e+000 22 15 17
-6.301667e-002 1.164795e+000 -7.327782e+000 142 21 30
3.723835e-002 1.306799e+000 -7.112661e+000 33 14 15
-1.931137e-001 5.077041e-001 -7.509258e+000 192 184 173
5.635666e-001 1.134213e+000 -6.670064e+000 185 40 45
1.426220e-001 3.874143e-001 -6.959390e+000 136 124 112
-5.969090e+000 -7.278223e+000 -1.774054e+001 66 66 78
-2.140866e+000 -2.492314e+000 -1.048271e+001 36 30 30
-4.915933e+000 -6.307756e+000 -1.517504e+001 130 130 139
-4.824177e+000 -6.482882e+000 -1.477434e+001 122 120 130
-4.698487e+000 -6.555674e+000 -1.497918e+001 137 137 149
-3.209138e-001 -1.767303e-003 -6.629900e+000 56 15 9
-7.409922e-001 -1.925387e-001 -6.290129e+000 136 109 66
1.676763e-001 5.562872e-002 -6.698833e+000 170 160 148
-6.022094e+000 -8.612767e+000 -1.665816e+001 105 103 115
-1.536530e-001 -2.240157e-001 -6.686726e+000 233 209 149
-1.914650e+000 -3.306734e+000 -1.043614e+001 40 34 38
-1.870493e+000 -3.426740e+000 -1.040225e+001 44 40 41
-3.946139e-001 -3.718686e-001 -6.465960e+000 164 143 123
-2.535506e-001 -3.939401e-001 -6.544295e+000 234 229 225
-2.191078e-001 -4.091414e-001 -6.584370e+000 251 251 246
6.430378e-001 -6.789852e-001 -6.646230e+000 174 161 141
8.766468e-001 -9.293447e-001 -6.624073e+000 235 82 88
-1.319734e+000 -5.352314e+000 -9.934486e+000 111 101 102
-1.319734e+000 -5.352314e+000 -9.934486e+000 111 101 102
3.795210e-001 1.282293e+000 -6.794434e+000 27 10 13
-2.293720e-001 1.039069e-001 -6.750659e+000 78 42 41
-6.142667e+000 -8.163123e+000 -1.672156e+001 11 9 17
-4.920555e+000 -6.549789e+000 -1.505573e+001 118 116 128
-1.614463e-001 -1.699129e-002 -6.682387e+000 112 43 32
-4.601557e+000 -6.820899e+000 -1.476427e+001 109 109 117
-1.956437e+000 -3.166694e+000 -1.044790e+001 49 44 46
-2.442810e-001 -1.696786e-001 -6.511401e+000 228 115 76
-2.114232e-002 -4.302548e-001 -6.756407e+000 40 33 25
1.253716e-001 -2.296531e-001 -6.680087e+000 199 189 179
1.113065e+000 3.284724e-001 -6.149140e+000 32 10 16
1.175808e+000 1.701086e-001 -6.095204e+000 32 18 19
-1.425774e+000 -4.735876e+000 -1.010699e+001 52 46 48
-1.372526e+000 -4.800786e+000 -9.998871e+000 45 40 44
-1.328240e+000 -4.802881e+000 -9.886079e+000 49 43 43
7.396052e-001 -8.817170e-001 -6.604979e+000 234 96 96
-3.480256e-001 7.057558e-001 -7.674239e+000 194 172 166
-1.319020e-001 3.661902e-001 -7.175178e+000 126 114 102
-1.319020e-001 3.661902e-001 -7.175178e+000 126 114 102
4.972390e-001 5.733870e-001 -6.779368e+000 184 177 167
4.972390e-001 5.733870e-001 -6.779368e+000 184 177 167
-4.684506e-001 -1.600037e-001 -6.486881e+000 180 74 42
4.402336e-001 -2.575151e-001 -6.729863e+000 216 210 197
4.414756e-001 -4.775193e-001 -6.716627e+000 251 251 241
-1.308731e+000 -5.309906e+000 -1.000428e+001 19 9 10
-1.784076e-001 3.311428e-002 -7.545386e+000 89 8 9
-4.923574e-001 -2.325171e-001 -6.491551e+000 212 107 66
1.194559e+000 3.850492e-004 -6.091550e+000 32 11 18
-1.386976e+000 -5.186376e+000 -9.901744e+000 62 51 49
5.017471e-001 1.161278e+000 -6.725064e+000 211 51 56
-1.329775e-001 5.083699e-001 -7.462616e+000 203 195 184
-1.930310e-001 1.340798e-001 -7.631495e+000 132 17 24
6.519017e-001 -7.378793e-001 -6.604014e+000 45 34 32
1.674927e-001 3.243614e-001 -6.876294e+000 132 117 106
-3.984478e+000 -7.641265e+000 -1.504770e+001 15 13 18
9.932362e-001 3.163897e-001 -6.258855e+000 226 61 70
2.425944e-001 -4.614444e-001 -6.749905e+000 71 45 31
2.453192e-001 -4.649474e-001 -6.757749e+000 71 45 31
9.703487e-001 -2.673850e-001 -6.203900e+000 199 176 122
-1.573792e-001 1.088064e+000 -7.415091e+000 201 50 57
2.606308e-001 6.193088e-001 -6.980222e+000 140 128 116
5.367740e-001 -3.290285e-001 -6.657321e+000 99 84 64
7.752196e-001 -2.156392e-001 -6.403044e+000 255 252 247
-2.622334e-001 -1.326340e-001 -6.851833e+000 120 52 33
1.977719e-001 1.042506e+000 -7.043044e+000 219 212 206
9.100951e-001 1.879968e-001 -6.282016e+000 225 214 208
1.326970e-001 1.142694e+000 -7.084559e+000 219 54 62
2.678555e-001 7.550330e-001 -6.950308e+000 200 193 185
1.345184e-001 6.190149e-001 -7.055326e+000 161 147 136
-7.459604e-002 2.028908e-001 -6.947101e+000 140 127 113
5.934792e-001 5.487965e-001 -6.644450e+000 140 128 115
-9.748450e-002 6.308527e-002 -6.749653e+000 125 111 102
-6.503399e-002 4.157380e-002 -6.694709e+000 135 120 112
-8.330546e-001 -2.516096e-001 -6.413826e+000 141 75 51
-2.529663e-001 -7.658468e-002 -6.619729e+000 93 35 28
-7.429719e-001 -2.010034e-001 -6.277763e+000 77 23 21
-6.784898e-001 -2.177463e-001 -6.313246e+000 114 28 9
-2.414033e-001 -3.787481e-001 -6.565873e+000 183 174 167
6.045935e-002 -3.705630e-001 -6.697911e+000 196 180 165
5.703447e-001 -2.757475e-001 -6.581615e+000 161 145 128
-6.888341e-002 4.552092e-001 -7.252196e+000 164 153 143
1.193078e-001 6.569645e-001 -7.074912e+000 222 212 203
2.989881e-001 7.237734e-001 -6.963363e+000 190 181 172
-6.800520e-001 -1.580597e-001 -6.877445e+000 141 63 46
3.524691e-001 3.481749e-001 -6.839167e+000 162 150 138
8.212468e-001 5.370676e-001 -6.412464e+000 209 201 191
-1.707381e+000 -3.839414e+000 -1.033862e+001 29 25 26
-6.601353e-001 -3.064536e-001 -6.336773e+000 224 114 84
9.551764e-001 -6.552500e-001 -6.294976e+000 249 96 104
-1.622564e-001 9.722100e-001 -7.520559e+000 171 28 35
-2.056152e-001 -4.769726e-002 -6.649212e+000 84 20 11
-7.707228e-001 -3.041064e-001 -6.358556e+000 255 163 129
-2.294527e-001 -1.208433e-001 -6.533039e+000 116 44 32
-2.294527e-001 -1.208433e-001 -6.533039e+000 116 44 32
-8.476734e-002 -2.560587e-001 -6.677632e+000 240 231 226
-7.831901e-002 -1.682600e-001 -6.626273e+000 227 222 216
9.214312e-003 -1.475007e-001 -6.617202e+000 253 248 242
2.698707e-001 -6.258919e-002 -6.642098e+000 221 214 206
9.280687e-001 6.212846e-001 -6.297514e+000 203 58 66
-3.282038e-001 -3.652342e-001 -6.462485e+000 198 194 187
2.303903e-002 -4.665911e-001 -6.799691e+000 36 27 22
4.650636e-001 -6.322356e-001 -6.765467e+000 252 252 240
4.311439e-002 1.271083e+000 -7.184584e+000 190 39 46
6.271614e-001 5.621399e-001 -6.622804e+000 171 159 145
7.605659e-001 6.011921e-001 -6.419298e+000 248 249 240
-2.998983e-001 -3.572514e-001 -6.479380e+000 222 213 207
8.571616e-001 4.517838e-001 -6.354573e+000 184 169 156
5.691675e-001 8.592132e-002 -6.497480e+000 191 181 168
5.028109e-001 -9.232752e-002 -6.520798e+000 217 210 200
6.545784e-001 -7.029854e-001 -6.594812e+000 56 42 40
6.545784e-001 -7.029854e-001 -6.594812e+000 56 42 40
-4.176898e-001 -2.441786e-003 -6.848039e+000 44 12 13
7.911197e-001 8.164282e-001 -6.440024e+000 88 7 15
-4.442278e-001 -3.243714e-001 -6.469902e+000 247 188 154
7.282466e-003 -1.023203e-001 -6.604958e+000 239 232 229
-3.408982e-002 -2.891081e-001 -6.681986e+000 66 47 26
5.514441e-001 -9.816183e-002 -6.501943e+000 230 226 217
-3.899553e-001 8.235973e-001 -7.770431e+000 195 39 46
4.977770e-001 3.123238e-001 -6.801468e+000 141 129 119
8.504417e-001 7.159130e-001 -6.345653e+000 237 81 90
-7.307242e-001 -1.568549e-001 -6.287329e+000 74 22 10
-1.120741e-001 -6.977454e-002 -6.621282e+000 207 188 180
8.059515e-001 5.654218e-001 -6.409996e+000 253 253 251
-4.718478e-001 -3.182505e-001 -6.513530e+000 247 184 142
-3.149539e-001 -3.618012e-001 -6.483835e+000 190 178 171
-2.686520e-001 -2.977952e-001 -6.504503e+000 167 144 133
4.799020e-001 -3.609944e-001 -6.606617e+000 254 252 203
1.075044e+000 2.233501e-001 -6.172265e+000 207 45 57
-1.164134e-001 4.034305e-001 -7.315415e+000 133 121 109
3.769751e-001 4.723869e-001 -6.921279e+000 187 177 168
4.965301e-001 3.150598e-001 -6.799597e+000 141 130 119
7.685240e-001 7.461023e-001 -6.388453e+000 243 82 92
9.614575e-001 -4.937875e-001 -6.312127e+000 244 230 198
1.402351e-001 1.312710e+000 -7.126077e+000 14 3 9
-4.180085e-001 5.643087e-001 -7.787077e+000 188 177 168
-3.365671e-001 2.806475e-001 -7.764832e+000 42 31 29
2.185042e-001 5.266129e-001 -6.967680e+000 231 222 216
5.833188e-001 -7.495429e-001 -6.694091e+000 254 255 247
1.130589e+000 1.818150e-001 -6.126447e+000 221 60 68
1.076443e+000 -1.830497e-001 -6.201226e+000 77 11 15
-8.863916e-002 6.691526e-001 -7.229750e+000 169 160 145
-8.865670e-002 6.701392e-001 -7.228024e+000 169 160 145
3.993840e-001 -3.485291e-001 -6.724538e+000 80 62 41
8.919431e-001 3.425269e-001 -6.290005e+000 255 251 246
1.002060e+000 -5.823498e-001 -6.297593e+000 172 35 40
6.065942e-001 5.535305e-001 -6.585476e+000 136 122 111
3.859129e-002 -2.386062e-002 -6.698899e+000 136 119 111
-2.605452e-001 -3.468803e-001 -6.549531e+000 169 151 137
3.996339e-001 -4.956641e-001 -6.650172e+000 254 255 246
1.022287e+000 -3.656766e-002 -6.244752e+000 233 226 218
-5.894415e-001 -1.392511e-001 -6.566242e+000 63 22 19
7.491342e-001 5.324335e-001 -6.424205e+000 255 255 251
1.339711e-002 4.734394e-002 -7.172202e+000 118 104 93
-3.602091e-001 1.820348e-001 -7.642480e+000 39 30 28
2.640409e-001 -2.338182e-001 -6.736072e+000 243 234 225
-7.424413e+000 -6.471577e+000 -2.214666e+001 135 124 120
-4.592031e+000 -6.798808e+000 -1.474891e+001 111 109 122
-4.844560e+000 -6.669144e+000 -1.478843e+001 165 163 172
-3.585214e-001 -1.679448e-002 -6.607604e+000 117 51 38
-5.902914e-002 3.445498e-002 -6.676399e+000 131 116 109
-1.940407e+000 -3.236801e+000 -1.044713e+001 41 35 39
6.919860e-001 2.437908e-001 -6.579916e+000 184 176 165
1.087245e+000 1.650965e-001 -6.178506e+000 227 69 77
1.087100e+000 1.632888e-001 -6.179831e+000 227 69 77
-5.342259e+000 -1.264688e+001 -1.758275e+001 43 59 116
6.250047e-001 5.933402e-001 -6.658956e+000 157 147 136
4.007690e-001 2.038639e-001 -6.825419e+000 131 115 100
1.143701e+000 2.137309e-001 -6.101189e+000 207 52 57
2.803980e-001 9.862801e-001 -7.015123e+000 203 196 188
2.795889e-001 9.870356e-001 -7.012404e+000 203 196 188
-1.599957e-001 1.502477e-001 -6.888848e+000 129 115 104
-1.233989e-001 1.118428e-001 -6.686912e+000 126 112 103
-1.233989e-001 1.118428e-001 -6.686912e+000 126 112 103
2.277583e-001 1.791929e-001 -6.709065e+000 197 187 175
6.976769e-002 6.330169e-001 -7.127731e+000 210 201 191
3.512130e-001 1.121374e+000 -6.934696e+000 209 42 51
-2.077686e-001 3.757669e-002 -6.721513e+000 108 90 76
-2.077686e-001 3.757669e-002 -6.721513e+000 108 90 76
9.242274e-001 6.228538e-001 -6.293803e+000 203 58 65
-1.638467e-001 8.334939e-001 -7.508499e+000 209 200 191
-1.266860e-001 9.335066e-001 -7.401681e+000 187 175 163
-1.031471e-001 4.993110e-001 -7.239263e+000 157 147 137
-2.142661e-001 -1.588046e-001 -7.427221e+000 202 195 182
-1.558944e-001 1.824565e-001 -7.014558e+000 120 106 95
8.218106e-001 8.175444e-001 -6.394936e+000 122 32 36
-5.980913e-001 -2.544780e-001 -6.328539e+000 49 19 16
8.759694e-001 8.373414e-002 -6.603940e+000 239 233 221
6.212797e-001 -5.661750e-001 -6.632723e+000 246 233 178
-5.547991e-001 5.806833e-001 -7.952451e+000 185 42 46
8.144243e-002 1.309895e+000 -7.138074e+000 81 18 27
-7.807353e-002 6.468650e-001 -7.238968e+000 168 159 145
-2.084697e+000 -2.766527e+000 -1.052989e+001 45 39 41
-1.453769e-001 4.570092e-001 -7.392057e+000 173 165 152
-2.382490e-001 5.024779e-003 -7.634209e+000 107 58 49
-1.414037e-001 3.613377e-001 -7.257613e+000 156 146 134
3.029952e-001 6.833173e-001 -7.071350e+000 219 215 206
5.797959e-001 1.116791e+000 -6.632739e+000 200 52 61
-2.423872e-001 -1.776718e-001 -7.489921e+000 176 169 155
-1.679043e-001 1.753851e-001 -7.041346e+000 152 138 127
-1.741899e+000 -3.676472e+000 -1.020966e+001 62 56 58
-1.734798e+000 -3.756480e+000 -1.025125e+001 64 58 60
-1.720140e-001 1.281323e-001 -6.813859e+000 101 84 76
-5.253742e-001 -4.728122e-002 -6.533461e+000 104 43 33
-8.474118e-001 -2.601012e-001 -6.409474e+000 48 16 11
-9.389667e-002 9.077584e-002 -6.664353e+000 139 127 116
4.174957e-001 2.054719e-001 -6.845777e+000 150 137 120
6.044328e-001 5.587298e-001 -6.600147e+000 126 114 99
1.116849e-002 -1.510203e-001 -6.621470e+000 252 247 243
-1.527340e+000 -4.521843e+000 -9.898821e+000 45 41 38
4.657154e-001 1.165283e-001 -6.628362e+000 180 168 154
-1.451775e+000 -4.848798e+000 -9.938610e+000 62 54 52
8.795870e-001 5.455390e-001 -6.375020e+000 166 31 38
1.114938e+000 -4.485234e-001 -6.124736e+000 227 95 99
-2.172127e-001 5.141334e-001 -7.517442e+000 224 217 207
1.805708e-001 1.002475e+000 -7.064192e+000 212 205 197
1.805708e-001 1.002475e+000 -7.064192e+000 212 205 197
-2.095265e+000 -3.026049e+000 -1.035901e+001 60 54 54
-1.883482e-001 2.427165e-001 -7.469463e+000 207 189 185
-1.725340e+000 -3.619990e+000 -1.024128e+001 25 19 21
2.887227e-002 2.654720e-001 -6.932779e+000 121 112 98
-1.681775e+000 -3.706001e+000 -1.027927e+001 53 49 50
-1.675000e+000 -3.639871e+000 -1.020321e+001 53 49 50
-1.225838e-001 1.226797e-001 -6.833789e+000 154 138 127
5.457712e-001 5.438577e-001 -6.707699e+000 160 150 138
7.979060e-001 8.468635e-001 -6.431215e+000 159 45 49
-3.156059e-001 -1.375784e-001 -6.492082e+000 122 30 17
2.467627e-001 5.346070e-002 -6.664830e+000 194 184 175
8.929424e-001 5.699689e-001 -6.363072e+000 217 71 78
-1.227896e+000 -5.305190e+000 -9.950587e+000 73 68 71
1.118041e+000 -4.094016e-001 -6.115903e+000 153 33 37
-2.496999e-001 1.946301e-001 -7.676366e+000 215 73 82
-1.379116e-001 2.781486e-001 -7.169483e+000 174 161 145
9.407632e-003 4.489649e-001 -7.076782e+000 148 136 124
-1.812766e-001 -1.201787e-001 -7.469806e+000 174 166 153
-3.877747e-001 2.828596e-002 -6.856949e+000 92 38 33
1.123130e-001 -2.531372e-002 -6.689512e+000 164 154 144
1.123130e-001 -2.531372e-002 -6.689512e+000 164 154 144
5.719523e-001 4.460447e-002 -6.509270e+000 198 188 179
6.012690e-001 4.956477e-002 -6.509442e+000 173 161 149
4.085868e-001 -4.288660e-001 -6.716654e+000 119 102 62
-1.095933e-001 4.670501e-001 -7.320938e+000 148 138 126
-2.438872e-001 5.750358e-002 -6.727491e+000 68 23 18
-6.857867e-001 -1.883586e-001 -6.315864e+000 163 82 52
2.704725e-001 8.234363e-002 -6.670736e+000 171 159 147
6.473541e-001 2.315424e-002 -6.504997e+000 197 187 177
4.970951e-001 -1.060548e+000 -7.087823e+000 245 230 171
4.972093e-001 -4.873663e-001 -6.708436e+000 78 60 27
8.737527e-001 2.400927e-001 -6.308370e+000 254 254 246
-1.117126e-001 3.086350e-001 -7.093108e+000 131 117 101
6.182438e-001 1.844908e-001 -6.697862e+000 158 150 139
5.560352e-001 -4.196993e-001 -6.625211e+000 114 96 56
1.008646e+000 2.780423e-001 -6.277725e+000 232 71 79
4.095365e-001 1.048392e+000 -6.811483e+000 240 236 232
6.156100e-001 9.274121e-001 -6.627689e+000 217 57 64
1.054181e+000 -7.015562e-001 -6.271683e+000 244 88 99
-2.295373e-002 1.263456e+000 -7.261909e+000 24 17 18
2.190573e-001 3.074621e-001 -6.832854e+000 136 124 110
6.367304e-001 -5.037178e-001 -6.602166e+000 232 215 159
6.310896e-001 -4.929475e-001 -6.591183e+000 232 215 159
-9.210367e-002 1.080016e+000 -7.265993e+000 144 26 31
1.279238e-002 7.389649e-001 -7.146729e+000 222 218 209
1.279238e-002 7.389649e-001 -7.146729e+000 222 218 209
3.198653e-001 8.538759e-001 -6.890793e+000 155 146 131
6.897274e-001 -1.496819e-001 -6.455143e+000 251 248 243
1.028812e+000 -4.227309e-001 -6.280474e+000 216 197 138
6.643317e-002 1.295539e+000 -7.175701e+000 81 15 23
-1.283005e-001 9.825450e-001 -7.246655e+000 178 159 153
-8.784328e-002 8.562912e-001 -7.213372e+000 198 191 181
-1.511329e-001 3.881908e-001 -7.375664e+000 212 201 189
-9.366876e-002 4.987012e-001 -7.312827e+000 165 153 138
-2.384475e-001 1.238349e-001 -7.368182e+000 159 85 79
-7.127960e-001 -2.397162e-001 -6.806315e+000 38 28 28
-1.154265e-001 1.281107e-001 -6.896832e+000 107 90 80
-4.382591e-001 -1.986743e-001 -6.492670e+000 236 131 101
-4.523650e-001 -2.057855e-001 -6.435190e+000 126 21 1
-3.812298e-001 -5.714996e-002 -6.442042e+000 120 29 12
9.270438e-002 3.772374e-003 -6.703331e+000 190 177 168
1.435641e-001 -5.370571e-002 -6.736889e+000 170 157 147
-4.238871e-001 -3.538235e-001 -6.471375e+000 95 90 90
-3.914076e-001 -3.556540e-001 -6.455450e+000 212 200 178
-2.450720e-001 -3.441997e-001 -6.544363e+000 175 150 146
-5.294480e-002 -2.658719e-001 -6.645948e+000 163 146 127
1.622471e-001 -5.069332e-001 -6.848001e+000 155 138 120
4.298301e-001 -4.878183e-002 -6.611085e+000 254 250 241
6.213753e-001 1.067417e-001 -6.572668e+000 192 180 166
3.385855e-001 -3.911362e-001 -6.571086e+000 225 219 207
3.385855e-001 -3.911362e-001 -6.571086e+000 225 219 207
5.653130e-001 -8.522671e-002 -6.522851e+000 222 217 211
-6.706065e-002 8.002407e-001 -7.317248e+000 217 210 200
-7.873551e-002 7.316834e-001 -7.150813e+000 164 153 141
-4.944482e-002 4.454712e-001 -7.253920e+000 168 156 147
-1.676880e-001 -8.002490e-003 -7.520891e+000 155 125 114
-1.380238e-001 3.702050e-001 -7.217949e+000 163 151 141
-2.548983e-001 1.399296e-001 -6.743748e+000 121 63 51
-2.296084e-001 1.029016e-001 -6.768769e+000 83 42 40
-2.388836e-001 5.589432e-002 -6.713019e+000 67 27 25
7.443470e-002 2.937876e-001 -6.784958e+000 161 149 136
-5.904373e-002 6.692923e-002 -6.735757e+000 133 120 110
-2.364716e-002 8.746589e-002 -6.720874e+000 137 124 114
-8.925866e-001 -2.028112e-001 -6.294520e+000 146 128 79
-8.925866e-001 -2.028112e-001 -6.294520e+000 146 128 79
-2.207673e-001 -1.258703e-001 -6.561057e+000 114 54 44
-1.087368e-001 -2.534740e-001 -6.684084e+000 87 68 37
7.383137e-002 1.153327e-002 -6.700242e+000 140 123 116
-6.588686e-001 -3.021256e-001 -6.337488e+000 213 115 70
4.594286e-001 1.308306e-001 -6.649667e+000 166 150 136
-2.212249e-001 -3.800182e-001 -6.556407e+000 252 250 246
-2.489227e-001 -3.779919e-001 -6.527595e+000 229 220 215
4.351793e-001 -2.111855e-001 -6.728487e+000 254 255 247
4.786397e-001 -7.232631e-002 -6.601719e+000 235 231 222
6.005095e-001 9.613591e-002 -6.543689e+000 185 176 161
5.633449e-001 -4.522604e-001 -6.784256e+000 155 139 123
4.361873e-001 -4.813018e-001 -6.691943e+000 229 225 211
4.361873e-001 -4.813018e-001 -6.691943e+000 229 225 211
6.064166e-001 -4.373473e-001 -6.672334e+000 179 172 146
5.511392e-001 -2.299171e-001 -6.609531e+000 177 171 159
1.055579e+000 4.385576e-001 -6.217052e+000 214 70 78
1.097821e+000 4.183694e-001 -6.199055e+000 75 69 66
1.068380e+000 3.904930e-001 -6.166574e+000 239 89 101
8.608549e-001 -1.410067e-001 -5.968145e+000 205 186 130
1.186876e+000 8.271132e-002 -6.078786e+000 226 85 101
1.196891e+000 1.575962e-001 -6.036572e+000 80 71 72
1.196891e+000 1.575962e-001 -6.036572e+000 80 71 72
1.078576e+000 -3.786916e-001 -6.141668e+000 169 147 98
2.867348e-002 1.104661e+000 -7.165868e+000 210 201 197
-1.590367e-001 6.283244e-001 -7.398536e+000 168 157 144
3.560743e-001 1.209798e+000 -6.897462e+000 222 62 70
3.560743e-001 1.209798e+000 -6.897462e+000 222 62 70
-8.528739e-001 -2.367263e-001 -6.422891e+000 33 9 12
-1.746270e-001 9.348832e-002 -6.670272e+000 131 119 108
3.213510e-001 3.250361e-001 -6.769761e+000 149 135 124
3.213510e-001 3.250361e-001 -6.769761e+000 149 135 124
-8.577436e-001 -1.500892e-001 -6.231412e+000 117 93 57
-8.309327e-001 -1.867628e-001 -6.283728e+000 55 27 11
6.078006e-001 6.518969e-001 -6.596565e+000 209 204 190
-7.409140e-001 -1.825191e-001 -6.277198e+000 187 159 114
-2.401942e-001 -1.668749e-001 -6.521304e+000 238 123 103
-2.401942e-001 -1.668749e-001 -6.521304e+000 238 123 103
-8.328026e-002 -2.593227e-001 -6.680660e+000 243 236 228
-7.449325e-002 -1.751515e-001 -6.636122e+000 226 221 216
-2.418340e-002 -3.989545e-001 -6.741346e+000 248 241 231
-3.422022e-002 -2.685481e-001 -6.665711e+000 71 53 29
8.166136e-001 7.226526e-001 -6.263527e+000 195 43 55
9.653692e-001 5.252377e-001 -6.445736e+000 181 35 45
9.645806e-001 5.293496e-001 -6.231714e+000 17 7 18
