ply
format ascii 1.0
element face 0
property list uchar int vertex_indices
element vertex 871
property float x
property float y
property float z
property uchar diffuse_red
property uchar diffuse_green
property uchar diffuse_blue
end_header
-2.900118e-001 -2.444604e-001 -6.403674e+000 121 73 56
1.649889e-001 -4.226750e-001 -6.721590e+000 47 30 18
5.811049e-001 -4.417131e-001 -6.771320e+000 102 84 47
5.367144e-001 -5.437182e-001 -6.848113e+000 85 66 41
9.975294e-001 -6.001194e-001 -6.371232e+000 180 158 145
1.004146e+000 -1.059041e+000 -6.480389e+000 224 60 67
1.004146e+000 -1.059041e+000 -6.480389e+000 224 60 67
9.684166e-001 2.263395e-001 -6.243240e+000 158 143 136
6.575311e-001 -2.748330e-002 -6.419289e+000 191 184 175
-6.745287e-001 -3.591739e-001 -6.323541e+000 255 211 172
7.590733e-001 9.380998e-001 -6.417029e+000 194 34 44
1.005212e+000 5.754743e-001 -6.143501e+000 19 0 9
-2.027446e-001 7.327525e-001 -7.505419e+000 223 216 209
2.768370e-001 6.383092e-001 -6.903059e+000 149 139 129
4.854049e-001 5.348721e-001 -6.699296e+000 222 213 208
-3.805213e-001 -7.249999e-002 -6.360215e+000 87 23 15
1.204019e+000 -3.816253e-002 -6.049189e+000 248 77 87
7.367809e-001 -1.044844e-001 -6.403018e+000 241 241 233
9.304621e-001 -2.895834e-001 -6.296183e+000 111 91 67
1.036604e+000 -3.151814e-001 -6.281504e+000 165 141 95
9.206980e-001 -3.677506e-001 -6.325320e+000 188 166 113
6.408156e-001 -5.764720e-001 -6.586705e+000 205 195 184
6.346637e-001 6.895043e-001 -6.516217e+000 209 202 194
-2.135473e-001 -2.026417e-001 -6.729043e+000 93 66 37
5.176786e-001 -2.803299e-001 -6.697422e+000 247 245 241
2.469397e-001 -4.931910e-001 -6.761383e+000 61 39 25
1.115436e+000 -7.074239e-001 -6.295595e+000 255 78 92
3.688683e-001 7.542202e-001 -6.852023e+000 228 221 214
4.356199e-001 -1.140911e+000 -7.294689e+000 144 123 80
-5.769890e-001 -5.027380e-001 -6.686260e+000 45 33 33
1.230291e+000 -5.905388e-001 -6.158225e+000 24 8 11
-7.696133e-002 1.242367e+000 -7.344702e+000 148 23 29
-5.239099e-002 8.306759e-001 -7.227030e+000 212 206 197
8.386710e-001 8.589544e-001 -6.361096e+000 98 12 21
1.252312e-001 6.579569e-001 -7.106354e+000 155 145 135
9.244769e-001 7.356484e-001 -6.314370e+000 188 53 56
-1.041004e-001 4.932488e-001 -7.240499e+000 151 141 131
3.847657e-001 2.691780e-001 -6.786647e+000 143 129 118
-1.064579e-001 6.654822e-002 -6.677530e+000 135 120 113
-1.274676e-002 8.980549e-002 -6.765634e+000 122 110 103
3.570353e-003 5.583905e-002 -6.732415e+000 153 143 133
2.139143e-001 6.504797e-002 -6.519109e+000 156 146 137
-6.153039e-001 -1.826013e-001 -6.490674e+000 156 71 47
-6.153039e-001 -1.826013e-001 -6.490674e+000 156 71 47
-5.183384e-001 -1.392626e-001 -6.473777e+000 176 90 62
-5.258594e-001 -1.442663e-001 -6.519708e+000 176 90 62
-2.677087e-001 -1.583115e-001 -6.504648e+000 145 58 35
-3.004560e-001 -1.831141e-001 -6.441166e+000 196 88 56
5.338040e-001 -1.850160e-002 -6.495615e+000 197 189 181
-5.929034e-001 -2.768156e-001 -6.547016e+000 187 84 56
-5.451644e-001 -2.660391e-001 -6.548112e+000 191 72 37
9.218449e-002 -2.522472e-001 -6.707230e+000 242 236 231
-5.513727e-002 -3.238389e-001 -6.765928e+000 44 33 15
-4.356451e-001 -3.831591e-001 -6.431533e+000 201 179 160
1.881947e-001 -3.746873e-001 -6.755053e+000 141 120 74
5.032611e-001 -6.400753e-001 -6.747814e+000 241 238 228
7.163540e-001 -8.239383e-001 -6.725482e+000 229 79 86
1.114851e+000 -6.531605e-001 -6.144295e+000 180 21 31
1.107514e+000 -6.756450e-001 -6.126122e+000 23 4 1
-3.483151e-001 8.027044e-001 -7.675623e+000 195 186 185
8.831935e-001 8.261298e-001 -6.351123e+000 18 6 10
1.045122e-001 6.987237e-001 -7.094832e+000 212 206 200
1.031818e-001 6.975792e-001 -7.073439e+000 212 206 200
8.001951e-001 6.052967e-001 -6.410780e+000 234 229 226
8.023300e-001 6.049636e-001 -6.421543e+000 234 229 226
1.740963e-001 3.054558e-001 -6.778281e+000 136 120 107
1.646342e-002 2.538221e-001 -6.939294e+000 152 139 130
2.361184e-003 1.202448e-001 -6.780697e+000 128 114 105
3.675049e-001 2.322807e-001 -6.748718e+000 140 127 111
-1.312101e-001 8.583110e-002 -6.702194e+000 123 110 102
-1.312101e-001 8.583110e-002 -6.702194e+000 123 110 102
-6.134183e-002 2.938282e-002 -6.671951e+000 147 134 126
6.575977e-002 -1.129068e-002 -6.676947e+000 125 112 104
7.600273e-002 8.485579e-003 -6.677564e+000 169 160 151
-2.840792e-001 -1.185197e-001 -6.524431e+000 65 4 1
-2.841274e-001 -1.185066e-001 -6.524078e+000 65 4 1
-1.681092e-001 -6.463591e-002 -6.613721e+000 172 87 71
-1.680771e-001 -1.164503e-001 -6.585812e+000 207 180 171
-7.236839e-001 -2.976174e-001 -6.294130e+000 230 112 81
-7.236839e-001 -2.976174e-001 -6.294130e+000 230 112 81
-5.516763e-001 -3.421499e-001 -6.561135e+000 66 24 20
-4.490746e-001 -3.722386e-001 -6.410566e+000 57 54 68
-2.208491e-001 -3.671888e-001 -6.595253e+000 179 166 158
4.558936e-001 -2.255477e-001 -6.693869e+000 230 227 220
-2.818215e-002 -4.521231e-001 -6.771817e+000 254 252 247
-1.072451e-002 -4.929518e-001 -6.869326e+000 46 35 29
8.059984e-001 -5.149660e-001 -6.353476e+000 211 186 130
1.335205e+000 -3.844362e-001 -6.028481e+000 198 175 121
2.789327e-001 -9.378538e-001 -6.979384e+000 41 31 23
4.727773e-001 -1.077187e+000 -7.107531e+000 150 128 79
1.129684e+000 -6.229548e-001 -6.165703e+000 211 46 55
5.977156e-001 1.206768e+000 -6.747038e+000 182 43 46
-3.313277e-001 7.799105e-001 -7.631917e+000 156 140 131
7.724884e-001 8.725180e-001 -6.375050e+000 113 9 17
-5.241569e-001 5.416137e-001 -7.907080e+000 34 24 16
-1.843302e-001 6.615644e-001 -7.524684e+000 205 198 188
-2.383831e-001 5.475598e-001 -7.568383e+000 217 210 200
-1.688790e-001 4.428340e-001 -7.312620e+000 144 131 120
-4.138944e-002 4.335211e-001 -7.180006e+000 172 162 152
7.640521e-001 5.535091e-001 -6.454026e+000 229 226 221
7.645719e-001 5.532616e-001 -6.457283e+000 229 226 221
1.682741e-001 2.491339e-001 -6.803752e+000 175 165 156
-1.620216e-001 1.474003e-001 -6.811123e+000 138 124 115
-9.605016e-003 4.394547e-002 -6.727806e+000 115 102 93
4.923783e-002 2.278221e-002 -6.709619e+000 123 113 104
-1.516512e-001 -9.694574e-002 -6.666589e+000 184 161 155
2.304635e-001 -2.689756e-002 -6.646791e+000 206 197 188
-7.994475e-001 -1.867775e-001 -6.266215e+000 77 22 2
-7.745846e-001 -2.090798e-001 -6.220072e+000 54 5 8
-2.752328e-001 -1.839026e-001 -6.481409e+000 219 97 66
-1.701583e-001 -2.220046e-001 -6.681018e+000 93 69 26
-6.363380e-001 -3.015015e-001 -6.392071e+000 225 183 143
-1.281668e-001 -2.813420e-001 -6.684618e+000 97 79 41
-1.951990e-001 -3.290155e-001 -6.642054e+000 203 193 181
-1.700503e-001 -4.576135e-001 -6.709198e+000 45 36 31
-3.276818e-001 -5.317420e-001 -6.659809e+000 234 233 229
1.203921e+000 -3.212502e-001 -6.073332e+000 152 124 77
6.076500e-001 -6.610351e-001 -6.607015e+000 160 147 126
6.916834e-001 -7.739521e-001 -6.666397e+000 174 33 33
1.095655e+000 -6.250539e-001 -6.149266e+000 214 52 58
-3.862276e-002 1.151797e+000 -7.265515e+000 173 35 41
-2.188019e-001 1.058815e+000 -7.545394e+000 195 44 52
-2.188019e-001 1.058815e+000 -7.545394e+000 195 44 52
-3.236281e-001 8.785822e-001 -7.589255e+000 210 44 53
-1.661540e-001 8.964473e-001 -7.506311e+000 203 195 185
-1.657813e-001 8.966110e-001 -7.506964e+000 203 195 185
-3.575429e-001 8.317966e-001 -7.686770e+000 183 34 41
-3.645821e-001 7.135431e-001 -7.678608e+000 178 166 154
2.716043e-001 7.558592e-001 -7.048846e+000 213 204 198
8.625644e-002 6.509640e-001 -7.089225e+000 195 185 177
3.102433e-001 7.243259e-001 -7.007787e+000 208 201 195
-1.003298e-001 5.252936e-001 -7.241458e+000 193 184 175
9.245380e-001 6.056945e-001 -6.335640e+000 203 45 53
9.448144e-001 6.491798e-001 -6.316068e+000 171 26 33
-2.785692e-001 2.050519e-001 -7.727150e+000 203 52 59
-4.198286e-002 2.398327e-001 -6.977644e+000 124 111 102
7.358950e-003 1.881348e-001 -6.901756e+000 122 114 103
-2.331496e-001 6.841745e-002 -6.737521e+000 130 108 100
7.695757e-001 1.320036e-001 -6.539312e+000 188 179 170
-9.420683e-001 -1.916028e-001 -6.199164e+000 158 135 82
1.166961e+000 1.631304e-001 -6.205632e+000 222 55 65
5.689059e-001 -7.168339e-002 -6.490991e+000 202 197 191
-8.395625e-001 -2.586754e-001 -6.245653e+000 98 31 28
-4.129300e-001 -3.024324e-001 -6.443068e+000 143 9 18
5.949636e-001 -3.085160e-001 -6.650164e+000 165 151 141
5.633307e-001 -4.151870e-001 -6.622320e+000 91 74 38
7.036020e-001 -3.324763e-001 -6.508714e+000 165 152 135
6.669256e-001 -3.657482e-001 -6.506345e+000 148 138 123
1.036892e+000 -2.463636e-001 -6.201133e+000 83 65 39
1.027654e+000 -2.414457e-001 -6.174394e+000 83 65 39
1.215373e+000 -1.959839e-001 -6.073740e+000 140 118 71
1.023139e+000 -5.247481e-001 -6.262272e+000 197 167 159
1.414486e+000 -3.752747e-001 -5.922402e+000 27 14 14
7.240792e-001 -8.230433e-001 -6.541719e+000 39 28 23
8.846231e-001 -8.440087e-001 -6.460701e+000 224 57 65
-3.812179e+000 9.654888e-001 -1.199625e+001 11 7 8
2.900332e-001 9.132846e-001 -7.016936e+000 192 179 173
7.785163e-001 9.533137e-001 -6.460591e+000 183 29 39
-2.805320e-002 5.952049e-001 -7.123086e+000 183 173 163
5.294829e-001 4.413988e-001 -6.758029e+000 183 175 163
-2.494950e-001 2.766073e-001 -7.624305e+000 168 33 38
2.689465e-001 8.982344e-002 -6.684873e+000 159 144 137
-3.576796e-001 -2.769689e-002 -6.610917e+000 123 51 35
4.659948e-001 1.078993e-001 -6.610472e+000 179 171 160
-9.388199e-001 -2.621479e-001 -6.275341e+000 32 23 24
-5.327327e-001 -1.858353e-001 -6.481478e+000 234 122 84
-5.137984e-001 -2.176206e-001 -6.467252e+000 166 35 18
-8.062546e-003 -1.193232e-001 -6.595329e+000 241 236 233
1.215648e+000 9.221884e-002 -6.037482e+000 119 10 23
-4.582644e-001 -4.216883e-001 -6.513425e+000 161 144 133
-2.145674e-001 -4.492515e-001 -6.640295e+000 211 204 198
9.684379e-001 -2.521954e-001 -6.289490e+000 147 129 119
9.551670e-001 -3.000233e-001 -6.209766e+000 174 151 101
7.210976e-001 -5.942400e-001 -6.447544e+000 194 185 174
1.002262e+000 -4.664614e-001 -6.230767e+000 175 151 105
1.401322e+000 -3.977333e-001 -5.932411e+000 206 183 115
1.401322e+000 -3.977333e-001 -5.932411e+000 206 183 115
9.030451e-001 -7.209590e-001 -6.429234e+000 208 200 189
4.195671e-001 -1.135833e+000 -7.219495e+000 134 114 69
5.447912e-001 -1.098013e+000 -7.096827e+000 13 5 8
1.108233e+000 -6.034703e-001 -6.162883e+000 150 2 16
-2.096143e+000 -2.991003e+000 -1.059504e+001 37 31 33
-2.078097e+000 -3.125127e+000 -1.059407e+001 37 31 33
-1.579127e+000 -2.310348e+000 -8.633493e+000 39 33 35
-5.422323e-001 7.290778e-001 -7.895117e+000 191 41 42
-6.714686e-002 6.868188e-001 -7.186914e+000 206 197 188
-4.561551e-001 4.676440e-001 -7.779752e+000 208 194 184
-1.747516e-001 4.947854e-001 -7.319356e+000 202 194 183
5.177397e-001 3.227365e-001 -6.816894e+000 141 133 122
1.689506e-001 1.263336e-001 -6.731527e+000 155 145 136
-8.847749e-001 -1.709619e-001 -6.170502e+000 39 24 28
-1.785022e-001 -1.385795e-001 -6.639576e+000 182 160 154
5.014388e-001 1.907210e-002 -6.545534e+000 220 216 210
5.015393e-001 1.897804e-002 -6.545740e+000 220 216 210
3.051264e-001 -1.149721e-001 -6.669875e+000 255 252 244
6.761199e-001 -2.621004e-002 -6.452972e+000 188 179 172
7.189990e-001 5.459367e-003 -6.444475e+000 213 205 196
8.024661e-001 -2.947117e-002 -6.414386e+000 180 172 160
8.030878e-001 -2.970759e-002 -6.415914e+000 180 172 160
5.889054e-001 -1.329414e-001 -6.538637e+000 226 221 217
5.889054e-001 -1.329414e-001 -6.538637e+000 226 221 217
1.187152e+000 -4.961450e-001 -6.136984e+000 229 58 69
-2.056831e+000 -2.912719e+000 -1.060186e+001 24 18 20
-2.005846e+000 -3.008005e+000 -1.051239e+001 20 14 16
-1.927806e+000 -3.154214e+000 -1.042592e+001 29 23 25
6.725390e-001 1.084321e+000 -6.594973e+000 199 40 48
-1.911750e-001 1.013410e+000 -7.555838e+000 191 41 48
-8.613848e-002 7.572859e-001 -7.197845e+000 177 168 159
-2.882175e-002 7.763503e-001 -7.173826e+000 218 211 201
7.470399e-001 8.121563e-001 -6.408829e+000 189 43 49
-5.371917e-001 5.293817e-001 -7.917710e+000 38 24 21
-1.137316e-001 4.744077e-001 -7.284781e+000 145 133 122
1.634922e-001 4.131590e-001 -6.908051e+000 188 175 166
4.106761e-001 3.673176e-001 -6.849521e+000 170 162 149
6.902430e-001 1.748364e-001 -6.623972e+000 155 145 134
-9.305697e-001 -2.033421e-001 -6.209681e+000 168 147 100
-9.305697e-001 -2.033421e-001 -6.209681e+000 168 147 100
-8.579481e-001 -1.946135e-001 -6.230384e+000 151 127 81
7.163228e-001 9.245929e-003 -6.431415e+000 213 205 196
1.222826e+000 -3.434074e-002 -6.078910e+000 247 80 90
5.151166e-001 -5.195347e-001 -6.706676e+000 81 64 37
6.419145e-001 -5.747385e-001 -6.575401e+000 204 191 182
1.344871e+000 -3.437891e-001 -5.973498e+000 163 139 91
4.650036e-001 -1.187474e+000 -7.159482e+000 41 28 23
-1.838979e+000 -3.115096e+000 -1.043814e+001 68 64 65
-1.163879e-001 9.635668e-001 -7.207908e+000 220 197 200
5.779472e-001 6.125672e-001 -6.733676e+000 210 201 194
1.289234e-001 4.753473e-001 -6.985737e+000 153 141 129
3.775861e-001 5.035385e-001 -6.927357e+000 178 169 160
1.751164e-002 4.106159e-001 -7.120751e+000 140 130 118
1.185115e-001 2.364957e-001 -6.846484e+000 128 116 106
1.934542e-001 2.292975e-001 -6.792139e+000 201 194 184
5.157061e-001 3.340313e-001 -6.830446e+000 151 143 132
8.128012e-001 2.692143e-001 -6.456866e+000 249 245 240
1.363815e-001 -5.549014e-003 -6.688672e+000 127 117 107
-7.366951e-001 -1.869754e-001 -6.301917e+000 155 66 34
3.322125e-002 -2.881028e-001 -6.718868e+000 244 241 236
8.110538e-001 -1.058753e-001 -6.354798e+000 133 119 108
7.225720e-001 -2.468731e-001 -6.479492e+000 234 230 221
5.605224e-001 1.062893e+000 -6.704574e+000 207 41 48
-3.980859e-001 3.556884e-001 -7.731100e+000 37 29 27
1.020313e+000 5.823565e-001 -6.189870e+000 17 7 8
-3.871766e-001 -6.914032e-002 -6.486849e+000 87 27 18
2.539695e-001 -4.856236e-001 -6.721438e+000 63 35 24
1.133433e+000 -2.005430e-001 -6.168324e+000 108 27 33
7.740892e-001 -4.018687e-001 -6.348621e+000 222 197 140
1.017809e+000 -3.083984e-001 -6.187706e+000 175 151 103
9.996978e-001 -5.298062e-001 -6.270295e+000 227 214 206
3.568262e-001 7.480433e-001 -6.736358e+000 230 221 214
6.363412e-001 7.034551e-001 -6.635815e+000 215 208 200
4.665593e-001 5.333718e-001 -6.775448e+000 211 204 196
4.693136e-001 5.330290e-001 -6.781696e+000 211 204 196
8.370583e-001 3.488222e-001 -6.429474e+000 174 159 147
4.223100e-001 1.476446e-001 -6.656336e+000 178 168 159
1.141948e+000 -3.615886e-001 -6.121730e+000 108 88 50
7.533997e-002 7.581769e-001 -7.089917e+000 217 208 201
1.374383e-002 5.449785e-001 -7.174324e+000 186 176 167
6.500542e-002 4.022085e-001 -7.000832e+000 131 121 111
9.481573e-001 3.426373e-001 -6.284831e+000 249 248 244
8.140502e-001 -2.123698e-001 -6.350367e+000 247 240 234
4.302943e-001 -1.128899e+000 -7.223575e+000 140 121 72
1.519196e-001 1.101204e+000 -7.097137e+000 210 201 196
4.335001e-001 6.490905e-001 -6.777005e+000 233 224 217
-2.754214e-001 -8.513395e-002 -6.542989e+000 76 21 19
5.886755e-001 1.359180e-001 -6.568265e+000 138 126 114
6.259097e-001 -4.412908e-001 -6.601023e+000 170 148 100
-2.993622e-001 5.986274e-001 -7.725068e+000 215 206 197
-1.670488e-002 -6.920532e-001 -6.791561e+000 39 31 29
7.786586e-001 4.578298e-001 -6.452263e+000 243 242 237
-2.274296e-001 3.177703e-002 -6.680666e+000 73 25 18
1.694412e-002 3.838901e-002 -6.727138e+000 142 132 122
-1.707722e-001 -3.667121e-001 -6.624538e+000 172 159 150
-2.449937e-001 -3.955591e-001 -6.563027e+000 171 161 150
2.747095e-001 7.287080e-001 -7.056920e+000 175 166 157
2.889671e-001 2.477477e-001 -6.798939e+000 124 113 103
-1.368549e-001 -6.241940e-005 -6.676029e+000 149 136 128
-2.618481e-001 -3.077083e-001 -6.593158e+000 168 150 139
8.292768e-001 9.006368e-001 -6.410835e+000 122 32 33
-1.301843e-001 5.284572e-001 -7.311001e+000 164 156 145
-5.307276e-001 -7.566883e-002 -6.516085e+000 108 35 15
-3.742422e-001 -3.633231e-001 -6.396418e+000 168 149 148
1.245611e+000 8.456579e-002 -6.029961e+000 180 41 48
4.968080e-001 -1.064854e-001 -6.609686e+000 253 250 245
-1.468634e-001 -4.391724e-001 -6.730822e+000 240 237 230
6.916354e-001 -7.741811e-001 -6.665659e+000 181 39 35
9.125997e-001 6.923945e-001 -6.332665e+000 189 34 42
7.873012e-001 6.599667e-001 -6.408489e+000 249 64 78
1.124465e+000 2.572916e-001 -6.164086e+000 227 60 68
1.213005e+000 8.986996e-002 -6.048838e+000 121 11 20
-8.238698e+000 -5.993077e+000 -1.819259e+001 106 97 95
-4.414884e-001 9.510069e-001 -7.764751e+000 25 18 16
2.372610e-001 4.425544e-001 -6.922472e+000 134 124 111
-2.799112e-003 1.179552e+000 -7.236999e+000 181 36 41
1.364095e+000 -1.716018e-001 -5.933502e+000 190 165 111
1.364095e+000 -1.716018e-001 -5.933502e+000 190 165 111
1.916480e-001 5.618269e-002 -6.693348e+000 132 120 108
-6.227737e-001 -1.273176e-001 -6.462829e+000 69 22 15
5.845462e-001 9.635171e-002 -7.020446e+000 142 132 120
6.527594e-001 6.881009e-001 -6.600515e+000 194 186 177
-1.570509e-001 4.055438e-001 -7.257438e+000 152 140 128
-1.569793e-001 2.046891e-001 -6.965586e+000 137 127 117
-1.155732e-001 1.632443e-001 -6.696544e+000 102 88 79
-7.250547e-001 -1.411546e-001 -6.775267e+000 114 51 31
-4.752406e-001 -2.312712e-001 -6.472001e+000 186 45 12
2.602228e-001 9.390517e-001 -7.045699e+000 195 186 181
-9.301040e-001 -1.726214e-001 -6.134972e+000 140 113 65
-9.045380e-001 -3.588321e-001 -6.444200e+000 51 37 33
-4.983926e-001 -2.117803e-001 -6.386754e+000 146 24 8
-6.563749e-001 -3.394593e-001 -6.322157e+000 220 167 124
-6.272613e-001 -2.980505e-001 -6.281847e+000 82 29 13
-6.272613e-001 -2.980505e-001 -6.281847e+000 82 29 13
-4.236064e-001 9.564853e-001 -7.768424e+000 20 20 18
2.817262e-001 7.366091e-001 -6.745687e+000 209 200 191
6.459428e-001 8.321044e-001 -6.476920e+000 187 177 171
-7.181559e-002 4.882585e-001 -7.207337e+000 180 172 162
-1.891305e-001 4.332678e-002 -6.682635e+000 89 32 21
-6.947515e-001 -3.530782e-001 -6.368608e+000 252 220 167
-6.536116e-001 -3.174742e-001 -6.316647e+000 253 210 175
1.271992e-001 1.918160e-001 -6.767906e+000 162 152 142
-5.914065e-001 -3.005931e-001 -6.506796e+000 160 51 24
-5.432485e-001 -2.903107e-001 -6.483012e+000 239 157 124
-2.765140e-001 -1.774439e-001 -6.454095e+000 218 101 62
4.203496e-001 1.112416e+000 -6.822944e+000 227 214 213
-1.272245e-001 5.395817e-001 -7.301975e+000 165 155 145
7.552064e-001 6.941835e-001 -6.434187e+000 208 52 57
6.790382e-001 6.106709e-001 -6.801048e+000 150 140 128
-8.974964e-001 -1.913548e-001 -6.238672e+000 46 31 24
-2.426873e-001 -1.692048e-001 -6.427711e+000 99 24 18
-6.154011e-001 -3.337330e-001 -6.353932e+000 237 191 148
-4.383807e-001 -3.695797e-001 -6.341718e+000 99 81 63
-8.429148e-001 -1.779787e-001 -6.158245e+000 140 117 76
5.986533e-001 1.157038e+000 -6.658329e+000 196 44 50
-6.623682e-001 -3.376407e-001 -6.324065e+000 232 174 132
-8.566731e-001 -1.469378e-001 -6.340262e+000 137 59 23
-2.974824e-001 -2.125584e-001 -6.403687e+000 227 105 57
3.240461e-001 8.873648e-001 -6.922249e+000 153 142 134
-1.776133e-001 6.926677e-001 -7.497967e+000 171 163 153
-2.062701e+000 -2.681551e+000 -1.051971e+001 58 49 50
9.430183e-001 6.241500e-001 -6.314602e+000 200 52 59
7.627757e-001 -9.230868e-001 -6.568306e+000 230 98 105
-8.774242e+000 -1.012607e+001 -2.264638e+001 23 19 20
2.533250e-001 -4.897426e-001 -6.737903e+000 63 35 24
4.988519e-001 1.263349e+000 -6.717400e+000 174 44 51
1.037414e-001 6.988130e-001 -7.014234e+000 216 207 198
7.657829e-001 8.512595e-001 -6.351748e+000 188 44 48
3.681664e-001 2.652962e-001 -6.760841e+000 121 109 94
2.615014e-001 1.744101e-001 -6.641262e+000 191 178 169
-2.915720e-001 -1.241939e-001 -6.518479e+000 84 16 7
-4.066040e-001 -2.450365e-001 -6.407314e+000 167 86 64
5.064118e-001 -7.214761e-002 -6.528860e+000 214 209 202
5.105218e-001 -1.022513e-001 -6.568037e+000 223 217 211
1.506339e-002 7.075303e-001 -7.163183e+000 205 198 190
8.345787e-001 8.640271e-001 -6.391358e+000 82 12 15
7.618612e-001 8.393281e-001 -6.272962e+000 206 47 61
8.629374e-002 2.586172e-001 -6.842191e+000 152 142 133
-4.128871e-001 -2.558151e-002 -6.580514e+000 118 50 32
-4.128871e-001 -2.558151e-002 -6.580514e+000 118 50 32
-1.065436e-002 6.808018e-002 -6.743209e+000 164 151 143
-2.445623e-001 -5.456255e-002 -6.638844e+000 84 17 11
2.650576e-001 -1.234776e-001 -6.653962e+000 254 254 249
-1.816482e+000 -3.755552e+000 -1.035198e+001 45 39 41
3.575176e-001 1.339822e+000 -6.905012e+000 200 48 52
4.381249e-001 1.172810e+000 -6.896356e+000 214 51 52
4.256088e-001 1.170106e+000 -6.816962e+000 214 51 52
-1.606403e-001 9.072293e-001 -7.490449e+000 203 196 186
-2.000437e-001 6.115496e-001 -7.522400e+000 180 171 162
-1.877229e-001 6.322903e-002 -6.701534e+000 135 120 113
1.186197e+000 -3.330827e-001 -6.070764e+000 170 147 95
1.203043e+000 -3.184507e-001 -6.067494e+000 164 139 85
8.401178e-001 6.196220e-001 -6.347275e+000 245 68 80
7.045396e-001 2.457279e-001 -6.642225e+000 172 163 152
7.472671e-001 -2.656411e-001 -6.472640e+000 229 225 216
-6.378565e+000 -7.531519e+000 -1.743354e+001 31 32 36
-4.693485e+000 -6.642191e+000 -1.493748e+001 131 127 141
-4.464061e+000 -6.932829e+000 -1.505639e+001 21 19 22
-5.914093e+000 -8.703148e+000 -1.668190e+001 110 109 122
3.961517e-001 1.322194e+000 -6.854068e+000 204 47 54
4.446275e-001 1.286640e+000 -6.780753e+000 194 38 42
7.952747e-001 6.296270e-001 -6.411142e+000 250 245 244
1.308564e-001 -5.792058e-002 -6.659849e+000 160 146 135
3.171558e-001 -2.156226e-001 -6.722570e+000 218 209 202
3.171558e-001 -2.156226e-001 -6.722570e+000 218 209 202
4.517254e-001 -2.725148e-001 -6.722560e+000 217 210 200
1.247659e+000 -1.041033e-001 -6.051688e+000 25 9 12
9.080075e-001 -7.791933e-001 -6.467244e+000 210 205 196
1.019812e+000 -7.745509e-001 -6.337419e+000 250 75 86
1.181971e+000 -8.455128e-001 -6.255671e+000 250 86 94
1.181971e+000 -8.455128e-001 -6.255671e+000 250 86 94
-4.526867e+000 -6.895415e+000 -1.488277e+001 134 131 146
-5.448756e+000 -8.591019e+000 -1.675056e+001 51 51 59
1.640567e-001 -4.171773e-001 -6.715348e+000 44 28 15
1.365577e+000 -1.649848e-001 -5.919786e+000 204 174 122
1.365577e+000 -1.649848e-001 -5.919786e+000 204 174 122
1.168117e+000 -8.283486e-001 -6.236335e+000 250 78 90
1.168117e+000 -8.283486e-001 -6.236335e+000 250 78 90
1.100804e+000 4.119278e-001 -6.147465e+000 218 54 65
2.793520e-002 -5.319865e-001 -6.853024e+000 43 34 30
1.176487e+000 -1.528671e-001 -6.157791e+000 228 64 75
5.902312e-001 9.462545e-001 -6.666981e+000 230 219 215
2.696516e-001 6.495748e-001 -7.003572e+000 139 126 117
6.471018e-001 2.765165e-001 -6.685165e+000 209 202 194
-2.534228e-002 -3.385535e-001 -6.709047e+000 125 108 78
-6.196829e+000 -7.643675e+000 -1.715986e+001 115 112 119
-6.108254e+000 -8.011397e+000 -1.692098e+001 133 131 142
-6.108254e+000 -8.011397e+000 -1.692098e+001 133 131 142
5.940257e-001 9.386547e-001 -6.662985e+000 229 221 218
2.578953e-001 -4.971229e-001 -6.755491e+000 66 33 26
-4.785809e+000 -6.731960e+000 -1.545140e+001 167 169 184
-6.230321e+000 -6.345412e+000 -1.787147e+001 19 17 22
-2.982347e-001 6.007275e-001 -7.716714e+000 213 204 195
2.451187e-001 7.433206e-001 -7.165345e+000 177 170 162
8.648338e-001 8.470621e-001 -6.369997e+000 109 22 20
-1.681396e-001 1.339617e-001 -6.797660e+000 107 93 84
-1.294324e-001 1.009040e-001 -6.718783e+000 145 130 123
-4.044277e-001 -4.966821e-002 -6.607530e+000 87 19 8
-8.107723e-002 3.308146e-002 -6.663913e+000 128 114 109
-4.984240e-001 -1.287008e-001 -6.485550e+000 125 31 14
-7.711125e-001 -2.099298e-001 -6.281541e+000 87 29 14
-4.856179e+000 -6.295789e+000 -1.503410e+001 95 90 100
1.110246e+000 -6.706437e-001 -6.163397e+000 243 85 83
-1.286577e-001 9.242192e-001 -7.421817e+000 183 176 168
-5.123613e-001 6.104404e-001 -7.878308e+000 206 40 46
-1.714729e-001 6.405545e-001 -7.490135e+000 166 157 148
3.872782e-001 2.594759e-001 -6.913320e+000 144 130 119
-2.091492e-001 6.756725e-002 -6.709821e+000 79 33 28
-4.485817e-001 -5.603309e-002 -6.554635e+000 139 61 39
-6.265999e-001 -1.481117e-001 -6.446661e+000 74 17 10
3.675513e-001 -3.340458e-001 -6.735965e+000 126 110 95
7.083193e-001 -8.386005e-002 -6.413529e+000 218 214 205
7.083193e-001 -8.386005e-002 -6.413529e+000 218 214 205
-5.653384e+000 -8.752726e+000 -1.653454e+001 156 161 183
8.200638e-001 8.659499e-001 -6.411520e+000 76 7 10
1.637449e-001 2.268177e-001 -6.789602e+000 199 191 180
8.597062e-001 5.529152e-001 -6.417249e+000 207 201 195
1.088906e+000 3.998743e-001 -6.154785e+000 234 67 77
-2.771650e-001 -1.950670e-001 -6.514300e+000 214 102 65
8.950417e-001 -9.481674e-001 -6.557853e+000 226 78 79
-1.418113e+000 -2.815127e+000 -8.626487e+000 25 19 21
-5.590238e-001 5.879336e-001 -7.965998e+000 217 58 56
-1.493155e-001 3.836157e-001 -7.211090e+000 140 127 118
-6.567187e-002 4.623942e-001 -7.199307e+000 140 130 117
6.811974e-001 6.561470e-001 -6.597372e+000 166 156 146
3.232694e-001 2.969125e-001 -6.818967e+000 119 104 94
-2.679274e-001 6.080878e-002 -6.727373e+000 61 12 11
5.059772e-001 2.261044e-001 -6.705793e+000 120 108 94
-2.979195e-001 -6.593775e-002 -6.623486e+000 78 23 16
1.123813e+000 2.584023e-001 -6.164483e+000 242 73 82
-1.855126e-001 -3.874406e-001 -6.652610e+000 169 148 135
-4.947290e+000 -6.619175e+000 -1.488082e+001 9 8 14
-1.487082e+000 -4.985144e+000 -1.036314e+001 46 40 42
4.719483e-001 1.731198e-001 -6.643145e+000 203 195 185
8.212562e-001 9.531614e-002 -6.495323e+000 194 185 178
-6.107566e+000 -7.277872e+000 -1.775007e+001 84 84 92
1.135244e+000 -3.961348e-001 -6.107609e+000 110 86 48
-4.899538e+000 -6.756182e+000 -1.491172e+001 155 153 167
-4.885847e+000 -6.732702e+000 -1.487585e+001 155 153 167
-5.967236e+000 -8.738174e+000 -1.658338e+001 130 131 149
-1.921798e-001 8.774629e-001 -7.499447e+000 202 193 185
4.940210e-001 7.621481e-001 -6.794748e+000 168 157 153
4.917598e-001 7.606358e-001 -6.790027e+000 168 157 153
6.621347e-001 3.587455e-001 -6.641124e+000 194 185 176
9.961526e-001 -1.036690e+000 -6.465876e+000 231 66 80
9.961526e-001 -1.036690e+000 -6.465876e+000 231 66 80
6.674758e-001 1.081965e+000 -6.576613e+000 209 45 56
9.269007e-001 -2.866663e-001 -6.289234e+000 91 74 54
9.608479e-001 -8.795781e-002 -6.309480e+000 164 151 143
1.009088e+000 -2.903193e-001 -6.148138e+000 182 157 108
-4.516877e+000 -6.969406e+000 -1.451149e+001 161 161 173
-5.471004e+000 -8.073151e+000 -1.631409e+001 10 8 12
-5.449839e+000 -8.030334e+000 -1.625020e+001 10 8 12
1.268550e+000 -1.296395e-001 -6.028022e+000 37 26 27
-5.808537e+000 -8.737020e+000 -1.671235e+001 168 173 195
-2.157832e-001 2.634886e-001 -7.378539e+000 122 28 31
-1.362221e-001 1.444769e-001 -6.591246e+000 142 129 120
-1.573627e-001 -3.616393e-002 -6.609317e+000 109 37 21
-1.288123e-001 -2.461572e-001 -6.656384e+000 240 229 226
4.821948e-001 -1.072808e-001 -6.614846e+000 238 235 228
-2.988228e-001 1.100509e+000 -7.604774e+000 29 19 19
-2.181183e-001 8.836325e-001 -7.554375e+000 203 194 185
2.894877e-001 7.701454e-001 -7.015545e+000 190 181 174
2.946904e-001 7.610551e-001 -7.058183e+000 190 181 174
2.123623e-001 2.604988e-001 -6.719416e+000 157 141 126
-4.613095e-001 -5.816106e-002 -6.522889e+000 144 65 43
-8.692017e-002 7.072391e-002 -6.750249e+000 131 116 109
-8.421652e-001 -2.400988e-001 -6.221245e+000 91 24 17
-5.272178e-001 -2.090323e-001 -6.404865e+000 251 139 101
-1.382518e-001 -3.598950e-001 -6.634898e+000 191 183 174
-1.835196e+000 -3.685262e+000 -1.035384e+001 41 35 37
9.385178e-001 -2.567107e-001 -6.314532e+000 139 122 110
5.392009e-001 -1.151306e+000 -7.123194e+000 241 221 182
1.888337e-002 1.356248e+000 -7.188729e+000 186 39 40
-2.832590e-001 -1.097838e-002 -7.750848e+000 35 27 26
-2.832590e-001 -1.097838e-002 -7.750848e+000 35 27 26
-5.502930e-001 -2.821584e-002 -6.642612e+000 69 16 8
-5.502930e-001 -2.821584e-002 -6.642612e+000 69 16 8
9.158081e-001 5.938179e-001 -6.370473e+000 214 57 66
-6.362718e-001 -1.679008e-001 -6.325641e+000 147 63 39
4.946858e-001 7.530792e-002 -6.636681e+000 131 119 107
-9.679448e-003 -2.189285e-001 -6.639321e+000 253 250 243
1.413378e-001 -1.893454e-001 -6.687107e+000 232 225 219
-6.892877e-001 -3.348638e-001 -6.316285e+000 43 35 33
-1.915372e-001 -4.101119e-001 -6.626823e+000 232 225 221
4.473387e-001 -4.415171e-001 -6.688793e+000 196 183 131
-1.744183e+000 -3.808913e+000 -1.040342e+001 53 47 47
6.831852e-002 1.211096e+000 -7.169696e+000 203 42 49
-2.773332e-001 -1.869912e-001 -6.494516e+000 227 116 77
-3.826876e-002 -1.917684e-001 -6.610501e+000 227 224 219
-4.544396e-001 4.688819e-001 -7.703102e+000 213 200 191
9.003107e-001 5.637857e-001 -6.379726e+000 174 33 44
1.018777e-001 -3.315710e-002 -6.679463e+000 159 149 140
9.922020e-002 -2.420579e-002 -6.657680e+000 159 149 140
-1.439284e-001 -4.070332e-001 -6.673102e+000 242 236 232
1.127693e+000 2.009002e-001 -6.153614e+000 195 35 45
1.127693e+000 2.009002e-001 -6.153614e+000 195 35 45
5.376080e-001 -3.172787e-001 -6.700049e+000 244 237 231
1.213027e+000 5.278641e-002 -6.025932e+000 229 83 91
8.031115e-001 -8.564823e-001 -6.540434e+000 219 47 59
3.029930e-001 9.819793e-001 -7.052501e+000 223 217 213
-4.556178e-001 -2.068412e-001 -6.471014e+000 249 132 87
6.991719e-001 -5.964683e-001 -6.530532e+000 229 217 208
-5.821150e-001 -1.437136e-001 -6.477419e+000 94 33 26
4.240635e-001 7.923511e-002 -6.626119e+000 199 190 181
5.505102e-001 5.470646e-002 -6.522823e+000 146 134 120
5.505102e-001 5.470646e-002 -6.522823e+000 146 134 120
5.772276e-001 5.938382e-003 -6.468590e+000 214 207 199
6.178391e-001 -4.245425e-001 -6.517284e+000 178 156 106
1.387914e-001 1.343646e+000 -7.077697e+000 203 48 54
-1.755845e-001 2.758110e-001 -7.389084e+000 184 174 162
-2.633597e-001 6.733732e-002 -7.218353e+000 220 212 205
-1.092478e-001 6.638307e-001 -7.359399e+000 168 162 150
-1.092478e-001 6.638307e-001 -7.359399e+000 168 162 150
5.970501e-001 -8.077678e-001 -6.714401e+000 251 250 245
-6.351870e-001 -1.479341e-001 -6.530808e+000 65 17 12
7.261959e-001 -3.610945e-001 -6.452733e+000 100 85 64
8.389634e-001 -9.590336e-001 -6.511405e+000 50 36 36
-3.970561e-001 2.581578e-001 -7.518018e+000 38 27 27
-2.868990e-001 -9.447340e-002 -6.571657e+000 66 11 8
3.847530e-001 -1.353656e-001 -6.687244e+000 245 242 234
3.853915e-001 -1.343698e-001 -6.684681e+000 245 242 234
1.176375e-002 -6.942587e-001 -6.825537e+000 35 30 27
-1.988334e+000 -3.418937e+000 -1.057473e+001 38 32 34
7.675296e-001 -1.321251e-001 -6.356359e+000 228 220 210
-4.389294e+000 -6.693881e+000 -1.504058e+001 30 28 33
-4.469185e+000 -6.730403e+000 -1.493278e+001 165 161 175
-6.063724e+000 -8.357500e+000 -1.666779e+001 9 7 10
-5.398725e-003 2.506686e-001 -6.949287e+000 145 132 123
-4.604877e-001 -8.186978e-002 -6.522087e+000 121 37 16
-4.474773e-001 -1.216479e-001 -6.472673e+000 129 34 14
9.217161e-001 -1.022948e+000 -6.575147e+000 48 30 30
4.377696e-001 1.188518e+000 -6.851027e+000 214 50 57
6.554555e-001 6.579285e-001 -6.632598e+000 204 194 185
-5.803877e+000 -8.943684e+000 -1.654768e+001 12 10 16
1.306995e-001 1.203802e+000 -7.078634e+000 232 192 168
2.374310e-001 7.138137e-001 -7.079245e+000 181 174 164
3.743528e-001 1.181245e+000 -6.878483e+000 203 32 40
-1.372211e-002 5.546553e-001 -7.162544e+000 208 197 191
-1.372211e-002 5.546553e-001 -7.162544e+000 208 197 191
1.260095e-001 6.145545e-001 -7.031034e+000 176 167 154
6.183310e-001 6.510930e-001 -6.684847e+000 187 181 170
-4.397347e-002 2.544827e-001 -7.041720e+000 145 135 125
2.421572e-001 2.967208e-001 -6.825066e+000 122 108 97
-4.625843e-001 -6.155997e-002 -6.530282e+000 144 65 43
-2.188850e-001 -3.989183e-002 -6.646780e+000 90 21 15
-6.196338e+000 -7.774893e+000 -1.753085e+001 79 79 80
-4.891154e+000 -6.330363e+000 -1.497231e+001 101 99 108
-4.758094e+000 -7.074667e+000 -1.503410e+001 156 154 168
-4.012261e+000 -7.478737e+000 -1.477062e+001 84 87 96
-1.608769e+000 -4.488078e+000 -1.032279e+001 50 44 48
-1.733550e-001 9.239044e-001 -7.513222e+000 161 147 139
-3.318901e-002 2.823511e-001 -7.040358e+000 130 118 106
3.091965e-001 3.064546e-001 -6.900456e+000 127 115 102
-6.076381e+000 -7.603880e+000 -1.713120e+001 80 79 84
-2.230164e+000 -3.305237e+000 -1.075476e+001 55 50 54
-5.424901e+000 -8.650263e+000 -1.665744e+001 120 121 139
-1.553666e+000 -4.563001e+000 -1.024120e+001 53 48 52
6.511718e-001 6.208430e-001 -6.671276e+000 153 143 133
-2.573764e-001 -2.034469e-004 -6.646020e+000 70 20 17
9.371439e-001 4.216025e-001 -6.258123e+000 252 81 93
8.827065e-001 7.970487e-001 -6.350364e+000 21 1 4
-6.011338e-001 6.801258e-001 -8.022351e+000 38 24 20
3.119043e-001 5.058133e-002 -6.646936e+000 244 240 231
6.485095e-001 1.237336e-001 -6.577022e+000 189 175 165
-4.742344e+000 -6.744287e+000 -1.513917e+001 142 138 153
-4.139180e+000 -7.764687e+000 -1.477993e+001 11 7 14
-5.687907e+000 -7.447678e+000 -1.671774e+001 10 10 12
6.862976e-001 1.083283e+000 -6.531873e+000 186 44 53
-6.079683e+000 -7.455571e+000 -1.707691e+001 80 77 84
-1.158644e-001 1.480840e-001 -6.792190e+000 108 94 83
-1.011161e-001 7.572341e-002 -6.709742e+000 162 147 140
-1.011161e-001 7.572341e-002 -6.709742e+000 162 147 140
-4.335589e+000 -6.432552e+000 -1.502566e+001 47 45 48
3.463224e-001 2.499650e-001 -6.728067e+000 143 130 114
-4.665476e-001 -1.340396e-001 -6.490047e+000 126 37 16
-4.969458e-001 -2.366135e-001 -6.441522e+000 144 27 9
-5.439840e+000 -8.907112e+000 -1.650211e+001 116 124 147
6.020772e-001 -3.986189e-001 -6.590483e+000 147 133 108
1.093659e+000 -2.601918e-001 -6.185094e+000 141 114 76
-5.995521e+000 -7.310400e+000 -1.755169e+001 66 66 74
-4.702653e+000 -6.217933e+000 -1.514921e+001 136 136 146
-2.191930e+000 -2.724795e+000 -1.064379e+001 40 36 37
7.506127e-001 5.361918e-001 -6.476785e+000 235 232 223
7.626017e-001 5.549300e-001 -6.454106e+000 236 231 227
-4.065456e-001 -1.187116e-001 -6.530923e+000 90 20 11
-5.936901e+000 -8.801560e+000 -1.651485e+001 3 4 8
5.152582e-001 -2.028285e-002 -6.525659e+000 199 192 174
-1.774893e+000 -3.892824e+000 -1.042829e+001 28 22 24
5.218378e-001 -1.173350e+000 -7.132242e+000 42 29 20
-1.398387e+000 -5.505059e+000 -9.992550e+000 22 15 17
-8.843469e-002 1.233642e+000 -7.365999e+000 142 21 30
1.674087e-002 1.385803e+000 -7.134380e+000 33 14 15
-2.237470e-001 5.280557e-001 -7.564002e+000 192 184 173
5.794394e-001 1.203172e+000 -6.667685e+000 185 40 45
1.337152e-001 4.058082e-001 -6.974824e+000 136 124 112
-5.881140e+000 -7.150484e+000 -1.756554e+001 66 66 78
-2.223108e+000 -2.576205e+000 -1.060971e+001 36 30 30
-4.919202e+000 -6.300978e+000 -1.517110e+001 130 130 139
-4.834023e+000 -6.489527e+000 -1.478414e+001 122 120 130
-4.693564e+000 -6.537924e+000 -1.495849e+001 137 137 149
-3.581607e-001 -1.261441e-002 -6.627734e+000 56 15 9
-8.065194e-001 -2.207943e-001 -6.268754e+000 136 109 66
1.616890e-001 5.183765e-002 -6.698731e+000 170 160 148
-5.940236e+000 -8.496928e+000 -1.652404e+001 105 103 115
-1.788466e-001 -2.471938e-001 -6.687060e+000 233 209 149
-1.981725e+000 -3.415354e+000 -1.055448e+001 40 34 38
-1.933259e+000 -3.534776e+000 -1.051449e+001 44 40 41
-4.351773e-001 -4.077460e-001 -6.454350e+000 164 143 123
-2.845502e-001 -4.296284e-001 -6.536959e+000 234 229 225
-2.476903e-001 -4.451531e-001 -6.579246e+000 251 251 246
6.700581e-001 -7.248760e-001 -6.641539e+000 174 161 141
9.186807e-001 -9.882128e-001 -6.617119e+000 235 82 88
-1.349603e+000 -5.511815e+000 -1.002251e+001 111 101 102
-1.348132e+000 -5.476047e+000 -9.990551e+000 111 101 102
3.819617e-001 1.360798e+000 -6.798799e+000 27 10 13
-2.610439e-001 1.005017e-001 -6.756451e+000 78 42 41
-6.065991e+000 -8.056457e+000 -1.659252e+001 11 9 17
-4.922719e+000 -6.544932e+000 -1.505221e+001 118 116 128
-1.883151e-001 -2.732506e-002 -6.682396e+000 112 43 32
-4.597552e+000 -6.808158e+000 -1.474830e+001 109 109 117
-2.024570e+000 -3.266821e+000 -1.056234e+001 49 44 46
-2.760768e-001 -1.923026e-001 -6.502987e+000 228 115 76
-3.663807e-002 -4.649219e-001 -6.760804e+000 40 33 25
1.181518e-001 -2.519323e-001 -6.679748e+000 199 189 179
1.169567e+000 3.438471e-001 -6.113463e+000 32 10 16
1.236696e+000 1.751540e-001 -6.055815e+000 32 18 19
-1.463708e+000 -4.877128e+000 -1.019941e+001 52 46 48
-1.408346e+000 -4.949371e+000 -1.009356e+001 45 40 44
-1.363685e+000 -4.954527e+000 -9.979068e+000 49 43 43
7.731718e-001 -9.389938e-001 -6.597382e+000 234 96 96
-3.880995e-001 7.450432e-001 -7.728733e+000 194 172 166
-1.578373e-001 3.832356e-001 -7.202980e+000 126 114 102
-1.578373e-001 3.832356e-001 -7.202980e+000 126 114 102
5.104398e-001 6.046997e-001 -6.783548e+000 184 177 167
5.104398e-001 6.046997e-001 -6.783548e+000 184 177 167
-5.147929e-001 -1.845925e-001 -6.479009e+000 180 74 42
4.524467e-001 -2.772454e-001 -6.728774e+000 216 210 197
4.571075e-001 -5.115986e-001 -6.718768e+000 251 251 241
-1.334237e+000 -5.408638e+000 -1.004227e+001 19 9 10
-2.046094e-001 3.255159e-002 -7.590901e+000 89 8 9
-5.402121e-001 -2.609754e-001 -6.483052e+000 212 107 66
1.256961e+000 -5.357869e-003 -6.051832e+000 32 11 18
-1.418736e+000 -5.331428e+000 -9.980635e+000 62 51 49
5.133072e-001 1.231864e+000 -6.726218e+000 211 51 56
-1.593376e-001 5.361193e-001 -7.504248e+000 203 195 184
-2.206822e-001 1.394809e-001 -7.681820e+000 132 17 24
6.797352e-001 -7.876376e-001 -6.596933e+000 45 34 32
1.604229e-001 3.370043e-001 -6.888536e+000 132 117 106
-3.965719e+000 -7.616708e+000 -1.502193e+001 15 13 18
1.041409e+000 3.308907e-001 -6.230564e+000 226 61 70
2.485447e-001 -5.067318e-001 -6.767373e+000 71 45 31
2.467583e-001 -4.998525e-001 -6.761077e+000 71 45 31
1.018721e+000 -2.914302e-001 -6.173239e+000 199 176 122
-1.887206e-001 1.152427e+000 -7.452465e+000 201 50 57
2.580660e-001 6.537446e-001 -6.995504e+000 140 128 116
5.644100e-001 -3.743427e-001 -6.674946e+000 99 84 64
8.122071e-001 -2.375516e-001 -6.388197e+000 255 252 247
-2.944260e-001 -1.501135e-001 -6.863116e+000 120 52 33
2.017541e-001 1.088091e+000 -7.098751e+000 219 212 206
9.581996e-001 1.820562e-001 -6.268022e+000 225 214 208
1.207735e-001 1.209663e+000 -7.111473e+000 219 54 62
2.826812e-001 7.750862e-001 -7.014831e+000 200 193 185
1.194427e-001 6.581550e-001 -7.066183e+000 161 147 136
-9.685069e-002 2.096625e-001 -6.960144e+000 140 127 113
6.135218e-001 5.782312e-001 -6.640810e+000 140 128 115
-1.207788e-001 5.959210e-002 -6.751905e+000 125 111 102
-8.696688e-002 3.961442e-002 -6.690141e+000 135 120 112
-9.035537e-001 -2.820306e-001 -6.399283e+000 141 75 51
-2.858039e-001 -9.058530e-002 -6.614945e+000 93 35 28
-8.086733e-001 -2.279148e-001 -6.253329e+000 77 23 21
-7.392522e-001 -2.465824e-001 -6.292990e+000 114 28 9
-2.718013e-001 -4.122098e-001 -6.558570e+000 183 174 167
4.980260e-002 -4.010786e-001 -6.698174e+000 196 180 165
5.921699e-001 -2.998164e-001 -6.575199e+000 161 145 128
-9.141539e-002 4.789851e-001 -7.282638e+000 164 153 143
1.026775e-001 6.992165e-001 -7.083759e+000 222 212 203
3.025576e-001 7.580073e-001 -6.992245e+000 190 181 172
-7.387828e-001 -1.767274e-001 -6.887443e+000 141 63 46
3.568375e-001 3.652588e-001 -6.845795e+000 162 150 138
8.663070e-001 5.560982e-001 -6.408521e+000 209 201 191
-1.760990e+000 -3.956872e+000 -1.044369e+001 29 25 26
-7.192784e-001 -3.391324e-001 -6.315950e+000 224 114 84
1.004737e+000 -7.051315e-001 -6.272951e+000 249 96 104
-1.918882e-001 1.026970e+000 -7.572584e+000 171 28 35
-2.352486e-001 -6.013162e-002 -6.647151e+000 84 20 11
-8.370750e-001 -3.368439e-001 -6.339050e+000 255 163 129
-2.607014e-001 -1.383602e-001 -6.523419e+000 116 44 32
-2.607014e-001 -1.383602e-001 -6.523419e+000 116 44 32
-1.055363e-001 -2.802032e-001 -6.676403e+000 240 231 226
-9.924728e-002 -1.873828e-001 -6.622043e+000 227 222 216
-5.842353e-003 -1.656383e-001 -6.613370e+000 253 248 242
2.710714e-001 -7.370472e-002 -6.638696e+000 221 214 206
9.714449e-001 6.568345e-001 -6.271684e+000 203 58 66
-3.644051e-001 -3.992733e-001 -6.449554e+000 198 194 187
1.043251e-002 -5.018954e-001 -6.805270e+000 36 27 22
4.803186e-001 -6.737218e-001 -6.766977e+000 252 252 240
2.497722e-002 1.346032e+000 -7.219090e+000 190 39 46
6.486086e-001 5.931941e-001 -6.616348e+000 171 159 145
7.920644e-001 6.340334e-001 -6.401564e+000 248 249 240
-3.344572e-001 -3.905070e-001 -6.467137e+000 222 213 207
8.926850e-001 4.791302e-001 -6.327095e+000 184 169 156
5.894583e-001 8.447045e-002 -6.485181e+000 191 181 168
5.195864e-001 -1.056080e-001 -6.510608e+000 217 210 200
6.785018e-001 -7.460902e-001 -6.581103e+000 56 42 40
6.785018e-001 -7.460902e-001 -6.581103e+000 56 42 40
-4.605774e-001 -1.203953e-002 -6.858458e+000 44 12 13
8.233462e-001 8.646701e-001 -6.422047e+000 88 7 15
-4.882412e-001 -3.564437e-001 -6.457636e+000 247 188 154
-8.153907e-003 -1.177250e-001 -6.600381e+000 239 232 229
-5.139540e-002 -3.151165e-001 -6.681098e+000 66 47 26
5.715941e-001 -1.119611e-001 -6.490920e+000 230 226 217
-4.323603e-001 8.680981e-001 -7.836521e+000 195 39 46
5.140790e-001 3.239939e-001 -6.811990e+000 141 129 119
8.918352e-001 7.548913e-001 -6.327883e+000 237 81 90
-7.957506e-001 -1.816086e-001 -6.264598e+000 74 22 10
-1.354599e-001 -8.344249e-002 -6.617668e+000 207 188 180
8.406444e-001 5.959889e-001 -6.391673e+000 253 253 251
-5.175370e-001 -3.497490e-001 -6.503952e+000 247 184 142
-3.504650e-001 -3.952974e-001 -6.471792e+000 190 178 171
-3.014773e-001 -3.268894e-001 -6.493523e+000 167 144 133
4.960544e-001 -3.901200e-001 -6.601398e+000 254 252 203
1.129187e+000 2.316131e-001 -6.138335e+000 207 45 57
-1.415280e-001 4.241319e-001 -7.349125e+000 133 121 109
3.811594e-001 4.992293e-001 -6.931259e+000 187 177 168
5.103667e-001 3.304455e-001 -6.803823e+000 141 130 119
7.949345e-001 7.943197e-001 -6.359400e+000 243 82 92
1.010200e+000 -5.322063e-001 -6.289613e+000 244 230 198
1.297359e-001 1.389890e+000 -7.161798e+000 14 3 9
-4.607953e-001 5.937746e-001 -7.850066e+000 188 177 168
-3.730731e-001 2.947990e-001 -7.822336e+000 42 31 29
2.096869e-001 5.491757e-001 -6.980901e+000 231 222 216
6.034495e-001 -7.909736e-001 -6.684683e+000 254 255 247
1.191028e+000 1.855945e-001 -6.092396e+000 221 60 68
1.132179e+000 -2.019565e-001 -6.170871e+000 77 11 15
-1.133922e-001 7.066820e-001 -7.258803e+000 169 160 145
4.102143e-001 -3.762677e-001 -6.726154e+000 80 62 41
9.392200e-001 3.562910e-001 -6.270518e+000 255 251 246
1.053536e+000 -6.259479e-001 -6.273955e+000 172 35 40
6.555015e-001 5.577566e-001 -6.613455e+000 136 122 111
1.988712e-002 -2.811357e-002 -6.689317e+000 136 119 111
-2.924246e-001 -3.785660e-001 -6.541211e+000 169 151 137
4.113663e-001 -5.335314e-001 -6.648269e+000 254 255 246
1.073907e+000 -4.597126e-002 -6.216977e+000 233 226 218
-6.437698e-001 -1.601479e-001 -6.560427e+000 63 22 19
7.960097e-001 5.530207e-001 -6.420645e+000 255 255 251
-2.239898e-003 4.672821e-002 -7.196665e+000 118 104 93
-3.936146e-001 1.771673e-001 -7.719479e+000 39 30 28
2.656082e-001 -2.547518e-001 -6.738036e+000 243 234 225
-7.255028e+000 -6.286366e+000 -2.181280e+001 135 124 120
-4.611641e+000 -6.837323e+000 -1.480318e+001 111 109 122
-4.870900e+000 -6.713268e+000 -1.485215e+001 165 163 172
-3.982049e-001 -2.903078e-002 -6.604393e+000 117 51 38
-7.966334e-002 3.244584e-002 -6.670810e+000 131 116 109
-2.008074e+000 -3.340407e+000 -1.056295e+001 41 35 39
7.195976e-001 2.535215e-001 -6.572511e+000 184 176 165
1.143287e+000 1.700287e-001 -6.145733e+000 227 69 77
1.141989e+000 1.678241e-001 -6.146353e+000 227 69 77
-5.170227e+000 -1.230551e+001 -1.728107e+001 43 59 116
6.498874e-001 6.229488e-001 -6.659130e+000 157 147 136
4.093771e-001 2.109489e-001 -6.833043e+000 131 115 100
1.202723e+000 2.215344e-001 -6.062357e+000 207 52 57
2.781227e-001 1.043945e+000 -7.035061e+000 203 196 188
2.774551e-001 1.044561e+000 -7.032846e+000 203 196 188
-1.874889e-001 1.520013e-001 -6.900157e+000 129 115 104
-1.418777e-001 9.133871e-002 -6.716467e+000 126 112 103
-1.381406e-001 8.439801e-002 -6.727445e+000 126 112 103
2.253466e-001 1.833076e-001 -6.710221e+000 197 187 175
5.073240e-002 6.736248e-001 -7.139377e+000 210 201 191
3.535118e-001 1.188138e+000 -6.950986e+000 209 42 51
-2.364758e-001 3.308535e-002 -6.724138e+000 108 90 76
-2.362477e-001 3.448289e-002 -6.723072e+000 108 90 76
9.668898e-001 6.577873e-001 -6.267428e+000 203 58 65
-1.933632e-001 8.798067e-001 -7.557452e+000 209 200 191
-1.539288e-001 9.851710e-001 -7.447921e+000 187 175 163
-1.271200e-001 5.230178e-001 -7.274062e+000 157 147 137
-2.335770e-001 -1.987265e-001 -7.504820e+000 202 195 182
-1.867820e-001 1.823475e-001 -7.031655e+000 120 106 95
8.589661e-001 8.644595e-001 -6.378273e+000 122 32 36
-6.531289e-001 -2.844722e-001 -6.308348e+000 49 19 16
9.169484e-001 8.270973e-002 -6.599314e+000 239 233 221
6.468606e-001 -6.063956e-001 -6.628565e+000 246 233 178
-6.055468e-001 6.100633e-001 -8.026050e+000 185 42 46
7.355524e-002 1.380903e+000 -7.188351e+000 81 18 27
-1.056548e-001 6.886121e-001 -7.257373e+000 168 159 145
-2.169471e+000 -2.893023e+000 -1.069910e+001 45 39 41
-1.720827e-001 4.797698e-001 -7.432564e+000 173 165 152
-2.688538e-001 2.502412e-003 -7.683067e+000 107 58 49
-1.633779e-001 3.636803e-001 -7.309570e+000 156 146 134
3.039596e-001 7.205588e-001 -7.095242e+000 219 215 206
6.000715e-001 1.181821e+000 -6.634066e+000 200 52 61
-2.710595e-001 -1.927786e-001 -7.534266e+000 176 169 155
-1.962395e-001 1.779612e-001 -7.058051e+000 152 138 127
-1.800450e+000 -3.799271e+000 -1.032058e+001 62 56 58
-1.796651e+000 -3.945833e+000 -1.043446e+001 64 58 60
-2.046578e-001 1.460128e-001 -6.804413e+000 101 84 76
-5.759580e-001 -6.313174e-002 -6.526469e+000 104 43 33
-9.186714e-001 -2.925014e-001 -6.396019e+000 48 16 11
-1.079713e-001 6.701394e-002 -6.688182e+000 139 127 116
4.277843e-001 2.116149e-001 -6.855940e+000 150 137 120
6.255410e-001 5.882453e-001 -6.594359e+000 126 114 99
-3.418123e-003 -1.698539e-001 -6.618540e+000 252 247 243
-1.572355e+000 -4.672747e+000 -9.998778e+000 45 41 38
4.795603e-001 1.162546e-001 -6.625454e+000 180 168 154
-1.490642e+000 -5.004981e+000 -1.003607e+001 62 54 52
9.195916e-001 5.747185e-001 -6.354651e+000 166 31 38
1.178448e+000 -4.894747e-001 -6.094732e+000 227 95 99
-2.484264e-001 5.405367e-001 -7.565030e+000 224 217 207
1.725908e-001 1.059930e+000 -7.089782e+000 212 205 197
1.728412e-001 1.055559e+000 -7.091602e+000 212 205 197
-2.173184e+000 -3.132921e+000 -1.048356e+001 60 54 54
-2.150480e-001 2.474183e-001 -7.520980e+000 207 189 185
-1.783427e+000 -3.740013e+000 -1.035263e+001 25 19 21
1.376790e-002 2.743998e-001 -6.948313e+000 121 112 98
-1.736642e+000 -3.824270e+000 -1.038724e+001 53 49 50
-1.731213e+000 -3.762264e+000 -1.031566e+001 53 49 50
-1.468500e-001 1.214995e-001 -6.843735e+000 154 138 127
5.753227e-001 5.579500e-001 -6.730973e+000 160 150 138
8.317800e-001 8.965479e-001 -6.413782e+000 159 45 49
-3.521102e-001 -1.575555e-001 -6.481261e+000 122 30 17
2.459441e-001 4.969620e-002 -6.662717e+000 194 184 175
9.230014e-001 6.123727e-001 -6.326152e+000 217 71 78
-1.254245e+000 -5.437883e+000 -1.001876e+001 73 68 71
1.177257e+000 -4.430429e-001 -6.080382e+000 153 33 37
-2.781499e-001 1.954450e-001 -7.742725e+000 215 73 82
-1.583379e-001 2.747007e-001 -7.217756e+000 174 161 145
-7.456785e-003 4.696397e-001 -7.101572e+000 148 136 124
-2.066187e-001 -1.318920e-001 -7.513234e+000 174 166 153
-4.284249e-001 1.954878e-002 -6.869406e+000 92 38 33
1.036285e-001 -3.322249e-002 -6.689761e+000 164 154 144
1.036285e-001 -3.322249e-002 -6.689761e+000 164 154 144
5.900079e-001 4.685497e-002 -6.492599e+000 198 188 179
6.234514e-001 4.634407e-002 -6.497360e+000 173 161 149
4.162190e-001 -4.497468e-001 -6.707220e+000 119 102 62
-1.311632e-001 4.751850e-001 -7.376652e+000 148 138 126
-2.747186e-001 4.489344e-002 -6.737479e+000 68 23 18
-7.515552e-001 -2.095616e-001 -6.286453e+000 163 82 52
2.701905e-001 8.287371e-002 -6.666847e+000 171 159 147
6.647593e-001 2.911564e-002 -6.480154e+000 197 187 177
5.161015e-001 -1.124244e+000 -7.107927e+000 245 230 171
5.145177e-001 -5.226211e-001 -6.708558e+000 78 60 27
9.222813e-001 2.362600e-001 -6.294576e+000 254 254 246
-1.266229e-001 2.985650e-001 -7.152317e+000 131 117 101
6.418820e-001 1.892860e-001 -6.699216e+000 158 150 139
5.769731e-001 -4.514958e-001 -6.620619e+000 114 96 56
1.049608e+000 2.956803e-001 -6.241602e+000 232 71 79
4.159860e-001 1.110288e+000 -6.819731e+000 240 236 232
6.364708e-001 9.817249e-001 -6.623980e+000 217 57 64
1.127434e+000 -7.840203e-001 -6.270207e+000 244 88 99
-4.430431e-002 1.337012e+000 -7.304402e+000 24 17 18
2.324781e-001 2.946635e-001 -6.877517e+000 136 124 110
6.639431e-001 -5.419374e-001 -6.597779e+000 232 215 159
6.501358e-001 -5.184640e-001 -6.571947e+000 232 215 159
-1.026065e-001 1.122560e+000 -7.339804e+000 144 26 31
