ply
format ascii 1.0
element vertex 734
property float x
property float y
property float z
property float nx
property float ny
property float nz
property uchar diffuse_red
property uchar diffuse_green
property uchar diffuse_blue
end_header
0.882513 -1.14076 -10.8503 -0.587938 0.319146 0.743286 218 61 86
0.908392 -1.17671 -10.8213 -0.838836 0.19775 0.507198 203 49 73
0.986684 -1.1936 -10.7576 -0.224151 -0.382018 0.896559 195 44 68
1.06656 -1.16903 -10.7296 -0.452098 0.103391 0.885956 195 42 67
1.1438 -1.19122 -10.6519 -0.795297 -0.297614 0.528137 178 32 55
1.1598 -1.20595 -10.6564 -0.516644 -0.0327271 0.855574 170 25 47
1.19698 -1.20257 -10.6274 -0.329907 0.0226176 0.943742 177 36 57
1.24012 -1.20427 -10.6141 -0.273326 0.223718 0.935544 189 48 70
1.23579 -1.18439 -10.614 -0.508415 -0.220177 0.832488 174 35 57
1.3355 -1.22955 -10.5644 -0.590379 0.247135 0.76836 171 29 52
1.4034 -1.23818 -10.501 -0.833391 0.0521576 0.550218 196 49 72
1.44155 -1.21634 -10.4851 0.169804 0.655753 0.735632 193 45 68
1.48443 -1.25208 -10.4556 0.0485254 0.49564 0.867171 188 41 64
1.50426 -1.2183 -10.4669 -0.364645 -0.222083 0.904275 207 59 82
1.67341 -1.2641 -10.3697 -0.352433 0.773672 0.526519 180 37 60
1.6719 -1.26441 -10.3705 -0.360504 0.770744 0.525349 179 37 60
1.67315 -1.23059 -10.4155 -0.0518812 0.744721 0.665357 173 34 56
1.70626 -1.25948 -10.3748 -0.209238 0.805961 0.553756 204 58 81
1.75267 -1.26526 -10.3205 0.0140683 0.703739 0.710319 195 47 68
1.82872 -1.26168 -10.2185 -0.857567 0.0593651 0.510935 171 30 51
1.91444 -1.30407 -10.0681 -0.795124 0.204031 0.571095 218 65 89
1.91342 -1.30603 -10.0807 -0.776306 0.0910403 0.623747 216 64 88
1.94943 -1.2829 -10.0259 -0.862808 0.139168 0.485998 221 60 86
1.969 -1.29801 -10.045 -0.519245 0.150038 0.841352 215 53 79
2.04519 -1.32243 -9.94194 -0.215066 0.386126 0.897025 190 37 61
2.09768 -1.32148 -9.93758 0.510919 -0.182092 0.840122 197 47 69
2.15853 -1.31626 -9.88464 -0.607114 0.307444 0.732729 206 53 75
2.21216 -1.32987 -9.84399 0.127236 0.0298159 0.991424 176 37 58
2.25487 -1.33301 -9.8586 -0.274143 0.228009 0.934269 147 35 54
2.4807 -1.3213 -10 -0.909424 -0.0348598 0.414407 109 35 47
2.51282 -1.35253 -9.83946 -0.916009 -0.0665301 0.395603 139 55 69
2.53634 -1.37315 -9.76408 -0.799202 -0.00654796 0.601027 191 64 85
2.56983 -1.35087 -9.71533 -0.644141 0.0747461 0.761246 208 55 80
2.59404 -1.37516 -9.67046 -0.752797 -0.054604 0.655984 204 55 77
2.65668 -1.37382 -9.66642 -0.510868 -0.228331 0.828782 174 47 66
2.76 -1.38286 -9.625 -0.627501 0.353141 0.693926 162 37 57
2.80733 -1.40422 -9.595 -0.624029 0.144115 0.767997 193 48 69
2.85784 -1.38161 -9.55326 -0.43753 -0.198996 0.876908 199 51 72
2.90372 -1.40556 -9.5976 -0.681802 -0.136935 0.718606 177 33 54
2.9025 -1.40623 -9.58134 -0.42875 -0.428961 0.795089 179 34 56
2.92552 -1.42023 -9.51885 -0.56138 -0.0269686 0.827119 179 35 56
2.96723 -1.40543 -9.52882 -0.890798 0.242026 0.384581 190 46 64
3.00198 -1.39586 -9.49055 -0.715335 0.431568 0.549586 192 48 67
3.02218 -1.42544 -9.46176 -0.60498 0.192034 0.772737 174 31 50
3.05546 -1.41388 -9.43331 -0.554011 -0.286007 0.781839 174 31 50
3.09019 -1.42094 -9.39066 -0.539889 0.118171 0.8334 205 57 78
3.12578 -1.4092 -9.38186 -0.413704 0.303694 0.858265 195 47 68
3.17469 -1.42085 -9.3645 -0.240089 0.394948 0.886777 186 38 59
3.42789 -1.458 -9.29468 -0.797315 0.226335 0.559519 177 40 57
3.46516 -1.45712 -9.28478 -0.173302 -0.680206 0.712241 147 25 39
3.50576 -1.47831 -9.30805 0.0301407 -0.609998 0.79183 160 35 49
3.57426 -1.45592 -9.2818 -0.774918 0.02508 0.631564 174 46 60
3.54256 -1.47787 -9.29636 -0.186768 0.0366475 0.98172 176 47 61
3.61516 -1.48632 -9.29594 -0.053123 -0.450471 0.891209 150 33 43
3.67362 -1.46271 -9.2442 0.306884 -0.630213 0.7132 151 33 45
3.6566 -1.48876 -9.30409 -0.114783 -0.0925134 0.989073 150 33 44
3.83105 -1.4721 -9.35058 -0.215859 -0.755152 0.618992 153 36 46
3.93771 -1.4959 -9.38935 0.353305 -0.593853 0.722852 154 38 47
3.98925 -1.47884 -9.38607 -0.151448 -0.648818 0.74572 143 32 39
4.40678 -1.48802 -9.76365 -0.32545 -0.537282 0.778081 112 29 36
4.52955 -1.5189 -9.83657 -0.668764 -0.0717449 0.740005 129 30 36
4.54829 -1.49048 -9.78132 -0.705463 -0.130859 0.696561 141 38 43
4.60593 -1.51733 -9.84478 -0.852586 -0.255397 0.455927 142 38 42
4.82204 -1.51534 -9.88847 0.165574 -0.533815 0.829233 140 39 42
4.87157 -1.50679 -9.8884 -0.691066 -0.0346709 0.72196 152 52 52
4.91781 -1.52636 -9.86205 -0.912174 0.103311 0.396567 137 46 44
5.59304 -1.55899 -10.4133 -0.957239 -0.0101992 0.289119 119 60 39
5.59518 -1.54573 -10.2739 -0.953167 0.0267449 0.301259 125 66 42
5.62335 -1.53339 -10.3827 -0.532219 -0.255842 0.807024 123 63 41
5.66579 -1.54017 -10.27 -0.890752 0.0175044 0.454153 151 99 56
5.69186 -1.57339 -10.2403 -0.942482 0.00722253 0.334178 164 117 61
5.74343 -1.56352 -10.1816 -0.88903 0.0189578 0.457456 182 140 71
5.78945 -1.5668 -10.102 -0.786921 -0.119404 0.605391 182 140 66
5.82116 -1.58896 -10.0838 -0.624974 0.00443859 0.780633 198 157 80
5.86321 -1.588 -9.96548 -0.962994 0.0201956 0.268764 198 160 79
5.89894 -1.60547 -9.93027 -0.972304 -0.1094 0.206536 200 164 85
5.90057 -1.60125 -9.92468 -0.973272 -0.0947138 0.209215 201 165 85
5.94875 -1.60849 -9.87156 -0.961985 0.158416 0.222461 201 163 84
5.99928 -1.59783 -9.78619 -0.643358 0.395337 0.655591 202 164 85
6.06876 -1.62297 -9.65469 -0.755233 0.199402 0.62439 204 166 87
6.09848 -1.63928 -9.62263 -0.663006 -0.117719 0.739301 196 158 80
6.15012 -1.63775 -9.5538 -0.895848 -0.09221 0.434688 204 165 88
6.17921 -1.63692 -9.43766 -0.899662 -0.343559 0.269397 199 162 84
6.18195 -1.6331 -9.51201 -0.899798 -0.0519337 0.433206 204 164 88
6.20786 -1.66112 -9.47298 -0.911109 -0.085673 0.403164 198 159 82
6.23888 -1.65964 -9.43913 -0.479834 -0.111335 0.870267 195 157 80
6.27483 -1.66803 -9.40939 -0.812536 -0.169774 0.55764 204 167 89
6.30834 -1.67328 -9.3538 -0.97917 -0.0398679 0.19909 205 169 91
6.33952 -1.68405 -9.27315 -0.894505 0.0630433 0.44259 205 172 94
6.39364 -1.67559 -9.18573 -0.96676 -0.0633039 0.247726 209 175 98
6.43488 -1.67798 -9.10754 -0.139137 -0.478808 0.866824 206 172 95
6.48886 -1.69139 -9.0327 -0.985745 -0.0170575 0.167379 206 174 96
6.50282 -1.70739 -8.9705 -0.754005 -0.0782686 0.652189 205 171 94
6.5353 -1.69284 -8.96091 -0.777564 -0.374322 0.505249 201 169 91
6.55096 -1.71921 -8.90498 -0.850821 -0.0111959 0.525336 197 164 87
6.54585 -1.72593 -8.90162 -0.747632 -0.458371 0.480565 197 165 89
6.55748 -1.71649 -8.92563 -0.592273 0.106564 0.79866 197 163 86
6.61698 -1.72757 -8.88022 -0.479873 0.349074 0.804903 206 174 98
6.6076 -1.7135 -8.86722 -0.581189 0.655534 0.482177 205 173 97
6.60125 -1.70845 -8.85148 -0.843209 -0.0511212 0.535149 205 173 97
6.651 -1.73534 -8.78556 -0.89929 0.0540037 0.434005 214 184 107
6.65165 -1.72761 -8.78618 -0.874349 -0.0489922 0.482818 215 184 108
6.67464 -1.75161 -8.74906 -0.768252 -0.0868193 0.634232 206 175 98
6.69653 -1.73736 -8.71301 -0.932095 -0.125844 0.339649 205 174 97
6.79662 -1.74835 -8.58406 -0.982871 -0.0712546 0.169966 204 172 95
6.84597 -1.7589 -8.51345 -0.971054 -0.0373753 0.235919 202 171 95
6.85318 -1.76524 -8.48906 -0.963241 -0.0914123 0.252607 201 171 95
6.89309 -1.76373 -8.42326 -0.801301 0.0784143 0.5931 200 169 93
6.92108 -1.77665 -8.39379 -0.666154 0.0298099 0.745218 203 173 98
7.03442 -1.80476 -8.17864 -0.967855 -0.129547 0.21558 206 175 102
7.0844 -1.80422 -8.13114 -0.986703 -0.0434372 0.156621 185 155 85
7.14132 -1.82386 -8.05173 -0.947475 -0.271281 0.169403 195 166 99
7.16661 -1.80242 -8.02874 -0.813006 -0.0214665 0.581859 192 162 97
7.21002 -1.82919 -8.04006 -0.892523 0.0596947 0.447035 174 142 83
7.1901 -1.83641 -8.00743 -0.994115 -0.0479383 0.0971471 175 142 82
7.15588 -1.82807 -7.78879 -0.768969 0.600194 0.220121 149 113 78
7.15285 -1.8404 -7.62426 -0.995471 -0.0475421 0.0823188 99 61 49
7.17449 -1.82979 -7.67064 -0.994595 -0.0589876 0.0854441 100 61 49
7.15285 -1.8404 -7.62426 -0.995471 -0.0475421 0.0823188 99 61 49
-6.77315 -0.142413 -18.3226 0.946415 0.190827 0.260545 103 67 81
-6.73062 -0.172482 -18.3781 -0.0201707 0.59081 0.806559 175 90 111
-6.45809 -0.168189 -18.3545 0.0357034 0.675323 0.736657 168 48 75
-6.39313 -0.189819 -18.2159 -0.0396181 0.37165 0.927527 154 37 63
-6.3221 -0.16028 -18.366 0.359074 0.590076 0.723102 152 39 65
-6.28875 -0.196058 -18.2507 0.697388 0.435778 0.568987 149 37 63
-6.15306 -0.204323 -17.9796 0.571533 0.269159 0.77518 144 36 61
-6.08715 -0.212704 -17.9722 0.581547 0.313074 0.750858 151 41 66
-6.03264 -0.233132 -18.0061 0.417842 0.439801 0.794974 191 69 97
-5.97786 -0.234114 -18.0505 0.63807 0.365154 0.677886 205 69 102
-5.44288 -0.321387 -17.0097 -0.678347 -0.215096 0.702552 217 69 106
-5.03589 -0.405624 -16.2966 -0.566886 0.278442 0.775313 219 65 100
-4.6917 -0.459205 -15.86 -0.328228 0.12023 0.936916 203 52 82
-4.49228 -0.506764 -15.6885 -0.683767 -0.0905079 0.724066 224 70 101
-4.42631 -0.501432 -15.6383 -0.379574 0.334896 0.86242 216 62 92
-4.29255 -0.514775 -15.5086 -0.70905 -0.108657 0.696737 211 59 90
-4.16211 -0.513517 -15.3488 -0.656982 -0.274364 0.70221 221 68 99
-4.10817 -0.563663 -15.2973 -0.721594 -0.132672 0.679486 232 78 110
-4.02056 -0.565054 -15.2223 -0.252738 0.587757 0.768548 208 55 87
-3.95065 -0.580995 -15.1464 0.033181 0.802942 0.595133 223 70 103
-3.79781 -0.61132 -14.9418 -0.719986 -0.187004 0.668318 222 68 102
-3.72699 -0.60263 -14.8599 -0.720739 0.00248258 0.693203 222 64 97
-3.26529 -0.641518 -14.5754 -0.325113 0.710067 0.624585 172 74 96
-3.19382 -0.657033 -14.4956 -0.64903 -0.321871 0.689318 153 70 89
-3.12069 -0.672139 -14.4047 -0.761251 -0.0857063 0.642768 161 96 113
-2.92817 -0.675157 -14.2962 -0.439028 0.581437 0.684971 161 136 144
-2.77206 -0.730527 -14.2389 -0.690226 -0.326138 0.645927 176 148 158
-2.73102 -0.721328 -14.1459 -0.631975 0.435236 0.641231 178 150 158
-2.48558 -0.754322 -13.7348 -0.752806 -0.184797 0.63177 223 61 97
-2.39843 -0.772527 -13.6048 -0.784539 -0.0662779 0.616528 227 69 99
-2.35489 -0.767232 -13.5371 -0.773138 -0.107662 0.625033 235 75 107
-2.09635 -0.831968 -13.2015 -0.599872 -0.45048 0.661228 219 60 92
-1.89696 -0.840449 -12.8909 -0.756241 -0.178811 0.629385 212 52 80
-1.76811 -0.874456 -12.7684 0.000127219 -0.794809 0.606859 221 57 87
-1.70849 -0.870606 -12.6842 -0.0338283 -0.393954 0.918508 198 37 67
-1.72938 -0.877749 -12.6987 -0.0139517 -0.693703 0.720126 211 48 78
-1.67989 -0.909929 -12.676 0.256659 -0.198149 0.945972 196 33 63
-1.60838 -0.907388 -12.6927 -0.660058 -0.417251 0.62468 197 41 67
-1.51375 -0.894155 -12.6521 0.699321 -0.367869 0.61288 212 57 81
-1.38784 -0.907652 -12.586 -0.429666 0.101813 0.89723 190 38 63
-1.34179 -0.90924 -12.5758 -0.200129 0.508192 0.837669 174 28 52
-1.19305 -0.921395 -12.5507 -0.611176 0.520122 0.596605 195 45 69
-1.14836 -0.921769 -12.5618 0.174585 0.267965 0.947478 182 38 62
-1.16919 -0.96039 -12.5512 0.201489 0.349331 0.915079 189 44 69
-1.1037 -0.923864 -12.5673 -0.228241 0.0296893 0.973152 168 36 57
-1.0579 -0.925027 -12.5803 0.0796861 0.383787 0.919977 168 42 62
-1.0341 -0.966605 -12.5874 0.407946 0.116987 0.90548 173 39 61
-1.01511 -0.927064 -12.6158 0.475019 0.0855104 0.875811 137 23 41
-1.00553 -0.937813 -12.6261 0.629477 -0.100994 0.770428 134 23 41
-0.966345 -0.964576 -12.6642 0.860079 0.0288471 0.509345 115 20 37
-0.932745 -0.928903 -12.7432 0.647599 0.324002 0.689665 117 21 38
-0.898815 -0.952031 -12.7438 0.335025 -0.488984 0.80539 95 19 32
-0.848369 -0.946109 -12.7403 0.516423 -0.361824 0.776139 91 18 32
-0.797484 -0.943233 -12.7118 0.537853 -0.279288 0.795433 112 24 39
-0.747356 -0.942761 -12.7124 0.364725 -0.314329 0.876455 152 35 54
-0.725248 -0.98137 -12.6632 -0.656215 0.0814384 0.750166 131 30 45
-0.667251 -0.950339 -12.6357 -0.649702 -0.0424168 0.759005 186 46 66
-0.642653 -0.994455 -12.6061 -0.494558 -0.0222795 0.868859 199 57 77
-0.596906 -0.996823 -12.5974 -0.22624 -0.252593 0.940751 182 40 61
-0.548291 -0.994189 -12.5662 0.101262 -0.544172 0.83284 173 36 58
-0.501064 -0.970772 -12.5745 0.170283 -0.173852 0.969938 185 44 65
-0.452808 -0.98656 -12.5828 0.425323 -0.427992 0.797448 185 42 64
-0.418031 -0.990506 -12.5973 0.467279 -0.317191 0.825252 185 44 66
-0.356591 -0.978939 -12.5569 -0.121741 0.580327 0.805233 183 41 64
-0.355262 -1.01503 -12.4844 -0.00681019 0.590649 0.8069 184 41 64
-0.300237 -0.992644 -12.4939 -0.0687624 0.770698 0.633479 190 47 69
-0.187018 -1.03057 -12.4443 0.0915483 0.651667 0.75296 201 49 73
-0.140111 -1.00708 -12.4199 -0.77283 0.0351276 0.63364 209 52 75
0.0437093 -1.06293 -12.1975 -0.850989 0.00910982 0.525105 212 50 74
0.317863 -1.10165 -11.5517 -0.745188 0.0362028 0.665871 229 67 93
0.383286 -1.14565 -11.4358 -0.844429 0.139196 0.517266 214 50 79
0.433384 -1.15327 -11.3487 -0.84033 0.165177 0.516297 220 55 82
0.493194 -1.12598 -11.2884 -0.365963 0.513519 0.776124 205 44 70
0.534516 -1.1418 -11.2809 -0.296074 0.686963 0.663643 202 44 70
0.612012 -1.15716 -11.2225 -0.864409 -0.0134905 0.502608 204 47 72
0.784671 -1.1858 -10.9529 -0.639393 -0.468551 0.609619 194 42 68
0.849942 -1.21289 -10.8888 -0.764627 0.296933 0.571993 200 47 71
0.869946 -1.19753 -10.8718 -0.717458 0.173676 0.674604 196 42 67
1.03079 -1.24034 -10.7176 0.264578 0.0522697 0.962947 214 61 85
1.10795 -1.21196 -10.6942 -0.768713 -0.0722567 0.635499 187 36 60
1.0704 -1.22848 -10.714 -0.537553 0.153345 0.829169 205 53 76
1.13736 -1.24142 -10.6672 -0.622573 0.0922655 0.777103 190 41 64
1.17695 -1.24005 -10.6383 -0.23641 0.338743 0.910694 191 43 66
1.21718 -1.24036 -10.6267 -0.366661 0.0177854 0.930185 210 59 82
1.25646 -1.23938 -10.5995 -0.315416 0.318166 0.894027 220 68 92
1.29673 -1.23963 -10.594 -0.206498 0.257298 0.944011 195 47 70
1.2724 -1.25352 -10.5866 -0.481838 0.35532 0.800987 220 65 89
1.36367 -1.25986 -10.53 -0.68912 0.100369 0.717663 181 34 60
1.40188 -1.27391 -10.4526 0.0390767 0.694858 0.718084 204 52 76
1.44149 -1.25227 -10.4544 0.0615845 0.636596 0.768735 189 40 63
1.44421 -1.27149 -10.4468 0.170077 0.497896 0.850396 196 46 69
1.48535 -1.28956 -10.437 -0.0280238 0.65537 0.754788 183 36 58
1.52786 -1.29174 -10.4347 -0.22756 0.397258 0.889046 161 23 45
1.52501 -1.26894 -10.4387 -0.35103 0.468357 0.810814 169 30 51
1.57639 -1.2945 -10.403 -0.329477 0.781985 0.529098 166 31 52
1.59018 -1.30453 -10.4003 -0.770549 -0.00404458 0.637369 178 38 61
1.62637 -1.28959 -10.3708 -0.18961 0.809157 0.556159 176 34 58
1.61883 -1.30252 -10.3532 -0.410199 0.749025 0.520288 190 44 68
1.62496 -1.28963 -10.3715 -0.183847 0.808321 0.559301 175 34 57
1.61889 -1.30183 -10.3594 -0.379511 0.763494 0.52254 188 43 67
1.65739 -1.29262 -10.3392 -0.423186 0.743183 0.518259 190 43 67
1.70073 -1.30186 -10.3216 0.0774182 0.710358 0.69957 203 53 75
1.76412 -1.31912 -10.2895 -0.732778 -0.406892 0.545413 174 32 53
1.80028 -1.29442 -10.2825 -0.831614 -0.282872 0.477914 166 28 50
1.82859 -1.32491 -10.2217 -0.835108 0.0059971 0.550053 146 20 40
1.85831 -1.29889 -10.195 -0.890777 0.118111 0.438823 173 40 59
1.88286 -1.34041 -10.1542 -0.892682 0.112004 0.436547 168 41 60
1.93684 -1.34232 -10.0435 -0.662179 0.476924 0.577981 207 58 82
1.94018 -1.34938 -10.059 -0.802064 0.0644804 0.593748 207 59 83
1.97685 -1.33748 -10.0211 -0.473032 0.406864 0.781474 220 61 86
2.00034 -1.35435 -9.98525 -0.847152 -0.00264586 0.531345 209 50 75
2.03357 -1.32594 -9.97764 -0.673985 0.163865 0.720342 196 41 66
2.06081 -1.35706 -9.92314 -0.507605 0.297323 0.808663 183 31 56
2.13838 -1.3587 -9.89105 -0.68015 0.234714 0.694482 217 65 87
2.17387 -1.34958 -9.85403 -0.446905 0.495747 0.744655 206 54 76
2.19259 -1.36526 -9.84294 0.0245352 -0.334227 0.942173 198 46 69
2.18288 -1.38286 -9.82359 -0.54783 0.380845 0.744875 201 48 71
2.22949 -1.36079 -9.82311 0.0427918 -0.0723554 0.996461 177 35 58
2.24578 -1.39016 -9.7994 0.453806 -0.39128 0.8006 184 38 62
2.29661 -1.36383 -9.80813 0.104604 0.0721775 0.991891 132 30 46
2.33763 -1.3714 -9.81629 -0.518734 0.439923 0.733064 121 32 46
2.50572 -1.39811 -9.78682 -0.808482 -0.122818 0.575563 138 49 62
2.56666 -1.39719 -9.72934 -0.73474 -0.0234898 0.677942 205 55 79
2.63064 -1.40204 -9.67166 -0.765976 -0.204375 0.609518 187 46 67
2.73438 -1.40804 -9.70649 -0.923066 0.0422285 0.382316 161 40 60
2.80315 -1.41725 -9.63707 -0.888299 0.237326 0.393193 187 45 66
2.87634 -1.433 -9.60798 -0.53927 -0.164247 0.82596 197 50 71
2.90415 -1.44756 -9.58803 -0.928591 0.0144321 0.370823 181 35 57
2.98756 -1.43746 -9.48171 -0.248107 0.719757 0.648377 173 28 48
3.00827 -1.46684 -9.45624 -0.408576 0.223457 0.884948 178 33 54
3.04436 -1.45433 -9.44558 -0.54236 0.0392192 0.83923 186 41 60
3.07036 -1.47832 -9.40814 -0.539142 0.158342 0.827196 207 59 79
3.11799 -1.45065 -9.38748 -0.245691 0.335206 0.909545 203 55 76
3.13558 -1.48414 -9.3812 -0.553892 -0.243075 0.796315 185 40 60
3.15796 -1.4532 -9.39078 -0.432855 0.190949 0.881008 184 37 59
3.1977 -1.4668 -9.39625 0.408064 -0.401504 0.819926 188 42 62
3.24306 -1.47768 -9.27916 -0.879572 0.208778 0.427511 190 47 65
3.28478 -1.47695 -9.25698 0.574889 0.2554 0.777351 173 33 52
3.39013 -1.47861 -9.32789 -0.796329 0.233574 0.557945 201 56 76
3.45141 -1.49566 -9.28888 -0.825672 0.248909 0.506271 172 41 56
3.5661 -1.50217 -9.25152 -0.529232 -0.572054 0.626632 163 38 51
3.5868 -1.51667 -9.26919 -0.54388 -0.558993 0.625876 155 34 47
3.638 -1.52198 -9.30225 0.385561 0.586196 0.712542 137 25 34
3.72019 -1.50704 -9.29803 0.700998 0.255224 0.66593 153 37 48
3.7564 -1.52776 -9.34762 0.625808 0.416756 0.659302 150 36 46
3.89123 -1.50613 -9.3866 -0.0839788 -0.755605 0.649622 166 48 57
3.99202 -1.51979 -9.43494 0.412863 -0.0347223 0.910131 155 40 47
4.03324 -1.53155 -9.44054 -0.606989 -0.538315 0.58462 151 41 47
4.07763 -1.5359 -9.41013 -0.708841 -0.472143 0.524048 128 35 40
4.42531 -1.52185 -9.81223 -0.914051 -0.236581 0.329455 111 27 34
4.51404 -1.55494 -9.85683 -0.299064 -0.135286 0.944594 124 29 35
4.55167 -1.55443 -9.8393 -0.374764 -0.244994 0.894164 144 39 44
4.96036 -1.5912 -9.84337 0.453552 0.0622071 0.889056 119 49 40
5.44361 -1.61427 -10.0346 -0.972256 0.00436855 0.233879 124 67 40
5.6189 -1.58099 -10.2351 -0.956543 -0.01537 0.291186 144 90 50
5.6695 -1.60824 -10.2874 -0.947629 0.0399096 0.316871 159 109 59
5.72122 -1.60604 -10.2173 -0.926291 0.0267281 0.37586 178 134 68
5.73801 -1.60657 -10.1758 -0.870044 -0.0433388 0.491066 177 134 65
5.76714 -1.59585 -10.1376 -0.693198 -0.246032 0.677455 177 134 62
5.79026 -1.61104 -10.1055 -0.806914 0.0974584 0.582573 192 152 76
5.81826 -1.63369 -10.0757 -0.823478 -0.131229 0.551963 194 155 78
5.84318 -1.61239 -10.0354 -0.813009 0.109292 0.571902 194 156 77
5.87354 -1.64366 -9.98405 -0.96972 -0.0754061 0.232289 201 162 83
5.90556 -1.63699 -9.8811 -0.354991 -0.294889 0.887142 201 164 85
5.91707 -1.63106 -9.89281 -0.636134 0.236317 0.734499 201 164 84
5.9423 -1.65795 -9.86046 -0.816494 0.0399968 0.575967 191 153 73
5.96611 -1.63313 -9.81719 -0.934279 0.0285183 0.355401 197 160 80
5.99066 -1.65531 -9.77764 -0.92637 0.0734593 0.36938 203 165 86
6.03285 -1.65811 -9.66818 -0.951834 -0.200739 0.231768 202 166 87
6.07373 -1.66603 -9.64708 -0.626866 -0.350182 0.695997 203 165 86
6.12715 -1.6663 -9.5894 -0.891941 -0.0960289 0.441837 201 163 85
6.14914 -1.69248 -9.54184 -0.891803 -0.0563291 0.448904 203 165 87
6.22789 -1.69682 -9.46626 -0.520465 -0.397918 0.755498 198 159 82
6.26211 -1.69622 -9.44074 -0.569381 -0.285688 0.770836 206 169 91
6.27807 -1.71553 -9.39114 -0.934331 -0.0684269 0.349776 207 171 92
6.30221 -1.68732 -9.36862 -0.967501 -0.0483898 0.248194 205 169 90
6.31911 -1.72153 -9.3103 -0.98168 -0.0886569 0.168653 204 170 91
6.36648 -1.71459 -9.25241 -0.849007 -0.00526017 0.528356 207 174 96
6.37576 -1.7066 -9.23302 -0.843074 -0.153043 0.515561 208 175 96
6.39321 -1.74049 -9.17559 -0.957185 0.176157 0.229706 202 169 92
6.41983 -1.7119 -9.1371 -0.70158 0.204212 0.682703 203 169 92
6.4449 -1.73013 -9.06475 -0.521353 0.51728 0.678685 206 174 97
6.4449 -1.73013 -9.06475 -0.521353 0.51728 0.678685 205 172 95
6.48131 -1.72984 -9.10329 -0.975455 -0.139425 0.170438 207 175 97
6.4801 -1.75615 -9.00278 -0.88454 -0.064232 0.462021 205 172 94
6.47252 -1.73022 -8.98194 -0.193748 0.848315 0.492771 205 172 94
6.52449 -1.74814 -8.92707 -0.983142 -0.0570095 0.173728 197 164 86
6.58422 -1.74352 -8.8974 -0.926793 -0.0432681 0.373072 205 172 96
6.62815 -1.75754 -8.81804 -0.943266 0.00305171 0.332024 215 184 107
6.67431 -1.76312 -8.7477 -0.911271 -0.338483 0.234551 204 175 98
6.67373 -1.76497 -8.74501 -0.793125 0.108865 0.59925 205 174 97
6.70266 -1.77099 -8.72175 -0.728411 0.00310768 0.685133 207 176 98
6.69867 -1.79016 -8.72539 -0.919615 -0.0529665 0.389234 206 176 100
6.76274 -1.77808 -8.58748 -0.672527 0.139146 0.726874 206 174 97
6.83329 -1.81333 -8.51468 -0.887401 -0.14921 0.436183 203 171 96
6.83392 -1.80751 -8.51433 -0.848279 -0.0870249 0.52235 203 171 96
6.85732 -1.79759 -8.4866 -0.914262 -0.0017547 0.405119 205 173 98
6.8748 -1.79507 -8.4473 -0.712176 -0.214139 0.668543 201 171 97
6.89895 -1.80369 -8.42389 -0.531167 -0.27198 0.802427 201 170 95
6.90045 -1.80314 -8.42025 -0.596393 -0.131019 0.791928 202 171 95
7.01544 -1.83914 -8.20767 -0.959674 -0.196213 0.201313 204 173 100
7.05372 -1.84093 -8.13968 -0.968959 -0.0532481 0.241418 192 162 91
7.10345 -1.83795 -8.08961 -0.85596 -0.0531954 0.514298 202 172 103
7.12768 -1.84842 -8.0967 -0.995126 -0.0134581 0.0976933 199 169 101
7.17371 -1.84776 -8.04085 -0.897657 -0.144252 0.416417 184 153 91
7.14114 -1.85522 -7.88975 -0.992137 -0.0195659 0.123619 168 134 81
7.13596 -1.85676 -7.81708 -0.988584 -0.106757 0.106327 151 115 76
7.13883 -1.85614 -7.72192 -0.913825 0.382285 0.137049 111 74 55
-6.72026 -0.228083 -18.2634 -0.160763 0.756196 0.634289 216 81 118
-6.70955 -0.232464 -18.2598 -0.242363 0.716698 0.653915 220 79 115
-6.63622 -0.197933 -18.303 -0.0177001 0.802978 0.595746 210 73 104
-6.52339 -0.25145 -18.1811 0.626705 0.156589 0.763362 173 45 74
-6.53558 -0.20325 -18.3456 0.169006 0.274867 0.946512 164 42 69
-6.33156 -0.253492 -18.1301 0.72733 0.399116 0.558299 150 38 63
-6.36859 -0.267514 -18.118 0.716388 0.441709 0.540076 148 35 61
-5.98466 -0.282326 -17.9715 0.544285 0.245615 0.80214 212 70 104
-5.47291 -0.391241 -17.0017 -0.667764 -0.204491 0.715734 214 65 102
-4.96563 -0.462472 -16.1178 -0.530205 0.381289 0.757299 217 60 96
-4.88838 -0.508911 -16.0185 -0.264032 0.62956 0.730713 231 76 110
-4.8108 -0.510246 -16.0144 0.271344 -0.0252659 0.962151 220 65 97
-4.65526 -0.50554 -15.8368 0.237252 -0.174897 0.955575 208 57 87
-4.58343 -0.50358 -15.7665 0.44327 0.534359 0.719703 218 65 96
-4.4599 -0.550112 -15.6074 -0.325282 0.479069 0.815282 222 67 98
-4.36464 -0.536161 -15.5279 -0.723246 -0.107921 0.682106 195 44 73
-4.33546 -0.575996 -15.5307 -0.700057 -0.183773 0.690034 199 48 81
-4.22653 -0.558384 -15.4247 -0.707918 -0.0279637 0.705741 230 75 108
-4.16312 -0.604081 -15.3272 -0.695511 0.0407462 0.717359 235 79 112
-4.08841 -0.59492 -15.2382 -0.0363828 0.706262 0.707016 218 63 96
-4.02148 -0.614566 -15.178 -0.153732 0.689131 0.708142 195 43 75
-3.95449 -0.6326 -15.1163 -0.613972 0.414046 0.672015 206 54 86
-3.71731 -0.66984 -14.853 -0.715815 0.197526 0.669771 218 61 94
-3.6188 -0.686065 -14.7305 -0.635511 0.106853 0.764663 233 74 107
-3.2553 -0.730165 -14.3218 -0.0582844 0.811381 0.581605 233 77 110
-3.19394 -0.714686 -14.3857 0.0894127 0.826231 0.55619 205 70 100
-3.12639 -0.730675 -14.3261 -0.308499 0.723032 0.618105 194 69 97
-2.64965 -0.806744 -14.0148 -0.338727 0.0444936 0.939832 162 109 120
-2.67926 -0.760101 -14.0563 -0.631271 0.0624087 0.773048 166 128 138
-2.60716 -0.772574 -14.002 -0.53467 -0.0322402 0.844446 189 134 145
-2.55587 -0.80728 -13.972 -0.713966 -0.101672 0.69276 205 107 127
-2.26874 -0.869537 -13.4479 -0.726682 -0.221375 0.650329 205 49 78
-2.17137 -0.875678 -13.3 -0.302369 -0.620599 0.723484 215 56 86
-2.10467 -0.857938 -13.2024 -0.264299 -0.710826 0.651823 220 61 92
-2.04023 -0.899636 -13.1623 -0.618341 -0.458083 0.638603 217 57 87
-2.00407 -0.862063 -13.1426 -0.708076 -0.321723 0.628588 216 56 85
-1.94875 -0.89981 -13.0649 -0.783663 -0.104376 0.612354 193 38 65
-1.89713 -0.92173 -13.0248 -0.61082 -0.139505 0.779383 207 54 80
-1.84318 -0.924815 -12.8988 -0.793676 0.0491619 0.606351 233 72 100
-1.73479 -0.911834 -12.7168 -0.0184759 -0.261066 0.965144 210 46 76
-1.58374 -0.967227 -12.6866 -0.593864 -0.235529 0.769319 223 65 91
-1.5491 -0.947973 -12.7052 0.33199 -0.749301 0.573001 204 47 73
-1.5491 -0.947973 -12.7052 0.33199 -0.749301 0.573001 204 47 73
-1.54887 -0.955649 -12.7032 -0.0411669 -0.686485 0.725978 205 48 75
-1.49093 -0.933542 -12.6486 0.653013 -0.388266 0.650249 205 49 74
-1.41358 -0.95295 -12.5956 -0.443322 0.141976 0.885047 205 48 74
-1.36682 -0.953449 -12.5769 -0.4407 0.0678929 0.895083 195 41 66
-1.29857 -0.982374 -12.5539 -0.0421824 0.698965 0.71391 192 43 67
-1.24785 -0.998312 -12.5113 0.271245 0.697931 0.662811 185 38 62
-1.24767 -0.957566 -12.5486 -0.0402075 0.670285 0.741014 192 46 69
-1.19917 -0.995088 -12.5149 -0.0405665 0.535971 0.843261 183 38 64
-1.15733 -1.00911 -12.5278 0.197437 0.388037 0.900248 178 38 63
-1.11406 -1.01013 -12.5525 0.358152 0.183027 0.915548 169 31 54
-1.07112 -0.986807 -12.5528 0.833065 -0.265859 0.4851 179 40 63
-1.03717 -1.01659 -12.5642 0.583321 -0.0509646 0.810642 179 38 62
-0.998613 -0.995351 -12.6064 0.712044 0.0665895 0.69897 157 32 54
-0.957132 -1.01714 -12.6076 0.656313 0.0761016 0.750641 113 24 40
-0.928503 -0.987723 -12.671 0.170866 0.766791 0.618737 92 19 33
-0.891026 -1.00632 -12.6287 -0.573522 0.573986 0.584476 84 19 32
-0.878569 -0.986823 -12.6905 0.509861 -0.148762 0.847297 84 16 30
-0.828519 -0.981174 -12.6895 0.691461 -0.212952 0.690314 89 19 32
-0.718161 -0.99064 -12.6508 -0.602047 0.315463 0.7335 131 31 46
-0.667167 -1.04039 -12.6166 -0.489722 0.060322 0.869789 175 42 61
-0.619287 -1.04204 -12.6028 0.131835 0.00565561 0.991256 181 43 64
-0.574202 -1.04227 -12.6105 -0.0398646 -0.0659323 0.997028 152 29 48
-0.527544 -1.03948 -12.5881 -0.141682 -0.14434 0.979333 132 21 39
-0.500213 -1.01452 -12.5831 0.18338 -0.532915 0.826059 166 35 57
-0.401219 -1.04331 -12.5251 -0.0942386 0.697745 0.71012 200 56 79
-0.325204 -1.05603 -12.477 -0.761603 -0.00514715 0.648024 181 38 60
-0.187833 -1.07368 -12.4244 0.238541 0.803986 0.544707 199 48 71
-0.0998623 -1.08573 -12.3198 0.316717 -0.576344 0.753338 197 41 65
-0.04212 -1.10263 -12.2597 0.040327 -0.690712 0.722005 215 57 81
0.00300678 -1.10358 -12.2581 -0.847926 0.0367111 0.528842 223 61 86
0.386935 -1.18876 -11.4282 -0.832382 -0.176175 0.525455 221 57 85
0.491155 -1.18695 -11.2499 -0.597279 0.0829415 0.797733 220 56 83
0.534596 -1.18696 -11.2308 -0.354661 0.457014 0.815692 211 49 76
0.534078 -1.17814 -11.216 -0.543627 0.387998 0.744263 208 47 73
0.57631 -1.18607 -11.2069 -0.240318 0.299518 0.923329 216 57 83
0.593675 -1.21922 -11.1533 -0.665755 0.250269 0.702948 212 52 78
0.710119 -1.22841 -11.0237 -0.649605 -0.0142839 0.760138 196 42 67
0.747507 -1.20753 -10.9911 -0.543404 0.0710898 0.836456 194 40 65
0.809011 -1.23284 -10.93 -0.771502 0.256347 0.582298 191 38 63
0.870595 -1.25438 -10.857 -0.703932 -0.153041 0.693583 223 66 91
0.868593 -1.25558 -10.86 -0.718644 0.0444263 0.693957 223 65 90
0.895321 -1.23255 -10.8292 -0.733737 0.102803 0.671611 221 65 89
0.94595 -1.24575 -10.7421 -0.715085 0.121865 0.688333 211 58 82
1.10088 -1.26137 -10.6983 -0.719018 0.0869391 0.689533 208 54 79
1.06363 -1.28327 -10.7116 -0.10842 -0.0176712 0.993948 214 60 84
1.1303 -1.29083 -10.6712 -0.726521 0.356321 0.587539 204 49 74
1.15526 -1.27657 -10.6624 -0.642805 0.149721 0.751256 195 42 67
1.19683 -1.27744 -10.6321 -0.533142 -0.00651173 0.846001 193 39 64
1.24885 -1.2942 -10.5954 -0.672996 0.204601 0.710784 210 53 79
1.28793 -1.29023 -10.5645 -0.523658 0.315441 0.791378 215 58 82
1.32612 -1.27906 -10.5362 -0.536062 0.190013 0.822516 200 47 72
1.36388 -1.29544 -10.499 -0.107751 0.620145 0.777052 189 36 62
1.48601 -1.32374 -10.4003 -0.104438 0.806208 0.582341 203 52 74
1.51463 -1.32828 -10.3917 -0.0736399 0.811295 0.579981 188 41 64
1.50935 -1.32418 -10.4122 -0.0881201 0.608561 0.788599 188 41 64
1.53278 -1.30037 -10.4028 -0.140278 0.763479 0.630415 162 23 45
1.55479 -1.32834 -10.3733 -0.311692 0.759036 0.571588 183 39 62
1.59398 -1.33661 -10.3433 -0.273305 0.526956 0.804749 209 57 81
1.57346 -1.3302 -10.3535 -0.07823 0.682995 0.726222 195 48 72
1.57536 -1.33086 -10.3625 -0.363449 0.556034 0.747483 196 48 72
1.58895 -1.30504 -10.4012 -0.753352 0.0246243 0.657156 178 38 61
1.63245 -1.33753 -10.3205 -0.504205 0.318844 0.802568 213 58 83
1.63748 -1.33429 -10.3175 -0.588785 0.244777 0.770336 211 56 81
1.61301 -1.33126 -10.3459 -0.528827 0.118702 0.840388 216 62 87
1.6139 -1.33113 -10.3455 -0.528584 0.12554 0.839547 216 62 87
1.67587 -1.33474 -10.3006 -0.331493 0.300441 0.894342 197 43 67
1.7635 -1.33381 -10.2571 -0.724852 -0.395407 0.56413 167 28 49
1.86125 -1.35904 -10.2052 -0.882606 0.162653 0.441079 152 32 50
1.90688 -1.38123 -10.1061 -0.892524 0.119383 0.434913 161 42 59
1.96845 -1.38134 -10.0279 -0.820595 0.076568 0.566358 210 54 80
2.03114 -1.3871 -9.95415 -0.793209 -0.0483398 0.607027 199 42 67
2.02864 -1.39239 -9.96383 -0.821504 0.00233399 0.570198 203 44 69
2.12074 -1.4021 -9.87632 -0.821258 0.0752279 0.565576 201 49 71
2.15664 -1.41915 -9.81953 -0.76884 0.176948 0.614471 209 54 78
2.20662 -1.38995 -9.79869 0.314738 -0.66956 0.672778 197 43 67
2.30266 -1.42079 -9.7693 -0.438815 0.63921 0.631548 181 41 63
2.3366 -1.40506 -9.77863 -0.384318 0.599191 0.702332 138 28 46
2.45532 -1.42944 -9.73628 0.235708 0.63566 0.735104 126 40 53
2.49868 -1.43416 -9.7443 -0.38522 -0.300899 0.872391 139 44 56
2.53967 -1.42615 -9.77577 -0.656185 0.0905353 0.74915 187 60 79
2.56548 -1.45225 -9.74531 -0.629354 0.149482 0.762606 203 57 80
2.56031 -1.44448 -9.75193 -0.636279 0.0843755 0.766832 203 60 82
2.6049 -1.43745 -9.69246 -0.850409 -0.288916 0.439696 188 40 64
2.69088 -1.45671 -9.66842 0.0156446 0.0118825 0.999807 152 26 46
2.75922 -1.44486 -9.70354 -0.730432 0.205938 0.651198 165 41 60
2.78633 -1.47058 -9.67355 -0.817032 0.324673 0.476493 179 47 67
2.79721 -1.46676 -9.66058 -0.775479 0.321423 0.543433 185 49 69
2.82117 -1.45162 -9.63539 -0.717262 0.444892 0.536289 202 57 77
2.82823 -1.48206 -9.6196 -0.583583 0.350776 0.732384 197 54 73
2.8447 -1.4825 -9.58713 -0.905924 0.113629 0.407909 194 49 68
2.86183 -1.47824 -9.57948 -0.807306 0.235197 0.541238 193 46 66
2.93891 -1.47536 -9.50567 -0.800543 0.411336 0.435814 201 54 75
2.98563 -1.49943 -9.44928 -0.667446 0.234797 0.706672 194 47 67
3.03939 -1.49672 -9.43326 -0.473013 0.483641 0.736444 196 49 68
3.11248 -1.51245 -9.38266 -0.685441 -0.0148015 0.727978 200 52 72
3.17185 -1.49155 -9.35497 -0.499974 -0.1697 0.849252 170 32 52
3.21282 -1.49651 -9.35943 0.0200789 -0.432075 0.901614 188 45 64
3.25862 -1.50813 -9.25803 -0.346631 -0.0426255 0.937033 183 41 59
3.41805 -1.51154 -9.31509 -0.812103 0.0839719 0.57744 182 43 60
3.48219 -1.54335 -9.3229 -0.828073 0.314214 0.464289 178 45 60
3.69238 -1.55046 -9.32174 0.6385 0.0124655 0.769521 147 34 44
3.82054 -1.53732 -9.38863 -0.706629 -0.534863 0.463246 147 34 44
3.86635 -1.54611 -9.37597 0.43417 -0.279794 0.856278 144 33 42
3.9072 -1.56055 -9.38302 -0.888044 -0.277073 0.366891 147 34 42
3.97984 -1.56864 -9.44657 -0.434336 -0.381308 0.816062 152 39 47
3.97845 -1.57607 -9.44053 -0.515029 -0.577646 0.633301 150 36 45
3.98097 -1.57506 -9.45072 -0.563939 -0.58276 0.585119 151 37 46
4.03786 -1.56393 -9.47062 -0.403218 -0.612227 0.680143 151 42 49
4.0788 -1.58712 -9.45952 -0.326817 -0.623866 0.709917 117 30 33
4.42749 -1.56882 -9.91129 -0.865697 -0.343299 0.364299 106 24 30
4.48958 -1.56271 -9.87611 -0.841332 0.0593563 0.53725 122 31 37
4.6216 -1.60456 -9.8223 -0.934841 -0.181651 0.305084 150 43 48
4.9634 -1.595 -9.84888 0.415093 0.0631799 0.907583 118 49 40
5.46093 -1.60176 -10.6881 -0.670274 0.0718784 0.738625 112 54 37
5.50746 -1.58702 -10.7116 -0.736967 0.000325382 0.675929 110 52 37
5.5298 -1.60798 -10.658 -0.889213 -0.192099 0.415208 115 58 40
5.57429 -1.62792 -10.3508 -0.922155 0.0159565 0.386491 122 63 41
5.58078 -1.62024 -10.3806 -0.892324 -0.177138 0.415186 123 63 42
5.63887 -1.64338 -10.3111 -0.910672 0.102165 0.400298 149 96 53
5.60871 -1.61182 -10.3199 -0.961717 0.0483621 0.269742 131 73 44
5.69916 -1.64216 -10.2695 -0.974907 0.00730728 0.222495 169 123 64
5.74003 -1.66252 -10.1645 -0.779476 0.00110444 0.626431 184 142 71
5.76187 -1.63305 -10.1408 -0.763724 0.070099 0.641725 185 145 71
5.78465 -1.66109 -10.1069 -0.796554 0.0238353 0.604097 192 153 76
5.83696 -1.65308 -10.0401 -0.9068 0.101767 0.409093 197 158 80
5.85503 -1.68536 -9.98612 -0.814391 0.197574 0.545648 199 161 82
5.86033 -1.67028 -9.975 -0.456579 0.444162 0.77088 200 162 83
5.88623 -1.66562 -9.91186 -0.382843 -0.337251 0.860054 200 162 83
5.91938 -1.68814 -9.89724 -0.785583 -0.128553 0.605255 189 151 72
5.96797 -1.68434 -9.81897 -0.932854 -0.0560935 0.355862 202 164 85
6.02735 -1.70895 -9.72287 -0.917017 -0.148488 0.370176 202 165 85
6.04875 -1.68776 -9.68171 -0.743509 -0.225885 0.62942 203 166 87
6.1082 -1.69672 -9.63241 -0.587548 -0.321973 0.742375 199 160 82
6.12973 -1.7217 -9.58008 -0.841182 -0.299281 0.450382 202 164 86
6.17971 -1.71274 -9.50851 -0.810351 -0.167384 0.561528 195 157 79
6.21149 -1.73278 -9.4772 -0.808557 -0.182654 0.55935 200 162 84
6.25128 -1.73298 -9.45214 -0.575106 -0.480302 0.662241 207 170 92
6.29239 -1.72523 -9.35245 -0.929043 0.303507 0.211572 201 166 87
6.29984 -1.75833 -9.3095 -0.88028 0.330405 0.340499 205 172 92
6.40905 -1.77853 -9.14058 -0.956242 0.0889982 0.278714 202 169 92
6.43439 -1.76026 -9.12083 -0.973548 0.15152 0.171012 202 169 92
6.46319 -1.76816 -9.07462 -0.28688 0.84297 0.455083 206 173 96
6.50317 -1.77952 -8.96103 -0.870567 -0.0932689 0.483129 200 166 90
6.56359 -1.78381 -8.9305 -0.985318 -0.0691165 0.15611 205 172 96
6.60618 -1.78682 -8.85281 -0.926237 -0.0266337 0.375999 214 183 106
6.62438 -1.80832 -8.81537 -0.783999 -0.119873 0.609078 212 181 104
6.65056 -1.78652 -8.78394 -0.869857 0.123155 0.477683 208 177 100
6.67759 -1.81305 -8.77168 -0.861655 -0.0936106 0.498786 206 175 98
6.81301 -1.84517 -8.55257 -0.939164 -0.121111 0.321407 203 171 96
6.80281 -1.83225 -8.53639 -0.889447 -0.165421 0.426051 203 171 97
6.84962 -1.84283 -8.47104 -0.990993 -0.0525375 0.123176 200 170 95
6.87815 -1.82483 -8.46111 -0.828535 0.143909 0.541129 198 166 91
6.8919 -1.8452 -8.41126 -0.718103 0.0805341 0.691261 205 174 100
6.89152 -1.84771 -8.40819 -0.773496 0.0123286 0.633681 204 174 100
6.98901 -1.87601 -8.21594 -0.416012 -0.730079 0.542143 206 176 102
7.03524 -1.86979 -8.15368 -0.949039 -0.177717 0.26027 193 162 92
7.07116 -1.87468 -8.09497 -0.978929 -0.102757 0.176465 202 173 104
7.16207 -1.8765 -8.086 -0.915499 -0.0784881 0.39459 188 158 95
7.20128 -1.90342 -8.08056 -0.789471 -0.426603 0.441299 168 133 79
7.08973 -1.91359 -7.80056 -0.756482 -0.43496 0.488411 140 103 71
-6.56527 -0.281786 -18.1497 0.524068 0.110913 0.844423 188 52 82
-6.54407 -0.290442 -18.0954 0.388947 0.637732 0.664845 184 50 79
-6.46227 -0.275527 -18.2088 0.818769 0.354991 0.451219 143 30 57
-6.37304 -0.313205 -17.9944 -0.179427 -0.758445 0.626552 146 35 62
-6.29372 -0.309262 -17.9369 -0.0723278 0.318878 0.945032 158 45 70
-6.20652 -0.311719 -17.8883 0.613265 0.599891 0.513845 168 53 78
-6.24319 -0.309133 -17.9438 0.47632 0.645455 0.597082 166 52 77
-6.14046 -0.324109 -17.8956 0.698992 0.427237 0.57348 180 56 83
-6.08459 -0.334127 -17.9481 0.683873 0.382064 0.621567 208 73 104
-5.76661 -0.443848 -17.0587 -0.357188 -0.00522708 0.934018 219 73 107
-5.62158 -0.398085 -17.0882 0.732621 0.569508 0.372728 227 80 115
-5.38463 -0.438756 -16.7325 -0.167217 0.352167 0.920878 206 54 90
-5.33101 -0.439497 -16.7589 -0.364559 0.227179 0.903043 235 84 120
-4.94768 -0.548385 -16.0352 -0.719591 -0.0729627 0.690555 230 75 110
-4.83476 -0.571426 -15.9409 -0.494599 0.273765 0.824879 225 70 102
-4.86065 -0.535188 -15.9599 -0.670058 -0.0171604 0.742111 231 77 110
-4.76271 -0.554987 -15.9253 -0.361944 -0.580756 0.729191 206 52 85
-4.69603 -0.553901 -15.8922 -0.0407406 -0.463722 0.885044 201 49 79
-4.61427 -0.602762 -15.8091 -0.728703 0.0121935 0.684721 219 66 97
-4.43458 -0.602119 -15.5501 -0.0187427 0.76079 0.648728 214 61 91
-4.27633 -0.605566 -15.4493 -0.738395 -0.0457395 0.672815 222 67 99
-4.21514 -0.639265 -15.3415 -0.738096 -0.0601931 0.672006 221 65 98
-4.09241 -0.645864 -15.1929 -0.112923 0.793871 0.597509 216 63 95
-4.02284 -0.664277 -15.1583 -0.527992 0.118158 0.840989 194 41 74
-3.78695 -0.677932 -14.9281 -0.58716 0.40373 0.701602 242 85 119
-3.67737 -0.729733 -14.7932 -0.713038 0.0331085 0.700343 209 51 83
-3.48381 -0.7339 -14.5575 -0.697502 -0.266942 0.665006 228 69 103
-3.18427 -0.755437 -14.2644 -0.125262 0.796052 0.592124 229 77 107
-2.71262 -0.809799 -14.109 -0.688231 -0.329685 0.646255 162 111 124
-2.67544 -0.854265 -14.0159 0.0557669 0.772161 0.632975 139 67 84
-2.61056 -0.838803 -14.0535 -0.75046 -0.1826 0.635191 163 107 119
-2.60329 -0.856829 -14.0504 -0.730841 -0.239969 0.638973 150 88 101
-2.49056 -0.838523 -13.8481 -0.745721 0.207956 0.632973 229 73 108
-2.34605 -0.860281 -13.5577 -0.775944 -0.0971408 0.623277 207 48 80
-2.29252 -0.90291 -13.4932 -0.784925 -0.0620758 0.616474 212 58 87
-2.24144 -0.916196 -13.4181 -0.7795 -0.0371964 0.625297 212 58 87
-2.17191 -0.930543 -13.3512 -0.354297 -0.684854 0.636748 227 70 100
-2.10722 -0.91343 -13.2702 -0.0732738 -0.785716 0.614233 234 76 107
-2.09841 -0.918819 -13.2627 -0.352018 -0.687286 0.635391 232 74 104
-1.72433 -0.958108 -12.7704 -0.260915 -0.725055 0.637353 211 47 78
-1.69262 -1.00033 -12.7751 -0.223113 -0.40206 0.888014 207 43 74
-1.6501 -0.967817 -12.7066 0.331755 -0.642029 0.691185 200 37 67
-1.61684 -1.00235 -12.7335 -0.724087 0.0454557 0.68821 206 46 73
-1.5467 -1.00403 -12.6719 -0.623146 0.0661027 0.779307 218 59 86
-1.44051 -0.99883 -12.6064 -0.380114 0.0991789 0.919607 193 39 63
-1.39378 -0.99956 -12.5882 -0.631455 0.202982 0.748373 216 57 82
-1.34351 -0.997155 -12.5496 -0.604982 0.190643 0.77308 219 61 86
-1.31495 -1.03925 -12.5303 -0.580641 0.307148 0.754 214 56 82
-1.26706 -1.03196 -12.5139 -0.348414 0.139527 0.926898 193 41 66
-1.22145 -1.03323 -12.5059 0.0487131 0.266436 0.962621 187 40 65
-1.17539 -1.03175 -12.4972 0.304588 0.245478 0.920308 174 33 58
-1.13429 -1.05214 -12.5512 0.294332 0.199631 0.934621 155 22 45
-1.07892 -1.03779 -12.5481 0.552002 -0.0869396 0.829298 186 48 71
-1.00167 -1.04516 -12.5824 0.35499 -0.163631 0.920439 167 30 54
-0.952931 -1.03733 -12.5421 0.717378 -0.0679283 0.693364 118 28 43
-0.915572 -1.0425 -12.6185 0.00852722 0.465924 0.884784 91 24 36
-0.868839 -1.04132 -12.6369 0.0442909 0.723625 0.68877 87 19 34
-0.789167 -1.04967 -12.6515 0.78205 -0.356418 0.511238 94 24 37
-0.735203 -1.08039 -12.5887 -0.440538 -0.240149 0.865017 105 29 43
-0.688866 -1.08299 -12.6087 -0.373856 -0.0478518 0.926252 160 47 66
-0.641647 -1.08251 -12.5815 0.168496 -0.166452 0.971547 175 39 60
-0.595714 -1.07848 -12.5837 0.0681775 0.041336 0.996817 147 30 49
-0.549799 -1.07732 -12.5789 0.257218 -0.00505774 0.96634 119 23 39
-0.502002 -1.07379 -12.5493 -0.317177 0.611216 0.725131 123 26 42
-0.456585 -1.09041 -12.5547 -0.458275 0.475735 0.750773 163 44 63
-0.291127 -1.08845 -12.4452 -0.537158 0.0940385 0.838223 194 48 70
-0.246294 -1.08793 -12.4372 -0.0923629 0.163278 0.982247 181 36 59
-0.22382 -1.12224 -12.3999 0.600862 0.27072 0.752114 188 41 63
-0.162418 -1.10457 -12.3789 0.031786 -0.372563 0.927463 210 56 79
-0.114719 -1.12974 -12.3634 0.0271858 -0.776745 0.629229 191 38 63
-0.0622586 -1.14736 -12.3189 -0.006987 -0.68072 0.732511 197 42 67
-0.0181401 -1.14717 -12.3018 -0.354063 -0.129678 0.926187 212 54 77
0.418515 -1.22903 -11.3497 -0.844351 0.0782254 0.530049 221 58 86
0.469401 -1.21459 -11.2791 -0.792429 0.251331 0.555779 233 69 95
0.505397 -1.22331 -11.2254 -0.414275 0.34967 0.840302 227 63 89
0.552499 -1.22183 -11.2009 -0.222765 0.696423 0.682181 222 60 87
0.615495 -1.25682 -11.1135 -0.610534 0.244654 0.753254 213 53 80
0.656576 -1.24457 -11.0744 -0.753781 0.0396335 0.655929 182 26 52
0.725267 -1.27635 -11.0331 -0.798425 0.284992 0.530375 200 43 68
0.76727 -1.25427 -10.9823 -0.792712 0.291163 0.535567 217 61 87
0.830291 -1.27498 -10.9051 -0.768616 0.244764 0.591033 216 59 84
0.910196 -1.27433 -10.8087 -0.776773 0.092979 0.622879 218 63 88
0.900663 -1.28566 -10.8214 -0.746114 0.246951 0.618327 220 65 90
0.940436 -1.31048 -10.7858 -0.575444 -0.0281949 0.817355 226 71 96
0.975821 -1.28191 -10.7467 -0.717797 -0.383681 0.580995 217 64 89
1.08303 -1.31714 -10.6874 -0.124122 -0.235426 0.963934 208 54 78
1.16331 -1.3021 -10.6638 -0.601169 0.0841245 0.794682 202 48 73
1.20877 -1.30482 -10.5973 -0.712921 0.0124446 0.701134 203 48 73
1.20028 -1.33716 -10.6155 -0.775187 0.35929 0.519611 201 46 72
1.26421 -1.33071 -10.5706 -0.542907 0.264297 0.797119 217 60 86
1.40945 -1.34227 -10.4288 -0.49621 0.397038 0.772098 199 44 68
1.44752 -1.34929 -10.3972 -0.443187 0.563018 0.697565 210 55 77
1.4873 -1.36287 -10.388 -0.275762 0.602805 0.74872 204 50 72
1.52658 -1.36199 -10.3583 -0.385329 0.449117 0.806111 190 39 62
1.57238 -1.37221 -10.3235 -0.0429265 0.383724 0.92245 184 34 57
1.59125 -1.36772 -10.3391 -0.469344 0.0736235 0.879941 195 44 68
1.59068 -1.36689 -10.3357 -0.46054 0.165193 0.872132 195 44 68
1.6114 -1.37261 -10.3095 -0.165787 0.107525 0.980282 203 52 77
1.65183 -1.3713 -10.2976 -0.49498 0.232593 0.837195 210 58 82
1.72352 -1.36286 -10.2782 -0.121226 -0.642902 0.756295 189 41 64
1.76993 -1.38547 -10.2753 -0.0883786 -0.639491 0.763702 150 25 45
1.83229 -1.39152 -10.2643 -0.589287 -0.0483341 0.806476 147 27 47
1.87867 -1.41783 -10.2037 -0.771563 0.0911341 0.629591 155 34 53
1.93417 -1.42527 -10.0945 -0.795567 0.0983016 0.597838 177 49 69
1.99489 -1.41382 -9.98609 -0.718429 0.0706659 0.692002 215 56 81
2.06474 -1.41528 -9.92666 0.0117698 -0.75873 0.651299 191 37 61
2.18404 -1.46014 -9.82816 -0.709077 0.297286 0.639399 205 49 73
2.28732 -1.47462 -9.75414 -0.806475 0.195281 0.558089 210 54 78
2.32703 -1.47624 -9.75098 -0.58394 0.399574 0.70665 185 40 61
2.3114 -1.44022 -9.75331 -0.586069 0.402133 0.703429 179 37 59
2.36601 -1.47664 -9.74505 -0.556554 0.353507 0.751852 157 30 49
2.35381 -1.44277 -9.77294 -0.595668 0.326885 0.733707 144 28 45
2.52938 -1.46655 -9.74817 -0.5622 -0.0938665 0.821657 179 50 67
2.50702 -1.48618 -9.74428 -0.425341 0.548102 0.720187 166 43 59
2.62754 -1.48507 -9.71586 -0.591215 -0.26112 0.763073 168 32 50
2.66717 -1.49588 -9.69894 -0.656413 -0.472926 0.587761 148 29 47
2.71538 -1.49065 -9.70262 -0.486898 -0.0201832 0.873226 148 27 47
2.75187 -1.49101 -9.68225 -0.637121 0.0622465 0.768246 164 47 66
2.76502 -1.48471 -9.68874 -0.641177 0.0914089 0.76193 171 49 68
2.79881 -1.50116 -9.66305 -0.686936 0.0779119 0.722529 177 52 71
2.8126 -1.50426 -9.63372 -0.83853 0.24637 0.485974 186 54 73
2.83488 -1.48996 -9.59257 -0.715683 0.425651 0.553731 195 52 71
2.85507 -1.52042 -9.57519 -0.651414 0.321874 0.687064 191 47 69
2.91505 -1.52442 -9.50035 -0.841626 0.300771 0.448555 190 44 64
2.90604 -1.52334 -9.53233 -0.837352 0.193734 0.511184 191 45 66
2.95273 -1.51214 -9.4823 -0.775299 0.358875 0.519731 201 54 74
3.0091 -1.52823 -9.41682 -0.243571 0.509002 0.825585 186 39 59
3.15332 -1.52461 -9.38093 -0.5655 -0.126505 0.814989 163 28 48
3.19067 -1.54222 -9.37656 -0.440423 -0.288552 0.850156 167 33 52
3.24862 -1.54933 -9.30514 -0.807067 -0.343204 0.480473 193 51 69
3.27889 -1.54324 -9.26085 0.108801 -0.666188 0.737804 182 44 61
3.40253 -1.55296 -9.32525 -0.682535 -0.544882 0.487083 184 43 63
3.4451 -1.55248 -9.33787 -0.150045 -0.0325672 0.988143 181 42 60
3.48897 -1.55954 -9.33949 0.342978 -0.262195 0.902009 177 43 59
3.52689 -1.56202 -9.28743 -0.852622 0.349576 0.388372 174 41 56
3.59971 -1.56826 -9.28809 0.207296 0.550306 0.808821 163 43 55
3.62137 -1.60092 -9.2962 0.701851 -0.122069 0.701787 147 30 41
3.65075 -1.56941 -9.32576 0.548548 -0.218237 0.807136 140 28 37
3.71229 -1.59129 -9.34244 0.607292 0.190771 0.771235 149 35 45
3.73149 -1.57814 -9.34243 0.725367 0.157182 0.670177 153 38 49
3.85667 -1.59055 -9.45038 0.451835 -0.326002 0.830403 134 28 38
3.89072 -1.58551 -9.40919 0.160003 -0.326875 0.931425 136 32 40
3.90656 -1.6161 -9.39224 0.0982057 -0.268882 0.958153 127 31 38
3.93256 -1.58382 -9.41988 0.324875 0.0745534 0.942814 141 34 42
3.94522 -1.59046 -9.44545 -0.550552 -0.544999 0.632352 141 34 42
3.97311 -1.60469 -9.45356 -0.151202 -0.755042 0.638004 137 32 41
3.97656 -1.59589 -9.49125 -0.34338 -0.659425 0.668767 143 34 43
4.04651 -1.61271 -9.54109 -0.212816 -0.628141 0.748431 134 35 41
4.06766 -1.61944 -9.45075 -0.933696 -0.15139 0.324489 118 32 36
4.40751 -1.60418 -9.9319 -0.789518 -0.318608 0.524548 113 29 35
4.45194 -1.62484 -9.91958 -0.602148 -0.456841 0.654763 124 35 42
4.47503 -1.5993 -9.89671 -0.156721 0.207298 0.965643 122 32 39
4.51136 -1.59799 -9.87721 -0.515323 0.102197 0.850881 127 33 39
4.54416 -1.62858 -9.89271 0.0510684 -0.728495 0.683146 132 33 39
4.56529 -1.61789 -9.82039 -0.120023 -0.756735 0.64261 142 37 43
4.9083 -1.63199 -9.92999 -0.949865 -0.0603362 0.306785 147 44 47
4.95255 -1.63391 -9.8943 -0.260595 -0.423061 0.867819 116 41 36
4.97348 -1.64559 -9.90733 -0.778193 -0.0208221 0.62768 111 45 35
5.56492 -1.66243 -10.4378 -0.94861 -0.050147 0.31245 121 62 41
5.61947 -1.67113 -10.3782 -0.940659 0.0437001 0.336527 137 82 48
5.66077 -1.67822 -10.2685 -0.938591 0.0413469 0.342546 166 119 63
5.71386 -1.6895 -10.2068 -0.891695 0.0878887 0.444023 178 136 66
5.76925 -1.68813 -10.1349 -0.731094 -0.0701097 0.678665 189 150 74
5.78307 -1.71163 -10.1067 -0.96856 -0.0127505 0.248452 185 146 70
5.81422 -1.68834 -10.0833 -0.861381 0.0640609 0.503904 190 151 74
5.82811 -1.7148 -10.0203 -0.932625 0.0288724 0.359692 195 158 79
5.87005 -1.69475 -9.97014 -0.848627 -0.0220147 0.528533 198 160 81
5.89573 -1.72101 -9.92821 -0.873698 -0.0644556 0.48218 192 154 76
5.94513 -1.71451 -9.85605 -0.880453 -0.0670776 0.469364 202 165 85
5.97021 -1.74379 -9.81022 -0.903313 0.0364743 0.427429 203 166 86
6.00447 -1.73339 -9.7703 -0.835266 0.152318 0.528327 199 162 82
6.02989 -1.71809 -9.73376 -0.863397 0.0329327 0.503448 202 165 85
6.05141 -1.74297 -9.69376 -0.822829 0.0449628 0.566508 190 153 74
6.09161 -1.73135 -9.6558 -0.543567 -0.305034 0.781978 203 165 87
6.12513 -1.76499 -9.54574 -0.578467 -0.577421 0.576161 204 164 86
6.1543 -1.7408 -9.5283 -0.776175 -0.0660075 0.627052 200 161 83
6.188 -1.76164 -9.50077 -0.80267 -0.315248 0.5063 196 158 80
6.22256 -1.78252 -9.47673 -0.907176 -0.11036 0.40602 207 170 92
6.26161 -1.76622 -9.39262 -0.81714 -0.138768 0.559486 204 169 90
6.29352 -1.79421 -9.34978 -0.478095 -0.296827 0.826632 209 175 95
6.3584 -1.78598 -9.25121 -0.235996 -0.751951 0.615529 206 175 96
6.39391 -1.81045 -9.20763 -0.98103 0.0943908 0.169326 205 172 95
6.39688 -1.80834 -9.23825 -0.178239 -0.612753 0.769912 205 173 95
6.48665 -1.80721 -9.00555 -0.941502 0.0980235 0.322437 202 169 93
6.52822 -1.82507 -8.92708 -0.987578 -0.0477749 0.14969 207 176 100
6.58392 -1.82091 -8.88299 -0.958883 -0.0714115 0.27467 209 177 100
6.6052 -1.85166 -8.83831 -0.73384 -0.554288 0.392739 208 179 101
6.65404 -1.83468 -8.80983 -0.658267 -0.0777518 0.748759 205 174 97
6.83245 -1.8768 -8.51754 -0.972641 0.0312341 0.230206 200 167 93
6.83192 -1.86149 -8.53873 -0.92615 0.207791 0.314753 205 172 98
6.86751 -1.87778 -8.42642 -0.909656 -0.203535 0.362077 204 173 99
6.86932 -1.88025 -8.42694 -0.892582 -0.231842 0.386712 204 174 99
6.92092 -1.88526 -8.36406 0.19998 0.731647 0.65169 203 173 99
6.97645 -1.88207 -8.26121 -0.735466 0.00495403 0.677544 205 175 101
7.02455 -1.90562 -8.1977 -0.969945 -0.142003 0.197589 195 166 92
7.03155 -1.91552 -8.20652 -0.7759 -0.532117 0.338867 196 167 94
7.05559 -1.89752 -8.10423 -0.979835 -0.0504523 0.193333 199 170 100
7.09892 -1.92877 -8.10256 -0.92249 -0.15008 0.355653 191 161 97
7.14495 -1.90314 -8.12325 -0.992933 -0.0626996 0.100766 190 159 95
7.18166 -1.93201 -8.11713 -0.929063 -0.00115671 0.369919 170 135 80
7.18412 -1.93468 -8.09983 -0.701881 -0.52515 0.481228 168 133 80
7.09331 -1.92866 -7.86005 -0.969017 -0.00643973 0.246911 151 114 74
7.12402 -1.92624 -7.76472 -0.993331 -0.0607237 0.0980073 105 67 56
-6.6578 -0.353293 -18.0158 0.0163918 0.750785 0.660344 172 33 66
