ply
format ascii 1.0
element vertex 735
property float x
property float y
property float z
property float nx
property float ny
property float nz
property uchar red
property uchar green
property uchar blue
end_header
3.12212 1.39461 -10.7757 -0.559454 0.488776 0.66941 181 42 61
3.17745 1.39214 -10.7378 -0.769855 0.412207 0.487246 199 57 75
3.26342 1.35911 -10.6127 -0.604497 0.454475 0.654244 199 59 75
3.29049 1.32624 -10.5929 -0.343484 0.205215 0.916464 194 51 69
3.33065 1.32619 -10.5832 -0.302861 0.194698 0.932935 184 47 62
3.37351 1.32551 -10.5858 -0.338223 0.686758 0.643404 163 35 48
3.4576 1.32769 -10.5767 -0.365051 0.418755 0.831494 161 39 52
3.50118 1.30512 -10.4939 0.0774104 -0.306792 0.948623 184 57 69
3.59092 1.29036 -10.5072 -0.316653 0.506493 0.801995 175 47 59
3.61124 1.28831 -10.4672 0.398014 0.575942 0.714056 178 50 61
3.65738 1.30148 -10.4891 0.36533 0.596744 0.714444 188 64 73
3.69972 1.26076 -10.4407 0.382623 0.584933 0.71516 162 45 52
3.70468 1.31083 -10.5102 0.100384 0.71265 0.6943 154 40 46
3.73316 1.27392 -10.4939 0.0257612 0.733246 0.679475 144 35 40
3.78276 1.28885 -10.5165 0.277739 0.646787 0.710301 142 37 39
3.92863 1.26466 -10.5557 -0.435896 0.665074 0.606359 147 54 48
3.89505 1.26698 -10.4876 -0.650388 0.49789 0.573673 153 57 52
4.94424 1.45439 -11.6174 -0.860189 0.318398 0.398368 117 71 40
4.9281 1.45586 -11.6154 -0.948919 0.0620304 0.309361 115 68 39
4.95468 1.4107 -11.5327 -0.842284 0.179591 0.508237 120 73 43
4.93759 1.43818 -11.549 -0.889036 0.259112 0.377461 118 71 41
5.00494 1.44968 -11.5573 -0.837854 0.158122 0.522492 142 101 54
5.03433 1.39482 -11.484 -0.907157 0.23828 0.346826 139 100 53
5.05798 1.4054 -11.4369 -0.868696 0.292564 0.399717 152 115 60
5.08455 1.36328 -11.365 -0.700287 0.471191 0.536263 152 114 59
5.11662 1.38371 -11.3294 -0.727644 0.0984235 0.678858 160 124 62
5.14303 1.35482 -11.2983 -0.717406 0.145428 0.681308 181 149 82
5.15336 1.36466 -11.2904 -0.771678 0.0311575 0.63525 188 157 87
5.20362 1.3534 -11.1962 -0.825734 0.368086 0.427406 202 177 98
5.19259 1.35155 -11.2121 -0.705068 0.440937 0.555386 200 174 97
5.27849 1.32435 -11.087 -0.941108 0.0316534 0.336622 201 180 97
5.24846 1.29949 -11.1297 -0.929135 0.189454 0.317516 195 171 91
5.30866 1.29406 -11.0737 -0.735731 -0.0590449 0.674695 209 189 105
5.37605 1.25941 -10.8682 -0.959784 -0.155847 0.23351 211 190 105
5.43349 1.22398 -10.7924 -0.851365 -0.242887 0.464955 211 188 104
5.46286 1.2047 -10.761 -0.301763 -0.491143 0.81714 211 187 102
5.54623 1.2097 -10.7048 -0.561148 0.122485 0.818603 203 178 94
5.59895 1.15612 -10.6143 -0.876121 0.0513254 0.479352 220 198 111
5.58215 1.19215 -10.6293 -0.700574 0.0947402 0.707263 218 195 109
5.64725 1.14368 -10.4201 -0.937802 -0.264677 0.224662 209 187 100
5.66289 1.11247 -10.386 -0.751507 -0.0346115 0.658816 213 189 103
5.77432 1.10704 -10.3603 -0.635166 -0.352115 0.687443 221 195 110
5.7873 1.08687 -10.3514 -0.952028 -0.220036 0.212669 220 194 107
5.82641 1.07432 -10.3209 -0.703147 0.037254 0.710068 217 192 105
5.82228 1.10218 -10.3662 -0.433523 -0.154789 0.887749 219 193 106
5.94899 1.0187 -10.0251 -0.593435 0.0144657 0.804752 218 192 106
5.97912 0.998407 -9.98175 -0.847868 -0.265401 0.459001 218 191 106
6.02062 0.984137 -9.95297 -0.978055 -0.0494169 0.202403 211 185 99
6.07489 0.957805 -9.89627 -0.919366 0.0342545 0.391909 213 187 103
6.08803 0.943554 -9.84561 -0.446108 -0.441418 0.778549 218 193 109
6.11934 0.944273 -9.80242 -0.862834 -0.0709858 0.500479 222 197 112
6.17717 0.943712 -9.72273 -0.938073 -0.2885 0.191801 220 199 113
6.20832 0.911534 -9.67639 -0.976286 -0.134134 0.169925 218 197 112
6.28273 0.897608 -9.56545 -0.698718 -0.173732 0.693982 218 196 113
6.41641 0.818276 -9.38449 -0.796787 -0.0419597 0.602801 225 202 116
6.42926 0.841733 -9.37893 -0.15455 0.167937 0.973607 224 201 115
6.49063 0.814227 -9.30314 -0.925786 -0.0512289 0.374562 217 193 109
6.50273 0.812321 -9.27267 -0.862756 0.0641473 0.501536 217 193 108
6.53119 0.782734 -9.17895 -0.986231 -0.0205763 0.16409 219 195 111
6.55521 0.760399 -9.13842 -0.875897 -0.136957 0.462652 215 189 106
6.5482 0.757863 -9.13768 -0.966 -0.1369 0.219322 216 189 107
6.55498 0.75771 -9.14422 -0.885787 -0.104202 0.452242 215 189 106
6.61841 0.735688 -9.09781 -0.382247 -0.116592 0.916675 209 179 98
6.71229 0.707361 -8.94819 -0.945373 -0.054909 0.321334 210 181 101
6.74699 0.70819 -8.85808 -0.932978 -0.0937493 0.34751 211 182 103
6.77623 0.686356 -8.83551 -0.911199 -0.0311446 0.410787 216 187 105
6.8373 0.647374 -8.70271 -0.990407 -0.0542052 0.127105 210 183 102
6.86396 0.624452 -8.64491 -0.710964 -0.650294 0.26767 212 183 104
6.87626 0.612872 -8.62576 -0.432853 -0.140514 0.890446 216 186 106
6.91258 0.608984 -8.60451 -0.639626 -0.401874 0.655267 216 187 106
6.95289 0.607009 -8.49746 -0.962794 -0.0583721 0.263856 211 184 105
6.95927 0.591616 -8.4616 -0.945875 -0.293466 0.138561 214 186 108
7.08739 0.559473 -8.33744 -0.985525 -0.0211494 0.168203 213 184 109
7.10823 0.527177 -8.30245 -0.960693 -0.121774 0.249478 207 178 103
7.15268 0.528777 -8.2287 -0.945644 0.17115 0.276522 210 182 109
7.20442 0.521774 -8.22938 -0.779885 0.202923 0.592117 209 180 106
7.24315 0.502831 -8.14921 -0.465877 -0.524863 0.712375 210 182 107
7.27048 0.474045 -8.1307 -0.752369 -0.270814 0.6005 211 183 109
7.28481 0.460338 -8.07183 -0.542463 -0.765752 0.345482 214 187 114
7.47037 0.386426 -7.7392 -0.916316 -0.372808 0.146214 211 186 111
7.49438 0.368535 -7.7074 -0.8253 -0.145915 0.545517 207 180 106
7.52516 0.350737 -7.67797 -0.868837 -0.349537 0.350637 210 184 109
7.55607 0.351821 -7.59254 -0.885497 -0.138684 0.443467 219 195 119
7.55229 0.353398 -7.5874 -0.634505 -0.226974 0.738842 219 195 119
7.57342 0.336532 -7.5508 -0.617447 -0.12004 0.777399 211 186 113
7.59836 0.319642 -7.5233 -0.851895 -0.171641 0.494787 205 180 107
7.70275 0.276072 -7.37577 -0.986507 -0.0683723 0.148758 209 185 112
7.70362 0.287077 -7.37064 -0.998069 0.0219953 0.0580968 209 185 112
7.74939 0.279518 -7.33755 -0.98181 0.167899 0.0886533 204 181 108
7.75424 0.250151 -7.29896 -0.862501 0.397252 0.3135 204 181 108
7.80527 0.240494 -7.247 -0.688487 0.647055 0.327577 218 197 122
7.8024 0.249051 -7.25205 -0.881748 0.415968 0.222465 215 194 120
7.82974 0.247748 -7.18228 -0.57219 0.714984 0.401742 223 201 127
7.83327 0.209337 -7.13956 -0.999317 -0.00199764 0.0368874 220 198 124
-4.30887 3.31821 -16.9837 -0.344288 -0.12339 0.93072 139 149 158
-4.2517 3.29793 -16.9772 -0.234853 -0.23766 0.942529 127 136 143
-4.16904 3.28893 -16.944 -0.523377 -0.108606 0.845151 107 111 119
-4.12702 3.27029 -16.9389 -0.219371 -0.687288 0.692467 122 124 131
-4.07013 3.28866 -16.9276 -0.348329 -0.578961 0.737205 103 104 111
-4.00863 3.24907 -16.9431 -0.185832 -0.214699 0.958838 117 118 125
-3.94838 3.248 -16.931 0.0337694 -0.275339 0.960754 95 96 103
-3.89007 3.24776 -16.9231 -0.0825447 -0.148411 0.985475 107 107 113
-3.8284 3.24783 -16.8943 -0.428496 -0.0693964 0.900875 123 124 130
-0.840833 2.16316 -13.0256 -0.0375466 -0.880597 0.472377 180 38 60
-0.623836 2.12333 -12.9172 0.321308 -0.817105 0.478645 197 52 74
-0.550715 2.09805 -12.9315 -0.65792 -0.554068 0.510049 201 54 76
-0.503377 2.08961 -12.9172 -0.733506 -0.443615 0.51495 200 53 75
-0.435114 2.08433 -12.8715 -0.291444 -0.468971 0.833743 192 43 64
-0.391753 2.10441 -12.8679 -0.0946686 -0.400981 0.911182 185 35 57
-0.32162 2.06686 -12.9082 -0.329168 -0.639675 0.694596 174 29 51
-0.34656 2.08996 -12.9234 -0.741398 0.158104 0.652175 181 34 56
-0.170782 2.06051 -12.8613 0.253161 -0.756905 0.602498 199 49 71
-0.0462818 2.03215 -12.838 -0.252164 -0.711499 0.655883 172 27 50
0.0120743 2.02684 -12.8211 -0.284037 -0.785849 0.54933 184 40 62
0.0568169 2.03179 -12.8234 -0.399046 -0.0826812 0.913195 189 42 63
0.101362 2.03816 -12.8342 -0.361623 -0.0181556 0.932147 178 35 56
0.148978 2.03041 -12.7888 -0.215194 -0.30182 0.928761 171 31 52
0.192776 2.00536 -12.8055 -0.230233 -0.518019 0.823801 179 38 57
0.239453 2.00156 -12.8079 0.371756 -0.264408 0.88988 195 52 73
0.284712 2.01207 -12.8122 0.526075 -0.149454 0.837203 191 48 69
0.334791 2.00658 -12.8323 -0.21559 0.224915 0.950229 179 39 59
0.382276 2.00732 -12.846 0.223125 -0.3337 0.915893 166 30 50
0.458443 1.99721 -12.8242 0.514006 -0.535576 0.670042 164 31 50
0.572388 2.00426 -12.7937 -0.44854 -0.698351 0.55778 153 28 49
0.747114 2.00138 -12.817 -0.0109413 -0.730065 0.683291 149 29 46
0.7737 1.96397 -12.8383 -0.0718295 -0.485296 0.871394 158 34 52
0.823398 1.9643 -12.8374 -0.00387271 -0.547396 0.836864 178 52 71
0.876373 1.99265 -12.795 -0.355278 -0.740113 0.570973 173 47 62
0.927878 1.97339 -12.8694 0.250415 -0.835628 0.488896 169 42 60
0.976362 1.99133 -12.8542 -0.145429 -0.806985 0.572387 159 30 49
1.03349 1.95136 -12.8242 -0.765317 -0.0157572 0.64346 176 42 61
1.12548 1.96284 -12.7614 -0.348528 -0.488447 0.799968 181 41 60
1.17338 1.96346 -12.7621 -0.385395 -0.432581 0.815073 179 40 59
1.31646 1.93879 -12.7167 -0.822287 -0.354688 0.445018 179 37 57
1.35794 1.9119 -12.688 -0.786308 -0.111959 0.607607 180 37 57
1.39885 1.87928 -12.6448 -0.754485 -0.138549 0.641527 183 38 59
1.4352 1.90632 -12.5966 -0.767707 0.039567 0.639578 187 39 61
1.46904 1.87134 -12.5466 -0.813188 0.0861793 0.575585 178 34 55
1.52037 1.86562 -12.4978 -0.513757 0.190818 0.836446 188 42 63
1.61364 1.82666 -12.4343 -0.340865 -0.807284 0.481772 196 50 72
1.6579 1.81584 -12.3678 -0.620275 -0.0421074 0.783254 191 45 69
1.71393 1.78233 -12.3176 -0.673125 -0.577127 0.462415 200 53 75
1.75703 1.76178 -12.2178 -0.889827 -0.134585 0.435999 200 52 73
1.82402 1.767 -12.1617 -0.820883 -0.00864321 0.571031 201 53 73
1.92158 1.72545 -12.1014 -0.446965 -0.415553 0.792173 198 53 73
1.97107 1.70484 -12.0534 -0.651503 0.0926936 0.752962 199 54 75
2.14401 1.64109 -11.765 0.111825 0.562175 0.819423 210 63 85
2.21223 1.6359 -11.7471 -0.330221 0.697363 0.636112 192 47 68
2.27196 1.62791 -11.7429 -0.7356 0.0301748 0.676744 196 54 74
2.31156 1.64377 -11.7184 -0.589503 0.148123 0.794069 184 48 65
2.33328 1.61129 -11.6431 -0.897255 -0.195094 0.396071 192 51 70
2.43154 1.55443 -11.4256 -0.90553 0.0190985 0.423852 190 49 69
2.4693 1.5511 -11.3744 -0.290089 0.287098 0.91292 170 36 55
2.50409 1.49169 -11.1696 -0.525454 0.602539 0.600705 184 47 65
2.55434 1.48834 -11.14 -0.424529 0.668428 0.61072 187 52 70
2.63938 1.43002 -11.0219 -0.676856 0.469912 0.566611 183 50 67
2.71411 1.42236 -10.9886 -0.197141 0.735902 0.647753 162 37 53
2.95148 1.43931 -11.062 -0.764816 0.318904 0.559783 117 25 37
2.96187 1.39696 -10.9259 -0.48968 0.592915 0.63927 122 30 42
3.02925 1.39676 -10.8815 -0.331567 0.709034 0.622362 177 47 64
3.02566 1.35478 -10.8138 -0.332257 0.710615 0.620187 177 49 66
3.13371 1.32907 -10.7314 -0.788261 0.256689 0.559246 164 34 51
3.14791 1.35934 -10.7601 -0.884346 -0.301167 0.356694 187 49 67
3.17355 1.33027 -10.6896 -0.821769 -0.0640439 0.566211 186 49 66
3.21812 1.32112 -10.637 -0.611028 0.0484484 0.790125 203 59 77
3.25111 1.30324 -10.5961 -0.806371 0.133887 0.576056 192 48 65
3.33744 1.28786 -10.564 -0.237251 0.658146 0.714532 189 51 67
3.38041 1.28776 -10.5444 -0.491861 0.487828 0.721177 169 40 54
3.4209 1.2882 -10.5224 -0.527519 0.409182 0.744509 157 34 47
3.47302 1.27061 -10.4729 -0.00805699 -0.351315 0.936223 167 44 55
3.65769 1.25262 -10.4497 0.280464 0.329976 0.901363 193 63 74
3.74156 1.21934 -10.3928 -0.0381033 0.739011 0.672616 147 36 42
3.75618 1.25426 -10.4617 -0.256408 0.719162 0.645803 139 34 37
3.80327 1.20433 -10.4178 -0.1506 0.533514 0.832276 144 40 42
3.79551 1.24166 -10.4257 -0.332722 0.585836 0.73898 143 39 40
3.82815 1.24804 -10.4713 0.399529 0.570261 0.71776 146 44 43
3.86473 1.22253 -10.4652 -0.658576 0.373061 0.653531 150 47 46
3.88429 1.21525 -10.451 -0.586307 0.298468 0.753101 156 54 52
4.98095 1.37481 -11.5537 -0.874974 0.253423 0.412549 115 68 40
5.05942 1.3581 -11.4658 -0.88943 0.221934 0.399573 139 99 54
5.10775 1.33184 -11.3214 -0.618905 0.0889013 0.780419 158 122 64
5.1399 1.30734 -11.3118 -0.578762 0.0639039 0.812989 170 137 74
5.16502 1.32238 -11.2577 -0.875194 0.0540522 0.480743 187 158 86
5.19228 1.29312 -11.2253 -0.915042 0.229101 0.33198 194 166 93
5.28268 1.27019 -11.1306 -0.84672 0.126606 0.516756 201 178 97
5.31031 1.24489 -11.1189 -0.928357 0.197081 0.315138 207 186 103
5.34481 1.23886 -10.9673 -0.927049 0.205298 0.313742 212 192 107
5.36883 1.20702 -10.9502 -0.850162 0.376674 0.367888 211 188 105
5.40835 1.19701 -10.8264 -0.800827 -0.279291 0.529785 209 186 102
5.44253 1.17778 -10.8062 -0.739995 -0.0769142 0.668201 214 191 106
5.47506 1.15793 -10.776 -0.758962 -0.120248 0.639936 202 178 93
5.49877 1.18689 -10.743 -0.83066 -0.0499332 0.554536 202 177 92
5.53487 1.16555 -10.7223 -0.526326 0.23458 0.817284 208 185 99
5.53884 1.16001 -10.7084 -0.453327 0.178681 0.873251 211 187 102
5.54971 1.14713 -10.6327 0.0432857 0.464296 0.884622 216 193 107
5.56436 1.15725 -10.6482 -0.386605 0.271865 0.881264 217 194 108
5.62748 1.1295 -10.5672 -0.946056 -0.162027 0.280579 208 185 97
5.65894 1.07557 -10.4476 -0.807705 -0.268323 0.524992 213 190 103
5.65432 1.08585 -10.4715 -0.85573 -0.258517 0.448214 211 188 101
5.68605 1.05818 -10.3833 -0.817716 -0.361963 0.447575 217 193 106
5.74819 1.05051 -10.3275 -0.940953 -0.176087 0.289136 218 191 105
5.79341 1.07176 -10.351 -0.41939 -0.118279 0.900068 219 193 106
5.7932 1.07187 -10.3505 -0.416552 -0.123693 0.900658 219 193 106
5.84779 1.05032 -10.2765 -0.826765 -0.249178 0.504351 216 190 103
5.85539 0.982912 -10.1102 -0.886776 -0.329959 0.32366 216 190 104
5.89467 0.998373 -10.0419 -0.353841 -0.829879 0.431391 214 190 104
5.93547 0.983185 -10.0542 -0.811887 -0.00765849 0.583764 214 188 101
5.96083 0.958176 -10.0028 -0.851522 -0.314974 0.419168 217 191 105
5.999 0.942547 -9.97981 -0.939116 -0.154468 0.306921 211 184 99
6.0486 0.935951 -9.92598 -0.916938 -0.0175541 0.398643 212 186 101
6.07053 0.913588 -9.88252 -0.653428 -0.00986809 0.756925 216 191 107
6.16134 0.915049 -9.77364 -0.881259 -0.0840054 0.465108 221 197 111
6.19425 0.891268 -9.75445 -0.911307 -0.248486 0.328291 214 192 107
6.26177 0.863 -9.56686 -0.351467 0.127006 0.927545 217 195 110
6.27782 0.828324 -9.55259 -0.226546 0.420426 0.878589 216 194 110
6.34552 0.816161 -9.50474 -0.683728 0.142037 0.71578 220 197 112
6.37411 0.803853 -9.49131 -0.302999 0.55933 0.771584 216 193 107
6.39637 0.789991 -9.426 -0.910247 -0.0217347 0.413495 223 200 115
6.38655 0.802392 -9.44382 -0.872268 -0.0320184 0.487979 220 197 111
6.38952 0.826984 -9.43618 0.192168 0.453065 0.870519 218 195 109
6.40723 0.807774 -9.40555 -0.93374 -0.13876 0.329962 224 201 116
6.4372 0.781214 -9.37634 -0.605506 0.312279 0.732014 224 201 116
6.467 0.787311 -9.33947 -0.901501 0.0486769 0.43003 216 193 108
6.46785 0.754395 -9.29042 -0.815099 0.334804 0.472779 217 193 108
6.48861 0.763972 -9.26053 -0.897407 -0.0842658 0.433082 216 193 110
6.50568 0.754902 -9.20703 -0.797434 0.262259 0.543432 219 195 112
6.48518 0.763985 -9.24351 -0.677444 0.10262 0.728381 216 193 109
6.49536 0.74133 -9.20713 -0.986108 -0.0502718 0.158317 219 195 112
6.50835 0.743366 -9.2051 -0.978606 -0.0305787 0.203458 219 195 112
6.52964 0.727957 -9.16883 -0.862231 -0.198127 0.466159 217 191 108
6.53553 0.732694 -9.17703 -0.865364 -0.027013 0.500415 218 191 108
6.55577 0.710497 -9.13519 -0.817128 -0.0793044 0.570975 213 184 104
6.58411 0.736984 -9.11972 0.110821 -0.216307 0.970016 212 184 103
6.58651 0.735975 -9.12132 0.112368 -0.214159 0.970314 212 184 103
6.59307 0.719597 -9.05475 -0.985466 -0.0916458 0.143028 209 179 99
6.61989 0.734574 -9.09725 -0.394911 -0.0674948 0.916237 209 179 98
6.65262 0.663142 -8.89223 -0.931411 -0.124173 0.342133 210 181 101
6.72977 0.679445 -8.90228 -0.936478 -0.0158343 0.350368 212 184 104
6.75187 0.651674 -8.8562 -0.938372 -0.115362 0.325806 214 185 104
6.78318 0.630778 -8.7443 -0.990066 -0.0485337 0.13196 213 186 105
6.89952 0.574872 -8.62238 -0.460158 -0.37722 0.803716 213 184 103
6.87824 0.609757 -8.62915 -0.546159 -0.0880155 0.833045 217 187 107
6.95535 0.589183 -8.57966 -0.868861 -0.110504 0.482566 211 183 104
6.97255 0.564994 -8.52891 -0.885906 -0.098401 0.453309 215 187 111
6.9876 0.553203 -8.4547 -0.991873 0.015328 0.126302 216 189 112
6.9976 0.517953 -8.3984 -0.879915 -0.11257 0.461604 215 186 109
7.05499 0.547184 -8.41191 -0.971568 -0.106396 0.211508 215 186 110
7.06961 0.516759 -8.37199 -0.99305 -0.0498429 0.106622 213 184 108
7.13198 0.499725 -8.26748 -0.960202 -0.219904 0.172204 210 181 107
7.24308 0.445104 -8.13337 -0.897044 -0.169836 0.408005 209 180 107
7.28594 0.433197 -8.1322 -0.135646 -0.821355 0.554054 213 185 112
7.39475 0.393129 -7.84156 -0.996623 -0.00970996 0.0815432 212 186 111
7.42722 0.369317 -7.8355 -0.995669 -0.0609228 0.0702275 212 185 111
7.47911 0.343531 -7.7414 -0.997228 -0.0122303 0.0733977 208 180 106
7.48806 0.33479 -7.73823 -0.14267 0.758669 0.635663 206 177 104
7.50642 0.320302 -7.69365 -0.835385 -0.355933 0.41886 211 184 110
7.54554 0.32856 -7.65016 -0.827898 0.04948 0.558691 216 190 115
7.52982 0.315269 -7.68351 -0.651516 0.664761 0.365539 216 189 115
7.55143 0.329574 -7.64758 -0.762941 0.188863 0.618265 216 190 115
7.55811 0.315148 -7.58439 -0.679286 -0.411634 0.607559 214 188 115
7.58651 0.301009 -7.56224 -0.5016 0.128819 0.855455 204 178 105
7.64412 0.277834 -7.48542 -0.988773 -0.074333 0.129622 210 185 112
7.64531 0.262752 -7.44476 -0.251687 -0.796583 0.549644 213 188 115
7.67774 0.242576 -7.39474 -0.97702 -0.0072638 0.213023 208 182 110
7.77775 0.227421 -7.29579 -0.886941 0.384591 0.255785 209 187 113
7.80248 0.208868 -7.20799 -0.663729 0.665065 0.342276 222 200 126
7.81004 0.220823 -7.22067 -0.854982 0.475901 0.206215 222 200 126
7.80087 0.207893 -7.19283 -0.227159 0.771174 0.594718 222 201 126
-4.22428 3.24534 -17.0076 -0.181384 -0.719003 0.67092 109 115 123
-4.17172 3.22781 -17.0391 0.243105 -0.841214 0.482968 105 108 118
-4.09945 3.19802 -16.9902 -0.520703 -0.539071 0.66202 122 124 132
-4.03981 3.1992 -16.9792 -0.382949 -0.241869 0.891544 112 113 119
-3.98279 3.19899 -16.9647 -0.222873 -0.525689 0.820962 119 120 127
-3.91994 3.19879 -16.942 -0.300402 0.1762 0.937397 122 122 129
-3.86182 3.1921 -16.9369 -0.0453318 0.0982262 0.994131 129 129 136
-3.80225 3.19387 -16.9203 -0.267211 0.0593124 0.961811 112 112 118
-3.73999 3.19215 -16.8912 -0.418413 -0.25893 0.870566 113 113 119
-0.692274 2.09198 -13.011 -0.0660942 -0.876669 0.476533 180 38 59
-0.623132 2.08157 -12.9699 0.325685 -0.807423 0.491933 197 52 74
-0.582406 2.08425 -12.9832 -0.54493 -0.670801 0.503068 199 53 75
-0.391764 2.06068 -12.8941 -0.097589 -0.507099 0.856345 191 42 64
-0.282458 2.03517 -12.9075 -0.168697 -0.399953 0.900877 175 28 51
-0.234107 2.03604 -12.9066 -0.0585172 -0.747505 0.661674 189 41 63
-0.179933 2.0118 -12.9163 0.126515 -0.507043 0.852585 192 41 63
-0.0948662 2.03416 -12.8891 0.0540429 -0.783506 0.61903 181 33 55
-0.037477 2.01092 -12.8661 -0.343153 -0.805554 0.483041 170 27 51
0.0786079 2.00003 -12.8611 -0.720386 0.339359 0.60488 192 44 65
0.149197 1.98375 -12.8056 -0.153743 -0.548634 0.821806 185 39 60
0.192741 1.96158 -12.8354 -0.0606908 -0.631275 0.773181 177 33 53
0.211703 1.96123 -12.8163 0.459575 -0.029019 0.887665 174 30 50
0.264126 1.9653 -12.8022 0.356873 0.0573244 0.932392 191 46 67
0.309372 1.96582 -12.8096 -0.282659 0.0688198 0.956749 193 48 68
0.354906 1.9685 -12.8466 -0.0607258 0.318821 0.945868 182 38 59
0.401208 1.97092 -12.8392 -0.326897 0.156815 0.931959 171 32 52
0.541503 1.95421 -12.8559 -0.172269 -0.678523 0.714094 166 34 53
0.537338 1.95436 -12.8378 -0.424499 -0.653782 0.626394 166 33 53
0.610022 1.96107 -12.8501 -0.377239 0.167925 0.910765 151 27 45
0.586546 1.95436 -12.8341 -0.0622511 -0.467638 0.881725 158 29 48
0.675407 1.96467 -12.8454 0.686725 0.129751 0.715244 147 29 45
0.750286 1.93005 -12.885 -0.111064 0.27841 0.954019 173 45 63
0.867842 1.94234 -12.8481 -0.0562138 -0.672977 0.737524 166 41 59
0.998247 1.91791 -12.9003 0.371442 0.334344 0.866167 179 48 67
1.07532 1.92831 -12.8245 -0.53141 -0.183141 0.827081 179 41 61
1.10644 1.91062 -12.8202 -0.163018 -0.684166 0.710874 185 51 70
1.15821 1.92283 -12.7919 -0.232927 -0.70927 0.665343 174 42 60
1.21128 1.89559 -12.8335 -0.256341 -0.769238 0.585288 163 38 56
1.28419 1.89767 -12.7779 -0.714613 -0.153232 0.682531 168 37 55
1.3283 1.87069 -12.7382 -0.820675 -0.200133 0.5352 173 37 55
1.36957 1.84137 -12.6928 -0.809042 -0.129128 0.573391 198 55 74
1.44032 1.85417 -12.6045 -0.831997 -0.314923 0.456733 190 46 67
1.6697 1.76376 -12.3464 -0.845198 -0.316138 0.430925 200 55 77
1.7164 1.73801 -12.3137 -0.868589 -0.225388 0.441308 194 49 70
1.79817 1.72479 -12.1846 -0.802692 -0.210184 0.558129 187 42 64
1.83713 1.69962 -12.1121 -0.809998 -0.231601 0.538762 190 46 67
1.90317 1.68474 -12.073 -0.740206 -0.209717 0.638838 180 36 57
1.95997 1.6484 -12.016 -0.619072 0.0427774 0.784168 194 51 72
1.99922 1.67087 -11.9954 -0.680705 0.0324932 0.731837 200 55 76
2.15826 1.59758 -11.7219 -0.591315 0.559715 0.580574 198 53 74
2.21372 1.59588 -11.7155 -0.498331 0.624633 0.601248 197 52 72
2.54922 1.42969 -11.1061 -0.677897 0.496748 0.541938 183 47 65
2.59757 1.40929 -10.9937 -0.409831 0.477729 0.777055 182 49 66
2.66108 1.38107 -10.9476 -0.198444 0.736623 0.646535 168 39 56
2.71181 1.37776 -10.9248 -0.364492 0.693395 0.62157 165 41 56
2.7518 1.3319 -10.8203 -0.503856 0.59985 0.621538 155 36 51
2.76173 1.37089 -10.8922 -0.487033 0.644749 0.58915 150 35 48
2.91783 1.3592 -10.9211 -0.491379 0.53556 0.686821 120 28 40
3.00864 1.30759 -10.766 -0.448517 -0.0517874 0.892273 169 44 60
2.99509 1.31901 -10.8588 0.203534 0.690814 0.693794 163 42 59
3.05345 1.30961 -10.7815 -0.251623 -0.201031 0.946717 160 35 50
3.09808 1.31016 -10.7785 -0.20484 -0.44843 0.870029 155 34 50
3.12552 1.30973 -10.8028 -0.864073 -0.348688 0.363036 147 29 45
3.16259 1.29356 -10.7384 -0.887336 0.189926 0.420194 145 32 46
3.19682 1.29009 -10.6843 -0.538081 -0.323735 0.778245 179 53 69
3.22908 1.27228 -10.6389 -0.700107 -0.152388 0.697588 177 43 61
3.35022 1.24989 -10.5241 -0.371162 0.669357 0.643584 191 51 68
3.38625 1.24808 -10.4957 -0.102514 -0.0770507 0.991743 183 47 63
3.40836 1.21345 -10.5044 0.0937508 -0.357589 0.929161 190 52 68
3.44999 1.22918 -10.4844 0.0186904 -0.00437015 0.999816 171 43 56
3.61042 1.18117 -10.4524 -0.00635448 0.661107 0.750265 183 52 66
3.63046 1.17651 -10.4224 -0.285066 0.247912 0.925893 191 60 73
3.67565 1.17483 -10.4107 -0.361937 0.0277917 0.931788 183 50 63
3.74571 1.18083 -10.3684 -0.591319 0.22377 0.77477 159 43 50
3.76857 1.14966 -10.355 -0.504305 -0.200008 0.840044 162 47 53
5.00956 1.32516 -11.4548 -0.923166 0.188442 0.335044 116 69 41
5.05526 1.31395 -11.3824 -0.840216 0.15411 0.519891 132 89 51
5.10624 1.28947 -11.3414 -0.388618 -0.0783716 0.91806 151 114 62
5.13543 1.26221 -11.314 -0.550455 0.114622 0.826959 166 131 72
5.17869 1.27468 -11.3243 -0.894244 0.274059 0.353863 181 149 82
5.18631 1.25977 -11.2062 -0.905604 0.254562 0.339235 189 159 88
5.24801 1.24367 -11.1536 -0.823169 0.135393 0.551418 192 165 90
5.28507 1.21607 -11.1594 -0.834483 0.0897307 0.543679 200 174 97
5.31945 1.20327 -11.0284 -0.946883 0.129174 0.294496 207 185 103
5.36189 1.19194 -10.945 -0.910224 0.044773 0.411689 210 187 104
5.36189 1.19194 -10.945 -0.910224 0.044773 0.411689 210 187 104
5.36189 1.19194 -10.945 -0.910224 0.044773 0.411689 210 187 104
5.37261 1.15682 -10.8358 -0.705817 -0.113848 0.699186 207 184 101
5.40971 1.14538 -10.8132 -0.529243 -0.172953 0.830656 212 189 105
5.4493 1.12718 -10.8022 -0.675596 -0.223483 0.702585 203 179 95
5.50879 1.13779 -10.7492 -0.718152 -0.114671 0.686373 203 179 94
5.53279 1.11736 -10.6913 -0.666181 -0.00854086 0.745741 215 192 105
5.60899 1.08846 -10.6072 -0.925151 -0.171321 0.33874 216 193 106
5.63358 1.05507 -10.5473 -0.864659 -0.105004 0.491263 209 185 98
5.65993 1.04856 -10.477 -0.939019 -0.259564 0.225544 215 192 105
5.73065 1.01457 -10.3647 -0.939988 -0.244109 0.238399 218 193 106
5.7845 1.01247 -10.2976 -0.764567 -0.416714 0.491718 212 187 99
5.82601 0.982889 -10.2716 -0.645503 0.241356 0.724619 216 192 104
5.91068 0.944089 -10.0916 -0.614301 -0.29245 0.732876 212 186 99
5.94809 0.926413 -10.0549 -0.883065 -0.192633 0.427889 217 191 105
6.0557 0.88483 -9.91475 -0.832736 -0.132337 0.537623 212 186 102
6.10514 0.900567 -9.84389 -0.676615 -0.279976 0.681033 223 198 113
6.11211 0.856129 -9.81468 -0.913583 0.106249 0.392527 218 193 108
6.13471 0.888904 -9.80204 -0.844866 -0.00747487 0.534925 220 195 110
6.1673 0.86495 -9.78841 -0.869662 -0.0388697 0.492115 217 194 108
6.2727 0.790151 -9.57682 -0.973669 -0.094178 0.207603 217 194 110
6.34033 0.775279 -9.50535 -0.582611 0.077147 0.809081 219 195 110
6.32523 0.809482 -9.52191 -0.617717 0.0612671 0.78401 222 199 114
6.33934 0.797791 -9.47566 -0.338902 -0.738751 0.582574 219 196 111
6.39294 0.775396 -9.46148 -0.956355 -0.0245834 0.291173 221 198 113
6.4107 0.743797 -9.41014 -0.864743 -0.162828 0.475087 223 200 115
6.44288 0.748311 -9.32888 -0.943514 -0.0119217 0.331118 217 194 109
6.46736 0.74561 -9.29265 -0.655698 0.371374 0.657375 217 193 109
6.47823 0.718411 -9.21771 -0.752685 -0.0602376 0.655619 219 195 111
6.47522 0.710709 -9.21276 -0.872896 -0.103654 0.476769 220 195 112
6.50048 0.687298 -9.17813 -0.951159 -0.089744 0.295369 217 189 108
6.55592 0.707028 -9.13377 -0.90217 -0.0449231 0.429035 213 184 104
6.58214 0.68946 -9.10411 -0.87676 -0.192762 0.440607 207 177 97
6.57916 0.681671 -9.09736 -0.928511 -0.170953 0.329608 208 178 98
6.644 0.641454 -8.95765 -0.972748 -0.0403476 0.228329 210 181 100
6.66962 0.618727 -8.93016 -0.898623 -0.0318463 0.437564 211 181 101
6.68853 0.645398 -8.89039 -0.882776 0.0260995 0.469068 213 184 104
6.72206 0.626478 -8.88687 -0.818203 0.252192 0.516665 215 186 107
6.75497 0.593723 -8.79225 0.0543001 0.707031 0.705095 214 184 103
6.79863 0.566134 -8.6644 -0.683297 -0.671621 0.28641 212 183 102
6.83363 0.569078 -8.68412 -0.121491 -0.828875 0.546083 213 184 104
6.86884 0.577298 -8.65574 -0.708744 -0.0186174 0.70522 215 185 104
6.92736 0.557666 -8.59088 -0.809739 -0.187611 0.555991 211 182 102
6.95781 0.539392 -8.57112 -0.888126 -0.310194 0.339134 214 186 107
6.9738 0.514375 -8.50459 -0.991947 0.00768967 0.126419 216 189 112
7.04287 0.511384 -8.46353 -0.987665 -0.00929587 0.156303 215 186 110
7.05526 0.479324 -8.41747 -0.988753 -0.0190996 0.148334 212 182 107
7.09389 0.486941 -8.34373 -0.965567 -0.159187 0.205765 210 180 105
7.22103 0.416424 -8.15452 -0.941068 -0.0956679 0.324404 207 179 105
7.27452 0.424145 -8.112 -0.904833 -0.0356639 0.424272 213 185 111
7.25747 0.398534 -8.10644 -0.993342 -0.044682 0.106185 213 185 111
7.39364 0.350776 -7.93593 -0.97802 0.16685 0.125053 211 184 110
7.40282 0.350488 -7.92914 -0.996489 -0.00823704 0.0833226 210 183 109
7.4175 0.334267 -7.88669 -0.992729 -0.0150742 0.119427 208 181 107
7.47875 0.329934 -7.82346 -0.944369 0.288444 0.158011 209 181 108
7.46411 0.306732 -7.75473 -0.983364 0.0163644 0.18091 206 177 104
7.48946 0.308093 -7.71178 -0.736435 0.584085 0.341334 207 179 106
7.48778 0.290455 -7.70932 -0.828585 -0.391291 0.400422 211 183 110
7.49831 0.292939 -7.70618 -0.700045 0.303707 0.646296 213 186 113
7.52268 0.308703 -7.67802 -0.742853 0.114885 0.659524 216 190 116
7.5407 0.286429 -7.64578 -0.821291 0.0726612 0.565863 216 189 115
7.53927 0.29005 -7.64307 -0.759018 0.0552197 0.648723 216 189 115
7.55998 0.288672 -7.63424 -0.917498 0.243932 0.314158 213 185 112
7.57288 0.262975 -7.55378 -0.317405 0.505755 0.802163 209 182 110
7.59621 0.271233 -7.5204 -0.980422 0.100237 0.169486 210 184 112
7.62672 0.24906 -7.51727 -0.948811 -0.0685458 0.308317 211 186 112
7.68185 0.212293 -7.33476 -0.996704 0.0455886 0.0670966 204 179 107
7.73932 0.201031 -7.31327 -0.450132 0.563436 0.692763 205 181 107
7.73834 0.185638 -7.29827 -0.793986 0.551301 0.256231 212 188 114
7.79411 0.199703 -7.27066 -0.821867 0.432143 0.371197 218 197 122
7.82421 0.172198 -7.18679 -0.999263 -0.00522868 0.0380365 215 193 120
7.85695 0.147559 -7.18287 -0.989327 -0.015285 0.144911 215 192 119
7.8904 0.145464 -7.11301 -0.999424 0.00471945 0.0336211 210 187 113
7.88454 0.135775 -7.1362 -0.990804 -0.00619243 0.135166 211 188 114
-4.06761 3.14274 -17.0172 -0.481498 -0.0821405 0.872589 108 110 117
-3.97882 3.14277 -16.9761 0.430618 -0.571335 0.698674 121 124 130
-3.89561 3.14543 -16.9586 -0.278721 -0.262793 0.923718 105 105 111
-3.83439 3.14306 -16.9385 -0.235881 0.0191621 0.971593 116 115 122
-3.77664 3.14274 -16.9295 -0.315086 0.0813934 0.945567 112 111 118
-0.447407 2.02742 -12.9462 -0.376856 -0.784867 0.491898 193 47 69
-0.39928 1.99641 -12.9234 -0.0457983 -0.59374 0.803352 188 42 65
-0.35139 1.99472 -12.9188 0.222115 -0.358097 0.90688 202 53 76
-0.303527 1.99575 -12.9268 -0.0367582 -0.375231 0.926202 202 50 74
-0.255013 1.99588 -12.919 -0.303704 -0.380774 0.87337 209 57 80
-0.206905 1.99767 -12.9192 -0.127697 -0.333805 0.933953 203 51 73
-0.0940396 1.98859 -12.8929 -0.29956 -0.768524 0.565363 183 36 60
0.0163192 1.94772 -12.8884 -0.208066 -0.66606 0.716291 188 41 62
0.0662426 1.96156 -12.8558 -0.201777 -0.663643 0.720322 193 44 65
0.148766 1.94512 -12.8563 -0.025956 -0.795682 0.605158 191 43 65
0.233662 1.91705 -12.8279 0.821431 0.184537 0.539626 174 34 55
0.28601 1.92536 -12.8254 -0.247432 -0.437786 0.864362 184 39 60
0.331127 1.92488 -12.7908 -0.666262 -0.0470259 0.744234 196 49 70
0.377932 1.92934 -12.8291 -0.459065 0.125807 0.87945 188 44 64
0.421632 1.93011 -12.8199 -0.346332 0.227903 0.910008 175 35 54
0.471808 1.92149 -12.8682 0.0152173 -0.693481 0.720314 173 36 55
0.56838 1.90797 -12.8795 -0.41105 -0.142778 0.900362 180 46 64
0.613906 1.9073 -12.8641 -0.513834 -0.0294302 0.857385 172 38 57
0.617281 1.90932 -12.8659 0.084691 0.130614 0.987809 171 38 56
0.653784 1.93014 -12.882 0.0810251 0.273308 0.958508 154 27 44
0.663183 1.90966 -12.8733 0.261576 0.0727777 0.962435 157 27 45
0.670649 1.88782 -12.8722 0.428757 -0.0481039 0.902139 165 30 49
0.701215 1.93003 -12.885 -0.00535614 0.364782 0.931077 157 31 49
0.70877 1.90911 -12.8802 0.338113 -0.033706 0.940502 171 40 59
0.716293 1.88741 -12.8898 0.169195 -0.123853 0.97777 177 42 61
0.725992 1.89175 -12.8823 0.375452 0.273219 0.885656 185 50 68
0.773355 1.88985 -12.8835 0.426569 0.336317 0.839601 183 47 66
0.821026 1.88492 -12.8586 0.843328 0.0423321 0.535729 168 38 59
0.988793 1.85564 -12.8404 -0.180012 0.666876 0.723099 166 36 56
1.10412 1.8636 -12.8101 -0.545138 0.00335361 0.83834 162 39 56
1.30244 1.82434 -12.7825 -0.713298 -0.0644809 0.697889 184 51 69
1.41035 1.81517 -12.6414 -0.775264 -0.124798 0.619187 200 56 75
1.46854 1.77282 -12.5792 -0.844661 -0.303991 0.440609 197 57 75
1.46437 1.80477 -12.5895 -0.463303 0.501243 0.730825 195 52 72
1.50764 1.79053 -12.5192 -0.860241 -0.166496 0.481938 194 49 70
1.76816 1.67712 -12.1983 -0.854374 -0.281031 0.437113 171 36 56
1.85428 1.63181 -12.0876 -0.748968 -0.0351682 0.661673 193 52 73
1.87876 1.6248 -12.0343 -0.824461 -0.113814 0.554356 195 52 74
1.92317 1.62503 -12.0436 -0.470012 -0.04209 0.881656 187 44 65
1.95191 1.59271 -11.9687 -0.572181 -0.14027 0.808043 189 46 66
1.99442 1.62134 -12.0009 -0.751191 0.0845701 0.654644 196 51 72
2.05043 1.55396 -11.8204 -0.84423 0.111449 0.524266 199 53 76
2.45786 1.37162 -10.9529 -0.570026 0.298553 0.765465 196 55 73
2.59623 1.36542 -10.9596 -0.511261 0.603211 0.612167 182 49 66
2.5926 1.32168 -10.9089 -0.615066 0.519227 0.593378 175 42 61
2.65886 1.33662 -10.8842 -0.155873 0.742614 0.651328 179 51 68
2.66304 1.2973 -10.8532 -0.395582 0.583079 0.709601 179 49 67
2.71073 1.30029 -10.8514 -0.508328 0.600604 0.617152 176 48 65
2.71035 1.29423 -10.7892 -0.549125 0.470391 0.690792 178 49 65
2.70812 1.33553 -10.8539 -0.332418 0.706962 0.624262 167 42 57
2.75308 1.29374 -10.8009 -0.510413 0.624057 0.591635 167 43 58
2.82716 1.29496 -10.7721 0.419024 0.405362 0.812465 157 39 54
2.943 1.2794 -10.7881 0.136132 0.717133 0.683512 170 49 66
3.02534 1.26966 -10.7351 0.588004 0.00170435 0.808856 156 34 50
3.0773 1.27428 -10.7824 0.235751 0.377022 0.895699 144 30 45
3.20553 1.2414 -10.6735 -0.81357 0.227055 0.535303 125 30 42
3.30953 1.21903 -10.5429 -0.890726 0.0646145 0.449925 203 58 77
3.33669 1.18535 -10.5112 -0.868986 0.253163 0.425172 198 54 73
3.38306 1.17693 -10.5058 -0.517155 -0.719059 0.464225 195 54 71
3.42581 1.17646 -10.5036 -0.256189 -0.586052 0.768707 187 49 64
3.49589 1.1971 -10.4959 -0.906201 -0.22736 0.356521 170 43 56
3.51998 1.16527 -10.4681 -0.803697 0.157619 0.573784 182 51 66
3.56028 1.16313 -10.4375 -0.532181 0.513228 0.673335 186 56 70
3.60852 1.1399 -10.399 0.0435627 0.735027 0.676637 180 48 62
3.64801 1.1379 -10.3749 0.103569 0.406796 0.907629 187 54 68
3.6899 1.13832 -10.3762 -0.115605 0.196478 0.973669 185 53 66
3.73187 1.13915 -10.3788 -0.232704 -0.102775 0.967102 173 48 59
3.76985 1.13868 -10.3626 -0.473982 -0.0626312 0.878305 162 46 53
3.8128 1.1406 -10.3706 -0.0580836 0.408714 0.910812 156 48 50
3.88935 1.12567 -10.4398 -0.506314 0.489066 0.710254 145 40 42
5.03374 1.28814 -11.4336 -0.919232 0.12153 0.37449 114 67 41
5.05485 1.26355 -11.423 -0.700581 -0.097905 0.706824 115 68 40
5.1273 1.2516 -11.3348 -0.468871 0.262427 0.843381 160 124 69
5.13427 1.21379 -11.2863 -0.452141 0.403715 0.795351 162 123 70
5.12573 1.24503 -11.3208 -0.712858 -0.076976 0.69707 161 124 69
5.16483 1.23489 -11.2999 -0.916041 0.225344 0.331797 172 136 76
5.17441 1.19136 -11.2292 -0.941462 0.140389 0.306497 167 130 73
5.1764 1.22314 -11.2154 -0.91663 0.225409 0.330121 179 146 81
5.19625 1.18115 -11.1819 -0.954807 0.0713779 0.28853 169 135 73
5.24419 1.19808 -11.1728 -0.667147 0.152722 0.729103 186 157 85
5.25972 1.16421 -11.1213 -0.727385 0.210103 0.653275 193 164 91
5.29579 1.18103 -11.0916 -0.858117 0.103897 0.502833 198 173 95
5.31811 1.14911 -11.0492 -0.862595 0.0554009 0.502853 204 180 100
5.39169 1.11705 -10.8763 -0.958957 -0.157381 0.235867 209 186 102
5.42776 1.09404 -10.8285 -0.82032 -0.181567 0.542318 204 180 95
5.46103 1.07853 -10.7898 -0.100733 0.388971 0.915726 200 176 91
5.50701 1.08811 -10.7166 -0.849482 -0.162735 0.501894 210 186 100
5.53298 1.06672 -10.6641 -0.896269 -0.127712 0.424724 218 194 108
5.58013 1.04809 -10.6152 -0.918009 -0.128376 0.375207 218 195 108
5.60926 1.01827 -10.5733 -0.749452 -0.160433 0.642326 208 184 96
5.661 1.03441 -10.5029 -0.968561 -0.127198 0.2138 214 189 101
5.69196 1.01448 -10.4518 -0.917574 -0.0237178 0.396857 221 195 107
5.71574 0.977602 -10.4092 -0.887829 -0.228722 0.399307 218 194 107
5.76835 0.974422 -10.3286 -0.834927 -0.303469 0.459133 212 187 100
5.80391 0.95296 -10.2929 -0.805848 -0.286105 0.518413 216 191 103
5.87946 0.937558 -10.1776 -0.903284 -0.0360481 0.427526 215 188 102
5.92701 0.892166 -10.093 -0.822897 -0.250153 0.510161 221 194 108
5.97455 0.902064 -10.0126 -0.944065 -0.2591 0.203983 209 185 100
6.00587 0.882642 -9.98456 -0.947772 -0.0799579 0.308765 211 184 99
6.0267 0.85898 -9.93519 -0.78449 -0.0370784 0.619032 210 183 98
6.05672 0.840061 -9.90307 -0.736313 -0.133927 0.663254 219 193 107
6.07917 0.867813 -9.87366 -0.721079 -0.189134 0.666539 222 197 112
6.23325 0.757909 -9.55921 -0.860594 -0.446487 0.245004 219 196 111
6.3035 0.775378 -9.5242 -0.391875 0.281218 0.875985 222 199 115
6.29868 0.767848 -9.53689 -0.632418 0.160434 0.757831 223 199 115
6.33836 0.76003 -9.50238 -0.41358 -0.558252 0.71924 215 192 107
6.35905 0.760448 -9.48264 -0.73478 0.195265 0.649592 217 193 108
6.42995 0.718565 -9.35204 -0.959476 -0.0223873 0.280901 218 195 110
6.45077 0.711812 -9.33098 -0.88528 -0.211571 0.414146 221 200 115
6.46564 0.680794 -9.27153 -0.978987 -0.0732371 0.190315 222 198 114
6.46096 0.673979 -9.26128 -0.973273 -0.0873417 0.212393 223 198 115
6.50718 0.684867 -9.19673 -0.883761 -0.256386 0.391449 217 189 107
6.53637 0.662893 -9.16991 -0.986714 -0.0490234 0.154893 213 183 102
6.537 0.666562 -9.17271 -0.986411 -0.0551047 0.15478 213 184 103
6.53626 0.662838 -9.16962 -0.986697 -0.0498009 0.154752 213 183 102
6.53626 0.662838 -9.16962 -0.986697 -0.0498009 0.154752 213 183 102
6.63307 0.616854 -9.01882 -0.987646 -0.0209863 0.155287 209 180 99
6.64904 0.590742 -8.96482 -0.845562 -0.0513637 0.531402 209 180 99
6.69461 0.595644 -8.90094 -0.864644 -0.0340532 0.50123 217 188 108
6.72092 0.567354 -8.86936 -0.708641 -0.108352 0.697201 217 187 107
6.74858 0.569341 -8.8559 -0.48862 -0.526772 0.69553 213 183 103
6.73805 0.589937 -8.83046 -0.379212 -0.481181 0.790356 215 185 105
6.77439 0.553966 -8.79502 0.266002 0.583463 0.767342 213 184 104
6.81861 0.533285 -8.74391 -0.715882 -0.643129 0.271842 212 184 103
6.87277 0.533252 -8.65806 -0.505021 -0.38235 0.773797 213 183 102
6.91156 0.530329 -8.62607 -0.768573 -0.327666 0.549482 211 182 102
6.94771 0.505705 -8.60816 -0.867766 -0.269227 0.41773 215 186 107
6.94243 0.514435 -8.60162 -0.74211 -0.271833 0.612682 214 185 106
6.97913 0.493667 -8.60916 -0.987926 -0.0145909 0.154238 216 189 111
6.97913 0.493667 -8.60916 -0.987926 -0.0145909 0.154238 216 189 111
6.97913 0.493667 -8.60916 -0.987926 -0.0145909 0.154238 216 189 111
6.97145 0.448368 -8.38076 -0.992168 0.0139896 0.124129 214 185 110
6.97006 0.449739 -8.37559 -0.992344 0.00929008 0.123156 214 185 110
7.02546 0.44784 -8.43069 -0.991934 -0.0270014 0.123849 212 183 108
6.96905 0.449311 -8.37328 -0.992333 0.00974761 0.123208 214 185 110
6.96905 0.449311 -8.37328 -0.992333 0.00974761 0.123208 214 185 110
7.08341 0.428046 -8.34942 -0.842424 0.122593 0.524684 210 180 104
7.1246 0.412084 -8.25874 -0.992633 -0.065443 0.101962 209 180 105
7.2542 0.395554 -8.13685 -0.531906 -0.569548 0.626651 213 185 111
7.23357 0.390878 -8.09976 -0.929986 -0.11543 0.349001 213 185 112
7.28721 0.336937 -7.89326 0.51922 0.171877 0.837179 214 188 114
7.33776 0.342813 -7.90994 -0.419544 -0.295076 0.858436 213 186 112
7.36258 0.311792 -7.91782 -0.96255 -0.0157292 0.270648 208 180 107
7.46324 0.315093 -7.90783 -0.994629 -0.0786229 0.0673229 208 181 107
7.45311 0.292657 -7.8464 -0.914188 0.329277 0.236299 209 182 108
7.46223 0.297626 -7.76041 -0.650056 0.645812 0.400443 206 177 105
7.46899 0.27049 -7.7388 -0.882625 0.338724 0.325945 209 181 108
7.51584 0.267035 -7.68899 -0.710457 0.202827 0.673878 219 192 119
7.53082 0.267173 -7.65918 -0.914734 0.257317 0.311528 218 191 116
7.54442 0.23908 -7.62974 -0.713134 0.600983 0.360915 206 178 105
7.55359 0.244048 -7.58561 -0.46683 0.409453 0.783848 208 182 109
7.62131 0.222056 -7.58213 -0.980741 0.00837587 0.195131 210 185 112
7.63945 0.223237 -7.46901 -0.171975 -0.679635 0.713106 210 185 112
7.65967 0.210287 -7.42862 -0.983959 0.0188036 0.177402 205 180 108
7.66598 0.193097 -7.44712 -0.446637 0.583407 0.678345 206 182 110
7.67611 0.187809 -7.32786 -0.480431 0.748982 0.456302 205 180 107
7.69554 0.163415 -7.32178 -0.809875 0.481833 0.334575 209 185 112
7.76725 0.162248 -7.29733 -0.981644 0.169559 0.0873211 219 197 122
7.80601 0.156079 -7.22855 -0.97281 0.180198 0.145497 217 197 123
7.88125 0.11812 -7.1602 -0.976551 -0.0176503 0.214562 211 188 115
-4.11254 3.14106 -17.0472 -0.584949 -0.0453149 0.809803 113 115 123
-4.03721 3.09862 -17.0105 -0.437072 -0.462872 0.771179 127 130 137
-3.97713 3.09062 -17.0084 0.0947184 -0.58607 0.804705 115 117 123
-3.92112 3.11997 -16.9923 -0.0700509 -0.529368 0.845495 107 107 114
-3.87217 3.08243 -17.0022 -0.599747 -0.553849 0.577542 113 112 120
-3.80589 3.08183 -16.9673 -0.336228 -0.444211 0.830438 112 111 118
-0.380464 1.96101 -12.9835 -0.454699 -0.738491 0.497876 173 29 52
-0.327053 1.95727 -12.9455 0.00438572 -0.539003 0.842292 202 53 76
-0.273824 1.95522 -12.9479 -0.0199443 -0.496816 0.867627 207 57 80
-0.225515 1.9561 -12.9396 -0.363318 -0.606912 0.706865 203 51 74
-0.176713 1.92164 -12.9553 -0.219678 -0.532284 0.817567 211 60 84
-0.132689 1.93974 -12.9874 -0.43282 0.350238 0.830662 198 48 71
-0.0827681 1.93923 -12.9396 -0.42148 0.118343 0.899083 186 38 59
-0.0366328 1.93935 -12.9233 -0.626814 0.153397 0.76392 190 42 64
-0.00560673 1.90507 -12.9104 -0.459432 -0.053454 0.886603 211 61 83
0.0399617 1.90542 -12.8883 -0.486951 -0.47835 0.730794 197 47 69
0.0890406 1.91098 -12.911 -0.0587156 -0.793095 0.606261 191 44 66
0.137386 1.91002 -12.8602 -0.133023 -0.79282 0.594762 183 36 59
0.186803 1.911 -12.8463 -0.0886952 -0.492684 0.865677 178 34 55
0.216952 1.87635 -12.8827 -0.335346 -0.402263 0.851897 180 36 56
0.31495 1.89725 -12.8883 0.519143 -0.599918 0.60876 181 36 59
0.397766 1.88606 -12.8066 -0.669007 -0.0200525 0.742985 184 39 60
0.44378 1.88243 -12.8456 0.409568 0.1702 0.896262 176 35 55
0.525018 1.88257 -12.8989 0.0979566 -0.512454 0.853109 161 27 46
0.568387 1.86631 -12.9002 -0.0445124 -0.426245 0.903512 183 46 66
0.616461 1.8637 -12.8711 0.0266687 -0.742148 0.669705 190 50 70
0.669485 1.84132 -12.8673 0.34747 -0.118854 0.930128 181 42 61
0.731013 1.86668 -12.8854 0.183406 -0.0902746 0.978883 174 36 55
0.737809 1.84572 -12.8799 -0.462966 0.144508 0.874517 175 35 54
0.754512 1.84756 -12.8724 0.360571 0.241677 0.900878 181 40 60
0.801363 1.8458 -12.8732 0.340321 0.232829 0.911028 186 45 64
0.878232 1.85076 -12.8592 -0.0410885 0.464203 0.884775 155 31 51
0.914161 1.80246 -12.7981 0.0821086 0.726467 0.682279 178 41 62
0.937249 1.82806 -12.824 -0.0261005 0.740785 0.671235 173 40 61
0.989751 1.81209 -12.8258 -0.132687 0.638683 0.757943 182 44 64
1.03898 1.79783 -12.7789 -0.327416 0.592548 0.735993 177 44 64
2.54808 1.27606 -10.8682 -0.302036 0.606643 0.735363 198 59 78
2.64909 1.25866 -10.8093 -0.332947 0.384478 0.861001 175 44 63
2.68892 1.25873 -10.7893 -0.326028 0.287759 0.9005 196 63 82
2.72758 1.25883 -10.7707 -0.285622 0.139288 0.948166 194 62 80
2.74264 1.22396 -10.7359 -0.246665 0.646694 0.721764 188 55 73
2.76744 1.25882 -10.7613 -0.238253 0.109936 0.964961 185 56 74
2.77927 1.22438 -10.711 -0.510696 0.636169 0.578342 178 48 65
2.81042 1.25882 -10.7622 0.0186841 -0.306611 0.951652 171 47 63
2.85227 1.25136 -10.7403 0.268131 0.39408 0.879094 175 50 67
2.90065 1.21009 -10.711 -0.0953778 0.554874 0.826449 185 58 75
2.89758 1.2306 -10.7412 0.0067838 0.571514 0.820564 186 59 76
2.94101 1.23145 -10.7303 -0.29886 0.432214 0.850808 180 54 70
2.99034 1.23966 -10.7419 0.266584 0.670492 0.692368 174 49 66
3.28137 1.17636 -10.6175 -0.872722 0.167208 0.458692 171 47 64
3.31515 1.15651 -10.5996 -0.57746 -0.0389202 0.815491 198 57 77
3.42268 1.14273 -10.5381 -0.517748 0.163667 0.839732 178 42 57
3.48297 1.1417 -10.4847 -0.81599 0.0686454 0.573975 180 46 61
3.52152 1.12486 -10.4236 -0.779193 0.419754 0.465473 202 68 82
3.52197 1.10442 -10.4003 -0.816278 0.366079 0.446853 199 64 79
3.56439 1.12386 -10.4138 0.0330002 0.56645 0.823435 186 51 66
3.57991 1.09354 -10.3825 -0.409311 0.656534 0.633583 186 52 67
3.61501 1.1014 -10.3866 0.000943271 0.588202 0.808713 178 44 59
3.66809 1.10336 -10.3684 -0.00102886 0.433107 0.901342 176 45 58
3.71105 1.1036 -10.3778 0.0661587 0.0438102 0.996847 174 47 60
3.75455 1.10487 -10.3875 -0.441007 -0.00724884 0.897474 158 36 47
3.76965 1.06942 -10.3618 -0.375553 0.110086 0.92024 162 42 52
3.8798 1.09418 -10.364 -0.371108 0.691081 0.620231 140 36 38
3.9593 1.05804 -10.3766 0.322165 -0.00366169 0.946677 156 52 52
3.98189 1.09814 -10.3989 -0.692612 0.415409 0.589681 154 55 52
4.03408 1.07474 -10.4334 0.502202 0.146758 0.852206 140 50 44
5.03209 1.23434 -11.4686 -0.952087 0.0653933 0.298754 110 61 39
5.05234 1.20951 -11.4347 -0.957582 0.0212778 0.287374 113 64 40
5.08186 1.21742 -11.4265 -0.952784 0.0498622 0.299527 121 72 44
5.1041 1.21323 -11.3435 -0.486368 0.154924 0.85991 139 95 56
5.11765 1.17484 -11.3285 -0.939736 0.140841 0.311544 139 93 56
5.22166 1.13967 -11.1464 -0.86809 0.203574 0.452745 174 142 77
5.28598 1.13281 -11.1066 -0.818157 0.0822931 0.569075 187 160 85
5.33419 1.11516 -11.0088 -0.88947 0.118519 0.441357 204 180 98
5.44695 1.05424 -10.831 -0.869204 -0.216824 0.444378 201 176 92
5.47401 1.03101 -10.7832 -0.225481 -0.567287 0.79205 209 184 99
5.48417 1.07061 -10.7869 0.280905 0.620316 0.732326 204 179 94
5.51254 1.04586 -10.7499 -0.817503 -0.155922 0.554417 215 191 106
5.53556 1.02814 -10.6909 -0.964641 -0.14554 0.219739 219 196 109
5.58171 0.983871 -10.5918 -0.687398 -0.212577 0.694475 209 184 97
5.6404 0.999609 -10.5373 -0.88128 -0.1767 0.438318 210 184 97
5.66638 0.974156 -10.4832 -0.960868 -0.0569341 0.271092 219 193 106
5.68715 0.937969 -10.4237 -0.941966 -0.121637 0.312896 218 193 107
5.74552 0.951604 -10.3697 -0.967467 -0.150996 0.202997 213 188 101
5.78965 0.918886 -10.332 -0.838246 -0.246092 0.486603 215 190 103
5.81652 0.900521 -10.2787 -0.877975 -0.173566 0.446132 215 190 102
5.855 0.909109 -10.2115 -0.855016 -0.10862 0.507099 216 191 103
5.88012 0.883626 -10.1709 -0.855576 -0.0478004 0.515465 213 186 101
5.90732 0.860935 -10.1283 -0.83981 -0.14667 0.522692 220 194 108
5.95565 0.870907 -10.0537 -0.875631 -0.125537 0.46638 209 182 97
5.99718 0.824049 -10.0044 -0.937128 -0.0666723 0.342557 210 182 97
6.00456 0.834144 -9.9746 -0.854929 -0.125358 0.503371 209 181 95
6.03662 0.811923 -9.93872 -0.767638 -0.140479 0.625298 218 192 106
6.08521 0.821728 -9.85774 -0.887143 -0.0981812 0.45093 219 194 108
6.11612 0.797253 -9.83148 -0.831828 -0.241267 0.499853 218 193 107
6.19815 0.741044 -9.65019 -0.981749 -0.0269931 0.188257 218 194 109
6.26665 0.736593 -9.5389 -0.86252 -0.142707 0.485484 223 198 114
6.28077 0.698073 -9.51409 -0.798038 -0.200812 0.568163 218 192 108
6.31538 0.730004 -9.52271 -0.745975 -0.205266 0.633551 216 192 109
6.33281 0.710297 -9.46353 -0.356234 0.488203 0.796715 216 192 106
6.343 0.715792 -9.48219 -0.75675 0.269288 0.595662 216 192 107
6.36244 0.684008 -9.44027 -0.772156 0.0608945 0.632508 218 195 109
6.38742 0.710372 -9.44333 -0.919061 0.20239 0.338178 220 196 111
6.38955 0.672062 -9.40702 0.101019 -0.635749 0.765257 217 195 110
6.43646 0.673085 -9.38495 -0.977616 -0.147631 0.149907 221 198 112
6.48458 0.644007 -9.22099 -0.914615 -0.267817 0.30291 214 188 105
6.48055 0.645368 -9.21006 -0.971852 -0.134988 0.193084 214 188 105
6.48225 0.640601 -9.21457 -0.976125 -0.124602 0.177916 213 187 105
6.49778 0.611255 -9.1522 -0.975778 -0.099213 0.194974 211 182 100
6.60015 0.572788 -9.03941 -0.824491 -0.0787723 0.560366 210 181 100
6.62995 0.566196 -9.00356 -0.61071 -0.329277 0.720146 208 179 98
6.66877 0.565287 -8.92137 -0.898001 -0.0462085 0.437559 217 187 106
6.68915 0.540149 -8.87958 -0.813757 -0.00672643 0.581167 217 188 108
6.78525 0.52369 -8.83514 -0.970318 -0.0584523 0.234662 211 182 102
6.83804 0.512058 -8.72214 -0.922747 0.0481489 0.382388 214 185 104
6.86296 0.498611 -8.67937 -0.669128 -0.263284 0.694945 210 180 100
6.89903 0.499485 -8.65715 -0.522211 -0.414207 0.745472 211 181 101
6.91898 0.467252 -8.60579 -0.946781 -0.102378 0.305162 215 185 106
6.99355 0.422036 -8.35451 -0.992856 -0.0428535 0.111354 210 181 106
6.997 0.420073 -8.361 -0.992953 -0.0384381 0.112102 210 181 106
7.05463 0.400995 -8.35961 0.0649302 0.700563 0.710631 205 176 101
7.11066 0.382938 -8.29831 -0.927558 -0.14023 0.346368 211 182 107
7.30957 0.318722 -7.9866 0.0978875 0.677296 0.72917 213 186 112
7.33458 0.314666 -7.94894 -0.385336 -0.226458 0.894557 213 186 112
7.36293 0.294407 -7.92611 -0.945876 -0.0323909 0.322907 207 179 106
7.39298 0.290534 -7.90668 -0.996518 -0.0203107 0.080869 208 180 107
7.39518 0.237209 -7.72779 -0.477838 -0.685961 0.548752 208 181 107
7.44452 0.251007 -7.77779 -0.627951 0.6124 0.480254 204 177 103
7.4769 0.258202 -7.73714 -0.877091 -0.254835 0.407148 213 185 112
7.45736 0.243897 -7.73769 -0.473774 -0.700605 0.533564 211 185 112
7.50669 0.24476 -7.69399 -0.870129 -0.0656118 0.488437 217 190 116
7.52337 0.219894 -7.6723 -0.925149 0.234142 0.298792 209 182 108
7.54348 0.216921 -7.61369 -0.0788241 0.728532 0.680462 208 180 108
7.63293 0.198354 -7.52217 -0.94536 -0.109554 0.307071 212 186 113
7.62529 0.190709 -7.52126 -0.750383 -0.238533 0.616464 212 187 113
7.64302 0.171687 -7.46602 -0.997328 0.032196 0.0655717 201 175 103
7.64377 0.174653 -7.47591 -0.998048 0.0138842 0.0608948 199 173 101
7.67181 0.165417 -7.39397 -0.422145 0.764091 0.487811 205 180 108
7.67224 0.13707 -7.34939 -0.832408 0.505127 0.227912 209 184 112
7.7445 0.124781 -7.32938 -0.988011 0.133964 0.0767319 219 197 123
7.76958 0.129679 -7.24574 -0.904354 0.334497 0.265057 222 200 125
7.85213 0.111768 -7.2382 -0.992643 0.00387275 0.121013 213 192 117
7.85224 0.0788559 -7.17356 -0.956363 0.158986 0.245139 206 184 110
