ply
format ascii 1.0
element face 0
property list uchar int vertex_indices
element vertex 897
property float x
property float y
property float z
property uchar diffuse_red
property uchar diffuse_green
property uchar diffuse_blue
end_header
8.118507e-001 -5.550273e-001 2.962593e+000 132 21 28
8.086954e-001 -5.670961e-001 2.968723e+000 103 62 40
8.163601e-001 -5.711036e-001 2.995795e+000 175 63 29
8.080468e-001 -5.864138e-001 2.988336e+000 160 118 83
7.990012e-001 -6.069179e-001 2.988502e+000 27 12 7
8.159022e-001 -5.948935e-001 3.030751e+000 27 7 5
8.475130e-001 -3.465419e-001 2.865934e+000 33 78 99
8.385136e-001 -3.765253e-001 2.864608e+000 161 27 35
8.381816e-001 -3.851774e-001 2.855845e+000 153 34 33
8.363169e-001 -4.007791e-001 2.887860e+000 21 43 24
8.405657e-001 -3.977395e-001 2.894603e+000 145 138 29
8.405657e-001 -3.977395e-001 2.894603e+000 145 138 29
8.360150e-001 -4.039880e-001 2.889775e+000 50 90 84
8.400849e-001 -4.067609e-001 2.913397e+000 58 85 86
8.327691e-001 -4.191086e-001 2.896909e+000 143 135 27
8.312121e-001 -4.493265e-001 2.919282e+000 161 130 107
8.247901e-001 -4.897332e-001 2.935101e+000 175 108 75
8.371095e-001 -4.815757e-001 2.972971e+000 73 34 18
8.365420e-001 -4.857686e-001 2.975429e+000 86 58 38
8.330115e-001 -5.119825e-001 2.987109e+000 71 30 8
8.052968e-001 -5.402917e-001 2.931172e+000 188 105 84
8.180473e-001 -5.309045e-001 2.956401e+000 66 42 24
8.182637e-001 -5.309285e-001 2.956281e+000 66 42 24
8.326537e-001 -5.242698e-001 2.999654e+000 226 82 89
8.326537e-001 -5.242698e-001 2.999654e+000 226 82 89
8.059418e-001 -5.525837e-001 2.945582e+000 120 21 22
8.323566e-001 -4.016707e-001 2.879122e+000 139 133 28
8.417831e-001 -4.044243e-001 2.922106e+000 58 90 91
8.401553e-001 -4.547778e-001 2.959791e+000 136 21 18
8.275792e-001 -4.877725e-001 2.942921e+000 181 108 74
8.275792e-001 -4.877725e-001 2.942921e+000 181 108 74
8.283888e-001 -4.887118e-001 2.945781e+000 176 111 84
8.364771e-001 -4.810246e-001 2.968511e+000 180 107 80
8.369052e-001 -4.797303e-001 2.970801e+000 186 106 70
8.229287e-001 -4.962862e-001 2.937807e+000 170 103 79
8.135001e-001 -5.141929e-001 2.929064e+000 137 94 72
8.135001e-001 -5.141929e-001 2.929064e+000 137 94 72
8.224052e-001 -5.095288e-001 2.947269e+000 72 44 25
8.216952e-001 -5.118128e-001 2.946820e+000 175 105 81
8.327903e-001 -5.071769e-001 2.980792e+000 183 119 77
8.333416e-001 -5.059742e-001 2.982806e+000 183 120 78
8.335751e-001 -5.077961e-001 2.984898e+000 111 63 36
8.335751e-001 -5.077961e-001 2.984898e+000 111 63 36
8.226634e-001 -5.187751e-001 2.956750e+000 177 109 72
8.207853e-001 -5.205630e-001 2.957994e+000 41 18 9
8.213612e-001 -5.207722e-001 2.957705e+000 41 18 9
8.319016e-001 -5.114376e-001 2.982415e+000 184 117 76
8.329906e-001 -5.103332e-001 2.984446e+000 184 119 81
8.321901e-001 -5.145517e-001 2.986686e+000 184 119 79
8.105326e-001 -5.299897e-001 2.935780e+000 181 108 83
8.081458e-001 -5.350557e-001 2.934304e+000 184 109 89
8.084693e-001 -5.356362e-001 2.933775e+000 184 109 89
8.202213e-001 -5.280600e-001 2.958754e+000 182 108 77
8.202213e-001 -5.280600e-001 2.958754e+000 182 108 77
8.062407e-001 -5.444885e-001 2.937754e+000 148 16 36
8.111052e-001 -5.451538e-001 2.948717e+000 138 22 32
8.320415e-001 -4.169742e-001 2.894508e+000 25 48 12
8.407648e-001 -4.094621e-001 2.923919e+000 32 46 21
8.407648e-001 -4.094621e-001 2.923919e+000 32 46 21
8.155289e-001 -4.954481e-001 2.909488e+000 174 113 81
8.341132e-001 -3.992048e-001 2.882110e+000 76 81 19
8.084678e-001 -5.525382e-001 2.953050e+000 145 18 29
8.086088e-001 -5.526823e-001 2.952877e+000 145 18 29
8.301309e-001 -5.524426e-001 3.024657e+000 114 22 22
8.347720e-001 -3.997137e-001 2.879489e+000 45 81 52
8.328176e-001 -4.441208e-001 2.917148e+000 158 130 101
8.059601e-001 -5.158008e-001 2.911511e+000 178 111 92
8.230470e-001 -5.407504e-001 2.984443e+000 150 18 31
8.230470e-001 -5.407504e-001 2.984443e+000 150 18 31
8.371153e-001 -4.109152e-001 2.912046e+000 55 91 87
8.322514e-001 -4.192703e-001 2.889585e+000 22 49 16
8.340971e-001 -4.774794e-001 2.959381e+000 180 105 76
8.333951e-001 -5.084881e-001 2.982050e+000 158 106 71
8.302926e-001 -5.333759e-001 3.003590e+000 191 27 37
8.320547e-001 -4.830454e-001 2.955633e+000 179 106 74
8.220482e-001 -5.823699e-001 3.040699e+000 179 89 36
8.488826e-001 -3.634628e-001 2.831628e+000 16 73 100
8.294364e-001 -4.454513e-001 2.916191e+000 122 43 38
8.334740e-001 -3.744422e-001 2.900840e+000 146 44 35
8.320644e-001 -4.487696e-001 2.919843e+000 160 139 114
8.197359e-001 -4.739723e-001 2.899435e+000 210 139 112
8.273073e-001 -4.678120e-001 2.921976e+000 216 134 102
8.324272e-001 -4.623633e-001 2.935405e+000 115 33 24
8.438385e-001 -4.560771e-001 2.974224e+000 42 75 82
8.393901e-001 -4.766121e-001 2.972712e+000 53 21 17
8.236575e-001 -4.956488e-001 2.939502e+000 181 113 88
8.182158e-001 -5.386000e-001 2.964695e+000 217 57 67
8.190978e-001 -5.392319e-001 2.967906e+000 128 22 27
8.402543e-001 -3.793433e-001 2.857618e+000 194 135 98
8.305854e-001 -4.444784e-001 2.910289e+000 107 17 26
8.318597e-001 -4.460530e-001 2.911614e+000 160 138 114
8.270989e-001 -4.662257e-001 2.921395e+000 207 135 109
8.374280e-001 -4.596428e-001 2.953839e+000 17 68 97
8.377932e-001 -4.782600e-001 2.968936e+000 69 35 15
8.080105e-001 -5.149396e-001 2.904173e+000 161 57 56
8.052166e-001 -5.174076e-001 2.904315e+000 197 68 72
8.079552e-001 -5.266819e-001 2.921585e+000 95 56 44
8.079552e-001 -5.266819e-001 2.921585e+000 95 56 44
8.045157e-001 -5.440788e-001 2.931043e+000 191 116 102
8.308288e-001 -5.215810e-001 2.989898e+000 189 121 86
8.092249e-001 -5.453356e-001 2.948208e+000 145 23 29
8.265935e-001 -5.322240e-001 2.982387e+000 133 30 31
8.036759e-001 -5.509735e-001 2.938554e+000 128 28 34
8.093391e-001 -5.501031e-001 2.953079e+000 139 19 28
8.156558e-001 -5.415445e-001 2.964783e+000 197 56 65
8.156558e-001 -5.415445e-001 2.964783e+000 197 56 65
8.366539e-001 -4.083266e-001 2.876299e+000 144 136 22
8.369625e-001 -4.025298e-001 2.900011e+000 145 141 28
8.407524e-001 -4.127636e-001 2.926669e+000 80 103 79
8.220344e-001 -4.761775e-001 2.907845e+000 24 68 103
8.218997e-001 -4.763452e-001 2.910734e+000 15 49 71
8.098864e-001 -5.046026e-001 2.905607e+000 156 96 89
8.098864e-001 -5.046026e-001 2.905607e+000 156 96 89
8.136959e-001 -5.015755e-001 2.917285e+000 152 93 79
8.136959e-001 -5.015755e-001 2.917285e+000 152 93 79
8.419030e-001 -4.757496e-001 2.983686e+000 188 146 104
8.148517e-001 -5.091831e-001 2.928197e+000 127 76 62
8.148517e-001 -5.091831e-001 2.928197e+000 127 76 62
8.211910e-001 -5.071687e-001 2.946402e+000 186 112 87
8.058959e-001 -5.262433e-001 2.912767e+000 149 45 46
8.206170e-001 -5.114911e-001 2.948822e+000 184 114 87
8.342524e-001 -5.031121e-001 2.983364e+000 134 83 55
8.203093e-001 -5.314628e-001 2.963812e+000 189 112 87
8.326703e-001 -5.157955e-001 2.989448e+000 84 50 28
8.264703e-001 -5.297563e-001 2.985000e+000 139 20 31
8.356450e-001 -4.835587e-001 2.967451e+000 164 95 65
8.372318e-001 -4.842584e-001 2.972318e+000 188 113 84
8.236796e-001 -4.973363e-001 2.944831e+000 185 111 87
8.356126e-001 -4.991101e-001 2.981030e+000 118 76 54
8.339808e-001 -5.012777e-001 2.980878e+000 191 124 78
8.051499e-001 -5.345693e-001 2.925571e+000 187 113 100
8.048013e-001 -5.344404e-001 2.925568e+000 187 113 100
8.062085e-001 -5.363510e-001 2.929548e+000 190 116 100
8.191015e-001 -5.240658e-001 2.955271e+000 187 113 88
8.202859e-001 -5.231893e-001 2.958400e+000 183 114 84
7.966322e-001 -5.484389e-001 2.913511e+000 189 149 135
8.182492e-001 -5.312725e-001 2.961863e+000 194 108 86
8.158190e-001 -5.359468e-001 2.957604e+000 187 111 84
8.206517e-001 -4.760502e-001 2.899861e+000 149 28 32
8.257752e-001 -4.775075e-001 2.926899e+000 20 58 84
8.222626e-001 -5.024773e-001 2.943875e+000 184 115 89
8.222626e-001 -5.024773e-001 2.943875e+000 184 115 89
8.112940e-001 -5.251479e-001 2.935220e+000 182 114 82
8.118214e-001 -5.256349e-001 2.934646e+000 182 114 82
8.044939e-001 -5.381232e-001 2.923942e+000 190 121 103
8.297752e-001 -4.319588e-001 2.895299e+000 27 52 25
8.336286e-001 -4.265119e-001 2.916328e+000 27 51 22
8.336286e-001 -4.265119e-001 2.916328e+000 27 51 22
8.382641e-001 -4.405406e-001 2.930521e+000 152 138 109
8.400204e-001 -4.661976e-001 2.969555e+000 14 52 75
8.034672e-001 -5.321180e-001 2.922723e+000 187 119 103
7.948673e-001 -5.405977e-001 2.913743e+000 83 123 187
8.379575e-001 -3.847885e-001 2.846188e+000 196 139 101
8.379575e-001 -3.847885e-001 2.846188e+000 196 139 101
8.300668e-001 -4.366669e-001 2.885390e+000 142 136 112
7.993936e-001 -5.422886e-001 2.923791e+000 115 24 37
8.353328e-001 -4.358266e-001 2.916807e+000 152 142 117
8.218263e-001 -4.839665e-001 2.894593e+000 27 69 94
7.759309e-001 -3.042998e-001 3.230083e+000 29 18 14
7.759309e-001 -3.042998e-001 3.230083e+000 29 18 14
7.510290e-001 -2.989074e-001 3.238534e+000 206 173 105
7.514231e-001 -3.126434e-001 3.238793e+000 202 168 107
7.552082e-001 -3.167394e-001 3.237258e+000 29 20 15
7.519546e-001 -3.213686e-001 3.239571e+000 197 167 115
7.602392e-001 -3.006831e-001 3.235278e+000 204 174 115
8.213086e-001 -5.673177e-001 3.009066e+000 201 99 34
8.189831e-001 -5.708419e-001 3.002292e+000 174 65 34
8.064983e-001 -5.796486e-001 2.974917e+000 169 122 76
8.120213e-001 -5.758654e-001 2.985093e+000 174 103 57
8.160408e-001 -5.755744e-001 2.999414e+000 188 71 23
8.048215e-001 -5.876121e-001 2.979491e+000 180 124 78
8.099782e-001 -5.838110e-001 2.989325e+000 179 128 78
8.086323e-001 -5.805444e-001 2.981183e+000 174 126 80
8.125011e-001 -5.769149e-001 2.989735e+000 186 88 35
8.118721e-001 -5.974258e-001 3.020022e+000 36 13 1
8.020642e-001 -6.072254e-001 3.001142e+000 101 50 33
5.096150e-001 -3.161672e-001 3.249807e+000 85 67 53
8.105469e-001 -6.008489e-001 3.020213e+000 140 73 29
5.166866e-001 -3.083628e-001 3.247924e+000 123 101 77
5.275908e-001 -3.134760e-001 3.244208e+000 99 80 63
8.085402e-001 -5.981942e-001 3.006287e+000 57 40 23
5.150141e-001 -3.136162e-001 3.246721e+000 109 86 76
5.206018e-001 -3.156866e-001 3.244752e+000 66 50 44
5.354567e-001 -3.132485e-001 3.243322e+000 97 80 62
8.271430e-001 -5.401006e-001 2.992693e+000 225 49 56
8.219192e-001 -5.677438e-001 3.010949e+000 137 53 16
8.115024e-001 -5.790902e-001 2.988158e+000 136 84 48
8.013327e-001 -6.046268e-001 2.993846e+000 24 14 13
8.070032e-001 -6.018869e-001 3.009394e+000 174 128 98
8.056571e-001 -5.576661e-001 2.948245e+000 239 65 72
8.023326e-001 -5.802933e-001 2.963436e+000 190 135 97
8.110619e-001 -5.767108e-001 2.982834e+000 189 133 85
8.215926e-001 -5.675928e-001 3.008746e+000 195 105 34
8.061168e-001 -5.800950e-001 2.973268e+000 183 134 93
8.111265e-001 -5.803981e-001 2.989159e+000 183 130 80
8.129417e-001 -5.798661e-001 2.994264e+000 116 47 11
8.136917e-001 -5.791124e-001 2.995903e+000 104 31 13
8.162602e-001 -5.778256e-001 3.002451e+000 187 83 27
8.163736e-001 -5.778270e-001 3.002438e+000 187 83 27
8.140389e-001 -5.916338e-001 3.017994e+000 173 97 35
8.168712e-001 -5.910968e-001 3.029617e+000 175 93 33
8.103475e-001 -5.701326e-001 2.974016e+000 190 131 89
8.449492e-001 -3.543017e-001 2.874555e+000 104 161 179
8.449492e-001 -3.543017e-001 2.874555e+000 104 161 179
8.319168e-001 -5.286703e-001 2.995456e+000 143 30 32
8.261519e-001 -5.357620e-001 2.986237e+000 235 72 75
8.165992e-001 -5.694338e-001 2.993195e+000 180 60 32
8.117964e-001 -5.758878e-001 2.985188e+000 172 97 65
8.239921e-001 -5.669119e-001 3.013391e+000 118 33 10
8.153693e-001 -5.768917e-001 2.997357e+000 196 83 30
8.153693e-001 -5.768917e-001 2.997357e+000 196 83 30
8.050715e-001 -5.886486e-001 2.982477e+000 163 115 77
8.236240e-001 -5.788466e-001 3.035369e+000 106 66 43
7.967657e-001 -6.081711e-001 2.988774e+000 169 123 103
8.022136e-001 -6.075496e-001 3.005483e+000 120 52 41
8.263730e-001 -5.416847e-001 2.990147e+000 224 61 66
8.262737e-001 -5.415367e-001 2.990164e+000 224 61 66
8.070206e-001 -5.580018e-001 2.952703e+000 141 32 36
8.184684e-001 -5.714221e-001 3.000319e+000 186 68 36
8.221574e-001 -5.702356e-001 3.012270e+000 110 40 23
8.087567e-001 -6.028266e-001 3.015559e+000 133 68 30
7.932723e-001 -6.129992e-001 2.987764e+000 84 27 30
8.451119e-001 -4.167948e-001 2.951449e+000 154 141 99
8.305638e-001 -4.603530e-001 2.928255e+000 131 21 19
8.325556e-001 -4.609338e-001 2.936318e+000 219 127 90
8.322935e-001 -4.675665e-001 2.940461e+000 22 60 78
8.361065e-001 -4.825985e-001 2.969490e+000 175 109 77
8.263753e-001 -5.302880e-001 2.982042e+000 221 56 69
8.294560e-001 -5.272806e-001 2.988329e+000 239 81 82
8.197010e-001 -5.488952e-001 2.979338e+000 131 18 26
8.188563e-001 -5.678073e-001 2.998590e+000 223 117 61
8.188563e-001 -5.678073e-001 2.998590e+000 223 117 61
8.212836e-001 -5.660708e-001 3.005473e+000 176 92 28
8.036172e-001 -5.844738e-001 2.972570e+000 85 53 31
8.139048e-001 -5.759140e-001 2.992477e+000 174 63 37
8.145185e-001 -5.746152e-001 2.992776e+000 106 24 9
7.990927e-001 -5.967346e-001 2.973164e+000 33 21 16
8.207189e-001 -5.813955e-001 3.023763e+000 189 128 98
8.186007e-001 -5.876876e-001 3.025594e+000 176 88 32
8.147670e-001 -5.951555e-001 3.024924e+000 31 11 4
8.211008e-001 -5.876454e-001 3.038869e+000 39 15 8
8.360211e-001 -4.638985e-001 2.951652e+000 23 60 78
8.312103e-001 -5.297543e-001 2.998474e+000 143 23 32
8.234522e-001 -5.440607e-001 2.986531e+000 134 19 27
7.985163e-001 -6.115525e-001 2.992369e+000 86 42 28
8.142077e-001 -5.968308e-001 3.026033e+000 40 6 0
8.313188e-001 -5.141618e-001 2.982045e+000 166 109 75
8.086980e-001 -5.442850e-001 2.945557e+000 225 89 93
8.155191e-001 -5.516501e-001 2.971411e+000 128 25 29
8.215233e-001 -5.479345e-001 2.983894e+000 224 79 90
8.203197e-001 -5.544205e-001 2.987287e+000 66 37 21
8.048318e-001 -5.680487e-001 2.958294e+000 186 107 83
8.138948e-001 -5.630676e-001 2.979278e+000 80 32 21
8.015734e-001 -5.876893e-001 2.969520e+000 167 117 83
8.236305e-001 -5.788475e-001 3.027141e+000 188 147 110
7.991711e-001 -5.900904e-001 2.965560e+000 73 41 18
7.992956e-001 -5.901186e-001 2.965665e+000 73 41 18
7.850220e-001 -6.237818e-001 2.967626e+000 132 29 43
8.254937e-001 -5.456841e-001 2.997449e+000 187 117 81
7.899751e-001 -5.900755e-001 2.947716e+000 51 19 20
8.386829e-001 -4.111263e-001 2.910039e+000 55 91 87
8.016523e-001 -6.065420e-001 2.995714e+000 155 123 97
8.275516e-001 -5.464306e-001 3.008157e+000 187 120 78
8.364059e-001 -3.843250e-001 2.857787e+000 137 39 32
8.333394e-001 -4.408757e-001 2.922560e+000 85 38 23
8.397218e-001 -4.529888e-001 2.957032e+000 115 26 28
8.418113e-001 -4.515889e-001 2.962580e+000 230 125 103
8.415243e-001 -4.514258e-001 2.962750e+000 230 125 103
8.436559e-001 -4.495774e-001 2.972150e+000 60 41 42
8.377737e-001 -4.734221e-001 2.968319e+000 42 8 1
8.287993e-001 -5.280168e-001 2.989915e+000 129 25 31
8.290514e-001 -5.293976e-001 2.990516e+000 230 70 77
8.337675e-001 -5.226140e-001 2.998757e+000 139 28 27
8.066107e-001 -5.576080e-001 2.953493e+000 124 18 30
8.168937e-001 -5.488572e-001 2.974836e+000 142 14 26
8.180038e-001 -5.487077e-001 2.975866e+000 248 72 82
8.222154e-001 -5.449734e-001 2.983241e+000 201 53 55
8.285465e-001 -5.390906e-001 2.997127e+000 156 20 32
8.067636e-001 -5.683983e-001 2.965104e+000 91 52 40
8.116097e-001 -5.652618e-001 2.974174e+000 99 57 40
8.116703e-001 -5.652685e-001 2.974217e+000 99 57 40
8.079230e-001 -5.790886e-001 2.979840e+000 131 88 58
8.094925e-001 -5.781007e-001 2.982059e+000 100 65 42
8.176621e-001 -5.702236e-001 2.997591e+000 181 61 39
8.177973e-001 -5.712539e-001 2.998820e+000 128 39 24
8.216016e-001 -5.662878e-001 3.005243e+000 187 93 31
8.222865e-001 -5.657133e-001 3.006218e+000 182 87 36
8.029652e-001 -5.881372e-001 2.975781e+000 183 128 88
8.098287e-001 -5.804099e-001 2.984865e+000 113 74 43
8.188337e-001 -5.753702e-001 3.007555e+000 192 107 44
7.985542e-001 -5.963035e-001 2.973613e+000 21 10 6
8.117812e-001 -5.870371e-001 2.999182e+000 27 13 8
8.246194e-001 -5.752812e-001 3.028516e+000 198 149 111
8.254587e-001 -5.753170e-001 3.029416e+000 32 25 22
8.251328e-001 -5.781651e-001 3.030595e+000 184 139 107
8.176773e-001 -5.851882e-001 3.016255e+000 103 75 54
8.176773e-001 -5.851882e-001 3.016255e+000 103 75 54
7.961959e-001 -6.109731e-001 2.985002e+000 167 126 108
7.961959e-001 -6.109731e-001 2.985002e+000 167 126 108
8.059098e-001 -6.019737e-001 3.005089e+000 173 126 104
8.175941e-001 -5.915148e-001 3.026040e+000 110 54 18
8.157808e-001 -5.942776e-001 3.023464e+000 165 85 28
8.204606e-001 -5.894125e-001 3.035924e+000 55 22 12
8.207944e-001 -5.904295e-001 3.040581e+000 43 9 6
8.228959e-001 -5.879271e-001 3.042563e+000 180 77 39
8.298070e-001 -4.520027e-001 2.916035e+000 167 137 113
8.064787e-001 -5.236981e-001 2.911353e+000 165 84 72
8.163685e-001 -5.397344e-001 2.961608e+000 217 59 65
8.324544e-001 -5.252206e-001 2.994775e+000 136 24 32
8.024236e-001 -5.561403e-001 2.937290e+000 201 57 64
8.047605e-001 -5.537392e-001 2.941539e+000 134 24 35
8.045100e-001 -5.536075e-001 2.941406e+000 134 24 35
8.037502e-001 -5.548763e-001 2.942544e+000 205 61 74
8.064671e-001 -5.528165e-001 2.949573e+000 228 62 77
8.164226e-001 -5.441154e-001 2.967771e+000 201 54 60
8.210687e-001 -5.406446e-001 2.976047e+000 208 57 60
8.262662e-001 -5.356081e-001 2.986206e+000 220 68 70
8.257459e-001 -5.353079e-001 2.986597e+000 220 68 70
8.325800e-001 -5.284021e-001 2.998346e+000 210 64 68
8.325800e-001 -5.284021e-001 2.998346e+000 210 64 68
8.055869e-001 -5.578425e-001 2.950806e+000 140 25 29
8.078726e-001 -5.570662e-001 2.955997e+000 142 25 37
8.164480e-001 -5.513329e-001 2.973090e+000 142 22 35
8.230774e-001 -5.461908e-001 2.987366e+000 236 65 71
8.197004e-001 -5.496418e-001 2.980943e+000 205 70 72
8.092400e-001 -5.665409e-001 2.970303e+000 184 112 89
8.184433e-001 -5.597148e-001 2.987711e+000 108 60 38
8.114409e-001 -5.687064e-001 2.978577e+000 156 82 48
8.246682e-001 -5.625258e-001 3.008857e+000 186 52 35
8.096272e-001 -5.840128e-001 2.989349e+000 177 119 81
8.126912e-001 -5.830762e-001 2.996783e+000 185 95 55
8.152957e-001 -5.772277e-001 2.997192e+000 182 73 34
8.247603e-001 -5.688990e-001 3.015828e+000 107 33 24
8.018240e-001 -5.945612e-001 2.979661e+000 22 12 7
7.984478e-001 -6.060496e-001 2.986514e+000 147 113 105
8.027764e-001 -6.082694e-001 2.996662e+000 175 126 105
8.012270e-001 -6.065431e-001 2.997066e+000 175 126 105
8.074661e-001 -6.022869e-001 3.009017e+000 188 124 107
8.132987e-001 -5.966614e-001 3.018118e+000 160 85 30
8.020140e-001 -6.094298e-001 3.001841e+000 141 76 56
8.358338e-001 -4.039885e-001 2.889764e+000 57 93 90
8.285693e-001 -4.351306e-001 2.881670e+000 149 140 29
8.237751e-001 -4.953788e-001 2.941227e+000 104 67 55
8.234760e-001 -4.949918e-001 2.941840e+000 104 67 55
8.231218e-001 -5.321793e-001 2.977620e+000 208 61 68
8.307940e-001 -5.281413e-001 2.992868e+000 207 66 66
8.101797e-001 -5.563150e-001 2.962235e+000 204 61 69
8.249030e-001 -5.417007e-001 2.989000e+000 238 73 81
8.249030e-001 -5.417007e-001 2.989000e+000 238 73 81
8.252351e-001 -5.480006e-001 2.998925e+000 190 127 86
8.252351e-001 -5.480006e-001 2.998925e+000 190 127 86
8.109996e-001 -5.633727e-001 2.971692e+000 191 110 94
8.142144e-001 -5.594223e-001 2.975828e+000 99 46 30
8.080080e-001 -5.802171e-001 2.981530e+000 173 120 80
8.265414e-001 -5.717731e-001 3.030487e+000 69 40 19
8.225979e-001 -4.732641e-001 2.909846e+000 153 19 29
8.397035e-001 -4.742899e-001 2.975531e+000 158 94 66
8.397035e-001 -4.742899e-001 2.975531e+000 158 94 66
8.214877e-001 -5.005445e-001 2.940718e+000 177 106 75
8.125017e-001 -5.170261e-001 2.929363e+000 183 112 92
8.181254e-001 -5.266405e-001 2.954415e+000 162 91 67
8.219120e-001 -5.204819e-001 2.959883e+000 58 26 12
8.107436e-001 -5.623840e-001 2.967480e+000 80 39 23
8.180639e-001 -5.875560e-001 3.019362e+000 184 141 115
7.995207e-001 -6.084714e-001 2.993057e+000 170 127 102
7.993025e-001 -5.631739e-001 2.939767e+000 154 21 40
8.261232e-001 -5.375765e-001 2.989523e+000 157 19 33
8.266158e-001 -5.379021e-001 2.989103e+000 157 19 33
8.440978e-001 -4.149185e-001 2.936971e+000 106 119 100
8.440978e-001 -4.149185e-001 2.936971e+000 106 119 100
8.307193e-001 -5.517913e-001 3.025342e+000 125 21 28
8.322222e-001 -4.153038e-001 2.873439e+000 105 120 116
8.397396e-001 -4.115113e-001 2.909079e+000 59 98 104
8.283755e-001 -5.597370e-001 3.032057e+000 196 103 26
8.312321e-001 -4.206310e-001 2.860007e+000 138 147 38
8.227611e-001 -4.693762e-001 2.912261e+000 116 34 27
8.360014e-001 -4.572219e-001 2.945118e+000 220 140 102
8.389793e-001 -4.523160e-001 2.954771e+000 127 28 28
8.415827e-001 -4.498653e-001 2.961967e+000 215 136 106
8.316645e-001 -4.620437e-001 2.936025e+000 100 24 22
8.060159e-001 -5.200390e-001 2.907515e+000 202 99 92
8.116301e-001 -5.186410e-001 2.930903e+000 93 54 42
8.139212e-001 -5.220379e-001 2.938292e+000 75 44 38
8.183563e-001 -5.254722e-001 2.956576e+000 177 115 91
8.103795e-001 -5.429412e-001 2.949292e+000 144 26 37
8.181859e-001 -5.376839e-001 2.966688e+000 134 24 29
8.181859e-001 -5.376839e-001 2.966688e+000 134 24 29
8.259277e-001 -5.304228e-001 2.985163e+000 131 24 29
8.054387e-001 -5.508206e-001 2.944407e+000 192 42 53
8.320447e-001 -5.282315e-001 3.000368e+000 146 25 34
8.141123e-001 -5.525336e-001 2.972253e+000 229 62 74
8.171844e-001 -5.480821e-001 2.976301e+000 236 73 75
8.203843e-001 -5.467345e-001 2.982852e+000 125 27 27
8.295132e-001 -5.376288e-001 2.999282e+000 153 24 34
8.133285e-001 -5.702862e-001 2.986857e+000 102 24 12
8.062909e-001 -5.804332e-001 2.976220e+000 107 75 52
8.226919e-001 -5.685267e-001 3.010004e+000 114 29 9
8.242619e-001 -5.684543e-001 3.014428e+000 193 76 34
8.043027e-001 -5.926213e-001 2.984825e+000 22 13 4
8.161358e-001 -5.862896e-001 3.011785e+000 188 145 114
8.260417e-001 -5.759701e-001 3.029240e+000 28 17 19
7.930212e-001 -6.131165e-001 2.978066e+000 182 149 133
8.207326e-001 -5.820315e-001 3.021109e+000 15 3 4
8.200588e-001 -5.849672e-001 3.022764e+000 25 12 11
7.907438e-001 -6.159982e-001 2.976534e+000 196 152 139
8.211876e-001 -5.893072e-001 3.037796e+000 166 90 41
8.231578e-001 -5.858719e-001 3.040424e+000 56 19 15
8.216745e-001 -5.876529e-001 3.038867e+000 45 12 12
8.121090e-001 -5.992971e-001 3.021136e+000 40 14 6
8.154637e-001 -5.938351e-001 3.031402e+000 45 19 9
8.328909e-001 -3.796502e-001 2.846933e+000 163 33 38
8.404993e-001 -3.832004e-001 2.875688e+000 205 137 114
8.363386e-001 -4.023806e-001 2.900593e+000 136 135 30
8.356411e-001 -4.174714e-001 2.907739e+000 136 148 41
8.309227e-001 -4.669589e-001 2.937183e+000 20 68 98
8.415678e-001 -4.542957e-001 2.965605e+000 20 69 99
8.265997e-001 -4.853460e-001 2.942633e+000 94 57 40
8.115642e-001 -5.083578e-001 2.914958e+000 89 49 37
8.127170e-001 -5.290983e-001 2.945557e+000 88 52 41
8.033255e-001 -5.538371e-001 2.935288e+000 227 74 85
8.093902e-001 -5.438374e-001 2.947393e+000 217 75 79
8.345718e-001 -5.208377e-001 2.998517e+000 211 43 53
8.039608e-001 -5.549621e-001 2.938661e+000 147 30 39
8.034534e-001 -5.545097e-001 2.938934e+000 147 30 39
8.030123e-001 -5.550653e-001 2.940986e+000 218 71 80
8.101207e-001 -5.483850e-001 2.953885e+000 195 57 66
8.115308e-001 -5.475675e-001 2.956775e+000 170 43 48
8.151665e-001 -5.437066e-001 2.963407e+000 137 24 33
8.082825e-001 -5.581605e-001 2.957846e+000 180 44 46
8.080617e-001 -5.579728e-001 2.957851e+000 180 44 46
8.232232e-001 -5.439777e-001 2.988711e+000 149 24 34
8.143595e-001 -5.634744e-001 2.978866e+000 78 46 30
8.197921e-001 -5.556931e-001 2.989362e+000 182 130 92
8.234091e-001 -5.541080e-001 2.998151e+000 132 91 70
8.234091e-001 -5.541080e-001 2.998151e+000 132 91 70
8.179290e-001 -5.673567e-001 2.996547e+000 227 125 76
8.051457e-001 -5.826773e-001 2.974801e+000 168 124 91
8.091994e-001 -5.791295e-001 2.983798e+000 166 120 94
8.107566e-001 -5.786541e-001 2.986222e+000 172 115 90
8.209491e-001 -5.732461e-001 3.010771e+000 182 76 41
8.153704e-001 -5.847611e-001 3.006909e+000 212 135 87
8.149528e-001 -5.839950e-001 3.007440e+000 212 135 87
8.139174e-001 -5.922607e-001 3.015608e+000 172 89 31
7.995113e-001 -6.106999e-001 2.987595e+000 174 137 118
8.156669e-001 -5.944291e-001 3.029136e+000 153 80 35
8.143940e-001 -5.966063e-001 3.026407e+000 36 13 4
8.337561e-001 -4.197273e-001 2.903851e+000 148 147 54
8.337561e-001 -4.197273e-001 2.903851e+000 148 147 54
8.229087e-001 -4.967227e-001 2.943346e+000 184 117 90
8.368043e-001 -4.808690e-001 2.974144e+000 72 42 30
8.368043e-001 -4.808690e-001 2.974144e+000 72 42 30
8.084827e-001 -5.170999e-001 2.904289e+000 174 76 73
8.111450e-001 -5.194592e-001 2.928419e+000 88 51 34
8.115357e-001 -5.197850e-001 2.927885e+000 88 51 34
8.140588e-001 -5.174230e-001 2.935413e+000 80 43 25
8.346627e-001 -4.983135e-001 2.982059e+000 82 49 30
8.114242e-001 -5.266952e-001 2.938738e+000 60 29 18
8.176061e-001 -5.261935e-001 2.954794e+000 153 95 76
8.212771e-001 -5.199970e-001 2.960270e+000 61 35 27
8.335034e-001 -5.119109e-001 2.987275e+000 36 16 2
8.170787e-001 -5.303927e-001 2.957030e+000 78 44 29
8.302083e-001 -5.188513e-001 2.986806e+000 190 126 84
8.102398e-001 -5.447583e-001 2.949813e+000 136 24 30
8.102398e-001 -5.447583e-001 2.949813e+000 136 24 30
8.116729e-001 -5.424026e-001 2.952689e+000 142 26 23
8.292232e-001 -5.234367e-001 2.985906e+000 186 123 88
8.072187e-001 -5.644134e-001 2.961266e+000 90 63 40
8.120129e-001 -5.636561e-001 2.976682e+000 165 103 91
8.340511e-001 -5.527046e-001 3.029385e+000 151 66 41
8.082787e-001 -5.896260e-001 2.990786e+000 185 144 111
8.102406e-001 -5.874706e-001 2.995675e+000 188 143 105
8.186221e-001 -5.834523e-001 3.016357e+000 194 150 120
8.282135e-001 -5.714294e-001 3.033447e+000 31 10 17
8.286056e-001 -5.724712e-001 3.033345e+000 31 10 17
8.153735e-001 -5.968716e-001 3.031011e+000 141 69 35
8.294762e-001 -4.249496e-001 2.877206e+000 124 130 56
8.294762e-001 -4.249496e-001 2.877206e+000 124 130 56
8.357972e-001 -4.136645e-001 2.915136e+000 153 148 32
8.357972e-001 -4.136645e-001 2.915136e+000 153 148 32
8.174833e-001 -4.843130e-001 2.887543e+000 14 51 83
8.164472e-001 -4.768690e-001 2.895481e+000 150 24 35
8.346696e-001 -4.591739e-001 2.949380e+000 145 24 30
8.264731e-001 -4.873684e-001 2.943686e+000 182 116 87
8.270828e-001 -4.883319e-001 2.946571e+000 184 108 82
8.127785e-001 -5.052540e-001 2.915728e+000 190 123 102
8.192152e-001 -5.130931e-001 2.948718e+000 91 45 38
8.333314e-001 -5.026364e-001 2.979038e+000 188 124 86
8.322052e-001 -5.065375e-001 2.981157e+000 187 126 94
8.083359e-001 -5.330839e-001 2.926888e+000 191 119 103
8.184713e-001 -5.217499e-001 2.953415e+000 175 104 91
8.184713e-001 -5.217499e-001 2.953415e+000 175 104 91
8.323225e-001 -5.110873e-001 2.982719e+000 188 124 91
8.164291e-001 -5.623029e-001 2.987016e+000 187 119 84
7.992096e-001 -5.931192e-001 2.966818e+000 187 146 111
8.211182e-001 -5.857939e-001 3.026866e+000 175 93 32
8.303863e-001 -5.703144e-001 3.042935e+000 199 149 121
8.285082e-001 -4.326701e-001 2.863678e+000 28 52 31
8.261606e-001 -4.665633e-001 2.919463e+000 121 43 34
8.118120e-001 -5.710275e-001 2.983572e+000 162 53 31
8.353240e-001 -4.004020e-001 2.886194e+000 25 51 23
8.350454e-001 -4.179130e-001 2.904640e+000 75 105 50
8.349962e-001 -4.177808e-001 2.904588e+000 75 105 50
8.203268e-001 -4.758742e-001 2.888751e+000 207 129 112
8.246823e-001 -4.823526e-001 2.931172e+000 11 53 82
8.347278e-001 -5.375014e-001 3.018621e+000 74 19 20
8.322955e-001 -4.019151e-001 2.854544e+000 114 128 111
8.322955e-001 -4.019151e-001 2.854544e+000 114 128 111
8.274405e-001 -4.110477e-001 2.865348e+000 118 132 109
8.198077e-001 -5.049344e-001 2.938443e+000 181 115 91
8.186825e-001 -5.358564e-001 2.967091e+000 134 22 25
8.390771e-001 -5.188441e-001 3.008664e+000 46 14 17
8.288356e-001 -5.588651e-001 3.021268e+000 191 93 30
8.377898e-001 -4.664753e-001 2.964786e+000 13 58 90
8.087467e-001 -5.236224e-001 2.906265e+000 150 42 46
8.504553e-001 -3.969216e-001 2.789319e+000 155 155 155
8.472115e-001 -4.147746e-001 2.926577e+000 28 52 20
8.406162e-001 -4.984639e-001 2.996865e+000 175 134 90
8.786777e-001 -3.790476e-001 2.885532e+000 11 73 110
8.197752e-001 -5.678430e-001 3.000906e+000 191 110 38
8.212148e-001 -5.660689e-001 3.004261e+000 187 96 26
8.052530e-001 -5.828668e-001 2.974758e+000 163 113 64
8.094384e-001 -5.777587e-001 2.980015e+000 177 123 75
8.099834e-001 -5.793035e-001 2.983606e+000 172 120 78
8.107560e-001 -5.829164e-001 2.990375e+000 182 121 67
8.029742e-001 -5.891130e-001 2.973904e+000 170 124 68
8.115027e-001 -5.861700e-001 2.997953e+000 204 151 87
8.181044e-001 -5.911027e-001 3.032844e+000 56 21 6
8.187753e-001 -5.910398e-001 3.035335e+000 185 93 39
8.149157e-001 -5.793126e-001 2.998643e+000 180 73 31
8.172706e-001 -5.589627e-001 2.984391e+000 184 121 76
8.215501e-001 -5.761331e-001 3.020784e+000 191 98 31
9.414930e-001 -3.382858e-001 3.242003e+000 148 118 80
9.158781e-001 -3.222698e-001 3.254208e+000 175 145 56
9.158781e-001 -3.222698e-001 3.254208e+000 175 145 56
9.097081e-001 -3.159154e-001 3.256722e+000 194 165 87
9.132232e-001 -3.194881e-001 3.254783e+000 97 76 35
9.402509e-001 -3.519976e-001 3.240770e+000 96 68 47
9.344799e-001 -3.453536e-001 3.241149e+000 67 44 30
9.227411e-001 -3.159945e-001 3.250603e+000 194 163 117
9.323291e-001 -3.150629e-001 3.247492e+000 34 24 23
9.323291e-001 -3.150629e-001 3.247492e+000 34 24 23
8.212021e-001 -5.661098e-001 3.003889e+000 190 100 27
8.195839e-001 -5.708252e-001 3.005058e+000 127 65 15
8.233988e-001 -5.666429e-001 3.013505e+000 132 36 3
8.034873e-001 -5.817207e-001 2.968802e+000 173 129 80
8.051121e-001 -5.808330e-001 2.971372e+000 175 126 79
8.098639e-001 -5.751531e-001 2.979199e+000 175 126 79
8.038384e-001 -5.889674e-001 2.978366e+000 90 66 46
8.128923e-001 -5.810047e-001 2.995540e+000 210 102 37
8.148159e-001 -5.858466e-001 3.008429e+000 170 82 38
8.205835e-001 -5.801789e-001 3.022337e+000 220 153 101
8.202481e-001 -5.813806e-001 3.021346e+000 18 7 9
7.988099e-001 -5.935773e-001 2.968228e+000 172 127 87
8.043641e-001 -5.895627e-001 2.979871e+000 178 131 87
8.152757e-001 -5.881524e-001 3.015436e+000 27 20 10
7.991362e-001 -6.069073e-001 2.988600e+000 20 10 3
7.989513e-001 -6.080292e-001 2.990012e+000 176 133 100
8.114585e-001 -5.738543e-001 2.982287e+000 181 118 66
8.204059e-001 -5.690174e-001 3.005470e+000 192 119 35
8.212461e-001 -5.701086e-001 3.009791e+000 211 122 41
8.057780e-001 -5.779235e-001 2.970730e+000 170 126 78
8.081711e-001 -5.765661e-001 2.975893e+000 185 125 73
8.186901e-001 -5.910644e-001 3.035340e+000 182 90 31
8.235636e-001 -5.732668e-001 3.033652e+000 197 154 102
8.046405e-001 -5.851175e-001 2.976660e+000 174 126 77
7.984081e-001 -5.960866e-001 2.971435e+000 193 147 103
8.179661e-001 -5.937294e-001 3.037046e+000 160 80 31
8.191945e-001 -5.923120e-001 3.040390e+000 168 76 36
8.102475e-001 -5.986826e-001 3.013664e+000 175 137 94
8.299596e-001 -5.274266e-001 2.991347e+000 149 31 33
8.052136e-001 -5.768161e-001 2.967696e+000 187 140 99
8.139663e-001 -5.718578e-001 2.987781e+000 190 56 32
8.244036e-001 -5.745994e-001 3.026633e+000 117 86 57
8.251653e-001 -5.734670e-001 3.027582e+000 85 68 47
8.018515e-001 -5.898305e-001 2.972630e+000 172 127 88
8.157472e-001 -5.824790e-001 3.006282e+000 179 84 32
8.170172e-001 -5.846600e-001 3.014543e+000 185 151 115
8.159836e-001 -5.880997e-001 3.016837e+000 196 152 109
8.214007e-001 -5.888846e-001 3.040390e+000 192 92 43
8.036409e-001 -6.026476e-001 2.998774e+000 23 14 6
8.086363e-001 -6.004568e-001 3.012155e+000 179 131 102
8.144048e-001 -5.948702e-001 3.025090e+000 51 19 7
8.188582e-001 -5.916886e-001 3.038055e+000 42 14 11
8.167006e-001 -5.613300e-001 2.984867e+000 114 67 45
8.165521e-001 -5.612779e-001 2.984897e+000 114 67 45
8.197400e-001 -5.681786e-001 3.000646e+000 198 107 42
8.079901e-001 -5.787834e-001 2.977204e+000 186 135 96
8.128066e-001 -5.798711e-001 2.994232e+000 116 47 11
8.137347e-001 -5.831480e-001 2.999847e+000 145 64 22
8.242833e-001 -5.496920e-001 2.996426e+000 85 50 34
8.245023e-001 -5.624190e-001 3.009006e+000 185 58 33
8.052517e-001 -5.857971e-001 2.979422e+000 139 98 67
8.195735e-001 -5.825304e-001 3.019440e+000 192 155 116
8.232731e-001 -5.704504e-001 3.017634e+000 195 84 25
8.208704e-001 -5.700725e-001 3.007681e+000 189 112 34
7.938204e-001 -6.015180e-001 2.962798e+000 160 132 118
8.182311e-001 -5.851410e-001 3.018404e+000 146 117 93
8.094944e-001 -5.798639e-001 2.983566e+000 173 128 82
8.091449e-001 -5.673027e-001 2.968365e+000 112 61 42
8.160914e-001 -5.702863e-001 2.991464e+000 194 56 34
8.085675e-001 -5.847374e-001 2.986943e+000 169 119 86
8.161087e-001 -5.856332e-001 3.013744e+000 32 13 6
8.242103e-001 -5.809103e-001 3.033671e+000 51 25 11
8.204844e-001 -5.890234e-001 3.037686e+000 189 95 55
8.167356e-001 -5.928953e-001 3.029330e+000 54 20 3
8.203711e-001 -5.902655e-001 3.040715e+000 44 9 2
8.031301e-001 -5.862113e-001 2.973001e+000 164 115 80
8.074259e-001 -5.851876e-001 2.984977e+000 167 116 80
8.126131e-001 -5.827427e-001 2.997067e+000 165 88 35
8.234680e-001 -5.443280e-001 2.988606e+000 165 22 36
8.185109e-001 -5.829693e-001 3.016814e+000 200 155 112
8.172450e-001 -5.931696e-001 3.031801e+000 165 85 34
8.183688e-001 -5.560014e-001 2.984464e+000 189 117 68
8.183688e-001 -5.560014e-001 2.984464e+000 189 117 68
8.019192e-001 -5.837184e-001 2.966362e+000 168 123 90
8.109384e-001 -5.840243e-001 2.994637e+000 148 77 26
8.344642e-001 -5.209772e-001 2.998440e+000 211 49 52
8.124439e-001 -5.750755e-001 2.987312e+000 176 72 34
8.196133e-001 -5.645518e-001 2.997393e+000 180 111 64
8.022764e-001 -5.868321e-001 2.971270e+000 174 122 83
8.107294e-001 -5.816898e-001 2.990145e+000 160 105 67
8.148628e-001 -5.749265e-001 2.994688e+000 170 62 36
8.108499e-001 -5.829752e-001 2.991925e+000 167 94 56
8.044560e-001 -5.926046e-001 2.984893e+000 20 18 15
8.199989e-001 -5.847684e-001 3.022797e+000 31 11 3
8.077819e-001 -6.009533e-001 3.007556e+000 153 113 89
8.206613e-001 -5.728936e-001 3.010706e+000 165 74 35
8.120222e-001 -5.818176e-001 2.994286e+000 175 89 44
8.263261e-001 -5.737782e-001 3.030376e+000 188 141 98
8.274193e-001 -5.738737e-001 3.035304e+000 35 18 20
8.193022e-001 -5.857133e-001 3.021585e+000 175 139 101
8.078252e-001 -6.028576e-001 3.013120e+000 97 44 28
8.205601e-001 -5.691241e-001 3.005531e+000 189 113 44
8.229079e-001 -5.782496e-001 3.025269e+000 23 17 10
8.170425e-001 -5.589390e-001 2.984366e+000 187 115 82
8.350804e-001 -5.178684e-001 2.999976e+000 147 22 24
8.061398e-001 -5.913474e-001 2.987415e+000 180 136 103
8.167274e-001 -5.911526e-001 3.020422e+000 129 68 32
8.226250e-001 -5.871911e-001 3.041806e+000 77 21 11
7.874817e-001 -6.137007e-001 2.965661e+000 188 152 136
8.136415e-001 -5.912784e-001 3.012224e+000 165 87 33
8.202864e-001 -5.572495e-001 2.992271e+000 100 57 37
8.147682e-001 -5.749508e-001 2.994645e+000 176 62 38
8.178465e-001 -5.713335e-001 2.998676e+000 128 39 24
7.992968e-001 -5.905767e-001 2.968251e+000 173 124 85
8.037028e-001 -5.888967e-001 2.978393e+000 79 51 32
8.096225e-001 -5.803082e-001 2.984943e+000 113 74 43
8.235873e-001 -5.698425e-001 3.014344e+000 94 33 17
8.068653e-001 -5.907817e-001 2.989724e+000 28 18 12
8.105878e-001 -5.877460e-001 2.997357e+000 32 19 13
8.245929e-001 -5.752722e-001 3.028520e+000 198 149 111
8.244587e-001 -5.782677e-001 3.029219e+000 38 23 15
8.154380e-001 -5.878023e-001 3.012290e+000 175 133 113
8.154380e-001 -5.878023e-001 3.012290e+000 175 133 113
8.164014e-001 -5.860357e-001 3.013437e+000 28 19 17
7.958138e-001 -6.092879e-001 2.982702e+000 19 13 11
7.958138e-001 -6.092879e-001 2.982702e+000 19 13 11
8.117246e-001 -5.989672e-001 3.021235e+000 25 7 3
8.218995e-001 -5.913013e-001 3.048689e+000 40 22 24
8.317057e-001 -5.245151e-001 2.995340e+000 136 24 32
8.099853e-001 -5.823211e-001 2.988651e+000 104 68 47
8.099853e-001 -5.823211e-001 2.988651e+000 104 68 47
8.192847e-001 -5.746251e-001 3.008530e+000 203 117 62
8.189964e-001 -5.854164e-001 3.021892e+000 192 146 121
7.921586e-001 -6.145444e-001 2.974318e+000 179 145 123
7.968733e-001 -6.109167e-001 2.988535e+000 165 112 98
8.178221e-001 -5.933186e-001 3.034468e+000 38 17 6
8.178232e-001 -5.934116e-001 3.034316e+000 38 17 6
8.303100e-001 -5.278541e-001 2.993319e+000 207 66 66
8.247341e-001 -5.534970e-001 3.000494e+000 71 40 26
8.321870e-001 -5.538758e-001 3.027645e+000 199 105 30
8.267382e-001 -5.637373e-001 3.019737e+000 210 94 39
8.143852e-001 -5.797710e-001 2.998407e+000 186 74 35
8.132775e-001 -5.861682e-001 3.002296e+000 94 67 48
8.048917e-001 -6.042462e-001 3.003358e+000 176 127 104
8.174544e-001 -5.902876e-001 3.024183e+000 166 86 32
8.300163e-001 -5.569808e-001 3.023035e+000 194 100 28
8.330125e-001 -5.352701e-001 3.006988e+000 159 19 30
8.330125e-001 -5.352701e-001 3.006988e+000 159 19 30
8.347173e-001 -5.300797e-001 3.003292e+000 154 22 30
8.142430e-001 -5.857488e-001 3.005207e+000 193 147 108
7.922745e-001 -6.140497e-001 2.976012e+000 160 128 109
8.214242e-001 -5.880106e-001 3.031865e+000 185 89 29
8.239865e-001 -5.852415e-001 3.036667e+000 188 96 37
8.066999e-001 -6.048070e-001 3.004094e+000 88 56 47
8.370906e-001 -3.779101e-001 2.890620e+000 221 132 105
8.308233e-001 -4.147606e-001 2.858508e+000 136 145 43
8.325954e-001 -4.440605e-001 2.920218e+000 94 22 25
8.243203e-001 -4.813355e-001 2.929423e+000 10 54 80
8.242624e-001 -4.813039e-001 2.929663e+000 10 54 80
8.240899e-001 -5.308978e-001 2.980419e+000 242 76 85
8.327316e-001 -5.237800e-001 2.997060e+000 127 26 32
8.106300e-001 -5.703491e-001 2.978285e+000 177 115 83
8.106300e-001 -5.703491e-001 2.978285e+000 177 115 83
8.125208e-001 -5.754447e-001 2.989718e+000 101 27 11
8.245715e-001 -5.611299e-001 3.010742e+000 184 51 43
8.173331e-001 -5.779578e-001 3.007122e+000 207 108 49
8.006569e-001 -6.111928e-001 2.998773e+000 128 65 47
8.206259e-001 -5.890221e-001 3.039476e+000 43 17 9
8.378657e-001 -4.640106e-001 2.962389e+000 1 36 58
8.177488e-001 -5.494242e-001 2.977215e+000 134 31 34
8.161498e-001 -5.712078e-001 2.995209e+000 179 59 42
8.233963e-001 -5.684306e-001 3.013376e+000 187 72 33
8.403961e-001 -3.790847e-001 2.854479e+000 168 33 40
8.373331e-001 -3.767941e-001 2.867738e+000 167 35 41
8.386577e-001 -4.063683e-001 2.914614e+000 58 92 91
8.251415e-001 -4.793875e-001 2.929204e+000 16 76 112
8.108184e-001 -5.246770e-001 2.928713e+000 84 46 36
8.247665e-001 -4.670822e-001 2.906632e+000 141 23 27
8.264519e-001 -4.879870e-001 2.946762e+000 184 108 82
8.413557e-001 -4.746791e-001 2.985325e+000 180 145 117
8.313773e-001 -5.227499e-001 2.992061e+000 148 22 33
8.373115e-001 -4.110538e-001 2.903303e+000 83 87 17
8.412747e-001 -4.515232e-001 2.954016e+000 147 20 29
8.157749e-001 -5.804314e-001 3.003576e+000 175 75 35
8.449181e-001 -4.538635e-001 2.977244e+000 167 152 123
8.225637e-001 -4.734002e-001 2.850052e+000 161 164 181
1.222465e+000 -2.502702e-001 2.548847e+000 182 103 90
8.414045e-001 -3.788963e-001 2.865744e+000 163 43 42
8.414045e-001 -3.788963e-001 2.865744e+000 163 43 42
8.370285e-001 -3.876049e-001 2.851799e+000 228 151 120
8.390586e-001 -3.839588e-001 2.871069e+000 173 45 44
8.445713e-001 -3.904088e-001 2.920279e+000 146 163 62
8.374187e-001 -4.249589e-001 2.918500e+000 20 53 41
8.334276e-001 -4.408840e-001 2.922374e+000 95 39 34
8.316998e-001 -4.620500e-001 2.935798e+000 117 28 19
8.312965e-001 -4.669996e-001 2.941198e+000 20 80 116
8.362475e-001 -4.615584e-001 2.949171e+000 21 81 118
8.141719e-001 -5.047620e-001 2.911847e+000 107 63 50
8.141719e-001 -5.047620e-001 2.911847e+000 107 63 50
8.106697e-001 -5.223607e-001 2.918313e+000 195 134 116
8.203461e-001 -5.087653e-001 2.949280e+000 89 54 34
8.060455e-001 -5.492895e-001 2.940849e+000 222 77 84
8.131159e-001 -5.400305e-001 2.957517e+000 229 70 75
8.163433e-001 -5.369579e-001 2.966063e+000 233 66 71
8.158332e-001 -5.476118e-001 2.975517e+000 155 23 30
8.137177e-001 -5.519502e-001 2.969954e+000 151 31 36
8.140754e-001 -5.616114e-001 2.981837e+000 107 62 45
8.057746e-001 -5.816828e-001 2.976720e+000 168 134 99
8.019249e-001 -5.887613e-001 2.971108e+000 75 50 30
8.125457e-001 -5.766402e-001 2.992944e+000 139 55 18
8.142265e-001 -5.760421e-001 2.995502e+000 128 49 19
8.185149e-001 -5.709843e-001 3.001978e+000 185 77 36
8.022068e-001 -5.948590e-001 2.979917e+000 20 10 5
8.080216e-001 -5.869810e-001 2.987636e+000 177 137 102
8.256941e-001 -5.785934e-001 3.031004e+000 176 141 117
8.193718e-001 -5.886955e-001 3.025007e+000 170 94 37
8.183627e-001 -5.892926e-001 3.025587e+000 106 55 15
8.204848e-001 -5.891006e-001 3.036214e+000 40 16 12
8.234349e-001 -5.855001e-001 3.041905e+000 180 80 36
9.632837e-001 -2.988534e-001 2.651179e+000 229 202 209
8.409208e-001 -3.809265e-001 2.850039e+000 239 150 120
8.324924e-001 -4.001139e-001 2.850000e+000 154 144 45
8.324924e-001 -4.001139e-001 2.850000e+000 154 144 45
8.466519e-001 -3.829676e-001 2.896797e+000 21 73 81
8.426492e-001 -3.983992e-001 2.920223e+000 141 141 37
8.426461e-001 -3.981155e-001 2.920088e+000 141 141 37
8.564843e-001 -4.610312e-001 2.885858e+000 169 159 134
8.312491e-001 -4.458611e-001 2.911667e+000 169 159 134
8.222487e-001 -4.766450e-001 2.910248e+000 13 59 89
8.155989e-001 -5.213754e-001 2.940981e+000 119 75 58
8.085174e-001 -5.398464e-001 2.940738e+000 146 92 76
8.069829e-001 -5.477960e-001 2.944326e+000 217 74 82
8.076871e-001 -5.490002e-001 2.943389e+000 217 74 82
8.043303e-001 -5.539267e-001 2.936977e+000 217 78 85
8.088516e-001 -5.479991e-001 2.946841e+000 217 73 75
8.072244e-001 -5.534109e-001 2.949172e+000 231 65 78
8.104256e-001 -5.450680e-001 2.952527e+000 237 76 87
8.101998e-001 -5.484317e-001 2.953765e+000 217 72 77
8.174017e-001 -5.397419e-001 2.969029e+000 217 69 70
8.178048e-001 -5.406764e-001 2.968440e+000 217 69 70
8.218784e-001 -5.333026e-001 2.978309e+000 151 32 42
8.291019e-001 -5.299430e-001 2.992517e+000 151 37 36
8.290110e-001 -5.298440e-001 2.992631e+000 151 37 36
8.040126e-001 -5.609572e-001 2.944613e+000 155 40 47
8.050827e-001 -5.595392e-001 2.948279e+000 149 33 44
8.071976e-001 -5.590034e-001 2.954711e+000 207 70 76
8.080963e-001 -5.547923e-001 2.956401e+000 219 68 72
8.110190e-001 -5.543671e-001 2.963570e+000 153 36 45
8.140602e-001 -5.498499e-001 2.970053e+000 229 75 75
8.127423e-001 -5.530341e-001 2.970289e+000 239 79 83
8.127423e-001 -5.530341e-001 2.970289e+000 239 79 83
8.151506e-001 -5.517019e-001 2.974615e+000 227 71 74
8.152953e-001 -5.482735e-001 2.976425e+000 154 30 38
8.161567e-001 -5.501228e-001 2.977668e+000 200 56 57
8.182165e-001 -5.482704e-001 2.981778e+000 233 80 80
8.385506e-001 -5.339360e-001 3.017200e+000 163 106 38
8.077174e-001 -5.686418e-001 2.968247e+000 196 130 107
8.074307e-001 -5.785801e-001 2.977367e+000 179 137 102
8.090494e-001 -5.816927e-001 2.985739e+000 188 140 99
8.022179e-001 -6.107566e-001 2.998407e+000 112 60 40
8.066605e-001 -6.040344e-001 3.005892e+000 175 139 120
8.081958e-001 -6.034205e-001 3.008834e+000 178 146 126
8.143917e-001 -5.964941e-001 3.026511e+000 37 12 4
8.229313e-001 -5.875481e-001 3.041861e+000 49 14 10
8.199060e-001 -5.904312e-001 3.039376e+000 173 91 45
8.206165e-001 -5.915487e-001 3.039322e+000 173 91 45
8.215744e-001 -5.880320e-001 3.043068e+000 42 10 9
1.219047e+000 -2.494701e-001 2.558910e+000 101 68 52
8.417277e-001 -4.096886e-001 2.926941e+000 164 153 28
8.282560e-001 -4.541950e-001 2.907504e+000 153 138 125
8.317770e-001 -4.487247e-001 2.925025e+000 148 114 102
8.204792e-001 -4.787671e-001 2.900303e+000 21 84 128
8.358926e-001 -4.637021e-001 2.945676e+000 19 82 123
8.399745e-001 -4.563273e-001 2.961899e+000 16 78 114
8.088387e-001 -5.235856e-001 2.906623e+000 155 55 57
8.118571e-001 -5.147955e-001 2.913629e+000 112 71 59
8.175011e-001 -5.070725e-001 2.931904e+000 198 130 107
8.213660e-001 -5.004763e-001 2.940582e+000 181 117 98
8.314091e-001 -5.043899e-001 2.979246e+000 79 40 21
8.192436e-001 -5.381465e-001 2.975174e+000 149 29 37
8.327463e-001 -5.265033e-001 3.001728e+000 230 83 79
8.205542e-001 -5.475927e-001 2.984067e+000 206 78 69
8.111724e-001 -5.623198e-001 2.974052e+000 211 132 109
8.427961e-001 -5.381348e-001 3.022164e+000 25 28 43
8.007130e-001 -5.969041e-001 2.975954e+000 96 81 73
8.023954e-001 -5.945773e-001 2.978109e+000 188 150 115
8.104419e-001 -5.880096e-001 2.995672e+000 209 163 126
8.272691e-001 -5.710346e-001 3.030834e+000 73 48 28
8.271859e-001 -5.740079e-001 3.033357e+000 191 152 130
7.989041e-001 -6.099360e-001 2.985062e+000 88 68 60
8.018444e-001 -6.113645e-001 2.996552e+000 112 62 40
8.149170e-001 -5.980102e-001 3.019923e+000 172 97 28
9.648868e-001 -3.031058e-001 2.652682e+000 32 26 28
8.338599e-001 -4.871141e-001 2.971138e+000 170 111 80
8.338599e-001 -4.871141e-001 2.971138e+000 170 111 80
8.092190e-001 -5.292280e-001 2.923823e+000 203 135 117
8.326795e-001 -5.047633e-001 2.983809e+000 200 145 107
8.326795e-001 -5.047633e-001 2.983809e+000 200 145 107
8.010672e-001 -5.647199e-001 2.939200e+000 160 32 42
8.182241e-001 -5.652124e-001 2.995320e+000 160 94 46
8.317966e-001 -5.573542e-001 3.023088e+000 186 98 27
8.614956e-001 -3.520941e-001 2.727658e+000 103 93 83
8.370593e-001 -4.040330e-001 2.878189e+000 25 56 28
8.269391e-001 -4.688312e-001 2.924270e+000 162 28 36
8.258975e-001 -4.766586e-001 2.930933e+000 3 56 91
8.362275e-001 -4.851599e-001 2.970954e+000 194 130 98
8.009270e-001 -5.802964e-001 2.959773e+000 178 139 106
8.250879e-001 -5.654456e-001 3.016130e+000 179 69 37
8.002326e-001 -6.091103e-001 2.993271e+000 171 135 114
8.145567e-001 -6.010189e-001 3.023758e+000 163 86 40
8.495039e-001 -3.944954e-001 2.967228e+000 158 153 132
8.417934e-001 -4.625662e-001 2.976966e+000 11 80 121
8.105954e-001 -5.195558e-001 2.908144e+000 204 137 120
8.031505e-001 -5.456979e-001 2.923086e+000 129 32 39
8.361101e-001 -4.065063e-001 2.872101e+000 25 59 35
8.295149e-001 -4.822214e-001 2.946112e+000 198 127 100
8.313751e-001 -5.321152e-001 2.999309e+000 172 24 40
8.184424e-001 -5.857304e-001 3.018232e+000 119 99 82
8.156769e-001 -5.225877e-001 2.947962e+000 194 132 107
8.156769e-001 -5.225877e-001 2.947962e+000 194 132 107
8.430221e-001 -4.512052e-001 2.967927e+000 160 24 31
8.020117e-001 -6.070101e-001 2.995670e+000 171 139 119
8.288309e-001 -5.461239e-001 3.008129e+000 195 137 100
8.344662e-001 -5.530151e-001 3.017429e+000 95 18 26
8.418864e-001 -4.056076e-001 2.854241e+000 105 112 23
8.152815e-001 -5.946224e-001 3.027619e+000 158 84 32
8.169485e-001 -5.929916e-001 3.031939e+000 176 90 32
8.186851e-001 -5.916751e-001 3.038066e+000 42 14 11
8.438275e-001 -3.800491e-001 2.875894e+000 148 43 44
9.179055e-001 -4.303521e-001 2.775270e+000 59 104 76
8.152667e-001 -5.197255e-001 2.940321e+000 192 132 111
8.212683e-001 -5.361678e-001 2.976776e+000 210 65 74
8.072846e-001 -5.697185e-001 2.966311e+000 193 131 105
8.206273e-001 -5.660357e-001 3.002318e+000 115 60 22
8.201164e-001 -5.758923e-001 3.011314e+000 183 87 42
8.404082e-001 -3.836731e-001 2.853851e+000 224 151 126
9.257098e-001 -4.319681e-001 2.772119e+000 158 167 37
8.398796e-001 -3.952803e-001 2.901276e+000 148 159 53
8.141048e-001 -5.428025e-001 2.960988e+000 219 81 81
8.210198e-001 -5.354177e-001 2.972276e+000 244 78 89
8.208239e-001 -5.372949e-001 2.974487e+000 210 63 62
8.264773e-001 -5.392128e-001 2.993363e+000 236 75 80
8.111653e-001 -5.655304e-001 2.975926e+000 199 130 106
8.125627e-001 -5.752148e-001 2.989734e+000 140 46 21
8.082969e-001 -5.831925e-001 2.983827e+000 186 143 101
8.152250e-001 -5.734564e-001 2.994526e+000 143 52 24
8.189071e-001 -5.700027e-001 3.000746e+000 147 62 26
8.238670e-001 -5.678993e-001 3.015799e+000 87 30 7
8.103760e-001 -5.856545e-001 2.994741e+000 147 81 37
7.917877e-001 -6.169352e-001 2.973800e+000 84 65 58
7.930774e-001 -6.154198e-001 2.977038e+000 95 73 65
8.339584e-001 -5.026513e-001 2.983932e+000 105 77 59
8.330510e-001 -5.114648e-001 2.987691e+000 94 55 41
8.233082e-001 -5.352983e-001 2.984289e+000 184 49 50
8.075741e-001 -5.646866e-001 2.961445e+000 115 59 48
8.103104e-001 -5.623002e-001 2.968009e+000 129 71 62
8.126974e-001 -5.857015e-001 3.000037e+000 204 162 122
8.126826e-001 -5.857149e-001 3.000285e+000 204 162 122
7.964826e-001 -6.150702e-001 2.987413e+000 79 24 29
8.427731e-001 -4.552802e-001 2.969215e+000 4 50 75
8.350404e-001 -4.921252e-001 2.974395e+000 146 85 66
8.098662e-001 -5.336805e-001 2.938175e+000 202 129 110
8.417410e-001 -4.158913e-001 2.946952e+000 31 48 19
8.316050e-001 -5.223029e-001 2.993110e+000 166 27 31
8.510533e-001 -3.778883e-001 2.878319e+000 168 39 38
8.510533e-001 -3.778883e-001 2.878319e+000 168 39 38
