ply
format ascii 1.0
element face 0
property list uchar int vertex_indices
element vertex 893
property float x
property float y
property float z
property uchar diffuse_red
property uchar diffuse_green
property uchar diffuse_blue
end_header
9.151625e-001 -3.480314e-001 3.044698e+000 170 147 124
8.906459e-001 -4.532990e-001 3.099069e+000 194 146 124
8.275757e-001 -5.792625e-001 3.100957e+000 164 62 37
9.227413e-001 -5.836017e-001 3.108272e+000 154 116 77
8.627942e-001 -5.515366e-001 3.128610e+000 157 118 77
8.625662e-001 -5.491089e-001 3.129434e+000 157 118 77
7.896688e-001 -3.807811e-001 2.984302e+000 130 80 71
7.773007e-001 -5.834340e-001 3.060649e+000 129 84 43
7.261277e-001 -5.955952e-001 3.109268e+000 134 87 70
7.138272e-001 -6.044382e-001 3.112229e+000 153 117 105
7.132347e-001 -6.066131e-001 3.112604e+000 109 62 55
7.042030e-001 -5.838738e-001 3.100728e+000 104 53 26
7.047260e-001 -5.852461e-001 3.104637e+000 119 66 32
7.768828e-001 -6.005769e-001 3.068922e+000 155 118 72
7.806066e-001 -6.103047e-001 3.062719e+000 164 112 78
7.797019e-001 -6.158196e-001 3.063434e+000 156 110 75
7.128645e-001 -6.089023e-001 3.113293e+000 161 119 107
7.469024e-001 -6.168852e-001 3.096221e+000 85 26 30
7.812426e-001 -5.866359e-001 3.054121e+000 113 65 29
7.179696e-001 -5.987793e-001 3.111217e+000 152 118 101
7.930603e-001 -3.840335e-001 2.987745e+000 14 64 99
7.239405e-001 -3.437009e-001 2.991701e+000 174 160 133
7.744725e-001 -6.345650e-001 3.068289e+000 157 121 89
7.744725e-001 -6.345650e-001 3.068289e+000 157 121 89
7.681757e-001 -3.624282e-001 2.988501e+000 11 67 102
8.886695e-001 -3.473378e-001 2.995690e+000 253 203 194
9.213349e-001 -3.482857e-001 3.041153e+000 105 83 59
9.259804e-001 -3.503560e-001 3.042863e+000 215 181 143
9.250388e-001 -3.519774e-001 3.048877e+000 209 180 149
9.320932e-001 -3.543291e-001 3.048481e+000 208 181 136
9.321225e-001 -3.542067e-001 3.048360e+000 208 181 136
9.359958e-001 -3.832192e-001 3.058571e+000 246 137 102
8.558518e-001 -3.816408e-001 3.029220e+000 231 131 118
9.130541e-001 -3.750980e-001 3.070955e+000 231 148 111
9.130770e-001 -3.751922e-001 3.070794e+000 231 148 111
9.226018e-001 -3.837594e-001 3.066448e+000 132 45 29
9.226069e-001 -3.838240e-001 3.066393e+000 132 45 29
9.301302e-001 -3.852136e-001 3.062667e+000 224 141 101
9.332604e-001 -3.861480e-001 3.061245e+000 236 137 103
9.332550e-001 -3.861436e-001 3.061224e+000 236 137 103
9.088322e-001 -3.801742e-001 3.074107e+000 233 143 108
9.186831e-001 -3.840139e-001 3.068663e+000 255 128 104
9.186831e-001 -3.840139e-001 3.068663e+000 255 128 104
8.536108e-001 -3.974770e-001 3.038390e+000 130 148 70
8.552747e-001 -3.995672e-001 3.042265e+000 148 164 71
8.558614e-001 -4.010159e-001 3.045771e+000 149 162 53
9.099565e-001 -3.937834e-001 3.076766e+000 70 107 69
9.356318e-001 -4.117748e-001 3.066131e+000 96 116 74
8.597229e-001 -4.022287e-001 3.053684e+000 35 53 31
9.478866e-001 -4.279409e-001 3.064312e+000 147 153 48
9.478866e-001 -4.279409e-001 3.064312e+000 147 153 48
8.509481e-001 -4.182145e-001 3.045371e+000 154 166 86
8.871994e-001 -4.563009e-001 3.100868e+000 195 154 125
9.187629e-001 -4.839487e-001 3.094276e+000 246 131 114
9.187672e-001 -4.839637e-001 3.094262e+000 246 131 114
8.374538e-001 -4.884235e-001 3.063404e+000 166 108 87
9.012759e-001 -4.925998e-001 3.104730e+000 32 65 82
8.895106e-001 -4.884492e-001 3.108876e+000 140 167 167
9.323801e-001 -5.373459e-001 3.096060e+000 42 69 91
8.807976e-001 -5.030432e-001 3.114880e+000 79 34 29
8.872493e-001 -5.074050e-001 3.114224e+000 71 29 28
8.907046e-001 -5.098461e-001 3.113697e+000 164 90 85
9.069121e-001 -5.176489e-001 3.108303e+000 125 98 107
9.069121e-001 -5.176489e-001 3.108303e+000 125 98 107
9.103829e-001 -5.239123e-001 3.107178e+000 90 65 74
8.820015e-001 -5.065528e-001 3.115069e+000 79 29 25
8.864841e-001 -5.088833e-001 3.114666e+000 181 93 91
8.795919e-001 -5.115435e-001 3.117550e+000 122 60 65
8.321783e-001 -5.399638e-001 3.086797e+000 198 63 70
8.402569e-001 -5.348055e-001 3.100477e+000 204 64 69
8.402565e-001 -5.348457e-001 3.100459e+000 204 64 69
8.393919e-001 -5.369422e-001 3.100244e+000 143 43 44
8.474395e-001 -5.302277e-001 3.108058e+000 211 63 68
8.395585e-001 -5.379171e-001 3.101579e+000 212 68 71
9.055550e-001 -5.627778e-001 3.115218e+000 108 77 81
9.055550e-001 -5.627778e-001 3.115218e+000 108 77 81
8.724025e-001 -5.419284e-001 3.125645e+000 72 33 38
8.858056e-001 -5.560977e-001 3.123766e+000 123 89 87
8.364088e-001 -5.621774e-001 3.109390e+000 141 94 68
8.743212e-001 -5.480132e-001 3.127733e+000 53 31 31
8.743251e-001 -5.482647e-001 3.127535e+000 53 31 31
9.149998e-001 -3.472940e-001 3.043723e+000 212 182 155
9.295673e-001 -3.513571e-001 3.042030e+000 84 68 43
9.250571e-001 -3.520313e-001 3.051087e+000 213 183 145
9.397689e-001 -3.812555e-001 3.056777e+000 178 158 151
9.395292e-001 -3.841571e-001 3.057735e+000 177 147 113
8.611237e-001 -3.788678e-001 3.042720e+000 174 48 52
9.027296e-001 -3.693585e-001 3.074058e+000 171 157 140
9.093828e-001 -3.737113e-001 3.073249e+000 224 150 125
9.253525e-001 -3.845396e-001 3.065466e+000 167 42 40
9.317723e-001 -3.846015e-001 3.061410e+000 160 41 40
9.144245e-001 -3.809186e-001 3.071439e+000 172 41 41
8.534710e-001 -3.958062e-001 3.035853e+000 34 53 32
8.578206e-001 -3.996528e-001 3.048945e+000 34 60 35
9.002052e-001 -3.888421e-001 3.080059e+000 157 153 45
9.030329e-001 -3.901853e-001 3.078848e+000 149 150 32
8.597435e-001 -4.021508e-001 3.053416e+000 34 54 38
8.597435e-001 -4.021508e-001 3.053416e+000 34 54 38
8.527786e-001 -4.186582e-001 3.051353e+000 40 49 30
8.527786e-001 -4.186582e-001 3.051353e+000 40 49 30
8.679210e-001 -4.159624e-001 3.076071e+000 86 85 64
9.507225e-001 -4.492990e-001 3.066302e+000 54 52 26
8.505474e-001 -4.351234e-001 3.059800e+000 187 151 132
8.474684e-001 -4.425455e-001 3.057908e+000 171 153 139
8.514480e-001 -4.391501e-001 3.063151e+000 120 99 84
8.514480e-001 -4.391501e-001 3.063151e+000 120 99 84
9.439150e-001 -4.722652e-001 3.076001e+000 182 148 120
9.441230e-001 -4.727749e-001 3.075496e+000 182 148 120
9.455534e-001 -4.762170e-001 3.074916e+000 137 104 79
9.455534e-001 -4.762170e-001 3.074916e+000 137 104 79
9.052085e-001 -4.643058e-001 3.096854e+000 173 160 125
8.391778e-001 -4.777401e-001 3.062866e+000 126 79 63
9.205355e-001 -4.832264e-001 3.092742e+000 147 32 39
8.386281e-001 -4.870508e-001 3.067690e+000 149 93 74
8.386281e-001 -4.870508e-001 3.067690e+000 149 93 74
9.147021e-001 -4.976549e-001 3.099101e+000 135 168 174
9.306246e-001 -5.086646e-001 3.092973e+000 147 39 42
8.346108e-001 -5.070792e-001 3.071237e+000 139 86 65
8.346108e-001 -5.070792e-001 3.071237e+000 139 86 65
8.357647e-001 -5.062630e-001 3.074760e+000 148 92 71
8.495243e-001 -4.959080e-001 3.093666e+000 114 69 48
8.499457e-001 -4.999132e-001 3.094592e+000 199 137 107
8.933531e-001 -5.064574e-001 3.109110e+000 103 43 39
9.323303e-001 -5.395256e-001 3.097009e+000 97 133 159
9.323076e-001 -5.394539e-001 3.097064e+000 97 133 159
8.333199e-001 -5.217237e-001 3.078177e+000 147 94 74
8.333199e-001 -5.217237e-001 3.078177e+000 147 94 74
8.475812e-001 -5.062482e-001 3.095398e+000 98 61 40
8.870161e-001 -5.039732e-001 3.113338e+000 175 89 82
8.840160e-001 -5.029181e-001 3.113970e+000 179 94 86
8.853693e-001 -5.043981e-001 3.114086e+000 86 38 36
8.894472e-001 -5.056668e-001 3.113708e+000 175 90 85
8.942835e-001 -5.119416e-001 3.113150e+000 89 54 54
9.298153e-001 -5.399436e-001 3.098928e+000 35 62 81
8.761294e-001 -5.100543e-001 3.117764e+000 149 69 75
9.146531e-001 -5.399745e-001 3.108680e+000 157 126 111
8.335632e-001 -5.383386e-001 3.087838e+000 158 40 46
8.807013e-001 -5.174169e-001 3.118340e+000 113 58 64
8.404505e-001 -5.328500e-001 3.099859e+000 151 38 42
8.838320e-001 -5.261935e-001 3.120201e+000 155 113 105
9.171370e-001 -5.599597e-001 3.110853e+000 170 116 100
9.176763e-001 -5.625658e-001 3.109243e+000 170 116 100
8.372385e-001 -5.481934e-001 3.098653e+000 164 29 43
8.495969e-001 -5.336542e-001 3.111849e+000 222 68 74
8.615432e-001 -5.306107e-001 3.121382e+000 93 37 45
8.402045e-001 -5.466832e-001 3.105349e+000 232 68 77
8.956338e-001 -5.587609e-001 3.120173e+000 112 83 86
8.391134e-001 -5.562571e-001 3.110798e+000 198 141 105
8.492959e-001 -5.467093e-001 3.120430e+000 139 32 37
8.492959e-001 -5.467093e-001 3.120430e+000 139 32 37
9.384066e-001 -3.540452e-001 3.037549e+000 207 177 138
9.240805e-001 -3.506747e-001 3.046842e+000 207 186 143
9.241123e-001 -3.507662e-001 3.046719e+000 207 186 143
9.382318e-001 -3.547171e-001 3.040342e+000 209 177 138
9.412665e-001 -3.568021e-001 3.038129e+000 205 179 139
8.622775e-001 -3.748717e-001 3.040343e+000 183 43 40
8.511912e-001 -3.884467e-001 3.016231e+000 161 51 49
9.056545e-001 -3.730723e-001 3.074264e+000 202 159 120
9.366963e-001 -3.884439e-001 3.059329e+000 179 39 38
9.121813e-001 -3.798728e-001 3.072387e+000 177 42 45
9.246701e-001 -3.867446e-001 3.066442e+000 180 39 39
8.655253e-001 -3.917270e-001 3.054270e+000 130 147 57
9.403289e-001 -4.303356e-001 3.068496e+000 36 61 30
8.512428e-001 -4.191402e-001 3.048714e+000 156 158 69
8.666980e-001 -4.152199e-001 3.072750e+000 150 158 110
8.446125e-001 -4.447612e-001 3.046577e+000 141 127 118
8.382511e-001 -4.598138e-001 3.035836e+000 143 42 53
9.013583e-001 -4.490712e-001 3.094674e+000 169 41 37
9.381593e-001 -4.736347e-001 3.080797e+000 138 102 80
9.409477e-001 -4.760498e-001 3.080423e+000 180 151 121
8.473143e-001 -4.556105e-001 3.067025e+000 150 27 39
8.520836e-001 -4.544829e-001 3.073668e+000 154 29 29
8.932598e-001 -4.545000e-001 3.098801e+000 203 148 124
9.061947e-001 -4.668561e-001 3.096724e+000 170 45 48
9.062313e-001 -4.671306e-001 3.096456e+000 170 45 48
9.212971e-001 -4.867648e-001 3.093459e+000 146 34 39
8.789223e-001 -4.993118e-001 3.114451e+000 93 38 42
8.838292e-001 -5.117793e-001 3.115363e+000 77 33 39
8.321838e-001 -5.326396e-001 3.084516e+000 161 39 48
8.792460e-001 -5.265697e-001 3.121346e+000 170 113 105
8.826346e-001 -5.335875e-001 3.122048e+000 146 107 96
8.331931e-001 -5.577016e-001 3.101885e+000 110 72 45
8.332014e-001 -5.566029e-001 3.102613e+000 110 72 45
9.241566e-001 -5.906508e-001 3.111746e+000 88 52 30
8.377269e-001 -5.561909e-001 3.108964e+000 104 68 45
8.623498e-001 -5.428932e-001 3.126289e+000 183 131 71
9.195207e-001 -3.484278e-001 3.044684e+000 213 185 152
9.321600e-001 -3.517688e-001 3.040323e+000 209 179 141
9.322532e-001 -3.531841e-001 3.042920e+000 207 181 144
9.322532e-001 -3.531841e-001 3.042920e+000 207 181 144
9.296489e-001 -3.825259e-001 3.062132e+000 159 87 58
9.297562e-001 -3.823916e-001 3.061720e+000 159 87 58
9.205032e-001 -3.849882e-001 3.068858e+000 180 38 37
9.205041e-001 -3.850181e-001 3.068879e+000 180 38 37
8.571854e-001 -3.909549e-001 3.041121e+000 32 59 41
9.246679e-001 -3.947948e-001 3.068671e+000 61 102 115
9.359160e-001 -4.146752e-001 3.066681e+000 176 162 41
9.381462e-001 -4.201596e-001 3.067273e+000 45 56 28
9.464932e-001 -4.204158e-001 3.063482e+000 34 52 23
8.484033e-001 -4.514964e-001 3.064173e+000 163 29 34
8.481838e-001 -4.530292e-001 3.067030e+000 181 107 84
8.512033e-001 -4.525213e-001 3.070349e+000 236 138 116
9.319788e-001 -5.001743e-001 3.087896e+000 25 63 92
8.718755e-001 -5.161624e-001 3.118726e+000 182 137 96
8.863417e-001 -5.229722e-001 3.118701e+000 78 48 50
9.172301e-001 -5.617602e-001 3.106739e+000 122 71 58
8.766904e-001 -5.480780e-001 3.126919e+000 127 80 83
9.382842e-001 -3.931313e-001 3.059783e+000 106 132 100
8.553570e-001 -3.985271e-001 3.040151e+000 36 61 32
8.511872e-001 -4.056409e-001 3.035160e+000 38 57 28
9.303529e-001 -4.038556e-001 3.067290e+000 163 162 70
9.459215e-001 -4.121003e-001 3.061551e+000 44 56 26
8.560248e-001 -4.011095e-001 3.049396e+000 33 58 34
8.560993e-001 -4.018304e-001 3.048343e+000 33 58 34
9.193035e-001 -4.115974e-001 3.075014e+000 35 55 31
9.370379e-001 -4.674821e-001 3.081590e+000 183 149 122
9.205555e-001 -4.801116e-001 3.090640e+000 158 32 43
9.095241e-001 -4.762385e-001 3.096101e+000 162 28 35
9.138256e-001 -4.773419e-001 3.094174e+000 161 28 37
8.904205e-001 -4.922119e-001 3.110850e+000 28 74 109
8.904187e-001 -4.922931e-001 3.110775e+000 28 74 109
9.102301e-001 -5.325586e-001 3.108094e+000 138 109 101
8.474289e-001 -5.280394e-001 3.107273e+000 156 29 38
8.481194e-001 -4.095779e-001 3.027606e+000 119 140 104
9.015000e-001 -3.897896e-001 3.080444e+000 82 115 94
8.444732e-001 -4.211096e-001 3.023340e+000 130 144 64
9.518421e-001 -4.319334e-001 3.062539e+000 36 57 30
8.976749e-001 -4.115062e-001 3.086694e+000 165 160 74
9.349273e-001 -4.389251e-001 3.073873e+000 160 163 99
9.349273e-001 -4.389251e-001 3.073873e+000 160 163 99
9.226965e-001 -4.345453e-001 3.079784e+000 162 165 107
9.031967e-001 -4.641761e-001 3.098419e+000 179 39 42
9.278299e-001 -5.074892e-001 3.092706e+000 37 41 62
9.278075e-001 -5.072555e-001 3.092893e+000 37 41 62
9.250788e-001 -5.088348e-001 3.096238e+000 189 124 87
9.163634e-001 -5.063817e-001 3.100239e+000 179 129 89
8.821275e-001 -5.033933e-001 3.112762e+000 155 85 76
9.257160e-001 -5.495485e-001 3.103715e+000 75 20 23
8.485461e-001 -5.455952e-001 3.118813e+000 167 29 43
8.701360e-001 -5.445219e-001 3.127201e+000 60 22 30
8.815152e-001 -5.581244e-001 3.128553e+000 169 125 86
9.225972e-001 -3.932422e-001 3.066078e+000 44 95 114
8.988436e-001 -3.858801e-001 3.079737e+000 28 60 36
8.998151e-001 -4.020416e-001 3.083647e+000 170 153 118
8.998151e-001 -4.020416e-001 3.083647e+000 170 153 118
9.276751e-001 -4.157283e-001 3.072493e+000 26 61 30
9.193877e-001 -4.169950e-001 3.077458e+000 171 160 115
9.193877e-001 -4.169950e-001 3.077458e+000 171 160 115
9.055396e-001 -4.176030e-001 3.083362e+000 31 59 34
9.007908e-001 -4.439243e-001 3.093052e+000 165 155 124
9.048375e-001 -4.485897e-001 3.093005e+000 181 37 40
9.048375e-001 -4.485897e-001 3.093005e+000 181 37 40
8.817389e-001 -4.964615e-001 3.112680e+000 182 138 90
9.013214e-001 -5.032627e-001 3.106427e+000 181 135 85
9.013214e-001 -5.032627e-001 3.106427e+000 181 135 85
9.403213e-001 -4.407511e-001 3.072799e+000 153 150 36
8.936300e-001 -4.648803e-001 3.100802e+000 173 157 124
9.012161e-001 -5.483923e-001 3.123087e+000 83 56 63
9.371015e-001 -5.980603e-001 3.104894e+000 39 32 39
8.666212e-001 -5.143387e-001 3.118585e+000 180 138 98
9.089419e-001 -3.755568e-001 3.074882e+000 211 129 100
9.181994e-001 -4.249519e-001 3.085126e+000 32 58 34
8.594089e-001 -5.471885e-001 3.125994e+000 175 127 65
8.594089e-001 -5.471885e-001 3.125994e+000 175 127 65
8.899678e-001 -4.786634e-001 3.107221e+000 164 29 36
8.611072e-001 -6.028430e-001 3.085309e+000 151 23 36
8.611072e-001 -6.028430e-001 3.085309e+000 151 23 36
8.387864e-001 -5.955565e-001 3.143481e+000 161 83 46
9.264250e-001 -3.970605e-001 3.066646e+000 72 99 99
8.777572e-001 -5.041140e-001 3.115573e+000 100 42 48
8.298232e-001 -5.848077e-001 3.112423e+000 118 46 18
8.371274e-001 -6.038406e-001 3.133998e+000 97 70 61
8.413530e-001 -6.015252e-001 3.137158e+000 136 115 102
8.617287e-001 -6.012931e-001 3.144636e+000 193 130 108
8.631536e-001 -6.043621e-001 3.143929e+000 116 45 43
8.647508e-001 -6.050878e-001 3.143963e+000 177 136 108
8.590241e-001 -6.082279e-001 3.145524e+000 139 72 63
8.406851e-001 -6.145159e-001 3.142745e+000 48 16 9
8.528294e-001 -6.180707e-001 3.149871e+000 115 39 24
8.615474e-001 -5.311916e-001 3.121704e+000 80 33 43
8.235275e-001 -5.986910e-001 3.103840e+000 185 140 109
8.273670e-001 -6.124564e-001 3.120220e+000 121 67 26
8.438811e-001 -5.432897e-001 3.111563e+000 222 72 83
8.219023e-001 -6.013069e-001 3.099112e+000 177 142 119
8.420778e-001 -5.688517e-001 3.129171e+000 201 89 50
8.368936e-001 -6.203444e-001 3.141046e+000 159 91 49
7.189109e-001 -6.444959e-001 3.027800e+000 143 124 130
8.511791e-001 -5.748054e-001 3.133338e+000 114 24 36
8.511791e-001 -5.748054e-001 3.133338e+000 114 24 36
8.639439e-001 -6.101041e-001 3.144494e+000 166 71 68
8.544140e-001 -6.074973e-001 3.146104e+000 180 137 118
8.336487e-001 -5.805978e-001 3.117603e+000 179 114 57
8.336487e-001 -5.805978e-001 3.117603e+000 179 114 57
8.203622e-001 -6.000952e-001 3.096360e+000 168 136 112
8.745103e-001 -5.718703e-001 3.132745e+000 14 61 105
8.797043e-001 -6.092813e-001 3.136673e+000 140 24 35
8.797043e-001 -6.092813e-001 3.136673e+000 140 24 35
8.285366e-001 -6.119229e-001 3.114611e+000 128 87 59
8.938798e-001 -6.362750e-001 3.143137e+000 34 24 35
9.036944e-001 -6.054583e-001 3.122691e+000 150 113 84
8.534107e-001 -6.138914e-001 3.137060e+000 174 93 37
3.196865e-001 -4.590722e-001 2.661592e+000 86 68 58
8.609573e-001 -3.815872e-001 3.045293e+000 163 170 147
9.122930e-001 -3.793698e-001 3.071793e+000 134 39 30
9.122930e-001 -3.793698e-001 3.071793e+000 134 39 30
8.523011e-001 -4.321422e-001 3.060306e+000 87 51 42
8.994599e-001 -4.912710e-001 3.105973e+000 128 176 190
8.919718e-001 -5.016888e-001 3.110807e+000 169 80 62
8.896259e-001 -5.040630e-001 3.112649e+000 176 91 81
9.103463e-001 -5.277473e-001 3.108289e+000 95 73 76
9.104489e-001 -5.281633e-001 3.107892e+000 95 73 76
9.047764e-001 -5.398679e-001 3.113394e+000 27 16 16
8.741697e-001 -5.346515e-001 3.123782e+000 107 57 58
8.663415e-001 -5.396702e-001 3.126406e+000 164 107 57
8.725210e-001 -5.430427e-001 3.126424e+000 104 51 61
8.239784e-001 -5.957878e-001 3.103362e+000 156 82 35
8.371273e-001 -6.052557e-001 3.133242e+000 81 62 57
8.421877e-001 -5.962418e-001 3.135839e+000 207 164 147
9.023053e-001 -3.954866e-001 3.080609e+000 84 109 102
8.859452e-001 -5.101271e-001 3.115489e+000 76 36 40
8.817861e-001 -5.270211e-001 3.120147e+000 114 75 68
8.401398e-001 -5.452984e-001 3.106224e+000 232 68 77
8.761201e-001 -5.382861e-001 3.125505e+000 90 45 47
8.807313e-001 -5.670886e-001 3.129540e+000 169 125 86
8.889947e-001 -3.439977e-001 2.995489e+000 213 73 97
9.352453e-001 -3.543871e-001 3.041580e+000 209 179 143
8.534044e-001 -4.728210e-001 3.085621e+000 151 92 81
8.837033e-001 -5.051612e-001 3.115007e+000 180 92 84
8.681176e-001 -5.356916e-001 3.124673e+000 174 121 64
8.382105e-001 -5.859834e-001 3.125360e+000 197 91 41
9.251526e-001 -6.000873e-001 3.110500e+000 63 25 14
9.031903e-001 -4.109943e-001 3.085314e+000 161 160 106
8.317198e-001 -4.805674e-001 3.020917e+000 193 170 136
8.232721e-001 -5.562797e-001 3.066525e+000 157 39 47
9.217136e-001 -4.160658e-001 3.076535e+000 174 159 113
9.217191e-001 -4.159911e-001 3.076450e+000 174 159 113
8.350450e-001 -5.823764e-001 3.122646e+000 184 83 39
9.236165e-001 -6.507186e-001 3.113962e+000 150 113 77
9.151526e-001 -3.481172e-001 3.046568e+000 220 186 150
9.151333e-001 -3.481261e-001 3.046534e+000 220 186 150
9.276229e-001 -3.500399e-001 3.040576e+000 205 177 147
9.276229e-001 -3.500399e-001 3.040576e+000 205 177 147
9.351129e-001 -3.532175e-001 3.039031e+000 132 107 76
9.160636e-001 -3.760715e-001 3.069315e+000 210 147 111
9.180283e-001 -3.771870e-001 3.067866e+000 226 142 110
9.169164e-001 -3.774147e-001 3.068917e+000 151 56 50
9.169164e-001 -3.774147e-001 3.068917e+000 151 56 50
9.200623e-001 -3.774254e-001 3.067005e+000 229 129 105
9.201059e-001 -3.775706e-001 3.066705e+000 229 129 105
9.275738e-001 -3.809539e-001 3.063248e+000 148 39 38
9.307727e-001 -3.810780e-001 3.061439e+000 232 135 110
9.307735e-001 -3.810771e-001 3.061416e+000 232 135 110
9.339108e-001 -3.821948e-001 3.059883e+000 212 145 114
9.349113e-001 -3.833839e-001 3.059780e+000 155 44 38
9.349609e-001 -3.833980e-001 3.059491e+000 155 44 38
9.172813e-001 -3.790515e-001 3.068935e+000 213 140 108
9.153196e-001 -3.803409e-001 3.070334e+000 224 132 103
9.184166e-001 -3.797735e-001 3.068384e+000 137 56 43
9.184166e-001 -3.797735e-001 3.068384e+000 137 56 43
9.240555e-001 -3.832654e-001 3.065619e+000 222 141 113
9.260755e-001 -3.860174e-001 3.065512e+000 230 139 112
9.260755e-001 -3.860174e-001 3.065512e+000 230 139 112
9.351466e-001 -3.895353e-001 3.060372e+000 253 127 108
9.351466e-001 -3.895353e-001 3.060372e+000 253 127 108
9.376602e-001 -3.930355e-001 3.060077e+000 168 165 136
9.041443e-001 -3.790005e-001 3.075854e+000 241 132 110
9.041344e-001 -3.789285e-001 3.075987e+000 241 132 110
9.018260e-001 -3.800658e-001 3.077435e+000 175 36 48
9.018260e-001 -3.800658e-001 3.077435e+000 175 36 48
9.088426e-001 -3.801396e-001 3.074119e+000 222 143 113
9.469909e-001 -4.104047e-001 3.060238e+000 142 171 90
9.440554e-001 -4.140650e-001 3.063207e+000 53 58 9
9.440554e-001 -4.140650e-001 3.063207e+000 53 58 9
9.139129e-001 -4.179567e-001 3.080605e+000 134 143 46
9.139129e-001 -4.179567e-001 3.080605e+000 134 143 46
9.065866e-001 -4.790845e-001 3.099445e+000 240 141 116
9.073373e-001 -4.807052e-001 3.099452e+000 146 33 35
9.221117e-001 -4.851287e-001 3.092610e+000 227 132 101
9.220694e-001 -4.847071e-001 3.092924e+000 227 132 101
9.232422e-001 -4.898102e-001 3.092907e+000 239 81 82
9.104916e-001 -4.859122e-001 3.098912e+000 164 43 45
9.132566e-001 -4.868971e-001 3.097650e+000 139 34 37
9.013368e-001 -4.924771e-001 3.104814e+000 27 62 83
9.075721e-001 -4.952625e-001 3.102326e+000 38 72 92
9.075381e-001 -4.952417e-001 3.102300e+000 38 72 92
9.115506e-001 -4.946770e-001 3.100324e+000 138 180 196
9.115422e-001 -4.945093e-001 3.100488e+000 138 180 196
8.982724e-001 -5.062818e-001 3.109740e+000 136 77 81
8.906861e-001 -5.054270e-001 3.112658e+000 87 37 30
8.906883e-001 -5.054518e-001 3.112663e+000 87 37 30
8.903464e-001 -5.115626e-001 3.113984e+000 73 36 31
8.954251e-001 -5.083889e-001 3.111255e+000 156 86 84
8.975306e-001 -5.094654e-001 3.110753e+000 136 75 80
9.042738e-001 -5.172459e-001 3.109188e+000 127 100 109
9.032447e-001 -5.186742e-001 3.109810e+000 88 63 69
9.150681e-001 -5.252783e-001 3.105409e+000 91 71 80
9.327639e-001 -5.433153e-001 3.097782e+000 74 111 131
8.984313e-001 -5.196435e-001 3.112541e+000 89 62 68
8.830395e-001 -5.230530e-001 3.118956e+000 117 64 72
9.056956e-001 -5.411700e-001 3.113514e+000 147 112 91
8.436418e-001 -5.350425e-001 3.106445e+000 156 41 47
9.149956e-001 -3.472942e-001 3.043700e+000 212 184 153
9.294521e-001 -3.530411e-001 3.048553e+000 208 182 148
9.295175e-001 -3.533469e-001 3.048259e+000 208 182 148
8.527962e-001 -3.809757e-001 3.019864e+000 199 127 114
8.622328e-001 -3.739862e-001 3.041513e+000 174 46 47
9.027311e-001 -3.693432e-001 3.074057e+000 165 155 134
9.243171e-001 -3.789640e-001 3.064388e+000 231 145 112
9.182646e-001 -3.817675e-001 3.070025e+000 166 43 47
9.183573e-001 -3.822058e-001 3.069320e+000 166 43 47
9.236817e-001 -3.851612e-001 3.066128e+000 215 147 116
8.581603e-001 -4.085569e-001 3.055368e+000 132 155 82
8.974284e-001 -4.527924e-001 3.096956e+000 176 153 125
9.109357e-001 -4.846628e-001 3.097266e+000 147 35 39
9.192314e-001 -4.853270e-001 3.095191e+000 146 35 35
9.173459e-001 -4.880312e-001 3.095656e+000 208 74 64
9.173459e-001 -4.880312e-001 3.095656e+000 208 74 64
8.494942e-001 -4.966558e-001 3.093052e+000 126 77 59
8.948981e-001 -4.911384e-001 3.107423e+000 29 69 96
8.948981e-001 -4.911235e-001 3.107420e+000 29 69 96
8.929945e-001 -5.034711e-001 3.111322e+000 95 44 42
8.795067e-001 -5.019384e-001 3.114580e+000 183 94 91
8.887583e-001 -5.088425e-001 3.114338e+000 165 94 90
8.918324e-001 -5.087797e-001 3.112913e+000 101 50 48
9.007714e-001 -5.186094e-001 3.110907e+000 82 61 66
8.864270e-001 -5.142724e-001 3.115925e+000 90 54 58
8.892301e-001 -5.143687e-001 3.115498e+000 79 47 50
8.937467e-001 -5.187889e-001 3.114583e+000 66 40 41
8.783955e-001 -5.191013e-001 3.119351e+000 75 30 37
8.903346e-001 -5.347168e-001 3.117939e+000 148 118 104
9.262948e-001 -3.510862e-001 3.045797e+000 212 182 146
9.121758e-001 -3.797184e-001 3.072469e+000 163 43 40
8.572948e-001 -4.018567e-001 3.054957e+000 61 110 120
8.643578e-001 -4.066110e-001 3.064611e+000 111 146 76
8.649351e-001 -4.170942e-001 3.071407e+000 41 55 23
8.649351e-001 -4.170942e-001 3.071407e+000 41 55 23
9.168354e-001 -4.835993e-001 3.095218e+000 145 34 36
8.486722e-001 -5.076537e-001 3.098945e+000 202 139 108
8.972704e-001 -5.148079e-001 3.110069e+000 96 62 63
9.124811e-001 -5.382115e-001 3.109007e+000 105 80 75
9.279963e-001 -3.523567e-001 3.044250e+000 210 180 149
9.279963e-001 -3.523567e-001 3.044250e+000 210 180 149
9.385063e-001 -3.542195e-001 3.036926e+000 206 177 143
9.114199e-001 -3.741093e-001 3.070402e+000 184 34 40
9.217547e-001 -3.775335e-001 3.064972e+000 173 35 46
9.146317e-001 -3.748188e-001 3.069460e+000 184 38 50
9.237381e-001 -3.808415e-001 3.065693e+000 178 40 45
9.237381e-001 -3.808415e-001 3.065693e+000 178 40 45
9.323606e-001 -3.808288e-001 3.060256e+000 183 35 38
9.056791e-001 -3.733105e-001 3.074142e+000 202 157 119
9.026267e-001 -3.796352e-001 3.076911e+000 179 37 46
9.026267e-001 -3.796352e-001 3.076911e+000 179 37 46
9.424499e-001 -4.270159e-001 3.067011e+000 175 164 60
9.410155e-001 -4.701762e-001 3.078921e+000 187 149 119
9.416812e-001 -4.749681e-001 3.078361e+000 161 119 97
8.956914e-001 -4.521495e-001 3.097297e+000 104 71 52
9.321695e-001 -5.065978e-001 3.091469e+000 27 62 94
9.058286e-001 -4.943134e-001 3.103024e+000 125 164 179
8.736837e-001 -5.039095e-001 3.115542e+000 187 135 96
8.810276e-001 -5.068006e-001 3.115718e+000 91 35 40
8.963697e-001 -5.204141e-001 3.117299e+000 84 59 64
8.800993e-001 -5.181294e-001 3.117407e+000 116 53 61
8.657219e-001 -5.287622e-001 3.120862e+000 177 118 61
9.195226e-001 -3.483969e-001 3.044661e+000 213 186 150
9.434996e-001 -3.566148e-001 3.033824e+000 143 122 95
9.076724e-001 -3.727862e-001 3.072831e+000 179 38 46
9.417909e-001 -3.947826e-001 3.058851e+000 38 56 30
9.417909e-001 -3.947826e-001 3.058851e+000 38 56 30
9.471418e-001 -4.093013e-001 3.059597e+000 146 142 47
9.463346e-001 -4.160181e-001 3.062532e+000 120 133 112
9.189246e-001 -4.110767e-001 3.076450e+000 37 59 36
9.201967e-001 -4.522540e-001 3.085652e+000 180 39 43
8.542420e-001 -4.518944e-001 3.074696e+000 225 140 112
9.283437e-001 -4.707355e-001 3.085792e+000 172 156 123
9.435490e-001 -4.867507e-001 3.079204e+000 156 33 36
9.435490e-001 -4.867507e-001 3.079204e+000 156 33 36
8.964259e-001 -5.114406e-001 3.111946e+000 100 54 55
8.748145e-001 -5.137283e-001 3.118106e+000 96 43 49
9.223545e-001 -3.487614e-001 3.043803e+000 176 152 127
9.223545e-001 -3.487614e-001 3.043803e+000 176 152 127
9.303546e-001 -4.039006e-001 3.067234e+000 166 162 63
9.162369e-001 -3.991045e-001 3.074509e+000 157 161 64
8.636021e-001 -4.062234e-001 3.061752e+000 32 61 30
8.635456e-001 -4.066494e-001 3.061186e+000 32 61 30
9.518254e-001 -4.323223e-001 3.062407e+000 36 57 31
9.370311e-001 -4.299004e-001 3.071788e+000 169 163 85
9.370311e-001 -4.299004e-001 3.071788e+000 169 163 85
8.976475e-001 -4.115708e-001 3.086633e+000 169 160 60
9.239374e-001 -4.257662e-001 3.077457e+000 163 165 81
9.296815e-001 -5.024477e-001 3.091105e+000 131 165 174
9.296815e-001 -5.024477e-001 3.091105e+000 131 165 174
9.204678e-001 -4.077236e-001 3.073209e+000 171 161 100
9.399334e-001 -4.347463e-001 3.068217e+000 173 163 84
9.012510e-001 -4.155469e-001 3.086917e+000 31 58 39
9.012510e-001 -4.155469e-001 3.086917e+000 31 58 39
9.211162e-001 -4.398827e-001 3.080468e+000 33 59 31
9.032829e-001 -4.640838e-001 3.098255e+000 179 40 45
9.152370e-001 -3.483040e-001 3.044143e+000 102 81 55
8.999702e-001 -4.261498e-001 3.090683e+000 35 59 37
9.286044e-001 -4.446670e-001 3.081789e+000 173 157 124
8.851755e-001 -5.354392e-001 3.116850e+000 146 115 97
9.383052e-001 -4.089802e-001 3.059181e+000 169 159 35
9.303599e-001 -3.873433e-001 3.057325e+000 216 143 113
8.795377e-001 -5.145715e-001 3.116977e+000 101 41 49
9.135949e-001 -3.796058e-001 3.071451e+000 214 138 107
9.174755e-001 -3.809366e-001 3.069216e+000 218 133 108
9.344971e-001 -3.856518e-001 3.060325e+000 161 43 40
9.344971e-001 -3.856518e-001 3.060325e+000 161 43 40
9.371088e-001 -3.920890e-001 3.059805e+000 151 53 48
8.568123e-001 -3.895396e-001 3.039100e+000 159 169 62
8.676641e-001 -4.174180e-001 3.074116e+000 94 90 65
9.437995e-001 -4.756253e-001 3.077024e+000 181 139 115
9.008831e-001 -4.637234e-001 3.098020e+000 192 141 118
9.008831e-001 -4.637234e-001 3.098020e+000 192 141 118
9.112701e-001 -4.779274e-001 3.096604e+000 218 139 116
9.150408e-001 -4.813188e-001 3.095580e+000 210 135 105
8.552422e-001 -4.720305e-001 3.088555e+000 96 47 33
8.552422e-001 -4.720305e-001 3.088555e+000 96 47 33
9.079536e-001 -4.769488e-001 3.098257e+000 221 141 106
9.096324e-001 -4.801968e-001 3.097917e+000 129 24 28
9.096324e-001 -4.801968e-001 3.097917e+000 129 24 28
9.235155e-001 -4.998466e-001 3.094522e+000 31 64 74
9.273922e-001 -5.009079e-001 3.092593e+000 32 55 62
9.034634e-001 -4.943652e-001 3.103989e+000 31 65 82
8.509286e-001 -5.004745e-001 3.095954e+000 198 134 102
8.954311e-001 -5.083712e-001 3.111264e+000 156 84 86
8.748766e-001 -5.061004e-001 3.116190e+000 79 33 34
8.813158e-001 -5.045028e-001 3.115225e+000 171 89 84
8.813158e-001 -5.045028e-001 3.115225e+000 171 89 84
8.868908e-001 -5.053150e-001 3.113915e+000 168 86 83
8.865375e-001 -5.085719e-001 3.114929e+000 168 83 84
9.243306e-001 -3.789357e-001 3.064436e+000 201 147 104
9.271310e-001 -3.830172e-001 3.063736e+000 158 37 36
9.271310e-001 -3.830172e-001 3.063736e+000 158 37 36
9.099692e-001 -3.938261e-001 3.076663e+000 64 99 97
9.551348e-001 -4.513607e-001 3.062860e+000 88 86 62
8.515901e-001 -4.820261e-001 3.087963e+000 147 91 70
9.226582e-001 -4.869669e-001 3.093002e+000 145 25 39
8.486421e-001 -4.981144e-001 3.093658e+000 198 133 101
8.492562e-001 -5.003699e-001 3.095878e+000 127 82 58
8.870774e-001 -5.015041e-001 3.113203e+000 80 35 32
8.988682e-001 -5.091038e-001 3.109451e+000 88 48 49
8.854185e-001 -5.061448e-001 3.114659e+000 173 88 88
8.943854e-001 -5.123963e-001 3.112835e+000 83 45 44
9.287958e-001 -3.856140e-001 3.063588e+000 175 33 44
8.616364e-001 -3.986365e-001 3.052467e+000 133 142 49
8.884520e-001 -4.527192e-001 3.099893e+000 188 141 115
9.213060e-001 -4.863905e-001 3.093868e+000 144 25 36
8.505007e-001 -4.928716e-001 3.091335e+000 125 70 50
9.216638e-001 -3.769863e-001 3.066088e+000 175 35 33
9.141131e-001 -4.163002e-001 3.079550e+000 168 153 48
9.164243e-001 -4.190733e-001 3.079776e+000 30 56 31
9.264231e-001 -4.375731e-001 3.080490e+000 33 53 35
9.010742e-001 -4.321271e-001 3.090113e+000 159 150 94
9.011427e-001 -4.314479e-001 3.090664e+000 159 150 94
9.311914e-001 -4.574942e-001 3.081567e+000 162 149 114
9.416682e-001 -4.750259e-001 3.078319e+000 169 116 90
8.622613e-001 -4.651944e-001 3.094107e+000 18 78 124
9.403181e-001 -3.829140e-001 3.056815e+000 159 91 70
9.403181e-001 -3.829140e-001 3.056815e+000 159 91 70
9.162493e-001 -3.990060e-001 3.074703e+000 159 147 63
9.188843e-001 -4.112152e-001 3.076404e+000 31 55 29
9.489964e-001 -4.350556e-001 3.065538e+000 106 126 106
9.310734e-001 -4.581334e-001 3.082109e+000 167 145 113
9.338060e-001 -5.043073e-001 3.088234e+000 36 65 83
9.337941e-001 -5.041770e-001 3.088302e+000 36 65 83
9.518255e-001 -3.778934e-001 3.050206e+000 113 127 127
8.811985e-001 -3.996861e-001 3.080260e+000 88 115 123
9.150017e-001 -4.076266e-001 3.076825e+000 166 148 110
9.150017e-001 -4.076266e-001 3.076825e+000 166 148 110
9.344236e-001 -4.209099e-001 3.070335e+000 168 151 99
9.385833e-001 -4.293835e-001 3.066663e+000 32 55 31
9.385833e-001 -4.293835e-001 3.066663e+000 32 55 31
9.412244e-001 -4.638111e-001 3.078132e+000 169 97 80
8.875175e-001 -3.937992e-001 3.072009e+000 46 94 119
9.001513e-001 -4.014069e-001 3.082921e+000 161 145 105
9.001513e-001 -4.014069e-001 3.082921e+000 161 145 105
9.053438e-001 -4.219174e-001 3.087041e+000 162 148 101
9.010536e-001 -4.425322e-001 3.093002e+000 159 145 118
9.071972e-001 -4.101400e-001 3.083571e+000 165 147 112
8.446370e-001 -4.403879e-001 3.035032e+000 158 155 138
9.380627e-001 -4.498357e-001 3.077465e+000 167 148 115
8.672935e-001 -5.421397e-001 3.126229e+000 102 66 32
8.639439e-001 -5.607258e-001 3.131681e+000 145 140 172
8.530170e-001 -6.197659e-001 3.149168e+000 115 39 24
8.646478e-001 -5.809721e-001 3.142862e+000 170 88 39
8.352751e-001 -6.201177e-001 3.138373e+000 167 92 56
8.354780e-001 -6.228254e-001 3.140997e+000 33 17 29
7.604140e-001 -6.144505e-001 3.119641e+000 135 119 122
8.546100e-001 -6.089567e-001 3.145447e+000 180 137 118
8.745687e-001 -5.823028e-001 3.135935e+000 132 23 38
8.746449e-001 -5.867929e-001 3.137469e+000 135 25 41
9.128982e-001 -3.218599e-001 3.013765e+000 195 34 47
8.716586e-001 -5.469596e-001 3.128311e+000 63 27 32
8.785900e-001 -5.495218e-001 3.127091e+000 102 63 66
8.648319e-001 -5.611204e-001 3.132295e+000 33 30 41
8.667648e-001 -6.011671e-001 3.143327e+000 158 105 72
8.607387e-001 -6.064049e-001 3.144855e+000 156 82 61
7.701580e-001 -6.080174e-001 3.138181e+000 138 117 119
7.744459e-001 -6.063670e-001 3.146570e+000 133 112 115
8.674543e-001 -5.437970e-001 3.127023e+000 187 132 89
7.498648e-001 -6.194834e-001 3.092130e+000 58 46 51
8.404485e-001 -6.061816e-001 3.137773e+000 66 48 38
9.251468e-001 -5.738810e-001 3.107430e+000 109 65 36
8.699313e-001 -5.872708e-001 3.138566e+000 121 28 29
7.437449e-001 -6.197672e-001 3.082862e+000 141 123 123
8.601521e-001 -6.036065e-001 3.144388e+000 205 147 104
7.646683e-001 -6.145086e-001 3.122590e+000 49 38 44
7.317240e-001 -6.264002e-001 3.056349e+000 143 123 125
8.707245e-001 -5.922566e-001 3.139047e+000 186 90 33
7.603709e-001 -6.160279e-001 3.112571e+000 51 40 48
7.584658e-001 -6.149283e-001 3.115016e+000 146 125 126
7.779688e-001 -6.057896e-001 3.155131e+000 147 122 125
8.420885e-001 -6.018006e-001 3.137461e+000 171 144 123
8.637937e-001 -6.082570e-001 3.145198e+000 153 54 48
7.628624e-001 -6.143453e-001 3.125014e+000 144 123 122
8.535501e-001 -6.099899e-001 3.139126e+000 191 104 34
9.259829e-001 -3.501634e-001 3.042692e+000 212 182 140
9.114663e-001 -3.777670e-001 3.072450e+000 219 138 108
8.863074e-001 -4.553973e-001 3.100658e+000 125 86 67
9.214927e-001 -5.079587e-001 3.097974e+000 144 78 52
9.031712e-001 -5.188577e-001 3.109723e+000 88 63 69
9.318843e-001 -5.474544e-001 3.098468e+000 67 110 135
8.874935e-001 -5.159681e-001 3.116331e+000 158 113 116
8.731621e-001 -5.176104e-001 3.119296e+000 86 39 42
9.053255e-001 -5.535562e-001 3.115904e+000 136 93 90
9.191818e-001 -5.600123e-001 3.109547e+000 119 73 56
8.421398e-001 -5.435955e-001 3.109365e+000 229 64 76
8.831142e-001 -5.381434e-001 3.122217e+000 144 106 94
8.331600e-001 -5.623606e-001 3.104923e+000 147 97 70
8.331600e-001 -5.623606e-001 3.104923e+000 147 97 70
8.802234e-001 -5.480138e-001 3.126788e+000 154 103 108
8.553793e-001 -5.514876e-001 3.126830e+000 150 94 37
8.352496e-001 -5.736513e-001 3.114918e+000 154 79 47
8.626454e-001 -5.606143e-001 3.132198e+000 35 29 45
8.626454e-001 -5.606143e-001 3.132198e+000 35 29 45
8.767150e-001 -5.606433e-001 3.129641e+000 31 22 27
8.396018e-001 -5.810317e-001 3.125892e+000 196 87 41
8.659803e-001 -6.082100e-001 3.143674e+000 194 143 116
9.293221e-001 -5.413781e-001 3.100359e+000 71 113 139
9.112681e-001 -5.525171e-001 3.113426e+000 109 59 48
8.878319e-001 -5.406439e-001 3.121805e+000 19 17 8
8.757595e-001 -5.445962e-001 3.126278e+000 71 34 39
8.793694e-001 -5.473930e-001 3.125826e+000 72 37 40
8.793247e-001 -5.508232e-001 3.127812e+000 119 80 84
8.965417e-001 -5.506998e-001 3.120152e+000 147 112 102
9.259105e-001 -5.873994e-001 3.107942e+000 168 118 69
8.607150e-001 -5.424376e-001 3.125444e+000 153 101 44
8.607150e-001 -5.424376e-001 3.125444e+000 153 101 44
8.689875e-001 -5.446975e-001 3.127342e+000 61 30 31
8.736461e-001 -5.944434e-001 3.138888e+000 157 31 42
7.633481e-001 -6.141593e-001 3.124292e+000 143 121 118
8.256953e-001 -6.183944e-001 3.117801e+000 193 144 117
8.285728e-001 -6.134120e-001 3.120426e+000 147 98 59
9.439570e-001 -3.491740e-001 3.008218e+000 176 30 43
8.759797e-001 -5.320539e-001 3.123691e+000 154 107 97
8.337138e-001 -5.838987e-001 3.115645e+000 184 112 46
8.825330e-001 -6.271096e-001 3.138811e+000 161 87 42
8.667789e-001 -5.336617e-001 3.122633e+000 172 122 69
8.667789e-001 -5.336617e-001 3.122633e+000 172 122 69
7.352487e-001 -6.258743e-001 3.068582e+000 145 126 122
8.387349e-001 -6.127809e-001 3.138500e+000 195 105 52
9.107538e-001 -5.582669e-001 3.115139e+000 97 67 69
9.279375e-001 -3.504002e-001 3.044019e+000 210 184 142
9.178049e-001 -3.484033e-001 3.046564e+000 219 186 152
9.271468e-001 -3.523646e-001 3.048385e+000 215 181 137
9.271927e-001 -3.523592e-001 3.048436e+000 215 181 137
9.171067e-001 -4.797419e-001 3.094368e+000 229 137 113
9.303408e-001 -5.083629e-001 3.092623e+000 129 37 40
9.074876e-001 -4.953648e-001 3.102182e+000 34 69 87
8.937790e-001 -5.058777e-001 3.111098e+000 180 92 96
9.370550e-001 -5.393264e-001 3.090726e+000 24 58 91
9.361561e-001 -5.424839e-001 3.093188e+000 32 54 78
8.903323e-001 -5.116006e-001 3.113967e+000 61 31 26
8.958815e-001 -5.180390e-001 3.113418e+000 85 49 56
8.969087e-001 -5.172243e-001 3.112386e+000 89 58 63
8.969087e-001 -5.172243e-001 3.112386e+000 89 58 63
9.307653e-001 -5.464054e-001 3.098320e+000 28 59 79
9.018289e-001 -5.342534e-001 3.119565e+000 144 108 96
9.064788e-001 -5.426054e-001 3.113613e+000 30 13 6
9.065286e-001 -5.424801e-001 3.113698e+000 30 13 6
8.781026e-001 -5.275930e-001 3.122276e+000 106 62 59
8.915216e-001 -5.379707e-001 3.119711e+000 163 116 106
9.138390e-001 -5.575139e-001 3.111890e+000 95 50 39
8.985699e-001 -5.567519e-001 3.120587e+000 98 71 76
8.709239e-001 -5.445610e-001 3.127068e+000 44 13 19
8.787231e-001 -5.489805e-001 3.127473e+000 96 60 62
8.914777e-001 -5.539143e-001 3.124059e+000 103 72 80
9.259277e-001 -3.502147e-001 3.042849e+000 215 182 145
8.758122e-001 -5.011969e-001 3.114578e+000 83 31 32
9.007528e-001 -5.186667e-001 3.110871e+000 82 60 63
9.159708e-001 -5.403245e-001 3.106710e+000 93 71 73
8.620038e-001 -5.227774e-001 3.119828e+000 115 54 33
8.697454e-001 -5.318261e-001 3.123955e+000 175 113 78
9.253487e-001 -5.695826e-001 3.107017e+000 156 86 57
8.852832e-001 -5.521023e-001 3.126141e+000 121 81 85
9.203745e-001 -6.049142e-001 3.117370e+000 121 76 43
8.282508e-001 -6.102237e-001 3.118380e+000 141 106 79
9.240687e-001 -3.503112e-001 3.047538e+000 215 181 147
9.397912e-001 -5.413693e-001 3.088765e+000 23 58 98
9.395686e-001 -5.453797e-001 3.090133e+000 36 59 77
8.893788e-001 -5.061932e-001 3.113630e+000 168 87 78
8.982372e-001 -5.178967e-001 3.111789e+000 85 60 64
9.064258e-001 -5.209646e-001 3.108115e+000 82 59 65
9.067878e-001 -5.247045e-001 3.108413e+000 83 64 69
9.041979e-001 -5.313448e-001 3.107341e+000 77 55 57
8.399622e-001 -5.574892e-001 3.113331e+000 202 140 101
8.625006e-001 -5.428483e-001 3.126412e+000 175 123 63
8.395346e-001 -5.784439e-001 3.121357e+000 199 75 47
8.707132e-001 -5.746325e-001 3.136130e+000 168 120 82
8.707132e-001 -5.746325e-001 3.136130e+000 168 120 82
8.313878e-001 -5.966156e-001 3.118311e+000 213 115 54
8.394240e-001 -5.976756e-001 3.133781e+000 199 165 138
8.924066e-001 -6.408733e-001 3.129146e+000 117 27 37
8.880143e-001 -3.466338e-001 3.004262e+000 159 133 115
9.287373e-001 -4.410627e-001 3.078628e+000 169 153 38
8.914128e-001 -4.504656e-001 3.099185e+000 120 69 59
9.114260e-001 -4.957683e-001 3.100850e+000 122 144 146
8.929842e-001 -5.165823e-001 3.114285e+000 76 45 47
9.373777e-001 -5.507381e-001 3.093170e+000 37 58 80
9.235445e-001 -5.510697e-001 3.104615e+000 78 16 23
9.065321e-001 -5.528699e-001 3.118878e+000 82 54 53
9.168246e-001 -3.485762e-001 3.046068e+000 151 124 92
9.168246e-001 -3.485762e-001 3.046068e+000 151 124 92
9.320800e-001 -3.527137e-001 3.042630e+000 207 181 143
9.117940e-001 -4.786537e-001 3.096961e+000 98 31 27
8.632252e-001 -4.791303e-001 3.101484e+000 179 155 129
8.864216e-001 -5.438486e-001 3.122867e+000 147 109 96
8.287176e-001 -5.902009e-001 3.109515e+000 134 59 24
7.575241e-001 -6.179872e-001 3.107959e+000 50 40 48
9.198398e-001 -3.991646e-001 3.070628e+000 28 53 31
9.336971e-001 -4.577599e-001 3.078137e+000 171 36 42
9.246730e-001 -4.977574e-001 3.091215e+000 20 65 93
9.034306e-001 -5.372246e-001 3.114127e+000 27 14 16
8.350222e-001 -5.838300e-001 3.121709e+000 180 79 47
9.201971e-001 -5.458433e-001 3.105256e+000 159 123 101
8.304756e-001 -5.493958e-001 3.088926e+000 162 37 45
8.836671e-001 -5.404448e-001 3.122779e+000 137 96 88
9.304035e-001 -6.081522e-001 3.106728e+000 145 102 60
8.794227e-001 -5.769211e-001 3.134186e+000 159 113 80
8.249165e-001 -6.092499e-001 3.109135e+000 186 157 130
8.287011e-001 -6.140246e-001 3.117544e+000 167 130 101
9.154284e-001 -4.391289e-001 3.088990e+000 160 147 115
8.906355e-001 -4.536909e-001 3.098801e+000 187 139 112
8.866437e-001 -4.727335e-001 3.105779e+000 155 25 35
8.832893e-001 -4.873577e-001 3.109384e+000 21 71 111
8.661058e-001 -6.162218e-001 3.155206e+000 37 26 34
8.340165e-001 -5.825615e-001 3.101702e+000 198 143 102
9.045473e-001 -6.039438e-001 3.122133e+000 155 113 73
9.045473e-001 -6.039438e-001 3.122133e+000 155 113 73
9.171532e-001 -3.477271e-001 3.043424e+000 208 185 143
9.177420e-001 -3.484831e-001 3.046373e+000 208 185 142
9.213814e-001 -3.474052e-001 3.043045e+000 116 96 68
9.219101e-001 -3.487302e-001 3.042409e+000 197 174 139
9.368929e-001 -3.542748e-001 3.042143e+000 201 175 137
9.262451e-001 -3.842077e-001 3.064358e+000 203 133 100
9.300685e-001 -3.856091e-001 3.061987e+000 208 133 100
9.376985e-001 -3.931555e-001 3.059835e+000 150 156 132
9.481776e-001 -4.109894e-001 3.059628e+000 44 51 17
9.069159e-001 -4.464823e-001 3.091374e+000 114 40 30
9.069159e-001 -4.464823e-001 3.091374e+000 114 40 30
9.072847e-001 -4.806097e-001 3.099576e+000 111 17 21
9.339646e-001 -5.037064e-001 3.088558e+000 33 56 70
9.339646e-001 -5.037064e-001 3.088558e+000 33 56 70
9.034824e-001 -4.943029e-001 3.104014e+000 20 61 74
8.949520e-001 -5.065717e-001 3.111279e+000 72 31 27
9.068032e-001 -5.123784e-001 3.106167e+000 127 83 88
9.068239e-001 -5.122646e-001 3.106285e+000 127 83 88
9.180076e-001 -5.146476e-001 3.100888e+000 131 77 89
9.180076e-001 -5.146476e-001 3.100888e+000 131 77 89
8.892516e-001 -5.111986e-001 3.114197e+000 60 31 29
9.006348e-001 -5.195883e-001 3.111206e+000 64 43 45
9.334881e-001 -5.425470e-001 3.096533e+000 30 54 66
8.875196e-001 -5.189214e-001 3.117233e+000 125 95 91
9.122292e-001 -5.602170e-001 3.111559e+000 133 84 79
9.122292e-001 -5.602170e-001 3.111559e+000 133 84 79
8.958470e-001 -5.581582e-001 3.120445e+000 102 76 79
9.226507e-001 -3.508234e-001 3.046847e+000 206 182 144
9.275427e-001 -3.810781e-001 3.063143e+000 151 34 41
9.121046e-001 -3.797001e-001 3.072124e+000 155 39 40
8.588374e-001 -4.039754e-001 3.054113e+000 140 151 41
8.569982e-001 -4.503179e-001 3.081871e+000 123 41 35
8.654441e-001 -4.508462e-001 3.091424e+000 94 39 49
8.640764e-001 -4.581310e-001 3.092758e+000 26 73 91
8.756132e-001 -4.907305e-001 3.103041e+000 125 83 57
9.019755e-001 -5.199566e-001 3.110862e+000 122 95 98
9.127140e-001 -5.240565e-001 3.106689e+000 76 60 63
8.817723e-001 -5.274758e-001 3.120145e+000 105 68 60
8.443651e-001 -5.412738e-001 3.112684e+000 207 58 69
8.377953e-001 -5.593488e-001 3.109705e+000 191 136 94
8.766979e-001 -5.496455e-001 3.128996e+000 102 66 68
9.131264e-001 -3.749937e-001 3.071140e+000 200 142 104
8.932796e-001 -3.892909e-001 3.081645e+000 79 104 103
8.778243e-001 -5.138244e-001 3.118181e+000 68 28 31
9.160820e-001 -5.396442e-001 3.106807e+000 85 67 66
9.096844e-001 -5.514266e-001 3.112596e+000 156 108 91
8.782429e-001 -5.757698e-001 3.133821e+000 154 107 69
9.040758e-001 -3.713865e-001 3.074031e+000 169 35 41
9.114276e-001 -3.737006e-001 3.071297e+000 166 31 41
9.114230e-001 -3.738504e-001 3.071039e+000 166 31 41
9.094956e-001 -3.743248e-001 3.072790e+000 197 143 111
9.417638e-001 -4.150411e-001 3.063720e+000 138 138 53
9.324569e-001 -5.332150e-001 3.093766e+000 113 18 26
9.298842e-001 -5.402573e-001 3.098225e+000 23 55 71
9.292815e-001 -5.473846e-001 3.099052e+000 23 54 74
8.901623e-001 -5.427719e-001 3.119751e+000 135 111 89
9.268660e-001 -5.925706e-001 3.106148e+000 110 66 32
9.411145e-001 -3.567778e-001 3.039721e+000 199 177 136
9.092184e-001 -3.959697e-001 3.077816e+000 155 148 41
9.092184e-001 -3.959697e-001 3.077816e+000 155 148 41
9.382348e-001 -4.732985e-001 3.081025e+000 118 75 51
9.156646e-001 -4.803242e-001 3.095214e+000 109 34 26
9.147927e-001 -4.971250e-001 3.098890e+000 97 122 119
9.147927e-001 -4.971250e-001 3.098890e+000 97 122 119
9.420616e-001 -5.543301e-001 3.085864e+000 135 106 84
9.112007e-001 -5.520954e-001 3.114339e+000 97 52 44
9.161701e-001 -5.562234e-001 3.110073e+000 96 53 40
9.489611e-001 -4.352976e-001 3.065504e+000 102 120 99
8.993103e-001 -4.198740e-001 3.088974e+000 26 52 27
9.264503e-001 -4.375492e-001 3.080639e+000 29 48 26
9.404414e-001 -4.615501e-001 3.078631e+000 100 43 32
9.174841e-001 -4.535205e-001 3.088565e+000 151 138 110
9.174841e-001 -4.535205e-001 3.088565e+000 151 138 110
8.637346e-001 -4.527215e-001 3.090168e+000 22 68 104
9.285150e-001 -4.708692e-001 3.084745e+000 153 143 108
9.435224e-001 -4.883438e-001 3.078390e+000 140 23 31
9.421627e-001 -3.867268e-001 3.059191e+000 19 75 98
9.376822e-001 -4.672712e-001 3.080791e+000 160 138 107
9.175972e-001 -4.951308e-001 3.095191e+000 16 61 90
9.455370e-001 -5.274464e-001 3.077257e+000 141 63 50
9.028155e-001 -4.339431e-001 3.090324e+000 160 146 119
9.319891e-001 -5.095551e-001 3.092585e+000 100 23 25
9.319891e-001 -5.095551e-001 3.092585e+000 100 23 25
9.603757e-001 -4.252620e-001 3.045920e+000 82 104 102
9.167836e-001 -5.503403e-001 3.106204e+000 145 118 91
8.918538e-001 -3.738025e-001 3.073800e+000 85 117 124
9.095044e-001 -4.455580e-001 3.083905e+000 155 144 114
9.312661e-001 -3.540437e-001 3.050598e+000 57 46 28
9.124956e-001 -3.772728e-001 3.071681e+000 128 41 24
9.135876e-001 -3.796819e-001 3.071343e+000 206 129 85
9.153376e-001 -3.800913e-001 3.070509e+000 199 137 92
9.201137e-001 -3.773161e-001 3.067196e+000 211 136 96
9.193148e-001 -3.815178e-001 3.068385e+000 200 139 96
9.041219e-001 -3.789473e-001 3.075974e+000 223 130 96
9.406126e-001 -4.623856e-001 3.075675e+000 87 36 25
8.917373e-001 -4.564704e-001 3.099806e+000 186 127 84
8.917196e-001 -4.564624e-001 3.099818e+000 186 127 84
6.553497e-001 -6.730154e-001 2.880301e+000 60 48 48
8.539403e-001 -4.769761e-001 3.088493e+000 139 83 54
8.578388e-001 -4.718517e-001 3.091485e+000 119 68 43
9.112113e-001 -4.780999e-001 3.096449e+000 213 142 99
9.151508e-001 -4.794201e-001 3.094572e+000 207 135 96
9.146059e-001 -4.829904e-001 3.095969e+000 242 131 101
9.146059e-001 -4.829904e-001 3.095969e+000 242 131 101
9.225896e-001 -4.816034e-001 3.091200e+000 209 137 84
9.220433e-001 -4.854020e-001 3.092397e+000 207 131 83
9.106414e-001 -4.817073e-001 3.097811e+000 218 119 84
9.106414e-001 -4.817073e-001 3.097811e+000 218 119 84
9.110122e-001 -4.977134e-001 3.101314e+000 30 56 68
9.212647e-001 -5.089642e-001 3.097122e+000 137 63 33
9.039158e-001 -5.206419e-001 3.109584e+000 146 117 110
9.055069e-001 -5.183665e-001 3.108082e+000 67 47 46
9.055926e-001 -5.180236e-001 3.108332e+000 67 47 46
9.127286e-001 -5.232402e-001 3.105964e+000 70 50 48
9.127040e-001 -5.233039e-001 3.105945e+000 70 50 48
9.378831e-001 -5.403561e-001 3.091210e+000 101 149 152
8.779390e-001 -5.112215e-001 3.116877e+000 70 30 26
8.999564e-001 -5.228549e-001 3.112242e+000 66 47 43
9.338210e-001 -5.467179e-001 3.094791e+000 71 100 104
9.094568e-001 -5.340826e-001 3.109795e+000 115 89 66
9.321931e-001 -3.539917e-001 3.048487e+000 203 177 121
9.349360e-001 -3.833776e-001 3.059922e+000 144 24 24
9.157642e-001 -3.780172e-001 3.069944e+000 192 137 90
9.554108e-001 -4.516394e-001 3.062668e+000 58 56 34
9.553998e-001 -4.517084e-001 3.062574e+000 58 56 34
8.573165e-001 -4.533254e-001 3.080187e+000 138 32 42
9.437982e-001 -4.757790e-001 3.076928e+000 174 133 94
9.436826e-001 -4.763343e-001 3.076298e+000 174 133 94
9.456767e-001 -4.946724e-001 3.078249e+000 172 130 90
9.234564e-001 -4.999952e-001 3.094715e+000 25 55 62
8.895537e-001 -5.042284e-001 3.112526e+000 162 86 65
8.961867e-001 -5.035013e-001 3.110535e+000 65 21 19
8.894551e-001 -5.191513e-001 3.116674e+000 109 82 65
8.524061e-001 -5.262999e-001 3.112926e+000 145 31 30
9.242808e-001 -3.503841e-001 3.047442e+000 212 175 130
9.250607e-001 -3.519817e-001 3.049969e+000 210 175 116
9.250607e-001 -3.519817e-001 3.049969e+000 210 175 116
9.297415e-001 -3.530772e-001 3.049081e+000 207 175 120
9.275251e-001 -3.811552e-001 3.063415e+000 153 29 28
9.275251e-001 -3.811552e-001 3.063415e+000 153 29 28
9.121918e-001 -3.796631e-001 3.072448e+000 149 40 26
8.487836e-001 -4.505826e-001 3.065067e+000 147 34 32
8.567755e-001 -4.513144e-001 3.078074e+000 199 114 85
