ply
format ascii 1.0
element face 0
property list uchar int vertex_indices
element vertex 899
property float x
property float y
property float z
property uchar diffuse_red
property uchar diffuse_green
property uchar diffuse_blue
end_header
7.802663e-001 -5.944650e-001 3.071952e+000 50 27 7
7.804516e-001 -5.976769e-001 3.073697e+000 168 125 75
7.927283e-001 -5.915363e-001 3.110298e+000 220 153 101
7.694045e-001 -6.046170e-001 3.054518e+000 172 127 87
7.721456e-001 -6.056779e-001 3.068300e+000 23 16 9
7.788729e-001 -6.017891e-001 3.076466e+000 27 17 12
7.890713e-001 -5.989306e-001 3.107992e+000 188 145 100
7.920802e-001 -6.022608e-001 3.116234e+000 182 94 30
7.677981e-001 -6.078008e-001 3.063641e+000 14 5 4
7.693605e-001 -6.078829e-001 3.060465e+000 14 5 4
7.833083e-001 -6.105987e-001 3.096059e+000 90 68 37
7.872598e-001 -6.057840e-001 3.110893e+000 175 87 27
7.882956e-001 -6.091182e-001 3.110080e+000 34 10 2
7.908866e-001 -6.031999e-001 3.120576e+000 34 9 2
7.925212e-001 -6.056735e-001 3.117305e+000 56 15 1
7.901960e-001 -6.055052e-001 3.122057e+000 56 15 1
7.668941e-001 -6.212385e-001 3.069766e+000 21 11 2
7.655309e-001 -6.211697e-001 3.072517e+000 21 11 2
7.671256e-001 -6.252055e-001 3.083669e+000 120 62 39
7.957404e-001 -5.637061e-001 3.087440e+000 94 54 24
7.829971e-001 -5.843794e-001 3.068497e+000 181 118 66
7.745008e-001 -5.899814e-001 3.053087e+000 178 131 81
7.789154e-001 -5.912349e-001 3.069195e+000 174 126 80
7.974739e-001 -5.834725e-001 3.121353e+000 42 19 16
7.974739e-001 -5.834725e-001 3.121353e+000 42 19 16
7.705966e-001 -5.992041e-001 3.052568e+000 175 131 85
7.809084e-001 -5.927078e-001 3.071828e+000 173 127 82
7.663795e-001 -6.024056e-001 3.059429e+000 180 127 83
7.730614e-001 -6.178589e-001 3.083363e+000 173 126 91
7.784823e-001 -6.164183e-001 3.095282e+000 106 50 23
7.952984e-001 -5.593771e-001 3.084142e+000 90 54 26
7.721669e-001 -5.668349e-001 3.027556e+000 141 26 34
7.717250e-001 -5.668195e-001 3.027372e+000 141 26 34
7.939693e-001 -5.642418e-001 3.080326e+000 191 130 83
7.759199e-001 -5.752222e-001 3.043729e+000 173 102 73
7.776900e-001 -5.746194e-001 3.047056e+000 69 32 7
7.907888e-001 -5.738727e-001 3.078452e+000 190 128 69
7.648238e-001 -6.013718e-001 3.055442e+000 178 128 93
7.766694e-001 -6.159226e-001 3.090260e+000 172 127 97
7.899824e-001 -5.674567e-001 3.073210e+000 196 129 77
7.768449e-001 -5.770123e-001 3.045402e+000 195 116 78
7.848838e-001 -5.763107e-001 3.064712e+000 196 114 69
7.903757e-001 -5.759885e-001 3.081767e+000 162 84 29
7.729126e-001 -5.882992e-001 3.046854e+000 97 65 37
8.017976e-001 -5.399209e-001 3.092405e+000 163 24 29
7.932321e-001 -5.978841e-001 3.121097e+000 187 94 26
8.100991e-001 -3.729605e-001 2.980179e+000 166 100 74
8.043035e-001 -3.818286e-001 2.960249e+000 163 53 34
8.090003e-001 -4.023014e-001 3.005009e+000 145 149 37
7.840183e-001 -4.825002e-001 2.998058e+000 8 50 72
7.711036e-001 -5.163777e-001 2.990880e+000 162 53 42
7.843132e-001 -5.308739e-001 3.026022e+000 195 124 92
8.008404e-001 -5.396401e-001 3.083127e+000 210 57 62
7.871422e-001 -5.603161e-001 3.055945e+000 155 27 33
7.924563e-001 -5.580111e-001 3.065012e+000 127 31 27
7.924563e-001 -5.580111e-001 3.065012e+000 127 31 27
7.910817e-001 -5.595781e-001 3.066875e+000 218 68 63
7.863897e-001 -5.626578e-001 3.053591e+000 135 30 30
7.855179e-001 -5.626044e-001 3.054790e+000 135 30 30
7.985937e-001 -5.573218e-001 3.088258e+000 192 126 81
7.734769e-001 -5.745983e-001 3.052252e+000 198 127 98
7.848476e-001 -5.740570e-001 3.063768e+000 198 125 91
7.913316e-001 -5.691697e-001 3.074810e+000 197 129 84
7.758614e-001 -5.768293e-001 3.059264e+000 190 122 94
7.791111e-001 -5.767241e-001 3.059017e+000 215 134 102
7.908362e-001 -5.764891e-001 3.083547e+000 112 50 13
7.343229e-001 -5.931138e-001 3.065095e+000 139 75 50
7.787399e-001 -5.875287e-001 3.060000e+000 182 136 89
7.812897e-001 -5.888260e-001 3.068056e+000 129 90 50
7.774204e-001 -5.885028e-001 3.075259e+000 129 90 50
7.858133e-001 -5.867779e-001 3.078463e+000 181 70 33
7.902747e-001 -5.813684e-001 3.081405e+000 174 65 32
7.857855e-001 -5.825678e-001 3.088895e+000 149 48 19
7.897534e-001 -5.833600e-001 3.084041e+000 176 66 31
7.903588e-001 -5.819552e-001 3.086769e+000 177 68 32
7.749684e-001 -5.908845e-001 3.067812e+000 128 91 61
7.749684e-001 -5.908845e-001 3.067812e+000 128 91 61
7.769165e-001 -5.927540e-001 3.063297e+000 178 134 95
7.774244e-001 -5.898914e-001 3.073608e+000 183 135 86
7.806731e-001 -5.945708e-001 3.071335e+000 56 27 9
7.828158e-001 -5.890908e-001 3.072668e+000 183 130 80
7.804816e-001 -5.902496e-001 3.076950e+000 131 87 51
7.804816e-001 -5.902496e-001 3.076950e+000 131 87 51
7.880408e-001 -5.882564e-001 3.074657e+000 130 50 19
7.826468e-001 -5.986036e-001 3.084693e+000 34 20 19
7.912834e-001 -5.923063e-001 3.105855e+000 23 14 7
7.920466e-001 -5.926172e-001 3.109744e+000 18 10 5
7.881136e-001 -5.916919e-001 3.130927e+000 193 148 119
7.579563e-001 -6.077183e-001 3.074948e+000 18 9 2
7.720873e-001 -6.032320e-001 3.078893e+000 32 15 24
7.884788e-001 -5.996485e-001 3.104029e+000 196 152 109
7.915616e-001 -6.025335e-001 3.125689e+000 42 10 1
7.935740e-001 -6.009644e-001 3.131012e+000 57 16 1
7.943447e-001 -6.010369e-001 3.130309e+000 57 16 1
7.871374e-001 -6.068670e-001 3.112333e+000 51 19 7
7.838395e-001 -6.110847e-001 3.108573e+000 37 11 2
7.833076e-001 -6.110793e-001 3.109334e+000 37 11 2
7.903147e-001 -6.073128e-001 3.114762e+000 39 16 6
7.944700e-001 -6.052922e-001 3.131091e+000 31 19 31
7.618460e-001 -6.267628e-001 3.062101e+000 170 128 107
7.618460e-001 -6.267628e-001 3.062101e+000 170 128 107
7.805477e-001 -4.827119e-001 2.990683e+000 19 80 110
7.966268e-001 -5.442444e-001 3.070918e+000 145 29 32
8.000136e-001 -5.460012e-001 3.085757e+000 251 75 77
8.005002e-001 -5.464349e-001 3.085066e+000 251 75 77
7.935905e-001 -5.557180e-001 3.074048e+000 222 74 72
8.011515e-001 -5.481924e-001 3.108156e+000 74 30 18
7.837727e-001 -5.621758e-001 3.051702e+000 211 65 61
7.835761e-001 -5.621151e-001 3.051842e+000 211 65 61
7.865160e-001 -5.633487e-001 3.056910e+000 213 65 58
7.865386e-001 -5.632634e-001 3.056891e+000 213 65 58
7.737546e-001 -5.951579e-001 3.060709e+000 113 81 50
7.747151e-001 -5.965646e-001 3.060300e+000 179 135 95
7.792907e-001 -5.898298e-001 3.073682e+000 185 135 89
7.864670e-001 -5.900882e-001 3.080702e+000 104 31 13
7.908382e-001 -5.860898e-001 3.092875e+000 202 111 37
7.908382e-001 -5.860898e-001 3.092875e+000 202 111 37
7.704208e-001 -6.017589e-001 3.055353e+000 181 125 91
7.737227e-001 -5.989536e-001 3.058502e+000 54 33 14
7.737227e-001 -5.989536e-001 3.058502e+000 54 33 14
7.902342e-001 -5.971012e-001 3.100327e+000 183 150 112
7.845114e-001 -6.031994e-001 3.108913e+000 173 97 35
7.894794e-001 -6.029207e-001 3.117663e+000 175 93 33
7.775841e-001 -6.145124e-001 3.093439e+000 176 132 105
7.686135e-001 -6.247365e-001 3.076422e+000 99 41 35
8.052014e-001 -2.844472e-001 2.886169e+000 190 45 44
7.882562e-001 -4.320272e-001 2.970676e+000 145 148 38
7.982807e-001 -5.396778e-001 3.070171e+000 136 24 33
7.920637e-001 -5.489837e-001 3.060110e+000 137 29 29
7.930548e-001 -5.646917e-001 3.071232e+000 84 46 16
7.916148e-001 -5.645926e-001 3.073595e+000 84 46 16
7.822717e-001 -5.726265e-001 3.052036e+000 84 51 28
7.809252e-001 -5.723555e-001 3.053831e+000 84 51 28
7.810893e-001 -5.761317e-001 3.057874e+000 112 71 49
7.710685e-001 -6.000685e-001 3.054416e+000 145 107 73
7.944075e-001 -5.935419e-001 3.124998e+000 196 106 45
7.861105e-001 -6.035678e-001 3.102971e+000 176 95 27
7.334539e-001 -6.333794e-001 3.092597e+000 133 30 41
4.605296e-001 -3.385030e-001 3.342881e+000 85 70 54
7.800026e-001 -4.851319e-001 2.991304e+000 4 47 68
7.877550e-001 -4.820146e-001 3.001250e+000 15 53 76
8.038688e-001 -5.353612e-001 3.089314e+000 153 23 29
7.778300e-001 -5.612512e-001 3.035792e+000 158 26 32
7.922156e-001 -5.644669e-001 3.072882e+000 77 39 15
7.768865e-001 -5.771072e-001 3.045263e+000 203 126 99
7.844217e-001 -5.720347e-001 3.063486e+000 200 125 90
7.968926e-001 -5.704411e-001 3.098325e+000 113 23 22
4.507816e-001 -3.407145e-001 3.340380e+000 94 81 64
4.557581e-001 -3.392919e-001 3.342785e+000 94 78 62
4.655639e-001 -3.353641e-001 3.348799e+000 107 87 77
4.639363e-001 -3.433656e-001 3.343997e+000 104 86 75
7.862730e-001 -4.791567e-001 2.994094e+000 162 23 31
4.420770e-001 -3.808637e-001 3.359385e+000 39 29 30
7.947811e-001 -5.928835e-001 3.131033e+000 198 95 36
4.621544e-001 -3.340176e-001 3.339475e+000 132 111 84
4.640217e-001 -3.538151e-001 3.349244e+000 126 104 81
4.732478e-001 -3.467576e-001 3.344588e+000 69 58 52
4.600288e-001 -3.607179e-001 3.347706e+000 84 65 58
4.481316e-001 -3.250048e-001 3.346200e+000 69 52 36
7.817366e-001 -5.220642e-001 3.152331e+000 40 30 29
8.091519e-001 -5.575916e-001 3.076095e+000 195 128 83
7.921947e-001 -4.528777e-001 2.995579e+000 193 109 94
7.959962e-001 -4.719650e-001 3.014669e+000 226 146 112
7.945233e-001 -4.773149e-001 3.013913e+000 9 48 71
8.000789e-001 -4.822275e-001 3.032742e+000 6 54 76
8.079019e-001 -4.786874e-001 3.056429e+000 187 119 84
7.685205e-001 -5.216106e-001 2.993144e+000 217 88 86
7.768103e-001 -5.209794e-001 3.004816e+000 191 120 94
8.067158e-001 -5.271305e-001 3.084131e+000 127 27 26
8.067158e-001 -5.271305e-001 3.084131e+000 127 27 26
8.048559e-001 -5.338264e-001 3.081428e+000 139 26 33
8.048559e-001 -5.338264e-001 3.081428e+000 139 26 33
7.742976e-001 -5.507674e-001 3.020091e+000 67 38 24
7.743399e-001 -5.507558e-001 3.020131e+000 67 38 24
7.778068e-001 -5.570401e-001 3.031819e+000 222 75 75
7.827404e-001 -5.530865e-001 3.038198e+000 148 26 33
7.905700e-001 -5.526427e-001 3.057067e+000 245 82 82
7.899223e-001 -5.588519e-001 3.061056e+000 254 81 78
7.741474e-001 -5.688321e-001 3.034228e+000 125 26 31
7.760322e-001 -5.667406e-001 3.035152e+000 126 25 32
7.837466e-001 -5.639273e-001 3.049546e+000 153 31 42
7.868666e-001 -5.624420e-001 3.054664e+000 158 31 38
7.854212e-001 -5.740071e-001 3.063290e+000 195 120 88
7.788267e-001 -5.782082e-001 3.052081e+000 62 28 13
7.837746e-001 -5.872876e-001 3.072888e+000 111 35 10
7.837746e-001 -5.872876e-001 3.072888e+000 111 35 10
7.896203e-001 -5.801101e-001 3.082545e+000 122 43 23
7.928322e-001 -5.844858e-001 3.096732e+000 188 85 38
7.786113e-001 -5.914482e-001 3.065653e+000 164 116 82
7.749934e-001 -5.970683e-001 3.064158e+000 175 123 85
7.749934e-001 -5.970683e-001 3.064158e+000 175 123 85
7.897962e-001 -5.890995e-001 3.094197e+000 218 114 42
7.747139e-001 -6.004575e-001 3.066938e+000 168 120 82
7.738113e-001 -6.152691e-001 3.083377e+000 159 124 103
7.793614e-001 -6.113441e-001 3.093359e+000 16 9 4
7.957334e-001 -6.005233e-001 3.137682e+000 220 104 51
7.641036e-001 -6.227803e-001 3.073394e+000 162 119 98
7.670833e-001 -6.198935e-001 3.077571e+000 169 123 103
7.659222e-001 -6.250747e-001 3.081315e+000 110 47 41
7.749001e-001 -6.185709e-001 3.095368e+000 125 56 38
8.026477e-001 -5.355033e-001 3.075370e+000 212 54 61
8.012574e-001 -5.346583e-001 3.078087e+000 212 54 61
8.048683e-001 -5.323444e-001 3.080945e+000 217 59 63
8.048683e-001 -5.323444e-001 3.080945e+000 217 59 63
7.977309e-001 -5.421914e-001 3.074072e+000 141 31 36
8.038501e-001 -5.371737e-001 3.087054e+000 240 77 84
8.017606e-001 -5.402214e-001 3.081990e+000 221 66 68
7.774051e-001 -5.540344e-001 3.029644e+000 205 90 77
7.859302e-001 -5.509512e-001 3.046642e+000 143 28 28
7.871619e-001 -5.538631e-001 3.053618e+000 213 67 60
7.985750e-001 -5.444639e-001 3.072928e+000 224 72 69
8.031467e-001 -5.436690e-001 3.090308e+000 243 68 77
7.716146e-001 -5.652618e-001 3.025342e+000 209 67 71
7.730635e-001 -5.645627e-001 3.027904e+000 201 51 60
7.810242e-001 -5.636856e-001 3.043544e+000 207 47 51
7.832099e-001 -5.634028e-001 3.045839e+000 238 66 75
7.832099e-001 -5.634028e-001 3.045839e+000 238 66 75
7.814098e-001 -5.646075e-001 3.049194e+000 144 24 29
7.817369e-001 -5.658552e-001 3.050319e+000 238 83 83
7.830218e-001 -5.659125e-001 3.049082e+000 238 83 83
7.889000e-001 -5.614724e-001 3.062965e+000 193 42 44
7.894347e-001 -5.615442e-001 3.062688e+000 193 42 44
7.854563e-001 -5.862161e-001 3.075192e+000 124 39 17
7.955804e-001 -5.794495e-001 3.099492e+000 192 70 26
7.800988e-001 -6.121382e-001 3.100789e+000 166 124 99
8.048152e-001 -4.074926e-001 2.999751e+000 161 154 35
8.021171e-001 -4.516454e-001 3.013160e+000 186 143 111
7.684299e-001 -5.353134e-001 2.997035e+000 165 35 45
8.039648e-001 -5.212174e-001 3.072775e+000 90 49 23
8.027198e-001 -5.276815e-001 3.068116e+000 104 58 28
7.910932e-001 -5.387769e-001 3.047479e+000 96 56 35
7.991523e-001 -5.399148e-001 3.068982e+000 163 23 36
7.802344e-001 -5.543266e-001 3.034526e+000 154 28 39
7.792308e-001 -5.570492e-001 3.036719e+000 147 28 36
7.936184e-001 -5.491424e-001 3.064159e+000 240 69 80
7.704558e-001 -5.669034e-001 3.025239e+000 129 24 34
7.869203e-001 -5.595950e-001 3.058732e+000 217 60 61
7.780653e-001 -5.744805e-001 3.046488e+000 111 60 39
7.976620e-001 -5.832758e-001 3.117952e+000 78 44 29
7.713259e-001 -6.203591e-001 3.085784e+000 91 44 30
7.933778e-001 -3.850177e-001 2.934402e+000 200 145 104
8.042213e-001 -4.071652e-001 2.996231e+000 30 57 8
7.924206e-001 -4.861393e-001 3.018084e+000 21 82 111
7.865292e-001 -5.754492e-001 3.067330e+000 205 118 82
7.766169e-001 -5.862566e-001 3.055780e+000 130 89 59
8.083727e-001 -3.493851e-001 2.961214e+000 30 90 124
8.059845e-001 -4.599595e-001 3.033907e+000 159 27 28
7.774460e-001 -5.393598e-001 3.017136e+000 197 120 98
7.734045e-001 -5.448463e-001 3.015544e+000 194 120 99
7.883267e-001 -4.170855e-001 2.960443e+000 25 51 22
7.853758e-001 -5.444202e-001 3.041577e+000 197 124 91
7.889830e-001 -5.559865e-001 3.059771e+000 171 21 33
7.895153e-001 -5.561276e-001 3.058664e+000 171 21 33
7.958302e-001 -5.312881e-001 3.060696e+000 199 136 93
7.933203e-001 -3.829705e-001 2.928402e+000 158 27 33
8.082834e-001 -3.812872e-001 2.967260e+000 209 134 94
8.099653e-001 -3.827168e-001 2.980530e+000 160 38 36
8.127462e-001 -3.933848e-001 3.005297e+000 33 42 4
7.930759e-001 -4.284628e-001 2.961428e+000 132 138 35
7.930759e-001 -4.284628e-001 2.961428e+000 132 138 35
7.985816e-001 -4.190049e-001 2.982883e+000 90 94 49
8.012703e-001 -4.231298e-001 2.989125e+000 83 100 36
8.012703e-001 -4.231298e-001 2.989125e+000 83 100 36
7.926722e-001 -4.532803e-001 2.994757e+000 188 109 93
8.024566e-001 -4.449101e-001 3.012969e+000 91 28 20
8.033915e-001 -4.438294e-001 3.014983e+000 67 36 22
8.033915e-001 -4.438294e-001 3.014983e+000 67 36 22
8.018571e-001 -4.492779e-001 3.012938e+000 164 129 99
7.920651e-001 -4.726340e-001 3.006058e+000 195 140 98
7.953115e-001 -4.700838e-001 3.010647e+000 198 140 104
7.991304e-001 -4.696096e-001 3.020601e+000 207 137 93
7.998495e-001 -4.685455e-001 3.021472e+000 89 24 15
8.012935e-001 -4.667862e-001 3.023792e+000 195 137 84
8.007174e-001 -4.680814e-001 3.025277e+000 200 127 79
8.018570e-001 -4.669179e-001 3.027838e+000 211 131 93
8.051118e-001 -4.645440e-001 3.032927e+000 216 128 96
8.089183e-001 -4.584943e-001 3.043196e+000 231 138 104
8.081029e-001 -4.596676e-001 3.042856e+000 111 27 23
8.091039e-001 -4.572869e-001 3.046036e+000 218 131 96
7.817742e-001 -4.788456e-001 2.989347e+000 193 145 104
7.841647e-001 -4.777382e-001 2.994284e+000 209 140 98
7.972556e-001 -4.714762e-001 3.016489e+000 194 131 87
7.980005e-001 -4.707783e-001 3.018755e+000 198 133 92
7.981827e-001 -4.707550e-001 3.018762e+000 198 133 92
7.912721e-001 -4.993485e-001 3.021946e+000 172 107 84
7.942307e-001 -4.971715e-001 3.029575e+000 46 15 2
8.077571e-001 -4.834410e-001 3.059689e+000 38 7 3
7.916792e-001 -5.029994e-001 3.025484e+000 180 107 81
7.995825e-001 -5.373197e-001 3.076389e+000 141 27 33
7.786244e-001 -5.558465e-001 3.035145e+000 206 41 46
7.839166e-001 -5.500499e-001 3.042487e+000 215 60 73
7.848214e-001 -5.527914e-001 3.046367e+000 216 69 72
7.925466e-001 -5.449993e-001 3.061550e+000 136 24 30
7.949813e-001 -5.449753e-001 3.068319e+000 121 24 34
7.709980e-001 -5.637517e-001 3.022442e+000 132 23 29
7.787187e-001 -5.782469e-001 3.052097e+000 43 12 5
7.910843e-001 -5.777433e-001 3.085914e+000 97 41 12
7.922484e-001 -5.757937e-001 3.087889e+000 161 96 45
7.927526e-001 -5.781399e-001 3.091943e+000 103 47 8
7.754908e-001 -5.939792e-001 3.058159e+000 170 122 85
7.784242e-001 -5.899473e-001 3.062313e+000 165 116 84
7.755961e-001 -5.949314e-001 3.059846e+000 75 42 19
7.774474e-001 -5.930925e-001 3.062256e+000 163 118 84
7.860530e-001 -5.854066e-001 3.079115e+000 106 24 9
7.886893e-001 -5.830126e-001 3.085929e+000 168 67 28
7.689674e-001 -6.090556e-001 3.055064e+000 20 12 8
7.967255e-001 -5.940020e-001 3.119498e+000 29 14 4
7.869090e-001 -6.050574e-001 3.105877e+000 160 86 33
7.858288e-001 -6.062306e-001 3.104616e+000 165 85 35
7.935523e-001 -5.993632e-001 3.127355e+000 39 15 8
7.665830e-001 -6.230771e-001 3.064745e+000 17 11 8
7.646825e-001 -6.257132e-001 3.063800e+000 169 129 111
7.646825e-001 -6.257132e-001 3.063800e+000 169 129 111
7.670882e-001 -6.240799e-001 3.068908e+000 171 126 107
7.984147e-001 -3.816158e-001 2.934298e+000 168 28 34
7.979202e-001 -3.851018e-001 2.932251e+000 148 31 27
7.979202e-001 -3.851018e-001 2.932251e+000 148 31 27
8.027708e-001 -4.221707e-001 2.992337e+000 141 141 34
8.015313e-001 -4.220937e-001 2.993301e+000 141 141 34
8.082856e-001 -4.788352e-001 3.058938e+000 44 9 4
8.066778e-001 -4.854956e-001 3.055460e+000 50 15 14
7.771344e-001 -5.285380e-001 3.010946e+000 84 45 33
7.816279e-001 -5.350242e-001 3.025229e+000 40 18 14
7.816279e-001 -5.350242e-001 3.025229e+000 40 18 14
7.902533e-001 -5.252326e-001 3.039085e+000 171 110 81
7.761116e-001 -5.421075e-001 3.017572e+000 63 28 25
8.041250e-001 -5.277474e-001 3.081363e+000 178 116 85
7.776160e-001 -5.507296e-001 3.025978e+000 186 106 81
8.020719e-001 -5.332388e-001 3.079757e+000 143 22 30
7.753077e-001 -5.565596e-001 3.026529e+000 131 22 30
7.945924e-001 -5.427158e-001 3.066027e+000 118 15 21
7.967219e-001 -5.431289e-001 3.072667e+000 140 23 36
7.991089e-001 -5.411178e-001 3.075611e+000 135 24 26
7.999767e-001 -5.397107e-001 3.078674e+000 130 21 33
7.999767e-001 -5.397107e-001 3.078674e+000 130 21 33
7.743427e-001 -5.635683e-001 3.030432e+000 213 51 62
7.829361e-001 -5.544624e-001 3.045253e+000 129 23 27
7.859985e-001 -5.533863e-001 3.048862e+000 126 24 27
7.860040e-001 -5.526353e-001 3.051468e+000 127 22 27
7.989962e-001 -5.473159e-001 3.082694e+000 224 60 66
7.818532e-001 -5.647266e-001 3.048445e+000 132 21 28
7.790519e-001 -5.772857e-001 3.054731e+000 103 62 40
7.879813e-001 -5.818330e-001 3.082267e+000 175 63 29
7.796336e-001 -5.975723e-001 3.074529e+000 160 118 83
7.708361e-001 -6.188006e-001 3.074710e+000 27 12 7
7.889723e-001 -6.069328e-001 3.118320e+000 27 7 5
8.106227e-001 -3.481071e-001 2.950418e+000 33 78 99
8.014521e-001 -3.790227e-001 2.949691e+000 161 27 35
8.003298e-001 -3.876508e-001 2.941455e+000 153 34 33
8.007857e-001 -4.044436e-001 2.973047e+000 21 43 24
8.053531e-001 -4.013602e-001 2.979824e+000 145 138 29
8.053531e-001 -4.013602e-001 2.979824e+000 145 138 29
8.002073e-001 -4.077474e-001 2.975485e+000 50 90 84
8.056063e-001 -4.110391e-001 2.999209e+000 58 85 86
7.976942e-001 -4.235129e-001 2.982461e+000 143 135 27
7.975264e-001 -4.549805e-001 3.005128e+000 161 130 107
7.925265e-001 -4.968971e-001 3.020878e+000 175 108 75
8.062046e-001 -4.890554e-001 3.059733e+000 73 34 18
8.059611e-001 -4.934522e-001 3.062048e+000 86 58 38
8.031851e-001 -5.206183e-001 3.073950e+000 71 30 8
7.735948e-001 -5.490659e-001 3.016709e+000 188 105 84
7.873507e-001 -5.397159e-001 3.042337e+000 66 42 24
7.875643e-001 -5.397277e-001 3.042212e+000 66 42 24
8.035201e-001 -5.334901e-001 3.086716e+000 226 82 89
8.035201e-001 -5.334901e-001 3.086716e+000 226 82 89
7.750821e-001 -5.619661e-001 3.031262e+000 120 21 22
7.963612e-001 -4.052703e-001 2.964288e+000 139 133 28
8.069245e-001 -4.085052e-001 3.008857e+000 58 90 91
8.084134e-001 -4.612466e-001 3.046309e+000 136 21 18
7.955975e-001 -4.949896e-001 3.028891e+000 181 108 74
7.955975e-001 -4.949896e-001 3.028891e+000 181 108 74
7.965550e-001 -4.959953e-001 3.031784e+000 176 111 84
8.055344e-001 -4.884101e-001 3.054976e+000 180 107 80
8.058721e-001 -4.871209e-001 3.057538e+000 186 106 70
7.908402e-001 -5.037130e-001 3.023660e+000 170 103 79
7.813378e-001 -5.221470e-001 3.014633e+000 137 94 72
7.813378e-001 -5.221470e-001 3.014633e+000 137 94 72
7.909593e-001 -5.174998e-001 3.033182e+000 72 44 25
7.902765e-001 -5.198473e-001 3.032696e+000 175 105 81
8.027949e-001 -5.155936e-001 3.067312e+000 183 119 77
8.032296e-001 -5.143593e-001 3.069611e+000 183 120 78
8.035876e-001 -5.162664e-001 3.071724e+000 111 63 36
8.035876e-001 -5.162664e-001 3.071724e+000 111 63 36
7.917847e-001 -5.271771e-001 3.042767e+000 177 109 72
7.899933e-001 -5.291138e-001 3.044028e+000 41 18 9
7.905718e-001 -5.292968e-001 3.043714e+000 41 18 9
8.018805e-001 -5.199848e-001 3.069145e+000 184 117 76
8.030397e-001 -5.188701e-001 3.071222e+000 184 119 81
8.025943e-001 -5.233184e-001 3.073281e+000 184 119 79
7.786849e-001 -5.384469e-001 3.021513e+000 181 108 83
7.765334e-001 -5.437463e-001 3.019862e+000 184 109 89
7.768254e-001 -5.442758e-001 3.019342e+000 184 109 89
7.895815e-001 -5.367942e-001 3.044747e+000 182 108 77
7.895815e-001 -5.367942e-001 3.044747e+000 182 108 77
7.749104e-001 -5.534945e-001 3.023351e+000 148 16 36
7.803436e-001 -5.543076e-001 3.034380e+000 138 22 32
7.970056e-001 -4.213022e-001 2.979800e+000 25 48 12
8.056253e-001 -4.135518e-001 3.011109e+000 32 46 21
8.056253e-001 -4.135518e-001 3.011109e+000 32 46 21
7.821403e-001 -5.023700e-001 2.994938e+000 174 113 81
7.982552e-001 -4.027647e-001 2.967278e+000 76 81 19
7.779307e-001 -5.620324e-001 3.038843e+000 145 18 29
7.780737e-001 -5.621697e-001 3.038656e+000 145 18 29
8.023996e-001 -5.629612e-001 3.112186e+000 114 22 22
7.983263e-001 -4.032365e-001 2.964908e+000 45 81 52
7.993829e-001 -4.497424e-001 3.002736e+000 158 130 101
7.728899e-001 -5.235004e-001 2.997023e+000 178 111 92
7.936167e-001 -5.502891e-001 3.070977e+000 150 18 31
7.936167e-001 -5.502891e-001 3.070977e+000 150 18 31
8.027976e-001 -4.153520e-001 2.997653e+000 55 91 87
7.965951e-001 -4.236949e-001 2.975226e+000 22 49 16
8.026413e-001 -4.846552e-001 3.045771e+000 180 105 76
8.033404e-001 -5.169162e-001 3.068750e+000 158 106 71
8.014505e-001 -5.429697e-001 3.090705e+000 191 27 37
8.006287e-001 -4.903845e-001 3.041917e+000 179 106 74
7.951888e-001 -5.941442e-001 3.128741e+000 179 89 36
8.094832e-001 -3.646474e-001 2.917206e+000 16 73 100
7.956570e-001 -4.510160e-001 3.001900e+000 122 43 38
7.976942e-001 -3.777529e-001 2.987001e+000 146 44 35
7.982757e-001 -4.543463e-001 3.005823e+000 160 139 114
7.854549e-001 -4.800033e-001 2.984939e+000 210 139 112
7.939988e-001 -4.740499e-001 3.007784e+000 216 134 102
7.996734e-001 -4.686527e-001 3.021436e+000 115 33 24
8.124264e-001 -4.625794e-001 3.061060e+000 42 75 82
8.085219e-001 -4.838695e-001 3.059350e+000 53 21 17
7.916568e-001 -5.030964e-001 3.025355e+000 181 113 88
7.880097e-001 -5.477866e-001 3.050727e+000 217 57 67
7.890483e-001 -5.484883e-001 3.053987e+000 128 22 27
8.023227e-001 -3.816493e-001 2.943346e+000 194 135 98
7.965565e-001 -4.499389e-001 2.995827e+000 107 17 26
7.976375e-001 -4.513637e-001 2.997483e+000 160 138 114
7.936953e-001 -4.724100e-001 3.007259e+000 207 135 109
8.055057e-001 -4.661696e-001 3.040188e+000 17 68 97
8.067708e-001 -4.855292e-001 3.055470e+000 69 35 15
7.746387e-001 -5.223054e-001 2.989538e+000 161 57 56
7.718538e-001 -5.249268e-001 2.989722e+000 197 68 72
7.755696e-001 -5.347830e-001 3.007092e+000 95 56 44
7.755696e-001 -5.347830e-001 3.007092e+000 95 56 44
7.728176e-001 -5.528906e-001 3.016612e+000 191 116 102
8.015406e-001 -5.306799e-001 3.076477e+000 189 121 86
7.783550e-001 -5.545225e-001 3.033979e+000 145 23 29
7.970852e-001 -5.414543e-001 3.068763e+000 133 30 31
7.724273e-001 -5.601754e-001 3.024200e+000 128 28 34
7.787355e-001 -5.594937e-001 3.038934e+000 139 19 28
7.854728e-001 -5.508956e-001 3.050840e+000 197 56 65
7.854728e-001 -5.508956e-001 3.050840e+000 197 56 65
7.997525e-001 -4.117257e-001 2.962432e+000 144 136 22
8.013916e-001 -4.063877e-001 2.986126e+000 145 141 28
8.064272e-001 -4.172823e-001 3.013304e+000 80 103 79
7.881917e-001 -4.823950e-001 2.993418e+000 24 68 103
7.881712e-001 -4.826451e-001 2.996392e+000 15 49 71
7.763889e-001 -5.117629e-001 2.991065e+000 156 96 89
7.763889e-001 -5.117629e-001 2.991065e+000 156 96 89
7.808290e-001 -5.090015e-001 3.002716e+000 152 93 79
7.808290e-001 -5.090015e-001 3.002716e+000 152 93 79
8.115854e-001 -4.832406e-001 3.070527e+000 188 146 104
7.825829e-001 -5.169860e-001 3.013763e+000 127 76 62
7.825829e-001 -5.169860e-001 3.013763e+000 127 76 62
7.896852e-001 -5.151411e-001 3.032307e+000 186 112 87
7.730945e-001 -5.341448e-001 2.998182e+000 149 45 46
7.892911e-001 -5.196398e-001 3.034739e+000 184 114 87
8.043629e-001 -5.114984e-001 3.069971e+000 134 83 55
7.899702e-001 -5.404170e-001 3.049853e+000 189 112 87
8.032160e-001 -5.246587e-001 3.076108e+000 84 50 28
7.970131e-001 -5.390200e-001 3.071493e+000 139 20 31
8.047423e-001 -4.910481e-001 3.053864e+000 164 95 65
8.065673e-001 -4.918314e-001 3.058810e+000 188 113 84
7.919413e-001 -5.049685e-001 3.030777e+000 185 111 87
8.055837e-001 -5.073014e-001 3.067577e+000 118 76 54
8.040038e-001 -5.095966e-001 3.067393e+000 191 124 78
7.730618e-001 -5.430463e-001 3.011113e+000 187 113 100
7.726873e-001 -5.429237e-001 3.011141e+000 187 113 100
7.743279e-001 -5.449345e-001 3.015131e+000 190 116 100
7.882697e-001 -5.326984e-001 3.041209e+000 187 113 88
7.895494e-001 -5.318275e-001 3.044415e+000 183 114 84
7.641149e-001 -5.570583e-001 2.998976e+000 189 149 135
7.877957e-001 -5.402548e-001 3.047904e+000 194 108 86
7.852609e-001 -5.449930e-001 3.043532e+000 187 111 84
7.865256e-001 -4.821471e-001 2.985255e+000 149 28 32
7.928781e-001 -4.841523e-001 3.012695e+000 20 58 84
7.905672e-001 -5.102581e-001 3.029744e+000 184 115 89
7.905672e-001 -5.102581e-001 3.029744e+000 184 115 89
7.795644e-001 -5.335609e-001 3.020850e+000 182 114 82
7.800200e-001 -5.339588e-001 3.020321e+000 182 114 82
7.723753e-001 -5.466143e-001 3.009455e+000 190 121 103
7.946701e-001 -4.369153e-001 2.980889e+000 27 52 25
7.992741e-001 -4.314383e-001 3.002479e+000 27 51 22
7.992741e-001 -4.314383e-001 3.002479e+000 27 51 22
8.049084e-001 -4.459934e-001 3.016629e+000 152 138 109
8.087811e-001 -4.731119e-001 3.056269e+000 14 52 75
7.711612e-001 -5.405270e-001 3.008312e+000 187 119 103
7.621173e-001 -5.491464e-001 2.999424e+000 83 123 187
7.992972e-001 -3.867861e-001 2.932145e+000 196 139 101
7.992972e-001 -3.867861e-001 2.932145e+000 196 139 101
7.943384e-001 -4.411509e-001 2.971155e+000 142 136 112
7.672490e-001 -5.510449e-001 3.009417e+000 115 24 37
8.011872e-001 -4.409227e-001 3.002819e+000 152 142 117
7.875088e-001 -4.899448e-001 2.979951e+000 27 69 94
7.395244e-001 -3.143179e-001 3.411089e+000 29 18 14
7.395244e-001 -3.143179e-001 3.411089e+000 29 18 14
7.139597e-001 -3.097841e-001 3.419905e+000 206 173 105
7.147536e-001 -3.237371e-001 3.419493e+000 202 168 107
7.187307e-001 -3.277514e-001 3.417660e+000 29 20 15
7.155498e-001 -3.326047e-001 3.420006e+000 197 167 115
7.234079e-001 -3.112361e-001 3.416498e+000 204 174 115
7.933446e-001 -5.781104e-001 3.095942e+000 201 99 34
7.908466e-001 -5.816238e-001 3.088921e+000 174 65 34
7.773290e-001 -5.903483e-001 3.060969e+000 169 122 76
7.832592e-001 -5.865639e-001 3.071315e+000 174 103 57
7.878407e-001 -5.864828e-001 3.085980e+000 188 71 23
7.759906e-001 -5.986556e-001 3.065572e+000 180 124 78
7.815088e-001 -5.948495e-001 3.075603e+000 179 128 78
7.797784e-001 -5.913550e-001 3.067306e+000 174 126 80
7.839192e-001 -5.877298e-001 3.076086e+000 186 88 35
7.847175e-001 -6.094353e-001 3.107143e+000 36 13 1
7.743074e-001 -6.193026e-001 3.087770e+000 101 50 33
4.765504e-001 -3.349114e-001 3.360756e+000 85 67 53
7.834584e-001 -6.129775e-001 3.107316e+000 140 73 29
4.834794e-001 -3.266785e-001 3.358825e+000 123 101 77
4.946200e-001 -3.315290e-001 3.354521e+000 99 80 63
7.809103e-001 -6.100002e-001 3.092985e+000 57 40 23
4.818901e-001 -3.320744e-001 3.357457e+000 109 86 76
4.875729e-001 -3.339987e-001 3.355223e+000 66 50 44
5.025505e-001 -3.310642e-001 3.353517e+000 97 80 62
7.981105e-001 -5.497035e-001 3.079309e+000 225 49 56
7.940346e-001 -5.785690e-001 3.097868e+000 137 53 16
7.829106e-001 -5.899506e-001 3.074444e+000 136 84 48
7.732865e-001 -6.165024e-001 3.080259e+000 24 14 13
7.795075e-001 -6.138979e-001 3.096216e+000 174 128 98
7.750081e-001 -5.672421e-001 3.033916e+000 239 65 72
7.726784e-001 -5.908417e-001 3.049279e+000 190 135 97
7.822379e-001 -5.874023e-001 3.068983e+000 189 133 85
7.936213e-001 -5.783691e-001 3.095603e+000 195 105 34
7.769416e-001 -5.907838e-001 3.059217e+000 183 134 93
7.825986e-001 -5.913228e-001 3.075455e+000 183 130 80
7.846012e-001 -5.908441e-001 3.080691e+000 116 47 11
7.854043e-001 -5.900902e-001 3.082373e+000 104 31 13
7.882177e-001 -5.888521e-001 3.089078e+000 187 83 27
7.883327e-001 -5.888495e-001 3.089059e+000 187 83 27
7.867507e-001 -6.034016e-001 3.105038e+000 173 97 35
7.899749e-001 -6.030407e-001 3.117034e+000 175 93 33
7.810404e-001 -5.804823e-001 3.060039e+000 190 131 89
8.083684e-001 -3.562738e-001 2.959362e+000 104 161 179
8.083684e-001 -3.562738e-001 2.959362e+000 104 161 179
8.028074e-001 -5.379226e-001 3.082218e+000 143 30 32
7.968355e-001 -5.451533e-001 3.072680e+000 235 72 75
7.880691e-001 -5.800418e-001 3.079632e+000 180 60 32
7.830499e-001 -5.865971e-001 3.071405e+000 172 97 65
7.962608e-001 -5.777172e-001 3.100289e+000 118 33 10
7.871173e-001 -5.878031e-001 3.083854e+000 196 83 30
7.871173e-001 -5.878031e-001 3.083854e+000 196 83 30
7.763846e-001 -5.997844e-001 3.068619e+000 163 115 77
7.967753e-001 -5.904393e-001 3.122967e+000 106 66 43
7.685425e-001 -6.201452e-001 3.075111e+000 169 123 103
7.745913e-001 -6.197377e-001 3.092274e+000 120 52 41
7.972860e-001 -5.512839e-001 3.076658e+000 224 61 66
7.971815e-001 -5.511402e-001 3.076683e+000 224 61 66
7.766100e-001 -5.676756e-001 3.038412e+000 141 32 36
7.902722e-001 -5.821873e-001 3.086887e+000 186 68 36
7.944795e-001 -5.811598e-001 3.099226e+000 110 40 23
7.815280e-001 -6.149589e-001 3.102515e+000 133 68 30
7.650215e-001 -6.251574e-001 3.074152e+000 84 27 30
8.125290e-001 -4.220232e-001 3.037959e+000 154 141 99
7.974740e-001 -4.665056e-001 3.014169e+000 131 21 19
7.998473e-001 -4.672327e-001 3.022351e+000 219 127 90
7.998866e-001 -4.741242e-001 3.026506e+000 22 60 78
8.052182e-001 -4.900750e-001 3.055988e+000 175 109 77
7.967823e-001 -5.394527e-001 3.068461e+000 221 56 69
8.000818e-001 -5.364301e-001 3.074899e+000 239 81 82
7.902804e-001 -5.586160e-001 3.065592e+000 131 18 26
7.905104e-001 -5.784409e-001 3.085175e+000 223 117 61
7.905104e-001 -5.784409e-001 3.085175e+000 223 117 61
7.931817e-001 -5.767545e-001 3.092236e+000 176 92 28
7.744554e-001 -5.953103e-001 3.058529e+000 85 53 31
7.854427e-001 -5.867376e-001 3.078875e+000 174 63 37
7.860476e-001 -5.853968e-001 3.079187e+000 106 24 9
7.701384e-001 -6.079892e-001 3.059088e+000 33 21 16
7.935399e-001 -5.928740e-001 3.110937e+000 189 128 98
7.915645e-001 -5.994034e-001 3.112811e+000 176 88 32
7.877706e-001 -6.071456e-001 3.112155e+000 31 11 4
7.945021e-001 -5.996013e-001 3.126541e+000 39 15 8
8.040748e-001 -4.705294e-001 3.037898e+000 23 60 78
8.022900e-001 -5.391463e-001 3.085303e+000 143 23 32
7.942519e-001 -5.537331e-001 3.072974e+000 134 19 27
7.704957e-001 -6.236145e-001 3.078736e+000 86 42 28
7.872643e-001 -6.089008e-001 3.113306e+000 40 6 0
8.014715e-001 -5.228064e-001 3.068573e+000 166 109 75
7.777080e-001 -5.534232e-001 3.031262e+000 225 89 93
7.857997e-001 -5.613786e-001 3.057497e+000 128 25 29
7.922835e-001 -5.576900e-001 3.070243e+000 224 79 90
7.913202e-001 -5.644395e-001 3.073673e+000 66 37 21
7.747761e-001 -5.781225e-001 3.044099e+000 186 107 83
7.846643e-001 -5.732753e-001 3.065480e+000 80 32 21
7.722330e-001 -5.985192e-001 3.055483e+000 167 117 83
7.964194e-001 -5.902531e-001 3.114497e+000 188 147 110
7.698005e-001 -6.010264e-001 3.051360e+000 73 41 18
7.698596e-001 -6.010213e-001 3.051530e+000 73 41 18
7.561693e-001 -6.359261e-001 3.053449e+000 132 29 43
7.966314e-001 -5.555599e-001 3.084238e+000 187 117 81
7.597049e-001 -6.007919e-001 3.033407e+000 51 19 20
8.041154e-001 -4.154771e-001 2.995798e+000 55 91 87
7.737194e-001 -6.184972e-001 3.082143e+000 155 123 97
7.991905e-001 -5.565335e-001 3.095190e+000 187 120 78
7.986376e-001 -3.868843e-001 2.943397e+000 137 39 32
7.994737e-001 -4.462812e-001 3.008729e+000 85 38 23
8.078412e-001 -4.593557e-001 3.043513e+000 115 26 28
8.099056e-001 -4.578439e-001 3.049333e+000 230 125 103
8.098074e-001 -4.578003e-001 3.049413e+000 230 125 103
8.122936e-001 -4.560530e-001 3.059093e+000 60 41 42
8.066109e-001 -4.805700e-001 3.054931e+000 42 8 1
7.996058e-001 -5.373239e-001 3.076449e+000 129 25 31
7.998477e-001 -5.387011e-001 3.077105e+000 230 70 77
8.049147e-001 -5.318644e-001 3.085481e+000 139 28 27
7.761378e-001 -5.672493e-001 3.039317e+000 124 18 30
7.872682e-001 -5.585764e-001 3.061023e+000 142 14 26
7.884311e-001 -5.584046e-001 3.062061e+000 248 72 82
7.929215e-001 -5.546395e-001 3.069578e+000 201 53 55
7.997520e-001 -5.487690e-001 3.083798e+000 156 20 32
7.769470e-001 -5.785476e-001 3.051090e+000 91 52 40
7.821711e-001 -5.754364e-001 3.060291e+000 99 57 40
7.822181e-001 -5.754299e-001 3.060359e+000 99 57 40
7.788961e-001 -5.897990e-001 3.066046e+000 131 88 58
7.805473e-001 -5.887863e-001 3.068312e+000 100 65 42
7.892922e-001 -5.809036e-001 3.084155e+000 181 61 39
7.894925e-001 -5.819790e-001 3.085404e+000 128 39 24
7.935101e-001 -5.769596e-001 3.091977e+000 187 93 31
7.942805e-001 -5.764037e-001 3.092935e+000 182 87 36
7.738576e-001 -5.990581e-001 3.061912e+000 183 128 88
7.810395e-001 -5.912012e-001 3.071155e+000 113 74 43
7.909993e-001 -5.864074e-001 3.094280e+000 192 107 44
7.694475e-001 -6.074606e-001 3.059734e+000 21 10 6
7.837006e-001 -5.982914e-001 3.085730e+000 27 13 8
7.976220e-001 -5.866668e-001 3.115772e+000 198 149 111
7.985039e-001 -5.866698e-001 3.116707e+000 32 25 22
7.982557e-001 -5.896177e-001 3.117894e+000 184 139 107
7.903210e-001 -5.966910e-001 3.103168e+000 103 75 54
7.903210e-001 -5.966910e-001 3.103168e+000 103 75 54
7.677935e-001 -6.228416e-001 3.071286e+000 167 126 108
7.677935e-001 -6.228416e-001 3.071286e+000 167 126 108
7.782506e-001 -6.139223e-001 3.091787e+000 173 126 104
7.907258e-001 -6.034395e-001 3.113172e+000 110 54 18
7.888421e-001 -6.062525e-001 3.110525e+000 165 85 28
7.939750e-001 -6.014879e-001 3.123330e+000 55 22 12
7.945584e-001 -6.026842e-001 3.128092e+000 43 9 6
7.966773e-001 -6.000804e-001 3.130140e+000 180 77 39
7.958712e-001 -4.576286e-001 3.001972e+000 167 137 113
7.735783e-001 -5.314946e-001 2.996758e+000 165 84 72
7.860497e-001 -5.489362e-001 3.047573e+000 217 59 65
8.033833e-001 -5.344223e-001 3.081454e+000 136 24 32
7.711802e-001 -5.654116e-001 3.022905e+000 201 57 64
7.737162e-001 -5.630405e-001 3.027168e+000 134 24 35
7.734132e-001 -5.628859e-001 3.027089e+000 134 24 35
7.727434e-001 -5.642612e-001 3.028225e+000 205 61 74
7.757273e-001 -5.622615e-001 3.035395e+000 228 62 77
7.864210e-001 -5.535660e-001 3.053842e+000 201 54 60
7.914059e-001 -5.500839e-001 3.062262e+000 208 57 60
7.969781e-001 -5.450262e-001 3.072643e+000 220 68 70
7.964910e-001 -5.447728e-001 3.073033e+000 220 68 70
8.037082e-001 -5.377523e-001 3.085093e+000 210 64 68
8.037082e-001 -5.377523e-001 3.085093e+000 210 64 68
7.749973e-001 -5.674491e-001 3.036589e+000 140 25 29
7.775119e-001 -5.667267e-001 3.041852e+000 142 25 37
7.867922e-001 -5.610555e-001 3.059214e+000 142 22 35
7.939757e-001 -5.559581e-001 3.073785e+000 236 65 71
7.903675e-001 -5.594292e-001 3.067221e+000 205 70 72
7.796275e-001 -5.767145e-001 3.056371e+000 184 112 89
7.895273e-001 -5.699105e-001 3.074092e+000 108 60 38
7.822248e-001 -5.790682e-001 3.064785e+000 156 82 48
7.966848e-001 -5.731020e-001 3.095678e+000 186 52 35
7.810817e-001 -5.950129e-001 3.075707e+000 177 119 81
7.844601e-001 -5.941553e-001 3.083286e+000 185 95 55
7.870118e-001 -5.881153e-001 3.083706e+000 182 73 34
7.971698e-001 -5.797909e-001 3.102752e+000 107 33 24
7.729755e-001 -6.057480e-001 3.065860e+000 22 12 7
7.699840e-001 -6.177480e-001 3.072887e+000 147 113 105
7.748251e-001 -6.201444e-001 3.083096e+000 175 126 105
7.732758e-001 -6.185145e-001 3.083605e+000 175 126 105
7.799985e-001 -6.143065e-001 3.095770e+000 188 124 107
7.861663e-001 -6.086199e-001 3.105047e+000 160 85 30
7.742525e-001 -6.215237e-001 3.088507e+000 141 76 56
7.998243e-001 -4.076982e-001 2.975711e+000 57 93 90
7.926170e-001 -4.395431e-001 2.967452e+000 149 140 29
7.918535e-001 -5.028947e-001 3.027082e+000 104 67 55
7.915404e-001 -5.024923e-001 3.027767e+000 104 67 55
7.933782e-001 -5.414278e-001 3.063928e+000 208 61 68
8.016787e-001 -5.374141e-001 3.079495e+000 207 66 66
7.800804e-001 -5.660535e-001 3.048193e+000 204 61 69
7.958065e-001 -5.513582e-001 3.075482e+000 238 73 81
7.958065e-001 -5.513582e-001 3.075482e+000 238 73 81
7.966280e-001 -5.580122e-001 3.085615e+000 190 127 86
7.966280e-001 -5.580122e-001 3.085615e+000 190 127 86
7.814230e-001 -5.734756e-001 3.057778e+000 191 110 94
7.847741e-001 -5.694474e-001 3.061993e+000 99 46 30
7.790541e-001 -5.909797e-001 3.067790e+000 173 120 80
7.995637e-001 -5.830590e-001 3.117816e+000 69 40 19
7.887795e-001 -4.794567e-001 2.995512e+000 153 19 29
8.090333e-001 -4.816309e-001 3.062187e+000 158 94 66
8.090333e-001 -4.816309e-001 3.062187e+000 158 94 66
7.896082e-001 -5.082093e-001 3.026582e+000 177 106 75
7.803348e-001 -5.250229e-001 3.015005e+000 183 112 92
7.872987e-001 -5.353355e-001 3.040317e+000 162 91 67
7.912474e-001 -5.290690e-001 3.045902e+000 58 26 12
7.809676e-001 -5.723421e-001 3.053499e+000 80 39 23
7.908674e-001 -5.991748e-001 3.106322e+000 184 141 115
7.714343e-001 -6.204231e-001 3.079497e+000 170 127 102
7.682434e-001 -5.727608e-001 3.025451e+000 154 21 40
7.970329e-001 -5.471519e-001 3.076002e+000 157 19 33
7.974802e-001 -5.474237e-001 3.075591e+000 157 19 33
8.107195e-001 -4.197244e-001 3.023321e+000 106 119 100
8.107195e-001 -4.197244e-001 3.023321e+000 106 119 100
8.032152e-001 -5.623729e-001 3.112705e+000 125 21 28
7.959416e-001 -4.192740e-001 2.958877e+000 105 120 116
8.048408e-001 -4.157107e-001 2.995138e+000 59 98 104
8.012045e-001 -5.707383e-001 3.119627e+000 196 103 26
7.944989e-001 -4.243283e-001 2.945063e+000 138 147 38
7.889125e-001 -4.755142e-001 2.998081e+000 116 34 27
8.036121e-001 -4.635164e-001 3.031341e+000 220 140 102
8.069835e-001 -4.586436e-001 3.041214e+000 127 28 28
8.099191e-001 -4.562280e-001 3.048525e+000 215 136 106
7.988849e-001 -4.683582e-001 3.022125e+000 100 24 22
7.729099e-001 -5.276951e-001 2.992867e+000 202 99 92
7.795606e-001 -5.267614e-001 3.016561e+000 93 54 42
7.822183e-001 -5.303103e-001 3.024046e+000 75 44 38
7.876072e-001 -5.342166e-001 3.042530e+000 177 115 91
7.795512e-001 -5.521015e-001 3.035054e+000 144 26 37
7.880702e-001 -5.469424e-001 3.052750e+000 134 24 29
7.880702e-001 -5.469424e-001 3.052750e+000 134 24 29
7.964929e-001 -5.397338e-001 3.071665e+000 131 24 29
7.744734e-001 -5.601527e-001 3.030108e+000 192 42 53
8.032226e-001 -5.376168e-001 3.087349e+000 146 25 34
7.844068e-001 -5.623629e-001 3.058401e+000 229 62 74
7.876173e-001 -5.578389e-001 3.062519e+000 236 73 75
7.911169e-001 -5.565367e-001 3.069168e+000 125 27 27
8.008085e-001 -5.473105e-001 3.086004e+000 153 24 34
7.845131e-001 -5.808707e-001 3.073199e+000 102 24 12
7.771288e-001 -5.911390e-001 3.062339e+000 107 75 52
7.948664e-001 -5.793391e-001 3.096808e+000 114 29 9
7.966285e-001 -5.793306e-001 3.101319e+000 193 76 34
7.756835e-001 -6.038717e-001 3.071074e+000 22 13 4
7.886061e-001 -5.977264e-001 3.098580e+000 188 145 114
7.990871e-001 -5.872851e-001 3.116499e+000 28 17 19
7.644233e-001 -6.250266e-001 3.064118e+000 182 149 133
7.935005e-001 -5.934459e-001 3.108166e+000 15 3 4
7.929652e-001 -5.965284e-001 3.109866e+000 25 12 11
7.621136e-001 -6.280139e-001 3.062565e+000 196 152 139
7.942967e-001 -6.008213e-001 3.125441e+000 166 90 41
7.967039e-001 -5.977497e-001 3.128066e+000 56 19 15
7.951426e-001 -5.995664e-001 3.126480e+000 45 12 12
7.851887e-001 -6.115188e-001 3.108107e+000 40 14 6
7.888507e-001 -6.061103e-001 3.118729e+000 45 19 9
7.947241e-001 -3.820327e-001 2.932218e+000 163 33 38
8.033890e-001 -3.859268e-001 2.961706e+000 205 137 114
8.010451e-001 -4.063341e-001 2.986429e+000 136 135 30
8.007232e-001 -4.219183e-001 2.993810e+000 136 148 41
7.982936e-001 -4.734444e-001 3.023237e+000 20 68 98
8.101582e-001 -4.608644e-001 3.052203e+000 20 69 99
7.945560e-001 -4.925549e-001 3.028628e+000 94 57 40
7.785892e-001 -5.158021e-001 3.000471e+000 89 49 37
7.814873e-001 -5.378046e-001 3.031363e+000 88 52 41
7.719644e-001 -5.629570e-001 3.020872e+000 227 74 85
7.784252e-001 -5.529431e-001 3.033187e+000 217 75 79
8.055971e-001 -5.299630e-001 3.085326e+000 211 43 53
7.727683e-001 -5.641792e-001 3.024284e+000 147 30 39
7.723157e-001 -5.638116e-001 3.024514e+000 147 30 39
7.719590e-001 -5.644620e-001 3.026619e+000 218 71 80
7.795485e-001 -5.577678e-001 3.039715e+000 195 57 66
7.810599e-001 -5.569381e-001 3.042673e+000 170 43 48
7.849928e-001 -5.531021e-001 3.049381e+000 137 24 33
7.780260e-001 -5.678898e-001 3.043702e+000 180 44 46
7.778136e-001 -5.677198e-001 3.043711e+000 180 44 46
7.941925e-001 -5.537926e-001 3.075146e+000 149 24 34
7.851330e-001 -5.736671e-001 3.065036e+000 78 46 30
7.908847e-001 -5.658073e-001 3.075814e+000 182 130 92
7.948810e-001 -5.643112e-001 3.084765e+000 132 91 70
7.948810e-001 -5.643112e-001 3.084765e+000 132 91 70
7.896542e-001 -5.780164e-001 3.083104e+000 227 125 76
7.759527e-001 -5.934194e-001 3.060885e+000 168 124 91
7.803436e-001 -5.899115e-001 3.070077e+000 166 120 94
7.820214e-001 -5.894473e-001 3.072507e+000 172 115 90
7.932604e-001 -5.842878e-001 3.097550e+000 182 76 41
7.876036e-001 -5.960627e-001 3.093602e+000 212 135 87
7.871981e-001 -5.953378e-001 3.094173e+000 212 135 87
7.865473e-001 -6.039624e-001 3.102559e+000 172 89 31
7.712316e-001 -6.224707e-001 3.073821e+000 174 137 118
7.889931e-001 -6.066391e-001 3.116358e+000 153 80 35
7.875178e-001 -6.086903e-001 3.113642e+000 36 13 4
7.986815e-001 -4.241976e-001 2.989878e+000 148 147 54
7.986815e-001 -4.241976e-001 2.989878e+000 148 147 54
7.910617e-001 -5.043252e-001 3.029293e+000 184 117 90
8.062124e-001 -4.884658e-001 3.060681e+000 72 42 30
8.062124e-001 -4.884658e-001 3.060681e+000 72 42 30
7.751696e-001 -5.244678e-001 2.989639e+000 174 76 73
7.789832e-001 -5.275391e-001 3.014025e+000 88 51 34
7.793123e-001 -5.277989e-001 3.013525e+000 88 51 34
7.821382e-001 -5.255185e-001 3.021170e+000 80 43 25
8.045860e-001 -5.065197e-001 3.068723e+000 82 49 30
7.798435e-001 -5.352050e-001 3.024459e+000 60 29 18
7.867888e-001 -5.349310e-001 3.040712e+000 153 95 76
7.906146e-001 -5.286259e-001 3.046316e+000 61 35 27
8.039460e-001 -5.206250e-001 3.073872e+000 36 16 2
7.864223e-001 -5.392898e-001 3.042965e+000 78 44 29
8.007658e-001 -5.278673e-001 3.073327e+000 190 126 84
7.794407e-001 -5.539520e-001 3.035586e+000 136 24 30
7.794407e-001 -5.539520e-001 3.035586e+000 136 24 30
7.809596e-001 -5.515842e-001 3.038527e+000 142 26 23
7.997525e-001 -5.325088e-001 3.072422e+000 186 123 88
7.772155e-001 -5.743999e-001 3.047153e+000 90 63 40
7.826654e-001 -5.739007e-001 3.062842e+000 165 103 91
8.067402e-001 -5.632212e-001 3.116813e+000 151 66 41
7.798758e-001 -6.008257e-001 3.077125e+000 185 144 111
7.820191e-001 -5.987050e-001 3.082144e+000 188 143 105
7.912726e-001 -5.948800e-001 3.103343e+000 194 150 120
8.011725e-001 -5.826287e-001 3.121010e+000 31 10 17
8.018945e-001 -5.838304e-001 3.120654e+000 31 10 17
7.886303e-001 -6.089883e-001 3.118411e+000 141 69 35
7.931388e-001 -4.290180e-001 2.963031e+000 124 130 56
7.931388e-001 -4.290180e-001 2.963031e+000 124 130 56
8.012180e-001 -4.181999e-001 3.001307e+000 153 148 32
8.012180e-001 -4.181999e-001 3.001307e+000 153 148 32
7.830646e-001 -4.904178e-001 2.972625e+000 14 51 83
7.819103e-001 -4.829099e-001 2.981129e+000 150 24 35
8.025003e-001 -4.656794e-001 3.035711e+000 145 24 30
7.945241e-001 -4.946594e-001 3.029668e+000 182 116 87
7.952899e-001 -4.957016e-001 3.032587e+000 184 108 82
7.797873e-001 -5.126162e-001 3.001267e+000 190 123 102
7.878529e-001 -5.213025e-001 3.034677e+000 91 45 38
8.032076e-001 -5.108760e-001 3.065606e+000 188 124 86
8.022820e-001 -5.150309e-001 3.067690e+000 187 126 94
7.763777e-001 -5.414895e-001 3.012327e+000 191 119 103
7.875179e-001 -5.303258e-001 3.039342e+000 175 104 91
7.875179e-001 -5.303258e-001 3.039342e+000 175 104 91
8.025576e-001 -5.197142e-001 3.069218e+000 188 124 91
7.878281e-001 -5.726892e-001 3.073374e+000 187 119 84
7.698217e-001 -6.040210e-001 3.052719e+000 187 146 111
7.941662e-001 -5.974358e-001 3.114057e+000 175 93 32
8.039082e-001 -5.817459e-001 3.130633e+000 199 149 121
7.921461e-001 -4.368013e-001 2.948715e+000 28 52 31
7.931633e-001 -4.731411e-001 3.005103e+000 121 43 34
7.828626e-001 -5.816131e-001 3.069737e+000 162 53 31
7.990600e-001 -4.039560e-001 2.972148e+000 25 51 23
8.000057e-001 -4.223345e-001 2.990650e+000 75 105 50
8.000057e-001 -4.223345e-001 2.990650e+000 75 105 50
7.858011e-001 -4.818799e-001 2.974176e+000 207 129 112
7.924277e-001 -4.895087e-001 3.016930e+000 11 53 82
8.069783e-001 -5.475938e-001 3.105744e+000 74 19 20
7.947391e-001 -4.049651e-001 2.939979e+000 114 128 111
7.947391e-001 -4.049651e-001 2.939979e+000 114 128 111
7.901387e-001 -4.145757e-001 2.951391e+000 118 132 109
7.878897e-001 -5.126878e-001 3.024236e+000 181 115 91
7.887464e-001 -5.451331e-001 3.053151e+000 134 22 25
8.105254e-001 -5.280101e-001 3.095710e+000 46 14 17
8.012448e-001 -5.695180e-001 3.108640e+000 191 93 30
8.063901e-001 -4.733801e-001 3.051384e+000 13 58 90
7.756253e-001 -5.311094e-001 2.991591e+000 150 42 46
8.098610e-001 -3.979471e-001 2.874493e+000 155 155 155
8.133159e-001 -4.192219e-001 3.012706e+000 28 52 20
8.112861e-001 -5.068587e-001 3.083775e+000 175 134 90
8.396640e-001 -3.804242e-001 2.973735e+000 11 73 110
7.915286e-001 -5.785031e-001 3.087529e+000 191 110 38
7.930676e-001 -5.767237e-001 3.090985e+000 187 96 26
7.761140e-001 -5.936593e-001 3.060802e+000 163 113 64
7.804904e-001 -5.884576e-001 3.066131e+000 177 123 75
7.812103e-001 -5.901080e-001 3.069788e+000 172 120 78
7.822955e-001 -5.939300e-001 3.076705e+000 182 121 67
7.739471e-001 -6.001111e-001 3.059843e+000 170 124 68
7.834140e-001 -5.974211e-001 3.084352e+000 204 151 87
7.913846e-001 -6.030911e-001 3.120296e+000 56 21 6
7.919387e-001 -6.030070e-001 3.122931e+000 185 93 39
7.867586e-001 -5.903227e-001 3.085152e+000 180 73 31
7.882122e-001 -5.691085e-001 3.070697e+000 184 121 76
7.941854e-001 -5.873936e-001 3.107909e+000 191 98 31
9.051462e-001 -3.422579e-001 3.398804e+000 148 118 80
8.781990e-001 -3.270211e-001 3.411393e+000 175 145 56
8.781990e-001 -3.270211e-001 3.411393e+000 175 145 56
8.716218e-001 -3.207965e-001 3.413953e+000 194 165 87
8.753715e-001 -3.242848e-001 3.411909e+000 97 76 35
9.043761e-001 -3.562663e-001 3.397141e+000 96 68 47
8.982180e-001 -3.496933e-001 3.397275e+000 67 44 30
8.850469e-001 -3.203201e-001 3.407780e+000 194 163 117
8.948693e-001 -3.189836e-001 3.404816e+000 34 24 23
8.948693e-001 -3.189836e-001 3.404816e+000 34 24 23
7.930681e-001 -5.767630e-001 3.090577e+000 190 100 27
7.916052e-001 -5.816666e-001 3.091792e+000 127 65 15
7.956023e-001 -5.774505e-001 3.100487e+000 132 36 3
7.740799e-001 -5.924072e-001 3.054741e+000 173 129 80
7.758444e-001 -5.915210e-001 3.057310e+000 175 126 79
7.808323e-001 -5.857569e-001 3.065324e+000 175 126 79
7.749434e-001 -6.000367e-001 3.064459e+000 90 66 46
7.846095e-001 -5.920353e-001 3.081996e+000 210 102 37
7.871254e-001 -5.972368e-001 3.095151e+000 170 82 38
7.933413e-001 -5.915932e-001 3.109478e+000 220 153 101
7.929943e-001 -5.928087e-001 3.108441e+000 18 7 9
7.695657e-001 -6.046592e-001 3.054099e+000 172 127 87
7.755552e-001 -6.006698e-001 3.065976e+000 178 131 87
7.878634e-001 -5.997459e-001 3.102387e+000 27 20 10
7.708707e-001 -6.187611e-001 3.074920e+000 20 10 3
7.707682e-001 -6.199513e-001 3.076356e+000 176 133 100
7.825243e-001 -5.844492e-001 3.068490e+000 181 118 66
7.923642e-001 -5.797932e-001 3.092196e+000 192 119 35
