ply
format ascii 1.0
element face 0
property list uchar int vertex_indices
element vertex 894
property float x
property float y
property float z
property uchar diffuse_red
property uchar diffuse_green
property uchar diffuse_blue
end_header
8.293299e-001 -5.534977e-001 3.113116e+000 151 31 36
8.290109e-001 -5.635119e-001 3.124494e+000 107 62 45
8.195134e-001 -5.825731e-001 3.118749e+000 168 134 99
8.152508e-001 -5.890609e-001 3.112993e+000 75 50 30
8.265305e-001 -5.787251e-001 3.134846e+000 139 55 18
8.282296e-001 -5.783584e-001 3.137383e+000 128 49 19
8.327954e-001 -5.739294e-001 3.143925e+000 185 77 36
8.152313e-001 -5.956949e-001 3.121226e+000 20 10 5
8.213958e-001 -5.884039e-001 3.129264e+000 177 137 102
8.395644e-001 -5.832335e-001 3.171969e+000 176 141 117
8.326921e-001 -5.925189e-001 3.165664e+000 170 94 37
8.316808e-001 -5.930756e-001 3.166175e+000 106 55 15
8.339726e-001 -5.935985e-001 3.176409e+000 40 16 12
8.372862e-001 -5.907120e-001 3.182001e+000 180 80 36
9.860415e-001 -2.998760e-001 2.821238e+000 229 202 209
8.654516e-001 -3.812287e-001 3.004563e+000 239 150 120
8.569611e-001 -3.998493e-001 3.002380e+000 154 144 45
8.569611e-001 -3.998493e-001 3.002380e+000 154 144 45
8.720840e-001 -3.859513e-001 3.048380e+000 21 73 81
8.681261e-001 -4.023226e-001 3.069556e+000 141 141 37
8.672244e-001 -4.015444e-001 3.070443e+000 141 141 37
8.774928e-001 -4.630803e-001 3.034212e+000 169 159 134
8.531980e-001 -4.473642e-001 3.060299e+000 169 159 134
8.425718e-001 -4.771184e-001 3.057534e+000 13 59 89
8.333780e-001 -5.223668e-001 3.085582e+000 119 75 58
8.250584e-001 -5.399669e-001 3.084821e+000 146 92 76
8.230186e-001 -5.478886e-001 3.088040e+000 217 74 82
8.237762e-001 -5.493581e-001 3.086876e+000 217 74 82
8.199280e-001 -5.533862e-001 3.080765e+000 217 78 85
8.249787e-001 -5.485717e-001 3.090322e+000 217 73 75
8.229820e-001 -5.538728e-001 3.092454e+000 231 65 78
8.265222e-001 -5.456872e-001 3.096310e+000 237 76 87
8.260781e-001 -5.490544e-001 3.097406e+000 217 72 77
8.337281e-001 -5.415565e-001 3.112692e+000 217 69 70
8.340476e-001 -5.424315e-001 3.112102e+000 217 69 70
8.385936e-001 -5.359279e-001 3.121996e+000 151 32 42
8.459579e-001 -5.337255e-001 3.136059e+000 151 37 36
8.456273e-001 -5.333109e-001 3.136402e+000 151 37 36
8.193709e-001 -5.610596e-001 3.087608e+000 155 40 47
8.202990e-001 -5.594687e-001 3.091633e+000 149 33 44
8.224093e-001 -5.593364e-001 3.097972e+000 207 70 76
8.235748e-001 -5.553021e-001 3.099769e+000 219 68 72
8.265439e-001 -5.554877e-001 3.106717e+000 153 36 45
8.297755e-001 -5.513874e-001 3.113339e+000 229 75 75
8.282631e-001 -5.544531e-001 3.113458e+000 239 79 83
8.282631e-001 -5.544531e-001 3.113458e+000 239 79 83
8.307295e-001 -5.534890e-001 3.117751e+000 227 71 74
8.311042e-001 -5.501918e-001 3.119627e+000 154 30 38
8.317769e-001 -5.520333e-001 3.120860e+000 200 56 57
8.339771e-001 -5.506038e-001 3.124899e+000 233 80 80
8.544368e-001 -5.386490e-001 3.160615e+000 163 106 38
8.223311e-001 -5.695723e-001 3.110810e+000 196 130 107
8.213732e-001 -5.797166e-001 3.119439e+000 179 137 102
8.227495e-001 -5.831815e-001 3.127598e+000 188 140 99
8.142811e-001 -6.118834e-001 3.138786e+000 112 60 40
8.191145e-001 -6.059197e-001 3.146358e+000 175 139 120
8.206810e-001 -6.055435e-001 3.149257e+000 178 146 126
8.274209e-001 -6.000104e-001 3.166659e+000 37 12 4
8.336254e-001 -5.954266e-001 3.179203e+000 173 91 45
8.352599e-001 -5.984920e-001 3.178348e+000 173 91 45
8.355215e-001 -5.934404e-001 3.182841e+000 42 10 9
1.214717e+000 -2.647096e-001 2.757845e+000 101 68 52
8.658444e-001 -4.133062e-001 3.076529e+000 164 153 28
8.497764e-001 -4.552151e-001 3.055871e+000 153 138 125
8.535850e-001 -4.507959e-001 3.073146e+000 148 114 102
8.406456e-001 -4.786367e-001 3.047817e+000 21 84 128
8.568291e-001 -4.667401e-001 3.092610e+000 19 82 123
8.612250e-001 -4.603603e-001 3.108794e+000 16 78 114
8.263838e-001 -5.224354e-001 3.052162e+000 155 55 57
8.299297e-001 -5.142384e-001 3.059339e+000 112 71 59
8.361098e-001 -5.078592e-001 3.077288e+000 198 130 107
8.402382e-001 -5.018684e-001 3.086200e+000 181 117 98
8.498862e-001 -5.080387e-001 3.123915e+000 79 40 21
8.355936e-001 -5.402753e-001 3.118852e+000 149 29 37
8.497505e-001 -5.309280e-001 3.145246e+000 230 83 79
8.362411e-001 -5.500503e-001 3.127272e+000 206 78 69
8.260995e-001 -5.636847e-001 3.116829e+000 211 132 109
8.135352e-001 -5.971983e-001 3.117444e+000 96 81 73
8.155229e-001 -5.952345e-001 3.119165e+000 188 150 115
8.238870e-001 -5.899418e-001 3.136842e+000 209 163 126
8.110829e-001 -6.106059e-001 3.125624e+000 88 68 60
8.138588e-001 -6.123725e-001 3.136965e+000 112 62 40
8.277107e-001 -6.011710e-001 3.160302e+000 172 97 28
9.872377e-001 -3.041277e-001 2.822665e+000 32 26 28
8.534007e-001 -4.907916e-001 3.116587e+000 170 111 80
8.534007e-001 -4.907916e-001 3.116587e+000 170 111 80
8.264013e-001 -5.287668e-001 3.068752e+000 203 135 117
8.511234e-001 -5.086964e-001 3.128370e+000 200 145 107
8.511234e-001 -5.086964e-001 3.128370e+000 200 145 107
8.159915e-001 -5.639322e-001 3.082558e+000 160 32 42
8.328774e-001 -5.679309e-001 3.137603e+000 160 94 46
8.468400e-001 -5.622937e-001 3.165138e+000 186 98 27
8.870741e-001 -3.490629e-001 2.887405e+000 103 93 83
8.613047e-001 -4.052051e-001 3.029540e+000 25 56 28
8.475856e-001 -4.702090e-001 3.071681e+000 162 28 36
8.461678e-001 -4.782290e-001 3.077718e+000 3 56 91
8.554997e-001 -4.884509e-001 3.116744e+000 194 130 98
8.148836e-001 -5.803108e-001 3.101997e+000 178 139 106
8.396739e-001 -5.695173e-001 3.157998e+000 179 69 37
8.125610e-001 -6.103092e-001 3.133631e+000 171 135 114
8.284747e-001 -6.069831e-001 3.162687e+000 163 86 40
8.627550e-001 -4.673455e-001 3.123183e+000 11 80 121
8.287246e-001 -5.190674e-001 3.053190e+000 204 137 120
8.193543e-001 -5.446529e-001 3.067392e+000 129 32 39
8.600538e-001 -4.072306e-001 3.023752e+000 25 59 35
8.493212e-001 -4.844911e-001 3.092458e+000 198 127 100
8.477915e-001 -5.359710e-001 3.142942e+000 172 24 40
8.317707e-001 -5.889365e-001 3.159360e+000 119 99 82
8.332080e-001 -5.236560e-001 3.092599e+000 194 132 107
8.332080e-001 -5.236560e-001 3.092599e+000 194 132 107
8.144083e-001 -6.083581e-001 3.136119e+000 171 139 119
8.504480e-001 -5.595840e-001 3.159526e+000 95 18 26
8.658010e-001 -4.059645e-001 3.006394e+000 105 112 23
8.279966e-001 -5.977860e-001 3.168061e+000 158 84 32
8.297461e-001 -5.964500e-001 3.172339e+000 176 90 32
8.315600e-001 -5.954837e-001 3.178346e+000 42 14 11
8.692194e-001 -3.819369e-001 3.028419e+000 148 43 44
9.351042e-001 -4.296795e-001 2.933803e+000 59 104 76
8.330047e-001 -5.204323e-001 3.085191e+000 192 132 111
8.377100e-001 -5.385367e-001 3.120495e+000 210 65 74
8.218151e-001 -5.704697e-001 3.108851e+000 193 131 105
8.349947e-001 -5.689091e-001 3.144622e+000 115 60 22
8.338924e-001 -5.789910e-001 3.153045e+000 183 87 42
8.649193e-001 -3.840669e-001 3.007877e+000 224 151 126
9.421349e-001 -4.313993e-001 2.931316e+000 158 167 37
8.650889e-001 -3.980572e-001 3.051749e+000 148 159 53
8.303754e-001 -5.441603e-001 3.104572e+000 219 81 81
8.375201e-001 -5.375676e-001 3.116103e+000 244 78 89
8.372115e-001 -5.394997e-001 3.118210e+000 210 63 62
8.424797e-001 -5.424064e-001 3.136827e+000 236 75 80
8.258714e-001 -5.669368e-001 3.118537e+000 199 130 106
8.265716e-001 -5.771042e-001 3.131798e+000 140 46 21
8.219038e-001 -5.845478e-001 3.125598e+000 186 143 101
8.292786e-001 -5.756909e-001 3.136607e+000 143 52 24
8.330683e-001 -5.726786e-001 3.142908e+000 147 62 26
8.384813e-001 -5.720968e-001 3.158136e+000 87 30 7
8.237733e-001 -5.874918e-001 3.136289e+000 147 81 37
8.037118e-001 -6.166955e-001 3.114163e+000 84 65 58
8.050868e-001 -6.154227e-001 3.117403e+000 95 73 65
8.521791e-001 -5.063744e-001 3.128906e+000 105 77 59
8.507173e-001 -5.151644e-001 3.132279e+000 94 55 41
8.396096e-001 -5.378367e-001 3.128136e+000 184 49 50
8.224867e-001 -5.654395e-001 3.104166e+000 115 59 48
8.252709e-001 -5.633762e-001 3.110822e+000 129 71 62
8.262512e-001 -5.879833e-001 3.141500e+000 204 162 122
8.261627e-001 -5.879642e-001 3.141597e+000 204 162 122
8.085228e-001 -6.157320e-001 3.127574e+000 79 24 29
8.648154e-001 -4.604500e-001 3.115272e+000 4 50 75
8.539039e-001 -4.953823e-001 3.119871e+000 146 85 66
8.267906e-001 -5.338230e-001 3.082501e+000 202 129 110
8.650328e-001 -4.201176e-001 3.096273e+000 31 48 19
8.487403e-001 -5.260690e-001 3.137298e+000 166 27 31
8.762355e-001 -3.803339e-001 3.031195e+000 168 39 38
8.762355e-001 -3.803339e-001 3.031195e+000 168 39 38
8.694088e-001 -3.824082e-001 3.039252e+000 213 151 114
8.732646e-001 -3.824341e-001 3.037612e+000 213 144 115
8.800638e-001 -3.774759e-001 3.035862e+000 153 75 69
8.539991e-001 -4.445201e-001 3.064782e+000 94 31 33
8.376308e-001 -4.902729e-001 3.027665e+000 30 82 129
8.584698e-001 -4.589598e-001 3.100430e+000 219 156 122
8.640721e-001 -4.566034e-001 3.106052e+000 210 160 120
8.583518e-001 -4.629171e-001 3.108328e+000 11 75 108
8.341561e-001 -5.130619e-001 3.068405e+000 106 66 53
8.743829e-001 -4.897549e-001 3.148092e+000 86 38 30
8.695958e-001 -4.844935e-001 3.152923e+000 64 31 24
8.695958e-001 -4.844935e-001 3.152923e+000 64 31 24
8.681134e-001 -4.903670e-001 3.154569e+000 84 35 38
8.701779e-001 -4.833509e-001 3.158215e+000 79 49 51
8.311099e-001 -5.314273e-001 3.088487e+000 109 64 48
8.247575e-001 -5.507024e-001 3.092454e+000 194 54 57
8.410145e-001 -5.340938e-001 3.123982e+000 239 80 86
8.418868e-001 -5.351816e-001 3.128267e+000 224 77 77
8.357632e-001 -5.412654e-001 3.120530e+000 181 44 47
8.215259e-001 -5.661125e-001 3.102896e+000 196 133 112
8.616829e-001 -5.478629e-001 3.170356e+000 121 168 193
8.236952e-001 -5.764915e-001 3.121644e+000 187 136 105
8.304285e-001 -5.775696e-001 3.142578e+000 176 76 44
8.335663e-001 -5.779581e-001 3.151883e+000 85 31 13
8.293294e-001 -5.891974e-001 3.152875e+000 184 146 116
8.315566e-001 -5.863438e-001 3.155812e+000 36 22 15
8.275054e-001 -5.945404e-001 3.158579e+000 163 93 43
8.487434e-001 -5.759791e-001 3.185255e+000 142 90 71
8.647432e-001 -3.852655e-001 3.029623e+000 219 146 122
8.620131e-001 -4.015563e-001 3.030383e+000 138 153 21
8.636477e-001 -4.060354e-001 3.047195e+000 156 162 22
8.512142e-001 -4.518368e-001 3.054104e+000 159 147 131
8.550330e-001 -4.460231e-001 3.065314e+000 169 155 133
8.530768e-001 -4.510960e-001 3.065932e+000 168 150 133
8.705805e-001 -4.361077e-001 3.144916e+000 152 106 82
8.599321e-001 -4.582745e-001 3.098368e+000 223 158 128
8.550885e-001 -4.667615e-001 3.097523e+000 11 53 87
8.344141e-001 -5.073545e-001 3.063052e+000 182 125 102
8.321390e-001 -5.148467e-001 3.061903e+000 126 84 72
8.331729e-001 -5.198019e-001 3.078388e+000 112 73 56
8.775449e-001 -4.913248e-001 3.150523e+000 166 86 81
8.293084e-001 -5.261557e-001 3.072336e+000 94 57 44
8.244725e-001 -5.472905e-001 3.091429e+000 192 55 58
8.351915e-001 -5.407458e-001 3.113087e+000 133 26 34
8.495433e-001 -5.332048e-001 3.142057e+000 248 91 92
8.496329e-001 -5.297130e-001 3.143191e+000 150 24 28
8.653275e-001 -5.242727e-001 3.166818e+000 94 57 49
8.308520e-001 -5.533757e-001 3.115767e+000 140 20 33
8.381635e-001 -5.485187e-001 3.130779e+000 231 80 86
8.624192e-001 -5.342762e-001 3.158544e+000 187 137 67
8.637156e-001 -5.268637e-001 3.169263e+000 41 26 24
8.285766e-001 -5.792711e-001 3.139077e+000 177 80 39
8.478587e-001 -5.632352e-001 3.162776e+000 107 17 27
8.296729e-001 -5.893414e-001 3.154233e+000 25 16 15
8.154693e-001 -6.099471e-001 3.137611e+000 157 116 94
8.649247e-001 -3.803886e-001 3.002452e+000 174 33 43
8.608391e-001 -4.034518e-001 3.025050e+000 137 150 56
8.681413e-001 -4.347028e-001 3.142537e+000 152 106 90
8.458460e-001 -4.761122e-001 3.066705e+000 2 39 68
8.571449e-001 -4.812149e-001 3.111832e+000 200 133 99
8.356917e-001 -5.082058e-001 3.079470e+000 166 105 84
8.361885e-001 -5.091655e-001 3.078611e+000 166 105 84
8.426886e-001 -4.993478e-001 3.089971e+000 200 128 103
8.396405e-001 -5.090325e-001 3.091075e+000 202 131 108
8.529780e-001 -4.977383e-001 3.120319e+000 200 134 98
8.388683e-001 -5.204395e-001 3.102658e+000 198 132 101
8.494340e-001 -5.129944e-001 3.125269e+000 94 62 43
8.519993e-001 -5.096813e-001 3.128810e+000 201 142 104
8.487800e-001 -5.174824e-001 3.127059e+000 147 111 88
8.322873e-001 -5.376433e-001 3.101486e+000 196 127 111
8.466625e-001 -5.297043e-001 3.134107e+000 149 36 32
8.504777e-001 -5.321053e-001 3.144665e+000 255 105 104
8.646706e-001 -5.204860e-001 3.165391e+000 117 73 66
8.250080e-001 -5.671200e-001 3.114412e+000 117 76 58
8.517163e-001 -5.593996e-001 3.172372e+000 153 66 52
8.360952e-001 -5.860061e-001 3.167664e+000 24 13 10
8.311460e-001 -5.951957e-001 3.164317e+000 149 83 32
8.675496e-001 -4.378190e-001 3.144659e+000 138 97 75
8.591772e-001 -4.778987e-001 3.122977e+000 197 123 92
8.265171e-001 -5.349968e-001 3.069729e+000 193 125 112
8.331689e-001 -5.229586e-001 3.079001e+000 197 130 106
8.380306e-001 -5.156207e-001 3.092635e+000 103 59 48
8.255435e-001 -5.393174e-001 3.071851e+000 191 129 111
8.355880e-001 -5.297843e-001 3.102578e+000 198 133 106
8.626932e-001 -5.310996e-001 3.164329e+000 86 58 47
8.651069e-001 -5.343220e-001 3.163440e+000 86 58 47
8.029873e-001 -6.184448e-001 3.111848e+000 171 146 139
8.311870e-001 -5.910760e-001 3.160447e+000 171 144 118
8.232727e-001 -5.465170e-001 3.067779e+000 194 127 114
8.185291e-001 -5.611990e-001 3.079161e+000 142 30 42
8.173293e-001 -5.940622e-001 3.123760e+000 177 142 119
8.045410e-001 -6.117291e-001 3.112948e+000 80 66 56
8.100913e-001 -6.114511e-001 3.128352e+000 153 125 114
8.556531e-001 -4.148696e-001 3.015455e+000 28 55 32
8.608821e-001 -4.118366e-001 3.036820e+000 23 54 36
8.608821e-001 -4.118366e-001 3.036820e+000 23 54 36
8.623726e-001 -4.580748e-001 3.103891e+000 131 38 39
8.420251e-001 -5.542200e-001 3.144670e+000 184 127 98
8.526437e-001 -4.357721e-001 3.034033e+000 137 145 133
8.342571e-001 -5.144244e-001 3.077466e+000 191 129 103
8.493602e-001 -5.586579e-001 3.166916e+000 119 23 27
8.493602e-001 -5.586579e-001 3.166916e+000 119 23 27
8.601286e-001 -3.764601e-001 2.988991e+000 127 137 138
8.602886e-001 -4.232243e-001 3.107073e+000 172 165 137
8.298921e-001 -5.327254e-001 3.094875e+000 194 132 108
8.580805e-001 -5.382176e-001 3.157047e+000 184 139 80
8.590241e-001 -4.630080e-001 3.111042e+000 108 188 219
8.422484e-001 -5.420114e-001 3.137027e+000 240 60 73
8.431131e-001 -5.416754e-001 3.138134e+000 146 29 32
8.570903e-001 -4.189615e-001 3.043941e+000 31 51 21
8.473243e-001 -5.284633e-001 3.135739e+000 238 77 90
8.608990e-001 -4.024939e-001 3.041346e+000 157 156 37
8.679800e-001 -5.166522e-001 3.157018e+000 84 39 39
8.306706e-001 -5.966981e-001 3.172170e+000 164 88 46
8.589713e-001 -4.231985e-001 3.055859e+000 25 56 31
8.685148e-001 -4.571129e-001 3.116598e+000 127 28 38
8.514630e-001 -5.120743e-001 3.127239e+000 187 139 106
8.514630e-001 -5.120743e-001 3.127239e+000 187 139 106
8.586640e-001 -3.997415e-001 3.032961e+000 49 90 74
8.568727e-001 -4.197879e-001 3.059663e+000 23 52 22
8.565608e-001 -4.456537e-001 3.077574e+000 88 31 29
9.179250e-001 -4.765909e-001 3.130516e+000 191 72 56
8.893971e-001 -5.052091e-001 3.147677e+000 128 85 86
8.711608e-001 -5.382309e-001 3.160830e+000 67 38 38
8.187618e-001 -5.786277e-001 3.104670e+000 164 122 97
8.749917e-001 -5.517485e-001 3.163182e+000 34 25 30
8.380621e-001 -5.577406e-001 3.142496e+000 175 124 90
8.299120e-001 -5.669982e-001 3.139872e+000 121 46 24
8.252297e-001 -5.778211e-001 3.135422e+000 196 99 49
8.317967e-001 -5.766787e-001 3.144578e+000 157 72 37
9.025941e-001 -3.819121e-001 3.108645e+000 41 58 34
8.557455e-001 -4.156207e-001 3.044887e+000 26 51 25
8.508527e-001 -4.629304e-001 3.080154e+000 191 123 98
9.184599e-001 -4.730143e-001 3.129843e+000 139 44 39
8.314714e-001 -5.131537e-001 3.063455e+000 116 74 65
8.824269e-001 -4.815456e-001 3.138835e+000 47 60 86
8.281949e-001 -5.281300e-001 3.078379e+000 130 82 68
8.319874e-001 -5.223085e-001 3.083240e+000 106 68 54
8.784998e-001 -5.087763e-001 3.147606e+000 140 73 71
8.253405e-001 -5.401482e-001 3.087321e+000 175 112 97
8.327067e-001 -5.290197e-001 3.102753e+000 105 70 56
8.308417e-001 -5.430010e-001 3.101959e+000 133 32 34
8.368392e-001 -5.344617e-001 3.121008e+000 135 30 36
8.464415e-001 -5.316418e-001 3.138501e+000 133 28 37
8.211763e-001 -5.662414e-001 3.101299e+000 110 66 57
8.385845e-001 -5.375706e-001 3.138785e+000 151 27 34
8.839456e-001 -5.498408e-001 3.160754e+000 165 122 87
8.334479e-001 -5.535709e-001 3.131224e+000 124 77 59
8.266335e-001 -5.696348e-001 3.130036e+000 128 39 29
8.358064e-001 -5.702368e-001 3.150099e+000 179 102 48
8.692269e-001 -3.846054e-001 3.057918e+000 33 52 30
8.312293e-001 -5.094058e-001 3.040287e+000 165 69 71
8.323380e-001 -5.040180e-001 3.055368e+000 118 72 65
8.501346e-001 -5.085961e-001 3.123326e+000 97 60 41
8.244083e-001 -5.407203e-001 3.077612e+000 184 118 110
8.244083e-001 -5.407203e-001 3.077612e+000 184 118 110
8.500313e-001 -5.205306e-001 3.135385e+000 181 126 100
8.506577e-001 -5.325712e-001 3.144314e+000 224 68 77
8.396390e-001 -5.434931e-001 3.132537e+000 207 62 71
8.721658e-001 -5.812980e-001 3.173633e+000 187 81 42
8.351908e-001 -5.736506e-001 3.151303e+000 191 124 64
8.482850e-001 -4.532758e-001 3.058279e+000 137 124 117
8.607905e-001 -4.564077e-001 3.097571e+000 143 23 36
8.573019e-001 -4.793256e-001 3.114296e+000 172 114 86
8.932023e-001 -4.846592e-001 3.137877e+000 26 67 99
8.646592e-001 -4.822679e-001 3.128772e+000 168 144 117
8.514463e-001 -5.114872e-001 3.125319e+000 178 126 95
8.774606e-001 -5.042088e-001 3.146425e+000 93 44 39
8.432559e-001 -4.687391e-001 3.057496e+000 222 130 116
8.526564e-001 -4.643601e-001 3.084072e+000 199 124 100
8.648374e-001 -4.558280e-001 3.103217e+000 146 23 37
8.391001e-001 -5.515509e-001 3.142544e+000 186 129 99
8.311355e-001 -5.345167e-001 3.101361e+000 181 119 99
9.528655e-001 -5.778601e-001 3.137817e+000 41 35 37
8.839666e-001 -5.243130e-001 3.153131e+000 136 105 85
8.084808e-001 -5.988319e-001 3.085335e+000 38 28 36
8.176620e-001 -5.988467e-001 3.110895e+000 143 115 88
8.685504e-001 -5.694641e-001 3.169889e+000 165 123 83
8.544848e-001 -4.447030e-001 3.080420e+000 164 125 114
8.192006e-001 -5.869713e-001 3.077413e+000 181 134 120
8.212088e-001 -5.943548e-001 3.128045e+000 157 131 107
8.213718e-001 -5.953354e-001 3.127969e+000 157 131 107
8.537469e-001 -4.623450e-001 3.087167e+000 193 135 111
8.315922e-001 -6.111853e-001 3.162771e+000 35 8 0
8.315922e-001 -6.111853e-001 3.162771e+000 35 8 0
8.402498e-001 -5.877678e-001 3.176405e+000 169 89 47
8.337651e-001 -6.093762e-001 3.167161e+000 43 20 5
8.373807e-001 -5.443547e-001 3.130967e+000 133 26 36
8.424226e-001 -5.510072e-001 3.144659e+000 186 130 97
8.421928e-001 -5.502234e-001 3.144982e+000 186 130 97
8.356301e-001 -6.078595e-001 3.170733e+000 61 22 3
8.452974e-001 -5.343054e-001 3.137209e+000 183 53 57
8.610563e-001 -5.918670e-001 3.179440e+000 198 129 96
8.377296e-001 -5.933330e-001 3.168781e+000 97 74 66
8.635143e-001 -6.126417e-001 3.182172e+000 175 129 104
8.577065e-001 -6.006268e-001 3.181973e+000 152 107 83
8.563164e-001 -4.487079e-001 3.081913e+000 91 73 62
8.687365e-001 -4.624683e-001 3.117097e+000 33 69 87
8.804674e-001 -5.056581e-001 3.145638e+000 170 85 98
8.337756e-001 -5.475205e-001 3.124672e+000 138 32 42
8.466402e-001 -5.326832e-001 3.137873e+000 132 31 39
8.708430e-001 -5.375564e-001 3.156982e+000 79 32 41
8.688897e-001 -5.376999e-001 3.161254e+000 105 65 73
8.508163e-001 -4.707634e-001 3.087247e+000 11 47 81
8.620785e-001 -4.676802e-001 3.103674e+000 15 58 93
8.333560e-001 -5.357892e-001 3.103048e+000 134 83 72
8.342009e-001 -5.335381e-001 3.110258e+000 169 99 82
8.404581e-001 -5.321772e-001 3.124718e+000 176 55 62
8.368226e-001 -5.389775e-001 3.123207e+000 198 61 73
8.521272e-001 -5.259922e-001 3.142266e+000 210 56 68
8.307409e-001 -5.493408e-001 3.116673e+000 201 55 73
8.482709e-001 -5.331859e-001 3.139229e+000 137 34 43
8.450631e-001 -5.356689e-001 3.138248e+000 143 25 39
8.463947e-001 -5.334570e-001 3.139221e+000 193 62 72
8.282412e-001 -5.595071e-001 3.119233e+000 98 57 45
8.372905e-001 -5.441382e-001 3.130913e+000 144 26 41
8.247328e-001 -5.741177e-001 3.124925e+000 164 101 79
8.232731e-001 -5.831510e-001 3.132394e+000 161 115 86
8.331186e-001 -5.736312e-001 3.146948e+000 121 62 24
8.329600e-001 -5.726663e-001 3.148881e+000 174 112 56
8.370699e-001 -5.743194e-001 3.157359e+000 173 77 33
8.299283e-001 -5.931456e-001 3.159000e+000 104 78 63
8.388601e-001 -5.139248e-001 3.092910e+000 184 120 98
8.215479e-001 -5.732035e-001 3.102556e+000 141 89 78
8.263612e-001 -5.623220e-001 3.117612e+000 173 113 97
8.445920e-001 -4.748680e-001 3.069585e+000 12 57 96
8.610566e-001 -4.761634e-001 3.118134e+000 120 72 58
8.322753e-001 -5.270343e-001 3.072975e+000 180 116 103
8.670684e-001 -5.364170e-001 3.159422e+000 168 120 73
8.737769e-001 -5.320439e-001 3.153800e+000 79 35 38
8.370822e-001 -5.207214e-001 3.101533e+000 151 98 84
8.694355e-001 -4.603946e-001 3.121052e+000 156 150 128
9.265738e-001 -3.819629e-001 3.094082e+000 229 131 107
9.411045e-001 -3.862039e-001 3.088363e+000 161 153 150
9.333520e-001 -3.865600e-001 3.092340e+000 137 43 40
9.088769e-001 -3.805265e-001 3.105486e+000 215 138 112
9.088769e-001 -3.805265e-001 3.105486e+000 215 138 112
9.124048e-001 -3.821369e-001 3.104243e+000 156 42 36
8.662699e-001 -3.970599e-001 3.085477e+000 36 50 26
9.065838e-001 -4.650520e-001 3.125893e+000 174 149 123
9.232072e-001 -4.831685e-001 3.121104e+000 246 134 114
9.090960e-001 -4.771543e-001 3.127470e+000 221 131 104
9.090582e-001 -4.771119e-001 3.127575e+000 221 131 104
9.212345e-001 -4.831157e-001 3.121986e+000 129 40 39
9.121190e-001 -4.799493e-001 3.126653e+000 230 135 118
9.306568e-001 -5.129982e-001 3.122635e+000 111 25 24
8.910654e-001 -4.884207e-001 3.137949e+000 136 168 169
8.929018e-001 -4.913216e-001 3.137767e+000 130 169 172
8.855819e-001 -5.025122e-001 3.143003e+000 177 92 87
8.925592e-001 -5.023864e-001 3.140716e+000 86 37 34
8.925906e-001 -5.023844e-001 3.140724e+000 86 37 34
9.089587e-001 -5.193387e-001 3.136469e+000 88 64 77
9.089587e-001 -5.193387e-001 3.136469e+000 88 64 77
9.293016e-001 -5.401961e-001 3.128775e+000 66 110 136
8.823750e-001 -5.027018e-001 3.143888e+000 77 28 34
8.869007e-001 -5.040433e-001 3.143009e+000 74 28 24
8.845859e-001 -5.072176e-001 3.144545e+000 174 95 101
8.845756e-001 -5.073207e-001 3.144483e+000 174 95 101
8.955891e-001 -5.119502e-001 3.141592e+000 91 50 55
9.097354e-001 -5.258913e-001 3.137803e+000 93 72 78
8.414403e-001 -5.301692e-001 3.127306e+000 205 60 71
8.747139e-001 -5.214982e-001 3.149719e+000 120 65 64
9.199266e-001 -5.573047e-001 3.136752e+000 161 96 86
8.448174e-001 -5.318501e-001 3.134579e+000 206 67 75
8.460468e-001 -5.303665e-001 3.135013e+000 154 42 48
8.522313e-001 -5.268382e-001 3.141827e+000 227 66 78
8.745317e-001 -5.281568e-001 3.151528e+000 120 66 68
8.888662e-001 -5.399748e-001 3.150389e+000 28 19 13
8.886731e-001 -5.390975e-001 3.150861e+000 28 19 13
8.337728e-001 -5.460175e-001 3.125538e+000 160 46 56
8.337217e-001 -5.505200e-001 3.124252e+000 201 66 77
8.497330e-001 -5.298920e-001 3.141003e+000 199 61 68
8.746643e-001 -5.440385e-001 3.155483e+000 50 24 27
8.743901e-001 -5.459059e-001 3.156128e+000 109 64 71
9.263946e-001 -3.832181e-001 3.094788e+000 151 46 42
9.263946e-001 -3.832181e-001 3.094788e+000 151 46 42
9.183481e-001 -3.835967e-001 3.101036e+000 158 49 39
9.304036e-001 -3.876976e-001 3.094449e+000 156 47 42
8.587113e-001 -3.963498e-001 3.072561e+000 137 150 58
8.601876e-001 -3.937231e-001 3.077138e+000 130 154 64
8.603818e-001 -3.945007e-001 3.075814e+000 130 154 64
9.024693e-001 -3.910478e-001 3.110687e+000 133 140 43
8.497878e-001 -4.182325e-001 3.057057e+000 130 150 68
9.136185e-001 -4.185544e-001 3.111968e+000 38 57 31
9.284626e-001 -4.383781e-001 3.108033e+000 44 53 28
9.326143e-001 -4.399572e-001 3.105866e+000 36 48 25
9.431242e-001 -4.469124e-001 3.101408e+000 45 41 22
8.508139e-001 -4.354600e-001 3.080102e+000 176 155 148
8.513961e-001 -4.368302e-001 3.086170e+000 181 149 139
9.167623e-001 -4.847836e-001 3.125171e+000 146 36 40
8.412003e-001 -4.840925e-001 3.091925e+000 155 98 87
9.108426e-001 -4.825432e-001 3.128265e+000 151 35 42
8.324754e-001 -5.067543e-001 3.082668e+000 151 94 83
8.354171e-001 -4.987505e-001 3.089042e+000 140 90 74
9.202479e-001 -4.982937e-001 3.125885e+000 113 154 174
9.262338e-001 -5.118901e-001 3.125493e+000 91 61 63
8.306950e-001 -5.141873e-001 3.087556e+000 152 96 85
8.321609e-001 -5.065308e-001 3.090344e+000 154 99 86
8.979429e-001 -5.020830e-001 3.138093e+000 194 131 89
8.812013e-001 -5.015272e-001 3.143655e+000 183 96 89
8.837648e-001 -5.029661e-001 3.143660e+000 73 30 25
8.802266e-001 -5.063331e-001 3.145095e+000 185 95 103
8.509613e-001 -5.116930e-001 3.131486e+000 193 137 109
8.777328e-001 -5.098863e-001 3.146590e+000 140 72 78
8.876569e-001 -5.170158e-001 3.145546e+000 79 49 53
8.847964e-001 -5.239375e-001 3.148294e+000 69 40 42
9.167864e-001 -5.533740e-001 3.138855e+000 114 67 56
8.357472e-001 -5.383219e-001 3.120133e+000 158 41 49
8.426154e-001 -5.355080e-001 3.133216e+000 216 67 78
8.483309e-001 -5.321550e-001 3.138169e+000 202 62 69
8.483309e-001 -5.321550e-001 3.138169e+000 202 62 69
8.504050e-001 -5.304959e-001 3.139317e+000 147 35 42
8.504050e-001 -5.304959e-001 3.139317e+000 147 35 42
8.898643e-001 -5.380004e-001 3.149967e+000 141 109 98
8.504766e-001 -5.321843e-001 3.144790e+000 236 69 84
8.872111e-001 -5.486240e-001 3.153110e+000 142 102 103
8.871865e-001 -5.489292e-001 3.152898e+000 142 102 103
8.614484e-001 -5.374234e-001 3.152213e+000 118 72 39
9.168010e-001 -3.770132e-001 3.100278e+000 172 38 46
9.276852e-001 -3.805311e-001 3.094162e+000 160 42 43
9.276469e-001 -3.805016e-001 3.094289e+000 160 42 43
9.208071e-001 -3.787059e-001 3.097198e+000 164 44 46
9.311728e-001 -3.817800e-001 3.092272e+000 164 42 48
9.065209e-001 -3.736022e-001 3.105028e+000 169 38 46
9.136042e-001 -3.760600e-001 3.101846e+000 170 38 49
9.438006e-001 -3.963303e-001 3.088109e+000 35 49 30
9.343670e-001 -4.168919e-001 3.100703e+000 39 50 37
8.529094e-001 -4.145801e-001 3.069762e+000 136 148 57
8.529094e-001 -4.145801e-001 3.069762e+000 136 148 57
9.501852e-001 -4.346086e-001 3.094521e+000 112 130 76
8.577085e-001 -4.199687e-001 3.084890e+000 38 59 30
9.180997e-001 -4.204083e-001 3.109325e+000 36 51 34
9.378267e-001 -4.657624e-001 3.108831e+000 179 144 114
8.963300e-001 -4.545490e-001 3.128692e+000 187 150 125
8.963300e-001 -4.545490e-001 3.128692e+000 187 150 125
9.100187e-001 -4.860522e-001 3.128347e+000 206 74 73
8.539587e-001 -4.809392e-001 3.118029e+000 165 109 96
8.539587e-001 -4.809392e-001 3.118029e+000 165 109 96
8.603406e-001 -4.710619e-001 3.122126e+000 146 99 89
8.512678e-001 -4.997017e-001 3.125282e+000 97 58 41
8.889079e-001 -5.012848e-001 3.142180e+000 102 46 45
9.012209e-001 -5.132300e-001 3.139218e+000 87 61 70
9.306141e-001 -5.471854e-001 3.128364e+000 31 71 101
8.527130e-001 -5.024491e-001 3.128493e+000 196 139 110
8.863789e-001 -5.083985e-001 3.144826e+000 77 40 42
8.335114e-001 -5.424506e-001 3.116301e+000 202 63 70
8.905628e-001 -5.376633e-001 3.150678e+000 141 111 103
8.650141e-001 -5.290577e-001 3.150568e+000 42 12 20
8.759352e-001 -5.357943e-001 3.153558e+000 86 47 50
8.484749e-001 -5.426506e-001 3.143693e+000 224 61 78
8.484749e-001 -5.426506e-001 3.143693e+000 224 61 78
9.391480e-001 -3.847061e-001 3.088828e+000 174 40 44
9.391522e-001 -3.846638e-001 3.088880e+000 174 40 44
9.099951e-001 -3.750390e-001 3.103786e+000 176 37 43
9.043072e-001 -4.255555e-001 3.117740e+000 161 155 66
9.043072e-001 -4.255555e-001 3.117740e+000 161 155 66
9.108179e-001 -4.358857e-001 3.117301e+000 43 52 23
9.108179e-001 -4.358857e-001 3.117301e+000 43 52 23
9.075807e-001 -4.479347e-001 3.121597e+000 174 41 47
9.075807e-001 -4.479347e-001 3.121597e+000 174 41 47
8.892803e-001 -4.502464e-001 3.129575e+000 151 105 90
8.967806e-001 -4.582121e-001 3.128323e+000 144 101 83
9.087139e-001 -4.786823e-001 3.128210e+000 217 136 103
9.107274e-001 -5.305766e-001 3.137431e+000 135 108 107
9.209805e-001 -5.435655e-001 3.133903e+000 160 128 115
8.497850e-001 -5.114145e-001 3.129662e+000 194 138 113
8.491645e-001 -5.172215e-001 3.130659e+000 196 136 108
9.041596e-001 -5.361465e-001 3.142747e+000 23 13 7
9.041596e-001 -5.361465e-001 3.142747e+000 23 13 7
8.774921e-001 -5.390622e-001 3.154336e+000 80 43 50
8.799031e-001 -5.547358e-001 3.156126e+000 87 49 53
9.087690e-001 -3.824534e-001 3.106248e+000 173 37 45
9.087803e-001 -3.825792e-001 3.106122e+000 173 37 45
8.560530e-001 -3.970087e-001 3.057066e+000 29 61 32
8.603733e-001 -3.943271e-001 3.068741e+000 27 61 36
9.321044e-001 -4.061683e-001 3.096836e+000 160 154 70
9.181074e-001 -4.013025e-001 3.104600e+000 148 155 67
9.182861e-001 -4.015906e-001 3.104206e+000 148 155 67
9.463919e-001 -4.301652e-001 3.096712e+000 36 54 30
8.484561e-001 -4.257914e-001 3.063761e+000 146 158 120
9.156653e-001 -4.179079e-001 3.109794e+000 166 154 56
9.251609e-001 -4.271775e-001 3.107608e+000 163 159 68
9.254768e-001 -4.275304e-001 3.106821e+000 163 159 68
9.057760e-001 -4.293561e-001 3.118407e+000 29 53 32
9.238356e-001 -4.357123e-001 3.109750e+000 158 154 102
9.344802e-001 -4.574943e-001 3.108014e+000 171 44 38
8.385019e-001 -4.652824e-001 3.053711e+000 159 48 64
8.478785e-001 -4.535319e-001 3.092673e+000 186 113 89
9.264452e-001 -4.714143e-001 3.117994e+000 168 42 43
9.259371e-001 -5.008262e-001 3.122051e+000 95 118 133
9.259491e-001 -5.006894e-001 3.122100e+000 95 118 133
9.234202e-001 -5.100644e-001 3.128144e+000 85 62 70
8.775204e-001 -5.053592e-001 3.145021e+000 102 45 50
9.151309e-001 -5.358884e-001 3.135660e+000 96 77 81
9.257482e-001 -5.479387e-001 3.132171e+000 72 20 24
8.814998e-001 -5.339246e-001 3.151447e+000 75 49 50
9.484427e-001 -3.987252e-001 3.085566e+000 105 123 123
9.484427e-001 -3.987252e-001 3.085566e+000 105 123 123
8.520584e-001 -3.955997e-001 3.045065e+000 41 61 35
9.250309e-001 -4.002558e-001 3.099614e+000 153 156 103
9.332554e-001 -4.026697e-001 3.095745e+000 34 55 28
8.552978e-001 -4.025489e-001 3.065305e+000 73 114 106
9.213765e-001 -4.009517e-001 3.099748e+000 30 55 40
9.137839e-001 -4.042953e-001 3.108590e+000 33 59 33
9.167069e-001 -4.097663e-001 3.107121e+000 160 157 93
9.305925e-001 -4.141335e-001 3.099869e+000 157 154 104
9.305925e-001 -4.141335e-001 3.099869e+000 157 154 104
9.422751e-001 -4.251598e-001 3.096949e+000 155 156 94
9.389321e-001 -4.283449e-001 3.099199e+000 35 58 36
9.144133e-001 -4.213547e-001 3.112501e+000 30 60 36
9.263601e-001 -4.236800e-001 3.105743e+000 33 59 42
9.363202e-001 -4.346591e-001 3.103246e+000 34 55 37
9.366827e-001 -4.352481e-001 3.102557e+000 34 55 37
8.592480e-001 -4.192164e-001 3.091041e+000 32 61 31
9.209124e-001 -4.304833e-001 3.110361e+000 33 57 30
9.205261e-001 -4.298031e-001 3.111176e+000 33 57 30
9.056895e-001 -4.294595e-001 3.118325e+000 29 53 32
8.377550e-001 -4.749453e-001 3.053707e+000 31 75 124
8.976979e-001 -4.414837e-001 3.124311e+000 36 57 24
8.976979e-001 -4.414837e-001 3.124311e+000 36 57 24
9.050161e-001 -4.901080e-001 3.131180e+000 26 72 108
9.190386e-001 -5.021670e-001 3.127197e+000 28 70 101
9.254335e-001 -5.084901e-001 3.124867e+000 187 116 87
8.342592e-001 -5.125730e-001 3.096818e+000 193 130 112
8.342592e-001 -5.125730e-001 3.096818e+000 193 130 112
8.809852e-001 -5.268595e-001 3.150575e+000 134 93 89
9.097211e-001 -3.792290e-001 3.103934e+000 170 108 80
9.097211e-001 -3.792290e-001 3.103934e+000 170 108 80
9.209918e-001 -3.820758e-001 3.097912e+000 146 82 61
9.242379e-001 -3.951338e-001 3.096997e+000 44 91 119
8.603103e-001 -3.974183e-001 3.081050e+000 54 106 103
9.013299e-001 -3.884127e-001 3.109811e+000 27 56 33
9.292168e-001 -4.181051e-001 3.101801e+000 32 59 35
9.143806e-001 -4.117689e-001 3.111006e+000 31 56 34
9.318585e-001 -4.244315e-001 3.101592e+000 164 152 107
9.316876e-001 -4.346510e-001 3.107260e+000 163 153 98
9.317032e-001 -4.348483e-001 3.106953e+000 163 153 98
9.218503e-001 -4.387123e-001 3.112489e+000 36 56 29
9.046619e-001 -4.345502e-001 3.120296e+000 162 151 120
9.229284e-001 -4.723795e-001 3.120710e+000 162 151 121
8.659395e-001 -4.794797e-001 3.129581e+000 172 163 143
8.595409e-001 -4.077577e-001 3.079711e+000 62 106 127
8.495187e-001 -4.280707e-001 3.071283e+000 158 161 144
9.068925e-001 -4.239925e-001 3.116494e+000 164 150 122
9.077726e-001 -5.334428e-001 3.138607e+000 142 114 102
8.918296e-001 -3.973628e-001 3.112591e+000 159 151 128
8.529656e-001 -4.267185e-001 3.084955e+000 156 156 146
8.740170e-001 -5.433557e-001 3.155515e+000 51 25 28
8.620876e-001 -3.811634e-001 3.066298e+000 172 80 75
8.973093e-001 -3.794438e-001 3.100369e+000 84 113 129
8.549027e-001 -4.400292e-001 3.101284e+000 168 163 143
8.561111e-001 -4.065489e-001 3.050123e+000 99 120 54
8.443004e-001 -5.318060e-001 3.140238e+000 161 31 44
8.585844e-001 -4.558042e-001 3.116469e+000 78 146 188
7.468977e-001 -4.217175e-001 3.067886e+000 127 121 61
7.436959e-001 -4.530884e-001 3.081096e+000 136 109 90
7.775828e-001 -4.831598e-001 3.067053e+000 196 119 96
7.382009e-001 -4.781132e-001 3.092792e+000 56 21 41
7.542753e-001 -4.861457e-001 3.088457e+000 103 136 158
7.683331e-001 -4.931902e-001 3.080959e+000 25 57 88
7.074967e-001 -5.007168e-001 3.095511e+000 50 32 21
7.902469e-001 -5.443701e-001 3.060249e+000 81 36 28
7.254059e-001 -5.362077e-001 3.115675e+000 74 44 28
7.304320e-001 -5.297733e-001 3.113057e+000 39 10 12
7.956153e-001 -4.987705e-001 3.040255e+000 155 144 126
7.546384e-001 -3.835144e-001 3.050315e+000 110 109 28
7.068404e-001 -4.088793e-001 3.044716e+000 62 64 40
6.995110e-001 -4.275303e-001 3.049954e+000 90 80 68
7.507875e-001 -4.552427e-001 3.080448e+000 142 119 100
7.692721e-001 -4.929275e-001 3.077524e+000 18 58 93
7.878753e-001 -5.475759e-001 3.064948e+000 28 63 95
7.114008e-001 -4.007698e-001 3.044349e+000 38 42 26
7.740943e-001 -4.171941e-001 3.048854e+000 144 140 39
6.878861e-001 -4.931338e-001 3.076127e+000 209 185 148
6.878861e-001 -4.931338e-001 3.076127e+000 209 185 148
7.885272e-001 -5.395243e-001 3.060883e+000 19 65 97
7.836580e-001 -5.369526e-001 3.074217e+000 24 61 85
7.706939e-001 -4.946562e-001 3.075640e+000 80 101 107
7.857561e-001 -5.380983e-001 3.066185e+000 21 61 101
7.184222e-001 -5.365974e-001 3.114230e+000 89 59 35
7.335728e-001 -3.952216e-001 3.056127e+000 66 73 80
7.941992e-001 -4.889831e-001 3.046806e+000 137 23 30
7.093511e-001 -4.851442e-001 3.088316e+000 98 41 34
7.998369e-001 -4.375084e-001 3.019289e+000 21 47 36
7.869442e-001 -5.541945e-001 3.055974e+000 165 135 101
7.263551e-001 -4.022783e-001 3.055713e+000 103 101 90
7.793792e-001 -4.047509e-001 3.037065e+000 22 47 35
7.013823e-001 -4.812298e-001 3.079673e+000 109 55 43
7.250764e-001 -5.278682e-001 3.111445e+000 113 78 50
7.431488e-001 -3.894362e-001 3.054953e+000 120 112 93
7.447840e-001 -4.660941e-001 3.088623e+000 111 21 30
7.188152e-001 -5.229315e-001 3.110929e+000 38 16 19
7.489901e-001 -4.484202e-001 3.080497e+000 148 114 95
7.411306e-001 -4.838198e-001 3.093435e+000 10 52 84
6.973500e-001 -5.504204e-001 3.107671e+000 103 82 61
7.783669e-001 -4.607330e-001 3.076316e+000 137 135 110
7.479408e-001 -4.820225e-001 3.084946e+000 120 18 29
7.479408e-001 -4.820225e-001 3.084946e+000 120 18 29
8.457848e-001 -5.404350e-001 3.142172e+000 234 64 85
9.045551e-001 -4.512668e-001 3.124114e+000 190 138 116
9.045551e-001 -4.512668e-001 3.124114e+000 190 138 116
8.586458e-001 -4.707808e-001 3.119019e+000 186 122 105
8.834680e-001 -5.019925e-001 3.142975e+000 172 87 84
8.460781e-001 -5.303746e-001 3.135014e+000 154 42 48
8.452475e-001 -5.356761e-001 3.134298e+000 153 41 47
8.735373e-001 -5.352495e-001 3.153920e+000 106 57 66
8.777500e-001 -5.599619e-001 3.158304e+000 30 23 33
8.816206e-001 -5.623557e-001 3.158928e+000 156 118 84
8.653910e-001 -5.558889e-001 3.160262e+000 30 34 44
8.428775e-001 -5.951279e-001 3.161558e+000 193 87 44
9.179490e-001 -3.498569e-001 3.073663e+000 186 162 138
9.117376e-001 -3.766186e-001 3.103584e+000 207 142 109
9.215523e-001 -3.852202e-001 3.098912e+000 149 49 37
9.270741e-001 -3.978302e-001 3.098247e+000 62 98 105
8.557402e-001 -4.723666e-001 3.115653e+000 125 78 68
8.983496e-001 -5.049589e-001 3.137968e+000 71 27 28
9.229237e-001 -5.647686e-001 3.136530e+000 75 37 25
9.182981e-001 -5.628676e-001 3.139552e+000 90 58 50
9.250820e-001 -5.730677e-001 3.135355e+000 111 69 40
8.274728e-001 -5.504206e-001 3.108274e+000 198 63 74
8.235225e-001 -5.654691e-001 3.104380e+000 141 88 76
8.234821e-001 -5.642690e-001 3.105169e+000 141 88 76
8.295453e-001 -5.488766e-001 3.113791e+000 208 60 76
8.304667e-001 -5.639791e-001 3.126563e+000 146 91 71
8.304667e-001 -5.639791e-001 3.126563e+000 146 91 71
8.808417e-001 -5.593497e-001 3.157384e+000 160 115 79
8.715662e-001 -5.757881e-001 3.163704e+000 162 114 80
8.598547e-001 -4.037931e-001 3.084540e+000 59 106 127
9.208022e-001 -5.646776e-001 3.138429e+000 166 112 82
8.517254e-001 -5.240187e-001 3.137922e+000 194 136 112
8.454911e-001 -5.422576e-001 3.140677e+000 222 72 83
8.303335e-001 -5.641824e-001 3.128833e+000 201 131 102
8.321741e-001 -5.702815e-001 3.135860e+000 156 92 57
9.225174e-001 -3.514175e-001 3.074349e+000 199 173 148
9.234904e-001 -4.149043e-001 3.104877e+000 166 155 67
9.118509e-001 -4.973912e-001 3.131967e+000 27 73 108
8.976387e-001 -5.105200e-001 3.140986e+000 100 57 63
8.194853e-001 -5.791772e-001 3.105180e+000 143 108 89
8.804190e-001 -5.627801e-001 3.158386e+000 34 26 52
8.648000e-001 -4.655768e-001 3.124119e+000 18 81 134
8.702048e-001 -5.505144e-001 3.157635e+000 81 52 57
8.702048e-001 -5.505144e-001 3.157635e+000 81 52 57
8.761044e-001 -5.560167e-001 3.158026e+000 155 116 99
9.066038e-001 -4.756475e-001 3.126969e+000 157 32 38
9.183460e-001 -4.944762e-001 3.124511e+000 17 72 118
8.931544e-001 -4.877984e-001 3.135303e+000 22 78 108
9.343988e-001 -5.580022e-001 3.125369e+000 159 130 84
9.234964e-001 -5.636874e-001 3.134687e+000 90 40 27
8.824608e-001 -5.577180e-001 3.156872e+000 155 119 87
9.174970e-001 -3.496295e-001 3.076681e+000 170 147 124
8.925093e-001 -4.541157e-001 3.128503e+000 194 146 124
8.286853e-001 -5.773816e-001 3.130088e+000 164 62 37
9.225230e-001 -5.819151e-001 3.136582e+000 154 116 77
8.640677e-001 -5.508342e-001 3.157482e+000 157 118 77
8.638960e-001 -5.486194e-001 3.158254e+000 157 118 77
7.936488e-001 -3.791684e-001 3.014387e+000 130 80 71
7.787306e-001 -5.812772e-001 3.089379e+000 129 84 43
7.275781e-001 -5.930095e-001 3.137761e+000 134 87 70
7.152159e-001 -6.016637e-001 3.140674e+000 153 117 105
7.145981e-001 -6.038237e-001 3.141036e+000 109 62 55
7.058995e-001 -5.809766e-001 3.129334e+000 104 53 26
7.064003e-001 -5.823761e-001 3.133220e+000 119 66 32
7.780931e-001 -5.983954e-001 3.097530e+000 155 118 72
7.816894e-001 -6.080825e-001 3.091307e+000 164 112 78
7.807169e-001 -6.135684e-001 3.091990e+000 156 110 75
7.142001e-001 -6.061027e-001 3.141711e+000 161 119 107
7.480062e-001 -6.144113e-001 3.124644e+000 85 26 30
7.826244e-001 -5.844707e-001 3.082864e+000 113 65 29
7.194134e-001 -5.960788e-001 3.139692e+000 152 118 101
7.969862e-001 -3.824728e-001 3.017800e+000 14 64 99
7.286393e-001 -3.414008e-001 3.021972e+000 174 160 133
7.752672e-001 -6.321976e-001 3.096729e+000 157 121 89
7.752672e-001 -6.321976e-001 3.096729e+000 157 121 89
7.724659e-001 -3.606320e-001 3.018667e+000 11 67 102
8.907564e-001 -3.472513e-001 3.029021e+000 253 203 194
9.235993e-001 -3.498564e-001 3.072983e+000 105 83 59
9.281733e-001 -3.519838e-001 3.074632e+000 215 181 143
9.272368e-001 -3.537250e-001 3.080620e+000 209 180 149
9.342194e-001 -3.561652e-001 3.079995e+000 208 181 136
9.342508e-001 -3.560507e-001 3.079833e+000 208 181 136
9.375087e-001 -3.851105e-001 3.089730e+000 246 137 102
8.585033e-001 -3.821321e-001 3.061795e+000 231 131 118
9.152423e-001 -3.773702e-001 3.101885e+000 231 148 111
9.152547e-001 -3.774393e-001 3.101720e+000 231 148 111
9.244262e-001 -3.858778e-001 3.097316e+000 132 45 29
9.244285e-001 -3.859705e-001 3.097263e+000 132 45 29
9.317683e-001 -3.872628e-001 3.093566e+000 224 141 101
9.348195e-001 -3.882060e-001 3.092071e+000 236 137 103
9.348174e-001 -3.881155e-001 3.092101e+000 236 137 103
9.110346e-001 -3.823982e-001 3.104914e+000 233 143 108
9.205894e-001 -3.860825e-001 3.099607e+000 255 128 104
9.205921e-001 -3.861571e-001 3.099508e+000 255 128 104
8.563014e-001 -3.979059e-001 3.070669e+000 130 148 70
8.579615e-001 -4.000747e-001 3.074398e+000 148 164 71
8.585629e-001 -4.015841e-001 3.077781e+000 149 162 53
9.119685e-001 -3.959205e-001 3.107274e+000 70 107 69
9.367084e-001 -4.132736e-001 3.096784e+000 96 116 74
8.624210e-001 -4.030224e-001 3.085389e+000 35 53 31
9.484349e-001 -4.292048e-001 3.094670e+000 147 153 48
9.484349e-001 -4.292048e-001 3.094670e+000 147 153 48
8.536125e-001 -4.183017e-001 3.077302e+000 154 166 86
8.891268e-001 -4.569457e-001 3.130459e+000 195 154 125
9.195141e-001 -4.839617e-001 3.123375e+000 246 131 114
9.195224e-001 -4.840372e-001 3.123338e+000 246 131 114
8.398334e-001 -4.867996e-001 3.094066e+000 166 108 87
9.024699e-001 -4.922938e-001 3.133809e+000 32 65 82
8.910635e-001 -4.884262e-001 3.137971e+000 140 167 167
9.322524e-001 -5.366516e-001 3.124084e+000 42 69 91
8.824032e-001 -5.027307e-001 3.143856e+000 79 34 29
8.886693e-001 -5.071031e-001 3.143049e+000 71 29 28
8.920355e-001 -5.092629e-001 3.142648e+000 164 90 85
9.077283e-001 -5.169920e-001 3.137050e+000 125 98 107
9.077283e-001 -5.169920e-001 3.137050e+000 125 98 107
9.110514e-001 -5.228140e-001 3.136024e+000 90 65 74
8.835491e-001 -5.062976e-001 3.143895e+000 79 29 25
8.879028e-001 -5.085186e-001 3.143504e+000 181 93 91
8.811349e-001 -5.110746e-001 3.146493e+000 122 60 65
8.339582e-001 -5.378332e-001 3.116398e+000 198 63 70
8.420168e-001 -5.332436e-001 3.129836e+000 204 64 69
8.420187e-001 -5.331880e-001 3.129860e+000 204 64 69
8.411290e-001 -5.353165e-001 3.129615e+000 143 43 44
8.491846e-001 -5.289078e-001 3.137349e+000 211 63 68
8.412817e-001 -5.362322e-001 3.130965e+000 212 68 71
9.059435e-001 -5.613644e-001 3.143778e+000 108 77 81
9.059435e-001 -5.613644e-001 3.143778e+000 108 77 81
8.737084e-001 -5.413646e-001 3.154359e+000 72 33 38
8.867152e-001 -5.552585e-001 3.152346e+000 123 89 87
8.377571e-001 -5.604613e-001 3.138615e+000 141 94 68
8.755238e-001 -5.473376e-001 3.156476e+000 53 31 31
8.755340e-001 -5.477505e-001 3.156187e+000 53 31 31
9.173326e-001 -3.488192e-001 3.075708e+000 212 182 155
9.316931e-001 -3.529597e-001 3.073808e+000 84 68 43
9.273323e-001 -3.539225e-001 3.082594e+000 213 183 145
9.413022e-001 -3.832051e-001 3.087859e+000 178 158 151
9.410146e-001 -3.861872e-001 3.088632e+000 177 147 113
8.638603e-001 -3.798070e-001 3.074911e+000 174 48 52
9.051960e-001 -3.716728e-001 3.105023e+000 171 157 140
9.117052e-001 -3.761029e-001 3.104021e+000 224 150 125
9.271075e-001 -3.867117e-001 3.096213e+000 167 42 40
9.333881e-001 -3.865074e-001 3.092375e+000 160 41 40
9.164919e-001 -3.831605e-001 3.102179e+000 172 41 41
8.561477e-001 -3.961962e-001 3.068229e+000 34 53 32
8.605284e-001 -4.003645e-001 3.080832e+000 34 60 35
9.024947e-001 -3.910082e-001 3.110701e+000 157 153 45
9.052676e-001 -3.924249e-001 3.109332e+000 149 150 32
8.624389e-001 -4.029358e-001 3.085135e+000 34 54 38
8.624389e-001 -4.029358e-001 3.085135e+000 34 54 38
8.554586e-001 -4.188925e-001 3.083071e+000 40 49 30
8.554586e-001 -4.188925e-001 3.083071e+000 40 49 30
8.705377e-001 -4.170792e-001 3.106799e+000 86 85 64
9.508545e-001 -4.497239e-001 3.096336e+000 54 52 26
8.532057e-001 -4.351037e-001 3.091051e+000 187 151 132
8.501053e-001 -4.421835e-001 3.089228e+000 171 153 139
8.540742e-001 -4.390461e-001 3.094305e+000 120 99 84
8.540742e-001 -4.390461e-001 3.094305e+000 120 99 84
9.438635e-001 -4.720779e-001 3.105966e+000 182 148 120
9.440918e-001 -4.726728e-001 3.105361e+000 182 148 120
9.453814e-001 -4.758644e-001 3.104893e+000 137 104 79
9.453814e-001 -4.758644e-001 3.104893e+000 137 104 79
9.065721e-001 -4.648701e-001 3.126179e+000 173 160 125
8.416477e-001 -4.765265e-001 3.093533e+000 126 79 63
9.212415e-001 -4.830880e-001 3.121970e+000 147 32 39
8.410210e-001 -4.855197e-001 3.098293e+000 149 93 74
8.410210e-001 -4.855197e-001 3.098293e+000 149 93 74
9.154340e-001 -4.972357e-001 3.128162e+000 135 168 174
9.307543e-001 -5.078431e-001 3.122065e+000 147 39 42
8.368287e-001 -5.050861e-001 3.101553e+000 139 86 65
8.368287e-001 -5.050861e-001 3.101553e+000 139 86 65
8.379833e-001 -5.043550e-001 3.105019e+000 148 92 71
8.516982e-001 -4.948621e-001 3.123435e+000 114 69 48
8.520646e-001 -4.987777e-001 3.124308e+000 199 137 107
8.946027e-001 -5.060163e-001 3.137982e+000 103 43 39
9.321125e-001 -5.378812e-001 3.125904e+000 97 133 159
9.321389e-001 -5.379721e-001 3.125831e+000 97 133 159
8.353621e-001 -5.196178e-001 3.108152e+000 147 94 74
8.353621e-001 -5.196178e-001 3.108152e+000 147 94 74
8.496520e-001 -5.050067e-001 3.125053e+000 98 61 40
8.884749e-001 -5.036089e-001 3.142291e+000 175 89 82
8.855528e-001 -5.026052e-001 3.142949e+000 179 94 86
8.868625e-001 -5.040657e-001 3.143015e+000 86 38 36
8.908427e-001 -5.054276e-001 3.142514e+000 175 90 85
8.954986e-001 -5.115581e-001 3.141894e+000 89 54 54
9.297338e-001 -5.385113e-001 3.127648e+000 35 62 81
8.777540e-001 -5.096498e-001 3.146705e+000 149 69 75
9.150700e-001 -5.388658e-001 3.137245e+000 157 126 111
8.353510e-001 -5.362861e-001 3.117410e+000 158 40 46
8.821521e-001 -5.169296e-001 3.147154e+000 113 58 64
8.422414e-001 -5.312044e-001 3.129283e+000 151 38 42
8.851174e-001 -5.257358e-001 3.148846e+000 155 113 105
9.173402e-001 -5.585980e-001 3.139300e+000 170 116 100
9.177399e-001 -5.608708e-001 3.137848e+000 170 116 100
8.388220e-001 -5.463716e-001 3.127959e+000 164 29 43
8.512693e-001 -5.325742e-001 3.140957e+000 222 68 74
8.631277e-001 -5.298659e-001 3.150364e+000 93 37 45
8.417768e-001 -5.450954e-001 3.134598e+000 232 68 77
8.963065e-001 -5.576225e-001 3.148756e+000 112 83 86
8.405315e-001 -5.548792e-001 3.139907e+000 198 141 105
8.507758e-001 -5.456446e-001 3.149539e+000 139 32 37
8.507758e-001 -5.456446e-001 3.149539e+000 139 32 37
9.403010e-001 -3.554882e-001 3.069518e+000 207 177 138
9.263276e-001 -3.524240e-001 3.078504e+000 207 186 143
9.263653e-001 -3.525176e-001 3.078373e+000 207 186 143
9.401910e-001 -3.562929e-001 3.072079e+000 209 177 138
9.430694e-001 -3.582563e-001 3.070084e+000 205 179 139
8.649991e-001 -3.758213e-001 3.072589e+000 183 43 40
8.537300e-001 -3.884443e-001 3.049192e+000 161 51 49
9.080626e-001 -3.754883e-001 3.105019e+000 202 159 120
9.381482e-001 -3.901122e-001 3.090486e+000 179 39 38
9.143350e-001 -3.821615e-001 3.103139e+000 177 42 45
9.263983e-001 -3.887709e-001 3.097339e+000 180 39 39
8.682052e-001 -3.928292e-001 3.085989e+000 130 147 57
9.409249e-001 -4.313222e-001 3.099046e+000 36 61 30
8.539254e-001 -4.192788e-001 3.080530e+000 156 158 69
8.693094e-001 -4.161866e-001 3.103694e+000 150 158 110
8.472013e-001 -4.440611e-001 3.078261e+000 141 127 118
8.407582e-001 -4.583987e-001 3.067719e+000 143 42 53
9.029623e-001 -4.499635e-001 3.124203e+000 169 41 37
9.383991e-001 -4.737684e-001 3.110186e+000 138 102 80
9.410042e-001 -4.758757e-001 3.110183e+000 180 151 121
8.498887e-001 -4.550561e-001 3.097920e+000 150 27 39
8.546140e-001 -4.541587e-001 3.104325e+000 154 29 29
8.950641e-001 -4.553557e-001 3.128177e+000 203 148 124
9.075024e-001 -4.672069e-001 3.126188e+000 170 45 48
9.075244e-001 -4.675600e-001 3.125793e+000 170 45 48
9.219525e-001 -4.866796e-001 3.122599e+000 146 34 39
8.806071e-001 -4.991064e-001 3.143428e+000 93 38 42
8.852719e-001 -5.113864e-001 3.144174e+000 77 33 39
8.340813e-001 -5.304758e-001 3.114296e+000 161 39 48
8.806422e-001 -5.258579e-001 3.150218e+000 170 113 105
8.838776e-001 -5.330323e-001 3.150707e+000 146 107 96
8.346749e-001 -5.556479e-001 3.131206e+000 110 72 45
8.346831e-001 -5.546634e-001 3.132001e+000 110 72 45
9.239780e-001 -5.895424e-001 3.139870e+000 88 52 30
8.391736e-001 -5.544914e-001 3.138178e+000 104 68 45
8.637644e-001 -5.422482e-001 3.155162e+000 183 131 71
9.218109e-001 -3.500616e-001 3.076519e+000 213 185 152
9.342353e-001 -3.534206e-001 3.071438e+000 209 179 141
9.343212e-001 -3.548136e-001 3.074663e+000 207 181 144
9.343212e-001 -3.548136e-001 3.074663e+000 207 181 144
9.313493e-001 -3.845943e-001 3.093150e+000 159 87 58
