ply
format ascii 1.0
element face 0
property list uchar int vertex_indices
element vertex 898
property float x
property float y
property float z
property uchar diffuse_red
property uchar diffuse_green
property uchar diffuse_blue
end_header
8.172770e-001 -5.744615e-001 2.996178e+000 137 54 18
8.018887e-001 -5.835257e-001 2.972286e+000 174 125 80
8.182993e-001 -5.874333e-001 3.016950e+000 188 145 100
8.219725e-001 -5.877318e-001 3.034812e+000 49 19 12
8.160337e-001 -5.931747e-001 3.014966e+000 174 86 29
8.363800e-001 -4.645811e-001 2.948194e+000 26 59 79
8.055455e-001 -4.966958e-001 2.908633e+000 196 127 99
8.244160e-001 -5.162243e-001 2.956487e+000 67 31 7
8.306187e-001 -5.215031e-001 2.995457e+000 151 26 29
8.309110e-001 -5.260141e-001 2.992881e+000 140 30 27
8.288890e-001 -5.268299e-001 2.989609e+000 207 63 54
8.308323e-001 -5.250447e-001 3.001019e+000 211 55 55
8.311221e-001 -5.217030e-001 3.013023e+000 43 21 5
8.069353e-001 -5.403267e-001 2.940533e+000 135 84 61
8.162313e-001 -5.397993e-001 2.960356e+000 185 47 46
8.246324e-001 -5.323846e-001 2.976990e+000 175 33 32
8.251554e-001 -5.337405e-001 2.978423e+000 139 29 28
8.297215e-001 -5.336545e-001 3.004785e+000 230 62 57
8.297215e-001 -5.336545e-001 3.004785e+000 230 62 57
8.020142e-001 -5.486008e-001 2.935536e+000 125 30 32
8.101107e-001 -5.484891e-001 2.954662e+000 231 74 78
8.101107e-001 -5.484891e-001 2.954662e+000 231 74 78
8.172484e-001 -5.420425e-001 2.963397e+000 202 66 62
8.172484e-001 -5.420425e-001 2.963397e+000 202 66 62
8.162923e-001 -5.437728e-001 2.963709e+000 132 27 26
8.174853e-001 -5.433460e-001 2.964800e+000 134 28 27
8.178007e-001 -5.432326e-001 2.964661e+000 134 28 27
8.188702e-001 -5.417017e-001 2.970232e+000 141 28 27
8.191362e-001 -5.417518e-001 2.970079e+000 141 28 27
8.194778e-001 -5.423302e-001 2.965953e+000 137 24 28
8.194778e-001 -5.423302e-001 2.965953e+000 137 24 28
8.179172e-001 -5.460139e-001 2.964856e+000 146 23 29
7.992161e-001 -5.512848e-001 2.944638e+000 130 27 31
8.091642e-001 -5.555712e-001 2.955284e+000 192 55 54
8.021905e-001 -5.591741e-001 2.942465e+000 224 61 67
8.022073e-001 -5.592619e-001 2.942417e+000 224 61 67
7.999439e-001 -5.605098e-001 2.945005e+000 131 22 38
8.007923e-001 -5.592523e-001 2.954433e+000 135 28 33
8.102304e-001 -5.553647e-001 2.960595e+000 135 30 35
8.238235e-001 -5.551288e-001 2.999402e+000 190 130 77
8.031985e-001 -5.678053e-001 2.961852e+000 197 114 89
8.080819e-001 -5.784277e-001 2.977871e+000 175 128 76
7.992912e-001 -5.848321e-001 2.972516e+000 170 130 80
7.449654e-001 -3.820194e-001 2.891403e+000 190 38 52
8.212961e-001 -4.753807e-001 2.915598e+000 15 52 70
8.352722e-001 -4.836783e-001 2.967594e+000 137 81 55
8.257113e-001 -4.992507e-001 2.945490e+000 72 42 28
8.313731e-001 -5.143557e-001 2.981683e+000 129 82 48
8.091113e-001 -5.236819e-001 2.930666e+000 135 79 60
8.098756e-001 -5.449795e-001 2.950327e+000 133 31 24
8.038902e-001 -5.526599e-001 2.948977e+000 131 28 22
8.038902e-001 -5.526599e-001 2.948977e+000 131 28 22
8.068184e-001 -5.531459e-001 2.949307e+000 228 58 67
8.052979e-001 -5.547974e-001 2.954473e+000 145 25 29
7.971048e-001 -5.623799e-001 2.949179e+000 213 83 76
8.228966e-001 -5.541023e-001 2.993336e+000 191 130 83
8.128816e-001 -5.640747e-001 2.977245e+000 165 96 72
7.899167e-001 -6.162862e-001 2.985738e+000 75 16 16
8.268948e-001 -3.046337e-001 2.909333e+000 199 42 42
8.399305e-001 -4.257280e-001 2.909296e+000 35 52 21
8.287578e-001 -4.677781e-001 2.927994e+000 155 22 32
8.321776e-001 -4.653226e-001 2.934704e+000 145 23 30
8.133899e-001 -5.058048e-001 2.922069e+000 159 95 65
8.122891e-001 -5.119629e-001 2.928032e+000 198 123 84
8.209303e-001 -5.221997e-001 2.951341e+000 82 40 16
8.290810e-001 -5.234514e-001 2.993488e+000 147 26 26
8.322367e-001 -5.230159e-001 3.002059e+000 151 24 33
8.122413e-001 -5.712242e-001 2.984103e+000 139 44 25
8.367109e-001 -4.002012e-001 2.885347e+000 27 53 21
8.153472e-001 -4.716593e-001 2.903302e+000 164 71 49
8.341848e-001 -4.072488e-001 2.880707e+000 82 112 80
8.022868e-001 -5.187835e-001 2.917684e+000 189 117 93
8.293803e-001 -5.332816e-001 2.997336e+000 166 22 31
7.935168e-001 -5.633300e-001 2.947797e+000 155 21 35
8.067358e-001 -5.725672e-001 2.966164e+000 180 123 78
8.247235e-001 -5.582972e-001 3.029665e+000 198 103 24
8.455524e-001 -3.684078e-001 2.894952e+000 12 86 116
8.346959e-001 -3.866680e-001 2.859327e+000 229 130 95
8.346959e-001 -3.866680e-001 2.859327e+000 229 130 95
8.359799e-001 -3.829536e-001 2.864438e+000 220 140 102
8.364739e-001 -3.822977e-001 2.868040e+000 220 140 105
8.383690e-001 -3.844701e-001 2.868988e+000 246 121 95
8.430221e-001 -3.786538e-001 2.883666e+000 216 134 88
8.445607e-001 -3.789992e-001 2.880962e+000 216 134 88
8.451583e-001 -3.766739e-001 2.887453e+000 157 51 33
8.414894e-001 -3.765867e-001 2.893037e+000 157 51 33
8.475365e-001 -3.963498e-001 2.896556e+000 40 53 11
8.425985e-001 -3.981948e-001 2.920332e+000 145 149 37
8.332088e-001 -4.071230e-001 2.882554e+000 87 114 102
8.332088e-001 -4.071230e-001 2.882554e+000 87 114 102
8.401725e-001 -4.081370e-001 2.888836e+000 94 116 53
8.400037e-001 -4.106320e-001 2.896886e+000 95 111 38
8.400037e-001 -4.106320e-001 2.896886e+000 95 111 38
8.439070e-001 -4.057134e-001 2.920458e+000 74 107 67
8.439070e-001 -4.057134e-001 2.920458e+000 74 107 67
8.461191e-001 -4.021764e-001 2.927773e+000 67 100 86
8.330465e-001 -4.123168e-001 2.895400e+000 90 116 106
8.340055e-001 -4.142347e-001 2.897356e+000 96 119 74
8.385635e-001 -4.119793e-001 2.912121e+000 80 105 68
8.421323e-001 -4.135459e-001 2.925322e+000 83 116 73
8.431678e-001 -4.147792e-001 2.952424e+000 161 156 116
8.273870e-001 -4.486354e-001 2.913229e+000 92 41 36
8.273870e-001 -4.486354e-001 2.913229e+000 92 41 36
8.289876e-001 -4.481485e-001 2.914554e+000 88 43 35
8.315009e-001 -4.468572e-001 2.919855e+000 94 40 34
8.315009e-001 -4.468572e-001 2.919855e+000 94 40 34
8.342733e-001 -4.439396e-001 2.925564e+000 178 145 110
8.342733e-001 -4.439396e-001 2.925564e+000 178 145 110
8.351197e-001 -4.441080e-001 2.931900e+000 182 149 118
8.390575e-001 -4.462224e-001 2.926244e+000 111 79 59
8.284779e-001 -4.633898e-001 2.925210e+000 228 153 114
8.365072e-001 -4.607127e-001 2.930356e+000 239 143 97
8.374306e-001 -4.599321e-001 2.932563e+000 226 142 100
8.344176e-001 -4.605003e-001 2.939357e+000 133 29 17
8.344176e-001 -4.605003e-001 2.939357e+000 133 29 17
8.357920e-001 -4.582615e-001 2.942357e+000 244 147 96
8.157846e-001 -4.705151e-001 2.895582e+000 242 141 110
8.157846e-001 -4.705151e-001 2.895582e+000 242 141 110
8.156867e-001 -4.704814e-001 2.903759e+000 222 154 108
8.210581e-001 -4.697174e-001 2.913340e+000 222 145 106
8.257993e-001 -4.691467e-001 2.909645e+000 228 146 109
8.251413e-001 -4.673348e-001 2.921621e+000 232 145 112
8.292147e-001 -4.653948e-001 2.928738e+000 222 148 111
8.291701e-001 -4.779977e-001 2.923727e+000 19 80 103
8.263759e-001 -4.865359e-001 2.937647e+000 52 26 13
8.361850e-001 -4.830866e-001 2.968456e+000 202 126 82
8.101157e-001 -5.063896e-001 2.919390e+000 205 130 95
8.013838e-001 -5.139552e-001 2.907746e+000 248 101 96
8.155068e-001 -5.086331e-001 2.929771e+000 199 126 95
8.155269e-001 -5.085902e-001 2.929774e+000 199 126 95
7.734688e-001 -5.208304e-001 2.929817e+000 202 82 85
7.750784e-001 -5.237143e-001 2.932869e+000 169 57 58
8.204995e-001 -5.260090e-001 2.954889e+000 196 125 94
7.607115e-001 -5.375460e-001 2.951618e+000 77 133 209
8.274954e-001 -5.330905e-001 2.978035e+000 135 33 29
8.320616e-001 -5.273461e-001 2.997400e+000 142 30 29
8.054163e-001 -5.465020e-001 2.937827e+000 226 104 88
8.154750e-001 -5.434290e-001 2.960265e+000 252 82 74
8.149782e-001 -5.432371e-001 2.961478e+000 252 82 74
8.193046e-001 -5.384601e-001 2.964092e+000 228 63 67
8.261846e-001 -5.357263e-001 2.988387e+000 154 24 30
7.967427e-001 -5.521108e-001 2.950202e+000 241 92 90
8.150526e-001 -5.516946e-001 2.967426e+000 214 57 54
7.902891e-001 -5.612355e-001 2.956991e+000 234 77 79
7.497654e-001 -3.737905e-001 2.884242e+000 163 49 58
8.429907e-001 -3.765089e-001 2.876831e+000 167 38 38
7.395391e-001 -3.972661e-001 2.907558e+000 159 180 93
8.445430e-001 -4.031796e-001 2.892659e+000 52 100 95
7.474311e-001 -4.225106e-001 2.909862e+000 146 162 99
8.284469e-001 -4.193960e-001 2.863705e+000 153 146 26
8.220063e-001 -4.184754e-001 2.872201e+000 153 146 26
7.501102e-001 -4.354460e-001 2.912487e+000 49 62 36
8.287574e-001 -4.497199e-001 2.913825e+000 179 147 124
7.319446e-001 -4.704242e-001 2.952367e+000 167 89 83
8.180738e-001 -4.698449e-001 2.904108e+000 210 158 113
8.285723e-001 -4.691240e-001 2.930151e+000 25 75 104
8.092173e-001 -4.779240e-001 2.898855e+000 22 84 115
8.403840e-001 -4.726545e-001 2.968712e+000 89 44 21
8.403840e-001 -4.726545e-001 2.968712e+000 89 44 21
7.334666e-001 -4.510474e-001 3.198723e+000 22 15 13
8.120093e-001 -4.953290e-001 2.905517e+000 116 57 44
8.120093e-001 -4.953290e-001 2.905517e+000 116 57 44
8.073293e-001 -5.072637e-001 2.919904e+000 71 38 25
8.125114e-001 -5.061463e-001 2.922033e+000 72 37 29
8.273789e-001 -5.000408e-001 2.935908e+000 195 123 98
7.811683e-001 -5.181714e-001 2.923967e+000 169 52 52
8.092823e-001 -5.203942e-001 2.925441e+000 126 70 54
8.118847e-001 -5.190490e-001 2.930372e+000 133 72 38
8.118847e-001 -5.190490e-001 2.930372e+000 133 72 38
8.312590e-001 -5.098567e-001 2.980346e+000 84 49 26
7.926864e-001 -5.269700e-001 2.908997e+000 172 48 50
8.321436e-001 -5.188515e-001 2.981598e+000 117 74 47
8.326079e-001 -5.180685e-001 2.990429e+000 196 129 84
8.300676e-001 -5.228891e-001 2.987535e+000 200 120 82
8.329942e-001 -5.244180e-001 2.991775e+000 206 57 53
8.312326e-001 -5.253121e-001 3.000351e+000 208 62 57
8.254536e-001 -5.356568e-001 2.977068e+000 213 64 62
8.312061e-001 -5.297635e-001 2.992871e+000 145 32 35
8.308508e-001 -5.295530e-001 2.993762e+000 145 32 35
8.290259e-001 -5.310025e-001 2.994636e+000 222 64 68
8.055867e-001 -5.476582e-001 2.939545e+000 142 30 29
8.016856e-001 -5.458808e-001 2.954067e+000 155 23 31
8.157773e-001 -5.415930e-001 2.969075e+000 214 65 60
8.157773e-001 -5.415930e-001 2.969075e+000 214 65 60
8.216847e-001 -5.387410e-001 2.976460e+000 142 30 29
8.078556e-001 -5.494728e-001 2.947431e+000 152 30 33
8.078556e-001 -5.494728e-001 2.947431e+000 152 30 33
8.023985e-001 -5.566824e-001 2.965117e+000 150 29 30
8.099655e-001 -5.570853e-001 2.961828e+000 235 78 72
8.357213e-001 -3.773744e-001 2.845173e+000 33 92 113
8.346554e-001 -3.991119e-001 2.883380e+000 150 156 36
8.346554e-001 -3.991119e-001 2.883380e+000 150 156 36
7.395181e-001 -4.106985e-001 2.914520e+000 45 59 36
8.429252e-001 -4.044646e-001 2.920775e+000 61 102 109
8.411259e-001 -4.153922e-001 2.929189e+000 167 156 27
8.411220e-001 -4.153408e-001 2.929243e+000 167 156 27
8.269157e-001 -4.496346e-001 2.910086e+000 174 145 125
8.397085e-001 -4.555289e-001 2.970745e+000 20 55 74
7.260966e-001 -4.715813e-001 2.961261e+000 146 50 53
7.365637e-001 -4.724317e-001 2.946723e+000 196 121 123
7.405285e-001 -4.751009e-001 2.942668e+000 198 116 118
8.383998e-001 -4.658932e-001 2.963485e+000 23 81 111
8.391123e-001 -4.741972e-001 2.972526e+000 200 123 81
8.394633e-001 -4.742181e-001 2.972395e+000 200 123 81
7.533154e-001 -4.930425e-001 2.934974e+000 70 60 109
8.333078e-001 -4.855962e-001 2.934153e+000 85 46 20
7.979151e-001 -5.023141e-001 2.898958e+000 177 57 58
8.350436e-001 -4.865482e-001 2.976657e+000 126 71 42
8.367010e-001 -4.862161e-001 2.974718e+000 126 71 42
8.283008e-001 -4.995894e-001 2.941262e+000 52 23 12
8.347086e-001 -4.996226e-001 2.980822e+000 118 73 46
8.331273e-001 -5.011736e-001 2.976724e+000 130 91 62
8.344257e-001 -5.043201e-001 2.981628e+000 127 88 62
8.308719e-001 -5.142260e-001 2.982133e+000 145 98 66
8.210327e-001 -5.268539e-001 2.951057e+000 165 101 81
8.202451e-001 -5.310191e-001 2.953706e+000 85 51 37
8.220820e-001 -5.255605e-001 2.958941e+000 82 47 28
8.091058e-001 -5.365122e-001 2.937921e+000 149 102 75
8.091058e-001 -5.365122e-001 2.937921e+000 149 102 75
8.232883e-001 -5.377111e-001 2.981496e+000 165 32 28
8.135807e-001 -5.465913e-001 2.960465e+000 162 34 20
8.389754e-001 -3.799015e-001 2.849380e+000 180 35 42
8.341147e-001 -3.793905e-001 2.855856e+000 180 35 42
8.369761e-001 -3.783724e-001 2.858351e+000 177 38 35
8.414249e-001 -3.791472e-001 2.871539e+000 180 38 29
8.334315e-001 -3.901932e-001 2.846095e+000 178 32 36
8.341543e-001 -3.903737e-001 2.845290e+000 178 32 36
8.426205e-001 -3.914371e-001 2.906654e+000 166 153 32
8.426205e-001 -3.914371e-001 2.906654e+000 166 153 32
8.372261e-001 -4.015203e-001 2.871580e+000 149 139 22
8.393688e-001 -4.128343e-001 2.888147e+000 85 111 116
8.393688e-001 -4.128343e-001 2.888147e+000 85 111 116
8.403666e-001 -4.103071e-001 2.907888e+000 64 106 111
8.378879e-001 -4.518804e-001 2.950841e+000 164 23 30
8.173655e-001 -4.731784e-001 2.908773e+000 149 24 34
8.338897e-001 -4.653590e-001 2.945686e+000 11 53 75
8.390551e-001 -4.642486e-001 2.978040e+000 20 82 115
8.186477e-001 -4.770169e-001 2.909485e+000 19 55 80
8.226077e-001 -4.745700e-001 2.918294e+000 8 49 70
7.217549e-001 -4.472634e-001 3.213561e+000 36 29 21
7.618007e-001 -4.973134e-001 2.926615e+000 73 53 101
8.356845e-001 -4.813955e-001 2.968098e+000 204 126 79
8.347561e-001 -4.843883e-001 2.973881e+000 195 124 90
7.950709e-001 -5.008827e-001 2.894307e+000 180 57 59
8.256604e-001 -4.960512e-001 2.933961e+000 174 110 75
8.252322e-001 -4.925632e-001 2.941869e+000 202 121 93
8.348658e-001 -4.921190e-001 2.973985e+000 135 78 50
8.219050e-001 -5.050151e-001 2.942665e+000 96 53 28
8.215756e-001 -5.049360e-001 2.942946e+000 96 53 28
8.233072e-001 -5.047884e-001 2.944971e+000 82 38 25
8.330609e-001 -4.967175e-001 2.976849e+000 120 71 37
8.217187e-001 -5.094230e-001 2.944746e+000 121 78 57
8.217187e-001 -5.094230e-001 2.944746e+000 121 78 57
8.220035e-001 -5.138383e-001 2.946203e+000 84 43 26
8.076717e-001 -5.271597e-001 2.928099e+000 192 130 94
8.076717e-001 -5.271597e-001 2.928099e+000 192 130 94
8.204314e-001 -5.199368e-001 2.951847e+000 195 127 88
8.224116e-001 -5.186177e-001 2.957415e+000 196 124 91
8.214018e-001 -5.232518e-001 2.957756e+000 188 125 94
8.214018e-001 -5.232518e-001 2.957756e+000 188 125 94
8.202090e-001 -5.284654e-001 2.956211e+000 198 124 85
8.295659e-001 -5.262490e-001 2.985256e+000 151 27 32
7.703673e-001 -5.390846e-001 2.944719e+000 24 88 155
7.973751e-001 -5.354869e-001 2.942551e+000 201 127 100
7.973751e-001 -5.354869e-001 2.942551e+000 201 127 100
8.064504e-001 -5.378880e-001 2.932020e+000 144 96 76
4.949871e-001 -3.604123e-001 3.239798e+000 97 83 70
4.964766e-001 -3.622013e-001 3.244741e+000 130 111 96
5.010241e-001 -3.938725e-001 3.266860e+000 114 100 91
5.010241e-001 -3.938725e-001 3.266860e+000 114 100 91
7.550660e-001 -4.142662e-001 2.896727e+000 49 63 35
7.469304e-001 -4.159048e-001 2.907291e+000 160 171 131
7.469304e-001 -4.159048e-001 2.907291e+000 160 171 131
5.020939e-001 -4.002667e-001 3.253166e+000 91 80 74
5.020939e-001 -4.002667e-001 3.253166e+000 91 80 74
7.475440e-001 -4.202126e-001 2.908819e+000 101 117 74
7.598861e-001 -4.218631e-001 2.893981e+000 154 173 111
7.740931e-001 -4.319721e-001 2.879447e+000 38 64 39
8.375175e-001 -4.184362e-001 2.910121e+000 29 55 26
5.009320e-001 -4.241937e-001 3.238358e+000 58 46 30
8.293769e-001 -4.789134e-001 2.941989e+000 7 49 68
8.237348e-001 -4.977451e-001 2.941185e+000 196 122 88
8.244380e-001 -4.977860e-001 2.940175e+000 196 122 88
8.092447e-001 -5.102773e-001 2.914446e+000 204 130 95
8.212099e-001 -5.191794e-001 2.955028e+000 194 126 90
7.715996e-001 -3.771275e-001 2.856103e+000 53 96 157
5.028371e-001 -3.644605e-001 3.247267e+000 135 112 94
8.452316e-001 -3.744290e-001 2.900358e+000 21 86 115
5.123115e-001 -3.864619e-001 3.252865e+000 150 124 101
7.534203e-001 -4.053018e-001 2.895567e+000 47 67 40
7.451616e-001 -4.273650e-001 2.915824e+000 101 127 81
8.400687e-001 -4.162723e-001 2.917652e+000 29 56 24
7.524593e-001 -4.460649e-001 2.914505e+000 168 165 176
8.238421e-001 -4.674645e-001 2.918220e+000 101 25 26
8.344892e-001 -4.733174e-001 2.953835e+000 11 56 80
7.549760e-001 -5.257861e-001 2.950890e+000 142 32 43
8.039257e-001 -5.244435e-001 2.917424e+000 204 131 107
8.015462e-001 -5.469437e-001 2.929034e+000 170 21 39
8.121711e-001 -5.505045e-001 2.959953e+000 165 23 31
8.121711e-001 -5.505045e-001 2.959953e+000 165 23 31
4.957896e-001 -3.656337e-001 3.266993e+000 107 90 70
7.418767e-001 -4.411939e-001 2.925697e+000 167 166 171
8.153999e-001 -5.490238e-001 2.963176e+000 169 24 31
8.153999e-001 -5.490238e-001 2.963176e+000 169 24 31
5.055866e-001 -3.767271e-001 3.251676e+000 68 55 48
5.055072e-001 -4.092156e-001 3.261161e+000 140 117 83
7.586784e-001 -4.495237e-001 2.908696e+000 169 167 180
4.872338e-001 -3.742264e-001 3.244750e+000 124 106 85
7.689429e-001 -4.573758e-001 2.901585e+000 166 168 180
7.618482e-001 -5.099379e-001 2.933573e+000 127 32 40
7.797890e-001 -5.215513e-001 2.930134e+000 178 86 78
8.181315e-001 -5.141766e-001 2.938336e+000 197 124 89
4.907805e-001 -3.505137e-001 3.237948e+000 141 118 87
4.834816e-001 -3.839278e-001 3.247667e+000 17 11 13
4.972863e-001 -3.878017e-001 3.254593e+000 118 97 74
7.527085e-001 -4.875938e-001 2.935356e+000 170 34 46
4.847434e-001 -3.639314e-001 3.236351e+000 29 19 20
8.391175e-001 -4.082704e-001 2.976438e+000 179 162 119
7.925430e-001 -4.911233e-001 2.900147e+000 173 168 165
8.051450e-001 -5.535639e-001 2.945627e+000 140 20 25
7.601890e-001 -5.589539e-001 2.969860e+000 186 151 132
8.668747e-001 -5.065702e-001 2.914078e+000 195 131 85
8.417633e-001 -3.741479e-001 2.883679e+000 230 120 90
8.443864e-001 -3.736881e-001 2.888330e+000 158 50 36
8.443864e-001 -3.736881e-001 2.888330e+000 158 50 36
8.403087e-001 -3.957072e-001 2.896930e+000 55 82 41
8.432810e-001 -3.979917e-001 2.919324e+000 155 145 31
8.408493e-001 -4.127353e-001 2.919915e+000 84 111 70
8.341441e-001 -4.408420e-001 2.923228e+000 102 59 49
8.220996e-001 -4.677720e-001 2.914848e+000 225 141 103
8.220996e-001 -4.677720e-001 2.914848e+000 225 141 103
8.258916e-001 -4.667657e-001 2.924264e+000 233 146 116
8.298366e-001 -4.639530e-001 2.927445e+000 217 150 113
8.300185e-001 -4.648434e-001 2.930805e+000 226 145 105
8.350773e-001 -4.591804e-001 2.940319e+000 226 140 105
8.361232e-001 -4.571478e-001 2.944723e+000 240 139 106
8.385498e-001 -4.550754e-001 2.952154e+000 146 49 38
8.386259e-001 -4.549888e-001 2.952256e+000 146 49 38
8.266226e-001 -4.898198e-001 2.943354e+000 63 31 14
8.333959e-001 -5.050747e-001 2.979119e+000 195 132 90
8.343982e-001 -3.832506e-001 2.858348e+000 205 129 93
8.348185e-001 -3.832895e-001 2.868606e+000 156 43 33
8.341718e-001 -4.461569e-001 2.926353e+000 187 141 113
7.952429e-001 -5.207373e-001 2.905263e+000 188 87 85
7.924020e-001 -5.256146e-001 2.907996e+000 205 90 90
8.080578e-001 -5.292011e-001 2.929555e+000 73 31 17
8.301388e-001 -3.913895e-001 2.862894e+000 61 95 105
8.079086e-001 -5.032157e-001 2.913171e+000 172 109 79
8.079086e-001 -5.032157e-001 2.913171e+000 172 109 79
8.257085e-001 -4.995616e-001 2.945413e+000 70 37 20
8.249491e-001 -5.166109e-001 2.955679e+000 55 27 16
8.216190e-001 -4.713222e-001 2.915535e+000 137 24 28
8.390216e-001 -4.671997e-001 2.959455e+000 20 80 107
8.382301e-001 -4.667809e-001 2.961095e+000 20 80 107
8.030138e-001 -5.046193e-001 2.904641e+000 165 49 46
8.355326e-001 -4.906899e-001 2.970555e+000 209 115 83
8.355268e-001 -4.926167e-001 2.972388e+000 148 86 59
8.214049e-001 -5.117296e-001 2.946663e+000 197 125 93
8.139031e-001 -5.201478e-001 2.935600e+000 187 125 89
8.214621e-001 -5.157218e-001 2.948955e+000 195 125 92
8.102165e-001 -5.260837e-001 2.930555e+000 194 122 96
8.207751e-001 -5.200487e-001 2.951439e+000 210 121 90
8.005467e-001 -5.379094e-001 2.921904e+000 130 23 35
8.309873e-001 -4.152351e-001 2.884055e+000 118 124 64
8.315787e-001 -4.150358e-001 2.883668e+000 118 124 64
8.396889e-001 -4.243901e-001 2.921012e+000 30 54 17
8.199128e-001 -5.079033e-001 2.939720e+000 195 125 91
8.326144e-001 -4.129995e-001 2.897514e+000 84 110 114
8.326144e-001 -4.129995e-001 2.897514e+000 84 110 114
8.241767e-001 -5.130038e-001 2.945879e+000 138 83 55
8.241767e-001 -5.130038e-001 2.945879e+000 138 83 55
8.453237e-001 -3.484824e-001 2.887486e+000 22 89 116
7.186567e-001 -3.394563e-001 3.267561e+000 42 35 26
7.228687e-001 -3.399961e-001 3.263876e+000 135 125 90
7.224380e-001 -3.473528e-001 3.255997e+000 47 45 32
8.030325e-001 -5.613437e-001 2.946864e+000 227 81 81
8.013509e-001 -5.638644e-001 2.944154e+000 106 13 17
8.118718e-001 -5.687897e-001 2.978552e+000 155 75 24
8.081995e-001 -5.764838e-001 2.975989e+000 179 127 77
8.150751e-001 -5.707654e-001 2.989764e+000 166 55 26
8.193142e-001 -5.711858e-001 3.008559e+000 208 117 43
8.057502e-001 -5.819543e-001 2.977426e+000 170 121 70
8.105385e-001 -5.780963e-001 2.987917e+000 175 115 69
8.176694e-001 -5.830868e-001 3.016843e+000 190 144 104
8.066048e-001 -6.028020e-001 3.004193e+000 162 125 80
7.989063e-001 -6.072008e-001 2.988412e+000 18 11 5
8.006120e-001 -5.544210e-001 2.941202e+000 109 28 19
8.005707e-001 -5.575164e-001 2.940334e+000 129 21 25
8.148979e-001 -5.594061e-001 2.975639e+000 61 28 16
8.153801e-001 -5.593317e-001 2.975182e+000 61 28 16
8.001708e-001 -5.641672e-001 2.942022e+000 129 21 27
8.146224e-001 -5.723340e-001 2.989054e+000 121 33 27
8.170972e-001 -5.896463e-001 3.023652e+000 161 86 25
8.071579e-001 -5.601351e-001 2.957590e+000 131 23 26
8.203776e-001 -5.555336e-001 2.991108e+000 182 126 74
8.053265e-001 -5.781508e-001 2.968110e+000 169 124 75
8.140097e-001 -5.340135e-001 2.949846e+000 179 111 74
8.172700e-001 -5.527351e-001 2.973291e+000 229 78 74
8.265249e-001 -5.469868e-001 3.002315e+000 206 134 81
7.984712e-001 -5.624117e-001 2.942428e+000 211 64 65
8.247310e-001 -5.616798e-001 3.010186e+000 189 57 37
8.247870e-001 -5.604407e-001 3.015394e+000 196 71 27
8.199726e-001 -5.705986e-001 3.001112e+000 174 65 34
8.235839e-001 -5.679744e-001 3.018489e+000 191 81 25
8.249937e-001 -5.680747e-001 3.016764e+000 191 81 25
8.144324e-001 -5.774933e-001 2.995003e+000 179 70 27
8.222829e-001 -5.726038e-001 3.010255e+000 186 85 24
8.000184e-001 -5.865407e-001 2.974998e+000 176 127 79
8.087979e-001 -5.833917e-001 2.985751e+000 50 27 7
8.087404e-001 -5.833700e-001 2.985834e+000 50 27 7
8.088395e-001 -5.864774e-001 2.987498e+000 168 125 75
8.198844e-001 -5.800086e-001 3.023082e+000 220 153 101
7.984095e-001 -5.933696e-001 2.968812e+000 172 127 87
8.007697e-001 -5.941869e-001 2.981992e+000 23 16 9
8.071088e-001 -5.903838e-001 2.990177e+000 27 17 12
8.161944e-001 -5.871776e-001 3.020866e+000 188 145 100
8.187211e-001 -5.903265e-001 3.029117e+000 182 94 30
7.966447e-001 -5.962480e-001 2.977327e+000 14 5 4
7.981869e-001 -5.964314e-001 2.974463e+000 14 5 4
8.106234e-001 -5.986729e-001 3.009377e+000 90 68 37
8.141570e-001 -5.937541e-001 3.023726e+000 175 87 27
8.150810e-001 -5.970532e-001 3.023086e+000 34 10 2
8.174692e-001 -5.911175e-001 3.033143e+000 34 9 2
8.190453e-001 -5.936437e-001 3.030192e+000 56 15 1
8.166935e-001 -5.933163e-001 3.034584e+000 56 15 1
7.951665e-001 -6.091967e-001 2.983569e+000 21 11 2
7.938412e-001 -6.090429e-001 2.986011e+000 21 11 2
7.949501e-001 -6.127814e-001 2.996908e+000 120 62 39
8.242015e-001 -5.534303e-001 3.000683e+000 94 54 24
8.118142e-001 -5.736785e-001 2.982338e+000 181 118 66
8.038718e-001 -5.792595e-001 2.967237e+000 178 131 81
8.076744e-001 -5.802483e-001 2.982914e+000 174 126 80
8.243010e-001 -5.720217e-001 3.033907e+000 42 19 16
8.243010e-001 -5.720217e-001 3.033907e+000 42 19 16
7.998156e-001 -5.881681e-001 2.966809e+000 175 131 85
8.094914e-001 -5.816802e-001 2.985570e+000 173 127 82
7.955413e-001 -5.910385e-001 2.973089e+000 180 127 83
8.008926e-001 -6.057697e-001 2.996775e+000 173 126 91
8.057983e-001 -6.042397e-001 3.008545e+000 106 50 23
8.239822e-001 -5.492632e-001 2.997406e+000 90 54 26
8.030257e-001 -5.571911e-001 2.942029e+000 141 26 34
8.025552e-001 -5.571550e-001 2.941882e+000 141 26 34
8.226655e-001 -5.540598e-001 2.993786e+000 191 130 83
8.059078e-001 -5.651001e-001 2.958014e+000 173 102 73
8.075545e-001 -5.644838e-001 2.961258e+000 69 32 7
8.193653e-001 -5.634140e-001 2.992061e+000 190 128 69
7.941726e-001 -5.900757e-001 2.969166e+000 178 128 93
8.041969e-001 -6.038177e-001 3.003624e+000 172 127 97
8.185787e-001 -5.571356e-001 2.986899e+000 196 129 77
8.066985e-001 -5.668335e-001 2.959715e+000 195 116 78
8.139415e-001 -5.659312e-001 2.978666e+000 196 114 69
8.188008e-001 -5.653945e-001 2.995288e+000 162 84 29
8.025017e-001 -5.777117e-001 2.961215e+000 97 65 37
8.306017e-001 -5.302776e-001 3.005198e+000 163 24 29
8.198721e-001 -5.859805e-001 3.033643e+000 187 94 26
8.462711e-001 -3.700516e-001 2.894395e+000 166 100 74
8.410339e-001 -3.789787e-001 2.875070e+000 163 53 34
8.437448e-001 -3.981204e-001 2.918748e+000 145 149 37
8.176217e-001 -4.758236e-001 2.912479e+000 8 50 72
8.044578e-001 -5.087236e-001 2.905575e+000 162 53 42
8.157815e-001 -5.224297e-001 2.940406e+000 195 124 92
8.299789e-001 -5.301838e-001 2.996187e+000 210 57 62
8.168209e-001 -5.505776e-001 2.969990e+000 155 27 33
8.217924e-001 -5.482732e-001 2.978882e+000 127 31 27
8.217924e-001 -5.482732e-001 2.978882e+000 127 31 27
8.203621e-001 -5.497239e-001 2.980647e+000 218 68 63
8.161035e-001 -5.528957e-001 2.967731e+000 135 30 30
8.152313e-001 -5.527960e-001 2.968836e+000 135 30 30
8.271326e-001 -5.472600e-001 3.001445e+000 192 126 81
8.033709e-001 -5.642464e-001 2.965963e+000 198 127 98
8.139986e-001 -5.637529e-001 2.977700e+000 198 125 91
8.201241e-001 -5.589182e-001 2.988473e+000 197 129 84
8.054016e-001 -5.663304e-001 2.972897e+000 190 122 94
8.085839e-001 -5.663209e-001 2.972773e+000 215 134 102
8.191721e-001 -5.658501e-001 2.997042e+000 112 50 13
7.642699e-001 -5.809722e-001 2.977324e+000 139 75 50
8.077674e-001 -5.768153e-001 2.974141e+000 182 136 89
8.100248e-001 -5.779776e-001 2.981958e+000 129 90 50
8.060893e-001 -5.774062e-001 2.988674e+000 129 90 50
8.141342e-001 -5.758660e-001 2.992185e+000 181 70 33
8.185971e-001 -5.706518e-001 2.994990e+000 174 65 32
8.139326e-001 -5.715334e-001 3.002115e+000 149 48 19
8.179504e-001 -5.725224e-001 2.997561e+000 176 66 31
8.184871e-001 -5.711039e-001 3.000196e+000 177 68 32
8.038921e-001 -5.798318e-001 2.981396e+000 128 91 61
8.038921e-001 -5.798318e-001 2.981396e+000 128 91 61
8.058099e-001 -5.817988e-001 2.977267e+000 178 134 95
8.061140e-001 -5.787985e-001 2.987097e+000 183 135 86
8.091759e-001 -5.834947e-001 2.985205e+000 56 27 9
8.113683e-001 -5.781755e-001 2.986464e+000 183 130 80
8.089751e-001 -5.791555e-001 2.990457e+000 131 87 51
8.089751e-001 -5.791555e-001 2.990457e+000 131 87 51
8.164775e-001 -5.774653e-001 2.988474e+000 130 50 19
8.106046e-001 -5.871898e-001 2.998211e+000 34 20 19
8.185778e-001 -5.808126e-001 3.018779e+000 23 14 7
8.191888e-001 -5.810498e-001 3.022560e+000 18 10 5
8.145470e-001 -5.795564e-001 3.043137e+000 193 148 119
7.866302e-001 -5.956405e-001 2.987992e+000 18 9 2
8.003967e-001 -5.915551e-001 2.992256e+000 32 15 24
8.156563e-001 -5.879241e-001 3.017126e+000 196 152 109
8.180102e-001 -5.903673e-001 3.038051e+000 42 10 1
8.199612e-001 -5.887854e-001 3.043080e+000 57 16 1
8.206665e-001 -5.888758e-001 3.042531e+000 57 16 1
8.138517e-001 -5.947560e-001 3.025317e+000 51 19 7
8.107969e-001 -5.988824e-001 3.021407e+000 37 11 2
8.102216e-001 -5.988430e-001 3.022159e+000 37 11 2
8.168592e-001 -5.952224e-001 3.027795e+000 39 16 6
8.204066e-001 -5.929952e-001 3.043757e+000 31 19 31
7.902911e-001 -6.146130e-001 2.976155e+000 170 128 107
7.902911e-001 -6.146130e-001 2.976155e+000 170 128 107
8.144714e-001 -4.761005e-001 2.905219e+000 19 80 110
8.260504e-001 -5.348206e-001 2.984451e+000 145 29 32
8.289183e-001 -5.363098e-001 2.998828e+000 251 75 77
8.293955e-001 -5.367627e-001 2.998201e+000 251 75 77
8.225275e-001 -5.457846e-001 2.987547e+000 222 74 72
8.291107e-001 -5.379694e-001 3.020800e+000 74 30 18
8.136539e-001 -5.523977e-001 2.965764e+000 211 65 61
8.134560e-001 -5.523301e-001 2.965899e+000 211 65 61
8.160995e-001 -5.534996e-001 2.970958e+000 213 65 58
8.161429e-001 -5.534193e-001 2.970913e+000 213 65 58
8.028429e-001 -5.841293e-001 2.974531e+000 113 81 50
8.036478e-001 -5.855272e-001 2.974390e+000 179 135 95
8.079357e-001 -5.787872e-001 2.987233e+000 185 135 89
8.146915e-001 -5.790751e-001 2.994313e+000 104 31 13
8.186389e-001 -5.750172e-001 3.006222e+000 202 111 37
8.186389e-001 -5.750172e-001 3.006222e+000 202 111 37
7.994842e-001 -5.905934e-001 2.969543e+000 181 125 91
8.026127e-001 -5.878623e-001 2.972737e+000 54 33 14
8.026127e-001 -5.878623e-001 2.972737e+000 54 33 14
8.175250e-001 -5.855796e-001 3.013613e+000 183 150 112
8.114970e-001 -5.911831e-001 3.021841e+000 173 97 35
8.162574e-001 -5.908690e-001 3.030192e+000 175 93 33
8.050126e-001 -6.023851e-001 3.006722e+000 176 132 105
7.964978e-001 -6.124977e-001 2.990195e+000 99 41 35
8.469994e-001 -2.855229e-001 2.801272e+000 190 45 44
8.238211e-001 -4.272825e-001 2.885391e+000 145 148 38
8.278198e-001 -5.304302e-001 2.983683e+000 136 24 33
8.218087e-001 -5.395624e-001 2.973945e+000 137 29 29
8.220682e-001 -5.546792e-001 2.984939e+000 84 46 16
8.205410e-001 -5.544820e-001 2.987251e+000 84 46 16
8.118826e-001 -5.625490e-001 2.966256e+000 84 51 28
8.105418e-001 -5.622106e-001 2.967915e+000 84 51 28
8.104813e-001 -5.658076e-001 2.971897e+000 112 71 49
8.001980e-001 -5.889749e-001 2.968618e+000 145 107 73
8.211099e-001 -5.816885e-001 3.037226e+000 196 106 45
8.133213e-001 -5.917238e-001 3.016028e+000 176 95 27
7.614825e-001 -6.196214e-001 3.004675e+000 133 30 41
4.945007e-001 -3.193156e-001 3.232264e+000 85 70 54
8.138627e-001 -4.784345e-001 2.905837e+000 4 47 68
8.213137e-001 -4.754021e-001 2.915526e+000 15 53 76
8.328449e-001 -5.259538e-001 3.002198e+000 153 23 29
8.084058e-001 -5.517004e-001 2.950129e+000 158 26 32
8.211601e-001 -5.543927e-001 2.986568e+000 77 39 15
8.067480e-001 -5.669402e-001 2.959580e+000 203 126 99
8.134894e-001 -5.617288e-001 2.977551e+000 200 125 90
8.248422e-001 -5.597959e-001 3.011319e+000 113 23 22
4.850492e-001 -3.212678e-001 3.229504e+000 94 81 64
4.898447e-001 -3.199608e-001 3.231999e+000 94 78 62
4.992770e-001 -3.162624e-001 3.238137e+000 107 87 77
4.976562e-001 -3.241178e-001 3.233557e+000 104 86 75
8.201975e-001 -4.727372e-001 2.908462e+000 162 23 31
4.749372e-001 -3.597332e-001 3.248284e+000 39 29 30
8.212729e-001 -5.809253e-001 3.043086e+000 198 95 36
4.963060e-001 -3.150627e-001 3.228951e+000 132 111 84
4.972976e-001 -3.341846e-001 3.238830e+000 126 104 81
5.066082e-001 -3.276540e-001 3.234543e+000 69 58 52
4.932926e-001 -3.408369e-001 3.237306e+000 84 65 58
4.826681e-001 -3.057699e-001 3.234776e+000 69 52 36
8.092982e-001 -5.109691e-001 3.062531e+000 40 30 29
8.377844e-001 -5.480740e-001 2.990126e+000 195 128 83
8.263698e-001 -4.471939e-001 2.909921e+000 193 109 94
8.290333e-001 -4.655082e-001 2.928790e+000 226 146 112
8.275715e-001 -4.707061e-001 2.928002e+000 9 48 71
8.322255e-001 -4.752418e-001 2.946533e+000 6 54 76
8.392831e-001 -4.714957e-001 2.969511e+000 187 119 84
8.017199e-001 -5.137057e-001 2.907764e+000 217 88 86
8.094894e-001 -5.130523e-001 2.919310e+000 191 120 94
8.359885e-001 -5.181126e-001 2.997167e+000 127 27 26
8.359885e-001 -5.181126e-001 2.997167e+000 127 27 26
8.340643e-001 -5.246536e-001 2.994646e+000 139 26 33
8.340643e-001 -5.246536e-001 2.994646e+000 139 26 33
8.057842e-001 -5.417454e-001 2.934555e+000 67 38 24
8.058202e-001 -5.417283e-001 2.934602e+000 67 38 24
8.085483e-001 -5.476675e-001 2.946285e+000 222 75 75
8.132459e-001 -5.437962e-001 2.952582e+000 148 26 33
8.203386e-001 -5.431610e-001 2.971041e+000 245 82 82
8.194162e-001 -5.491141e-001 2.974993e+000 254 81 78
8.046325e-001 -5.590321e-001 2.948654e+000 125 26 31
8.064396e-001 -5.570102e-001 2.949648e+000 126 25 32
8.136067e-001 -5.541526e-001 2.963762e+000 153 31 42
8.165313e-001 -5.526742e-001 2.968789e+000 158 31 38
8.145707e-001 -5.637318e-001 2.977255e+000 195 120 88
8.083348e-001 -5.678968e-001 2.966324e+000 62 28 13
8.122922e-001 -5.764330e-001 2.986754e+000 111 35 10
8.122922e-001 -5.764330e-001 2.986754e+000 111 35 10
8.179179e-001 -5.693771e-001 2.996109e+000 122 43 23
8.205522e-001 -5.734237e-001 3.009918e+000 188 85 38
8.073660e-001 -5.805137e-001 2.979663e+000 164 116 82
8.037887e-001 -5.859360e-001 2.978115e+000 175 123 85
8.037887e-001 -5.859360e-001 2.978115e+000 175 123 85
8.175484e-001 -5.778996e-001 3.007446e+000 218 114 42
8.033446e-001 -5.891742e-001 2.980847e+000 168 120 82
8.015860e-001 -6.032395e-001 2.996945e+000 159 124 103
8.068187e-001 -5.993395e-001 3.006672e+000 16 9 4
8.219456e-001 -5.882656e-001 3.049503e+000 220 104 51
7.922581e-001 -6.105316e-001 2.987038e+000 162 119 98
7.951151e-001 -6.077030e-001 2.991120e+000 169 123 103
7.937365e-001 -6.126443e-001 2.994781e+000 110 47 41
8.022894e-001 -6.062357e-001 3.008488e+000 125 56 38
8.320378e-001 -5.263620e-001 2.988773e+000 212 54 61
8.305435e-001 -5.254166e-001 2.991405e+000 212 54 61
8.341326e-001 -5.232188e-001 2.994148e+000 217 59 63
8.341326e-001 -5.232188e-001 2.994148e+000 217 59 63
8.270329e-001 -5.327519e-001 2.987548e+000 141 31 36
8.328678e-001 -5.277760e-001 3.000038e+000 240 77 84
8.308928e-001 -5.308049e-001 2.995155e+000 221 66 68
8.083667e-001 -5.447702e-001 2.944036e+000 205 90 77
8.162018e-001 -5.416143e-001 2.960750e+000 143 28 28
8.171082e-001 -5.443337e-001 2.967592e+000 213 67 60
8.279116e-001 -5.350521e-001 2.986433e+000 224 72 69
8.319131e-001 -5.340255e-001 3.003278e+000 243 68 77
8.024680e-001 -5.556604e-001 2.939996e+000 209 67 71
8.039574e-001 -5.549985e-001 2.942347e+000 201 51 60
8.111371e-001 -5.539752e-001 2.957870e+000 207 47 51
8.131968e-001 -5.537063e-001 2.960176e+000 238 66 75
8.131968e-001 -5.537063e-001 2.960176e+000 238 66 75
8.113761e-001 -5.547688e-001 2.963294e+000 144 24 29
8.116274e-001 -5.559668e-001 2.964414e+000 238 83 83
8.128594e-001 -5.560802e-001 2.963329e+000 238 83 83
8.183043e-001 -5.515984e-001 2.976834e+000 193 42 44
8.188215e-001 -5.516926e-001 2.976600e+000 193 42 44
8.139337e-001 -5.753845e-001 2.988953e+000 124 39 17
8.232857e-001 -5.685234e-001 3.012578e+000 192 70 26
8.073180e-001 -5.999752e-001 3.013833e+000 166 124 99
8.398870e-001 -4.032381e-001 2.913405e+000 161 154 35
8.352799e-001 -4.456993e-001 2.927264e+000 186 143 111
8.011860e-001 -5.269929e-001 2.911731e+000 165 35 45
8.338282e-001 -5.125238e-001 2.985969e+000 90 49 23
8.325231e-001 -5.188900e-001 2.981645e+000 104 58 28
8.215173e-001 -5.298567e-001 2.961527e+000 96 56 35
8.286960e-001 -5.307118e-001 2.982584e+000 163 23 36
8.108819e-001 -5.450197e-001 2.948969e+000 154 28 39
8.098548e-001 -5.476172e-001 2.950998e+000 147 28 36
8.231877e-001 -5.396682e-001 2.977928e+000 240 69 80
8.013250e-001 -5.572434e-001 2.939842e+000 129 24 34
8.165478e-001 -5.497867e-001 2.972645e+000 217 60 61
8.078629e-001 -5.643636e-001 2.960826e+000 111 60 39
8.247049e-001 -5.719117e-001 3.030453e+000 78 44 29
7.989990e-001 -6.080906e-001 2.999211e+000 91 44 30
8.310867e-001 -3.823300e-001 2.849747e+000 200 145 104
8.392998e-001 -4.029483e-001 2.910114e+000 30 57 8
8.251050e-001 -4.791689e-001 2.932177e+000 21 82 111
8.154569e-001 -5.650775e-001 2.981270e+000 205 118 82
8.059468e-001 -5.756295e-001 2.969877e+000 130 89 59
8.455232e-001 -3.474212e-001 2.875939e+000 30 90 124
8.385041e-001 -4.536367e-001 2.947484e+000 159 27 28
8.091180e-001 -5.307226e-001 2.931746e+000 197 120 98
8.051663e-001 -5.360216e-001 2.930057e+000 194 120 99
8.245280e-001 -4.129252e-001 2.875306e+000 25 51 22
8.159988e-001 -5.353422e-001 2.955698e+000 197 124 91
8.186370e-001 -5.463218e-001 2.973636e+000 171 21 33
8.191772e-001 -5.464985e-001 2.972596e+000 171 21 33
8.256337e-001 -5.222685e-001 2.974511e+000 199 136 93
8.318482e-001 -3.805574e-001 2.843172e+000 158 27 33
8.445147e-001 -3.783974e-001 2.882202e+000 209 134 94
8.456386e-001 -3.795477e-001 2.895165e+000 160 38 36
8.473335e-001 -3.894968e-001 2.919303e+000 33 42 4
8.295355e-001 -4.242903e-001 2.875776e+000 132 138 35
8.295355e-001 -4.242903e-001 2.875776e+000 132 138 35
8.336950e-001 -4.145887e-001 2.897488e+000 90 94 49
8.360290e-001 -4.185512e-001 2.903674e+000 83 100 36
8.360290e-001 -4.185512e-001 2.903674e+000 83 100 36
8.268606e-001 -4.476284e-001 2.909145e+000 188 109 93
8.361669e-001 -4.393572e-001 2.926793e+000 91 28 20
8.368779e-001 -4.382492e-001 2.928938e+000 67 36 22
8.368779e-001 -4.382492e-001 2.928938e+000 67 36 22
8.354678e-001 -4.435917e-001 2.926825e+000 164 129 99
8.255003e-001 -4.662629e-001 2.920292e+000 195 140 98
8.286906e-001 -4.637868e-001 2.924685e+000 198 140 104
8.320543e-001 -4.631896e-001 2.934493e+000 207 137 93
8.326859e-001 -4.621382e-001 2.935417e+000 89 24 15
8.337845e-001 -4.602519e-001 2.937795e+000 195 137 84
8.334749e-001 -4.616371e-001 2.939054e+000 200 127 79
8.345232e-001 -4.604735e-001 2.941560e+000 211 131 93
8.375723e-001 -4.581279e-001 2.946578e+000 216 128 96
8.411174e-001 -4.521087e-001 2.956503e+000 231 138 104
8.402982e-001 -4.532310e-001 2.956180e+000 111 27 23
8.411721e-001 -4.508610e-001 2.959283e+000 218 131 96
8.159146e-001 -4.724375e-001 2.903778e+000 193 145 104
8.180968e-001 -4.713050e-001 2.908644e+000 209 140 98
8.302385e-001 -4.650373e-001 2.930566e+000 194 131 87
8.309922e-001 -4.643454e-001 2.932675e+000 198 133 92
8.310898e-001 -4.643083e-001 2.932780e+000 198 133 92
8.235920e-001 -4.919710e-001 2.936043e+000 172 107 84
8.262639e-001 -4.897381e-001 2.943517e+000 46 15 2
8.386989e-001 -4.760010e-001 2.972956e+000 38 7 3
8.237980e-001 -4.954692e-001 2.939533e+000 180 107 81
8.288889e-001 -5.279922e-001 2.989735e+000 141 27 33
8.093864e-001 -5.464841e-001 2.949392e+000 206 41 46
8.144326e-001 -5.407912e-001 2.956598e+000 215 60 73
8.151114e-001 -5.434012e-001 2.960444e+000 216 69 72
8.223346e-001 -5.356447e-001 2.975282e+000 136 24 30
8.245619e-001 -5.355588e-001 2.981829e+000 121 24 34
8.021491e-001 -5.543041e-001 2.936958e+000 132 23 29
8.082041e-001 -5.679198e-001 2.966360e+000 43 12 5
8.192952e-001 -5.670103e-001 2.999380e+000 97 41 12
8.203996e-001 -5.650857e-001 3.001300e+000 161 96 45
8.207403e-001 -5.673161e-001 3.005233e+000 103 47 8
8.044163e-001 -5.830359e-001 2.972438e+000 170 122 85
8.072731e-001 -5.790914e-001 2.976456e+000 165 116 84
8.044449e-001 -5.839298e-001 2.974083e+000 75 42 19
8.062280e-001 -5.821324e-001 2.976439e+000 163 118 84
8.144125e-001 -5.745189e-001 2.992763e+000 106 24 9
8.168095e-001 -5.720865e-001 2.999403e+000 168 67 28
7.977185e-001 -5.976332e-001 2.969536e+000 20 12 8
8.235077e-001 -5.823302e-001 3.032188e+000 29 14 4
8.139054e-001 -5.930898e-001 3.018973e+000 160 86 33
8.129458e-001 -5.942778e-001 3.017638e+000 165 85 35
8.201529e-001 -5.873314e-001 3.039498e+000 39 15 8
7.947743e-001 -6.110455e-001 2.978998e+000 17 11 8
7.928921e-001 -6.135910e-001 2.978051e+000 169 129 111
7.928921e-001 -6.135910e-001 2.978051e+000 169 129 111
7.951475e-001 -6.119534e-001 2.983010e+000 171 126 107
8.366076e-001 -3.792412e-001 2.849145e+000 168 28 34
8.361795e-001 -3.826843e-001 2.847106e+000 148 31 27
8.361795e-001 -3.826843e-001 2.847106e+000 148 31 27
8.374087e-001 -4.175857e-001 2.906819e+000 141 141 34
8.365013e-001 -4.175138e-001 2.907320e+000 141 141 34
8.393395e-001 -4.715330e-001 2.972183e+000 44 9 4
8.376038e-001 -4.779820e-001 2.968822e+000 50 15 14
8.094313e-001 -5.203434e-001 2.925390e+000 84 45 33
8.131837e-001 -5.264704e-001 2.939503e+000 40 18 14
8.131837e-001 -5.264704e-001 2.939503e+000 40 18 14
8.213801e-001 -5.168182e-001 2.953061e+000 171 110 81
8.078775e-001 -5.334196e-001 2.932010e+000 63 28 25
8.334201e-001 -5.186675e-001 2.994511e+000 178 116 85
8.087437e-001 -5.416494e-001 2.940480e+000 186 106 81
8.312693e-001 -5.239773e-001 2.993046e+000 143 22 30
8.063341e-001 -5.472706e-001 2.941023e+000 131 22 30
8.242087e-001 -5.333467e-001 2.979673e+000 118 15 21
8.261937e-001 -5.337122e-001 2.986028e+000 140 23 36
8.283711e-001 -5.317108e-001 2.989038e+000 135 24 26
8.292793e-001 -5.303324e-001 2.991868e+000 130 21 33
8.292793e-001 -5.303324e-001 2.991868e+000 130 21 33
8.051563e-001 -5.540272e-001 2.944816e+000 213 51 62
8.132315e-001 -5.449653e-001 2.959373e+000 129 23 27
8.161234e-001 -5.439459e-001 2.962954e+000 126 24 27
8.160894e-001 -5.431494e-001 2.965439e+000 127 22 27
8.278084e-001 -5.375593e-001 2.995869e+000 224 60 66
8.117764e-001 -5.549067e-001 2.962638e+000 132 21 28
8.085928e-001 -5.669687e-001 2.968785e+000 103 62 40
8.162512e-001 -5.709956e-001 2.995835e+000 175 63 29
8.078893e-001 -5.862888e-001 2.988416e+000 160 118 83
7.987790e-001 -6.067730e-001 2.988628e+000 27 12 7
8.157023e-001 -5.947801e-001 3.030836e+000 27 7 5
8.478074e-001 -3.464294e-001 2.865868e+000 33 78 99
8.386046e-001 -3.763952e-001 2.864765e+000 161 27 35
8.384072e-001 -3.851087e-001 2.855866e+000 153 34 33
8.364924e-001 -4.006591e-001 2.887852e+000 21 43 24
8.407822e-001 -3.976261e-001 2.894544e+000 145 138 29
8.407822e-001 -3.976261e-001 2.894544e+000 145 138 29
8.362260e-001 -4.038886e-001 2.889709e+000 50 90 84
8.403745e-001 -4.066717e-001 2.913196e+000 58 85 86
8.329785e-001 -4.190022e-001 2.896828e+000 143 135 27
8.314133e-001 -4.492334e-001 2.919155e+000 161 130 107
8.248826e-001 -4.896298e-001 2.935050e+000 175 108 75
8.372904e-001 -4.815014e-001 2.972802e+000 73 34 18
8.366815e-001 -4.856819e-001 2.975301e+000 86 58 38
8.330940e-001 -5.119039e-001 2.987010e+000 71 30 8
8.052733e-001 -5.401629e-001 2.931203e+000 188 105 84
8.180580e-001 -5.308016e-001 2.956384e+000 66 42 24
8.182584e-001 -5.308197e-001 2.956280e+000 66 42 24
8.326974e-001 -5.241907e-001 2.999577e+000 226 82 89
8.326974e-001 -5.241907e-001 2.999577e+000 226 82 89
8.058961e-001 -5.524632e-001 2.945614e+000 120 21 22
8.324786e-001 -4.015414e-001 2.879188e+000 139 133 28
8.422597e-001 -4.044157e-001 2.921732e+000 58 90 91
8.403973e-001 -4.546978e-001 2.959588e+000 136 21 18
8.276920e-001 -4.876762e-001 2.942842e+000 181 108 74
8.276920e-001 -4.876762e-001 2.942842e+000 181 108 74
8.285046e-001 -4.886178e-001 2.945696e+000 176 111 84
8.365795e-001 -4.808672e-001 2.968332e+000 180 107 80
8.370881e-001 -4.796547e-001 2.970632e+000 186 106 70
8.230050e-001 -4.961812e-001 2.937763e+000 170 103 79
8.134953e-001 -5.140331e-001 2.929100e+000 137 94 72
8.134953e-001 -5.140331e-001 2.929100e+000 137 94 72
8.224557e-001 -5.094254e-001 2.947235e+000 72 44 25
8.217378e-001 -5.117079e-001 2.946793e+000 175 105 81
8.328636e-001 -5.070871e-001 2.980722e+000 183 119 77
8.334422e-001 -5.058958e-001 2.982695e+000 183 120 78
8.336712e-001 -5.077183e-001 2.984790e+000 111 63 36
8.336712e-001 -5.077183e-001 2.984790e+000 111 63 36
8.226980e-001 -5.186747e-001 2.956717e+000 177 109 72
8.208077e-001 -5.204571e-001 2.957966e+000 41 18 9
8.213978e-001 -5.206736e-001 2.957666e+000 41 18 9
8.319822e-001 -5.113566e-001 2.982321e+000 184 117 76
8.330764e-001 -5.102539e-001 2.984347e+000 184 119 81
8.322333e-001 -5.144553e-001 2.986632e+000 184 119 79
8.104471e-001 -5.298093e-001 2.935892e+000 181 108 83
8.080875e-001 -5.348778e-001 2.934381e+000 184 109 89
8.084476e-001 -5.355047e-001 2.933805e+000 184 109 89
8.202273e-001 -5.279551e-001 2.958742e+000 182 108 77
8.202273e-001 -5.279551e-001 2.958742e+000 182 108 77
8.062091e-001 -5.443626e-001 2.937783e+000 148 16 36
8.110444e-001 -5.450269e-001 2.948771e+000 138 22 32
8.322154e-001 -4.168565e-001 2.894473e+000 25 48 12
8.414222e-001 -4.095640e-001 2.923368e+000 32 46 21
8.412179e-001 -4.094475e-001 2.923564e+000 32 46 21
8.155964e-001 -4.953258e-001 2.909491e+000 174 113 81
8.342618e-001 -3.990796e-001 2.882141e+000 76 81 19
8.083750e-001 -5.523771e-001 2.953129e+000 145 18 29
8.085335e-001 -5.525472e-001 2.952939e+000 145 18 29
8.300720e-001 -5.523557e-001 3.024646e+000 114 22 22
8.350913e-001 -3.996894e-001 2.879403e+000 45 81 52
8.330190e-001 -4.440255e-001 2.917068e+000 158 130 101
8.059734e-001 -5.156688e-001 2.911548e+000 178 111 92
8.230275e-001 -5.406536e-001 2.984425e+000 150 18 31
8.230275e-001 -5.406536e-001 2.984425e+000 150 18 31
8.374016e-001 -4.108145e-001 2.911863e+000 55 91 87
8.342824e-001 -4.774033e-001 2.959219e+000 180 105 76
8.334846e-001 -5.084082e-001 2.981952e+000 158 106 71
8.303070e-001 -5.332941e-001 3.003532e+000 191 27 37
8.321758e-001 -4.829370e-001 2.955548e+000 179 106 74
8.218779e-001 -5.822658e-001 3.040758e+000 179 89 36
8.492007e-001 -3.634649e-001 2.831624e+000 16 73 100
8.296163e-001 -4.453457e-001 2.916095e+000 122 43 38
8.335006e-001 -3.742830e-001 2.900929e+000 146 44 35
8.322533e-001 -4.486730e-001 2.919731e+000 160 139 114
8.198885e-001 -4.738839e-001 2.899385e+000 210 139 112
8.274736e-001 -4.677200e-001 2.921880e+000 216 134 102
8.326080e-001 -4.622685e-001 2.935281e+000 115 33 24
8.442005e-001 -4.560524e-001 2.973946e+000 42 75 82
8.395246e-001 -4.764981e-001 2.972585e+000 53 21 17
8.237785e-001 -4.955619e-001 2.939416e+000 181 113 88
8.182174e-001 -5.385038e-001 2.964682e+000 217 57 67
8.190944e-001 -5.391346e-001 2.967896e+000 128 22 27
8.405704e-001 -3.793213e-001 2.857523e+000 194 135 98
8.307363e-001 -4.443524e-001 2.910221e+000 107 17 26
8.320259e-001 -4.459484e-001 2.911548e+000 160 138 114
8.272657e-001 -4.661343e-001 2.921293e+000 207 135 109
8.375732e-001 -4.595226e-001 2.953720e+000 17 68 97
8.379265e-001 -4.781420e-001 2.968815e+000 69 35 15
8.080887e-001 -5.148502e-001 2.904160e+000 161 57 56
8.053047e-001 -5.173239e-001 2.904287e+000 197 68 72
8.079966e-001 -5.265839e-001 2.921575e+000 95 56 44
8.079966e-001 -5.265839e-001 2.921575e+000 95 56 44
8.045155e-001 -5.439768e-001 2.931053e+000 191 116 102
8.308258e-001 -5.214571e-001 2.989880e+000 189 121 86
8.092169e-001 -5.452362e-001 2.948208e+000 145 23 29
8.265902e-001 -5.321215e-001 2.982374e+000 133 30 31
8.036654e-001 -5.508754e-001 2.938561e+000 128 28 34
8.093274e-001 -5.500086e-001 2.953076e+000 139 19 28
8.156254e-001 -5.414280e-001 2.964791e+000 197 56 65
8.156254e-001 -5.414280e-001 2.964791e+000 197 56 65
8.367189e-001 -4.082049e-001 2.876444e+000 144 136 22
8.372073e-001 -4.024341e-001 2.899875e+000 145 141 28
8.410318e-001 -4.126608e-001 2.926451e+000 80 103 79
8.221832e-001 -4.760884e-001 2.907787e+000 24 68 103
8.220355e-001 -4.762506e-001 2.910671e+000 15 49 71
8.099963e-001 -5.045192e-001 2.905562e+000 156 96 89
8.099963e-001 -5.045192e-001 2.905562e+000 156 96 89
8.137115e-001 -5.014050e-001 2.917329e+000 152 93 79
8.137115e-001 -5.014050e-001 2.917329e+000 152 93 79
8.420577e-001 -4.756473e-001 2.983551e+000 188 146 104
8.148534e-001 -5.090154e-001 2.928232e+000 127 76 62
8.148534e-001 -5.090154e-001 2.928232e+000 127 76 62
8.212686e-001 -5.070731e-001 2.946341e+000 186 112 87
8.059467e-001 -5.261495e-001 2.912761e+000 149 45 46
8.206830e-001 -5.113945e-001 2.948768e+000 184 114 87
8.343140e-001 -5.030030e-001 2.983301e+000 134 83 55
8.203295e-001 -5.313681e-001 2.963787e+000 189 112 87
8.327049e-001 -5.156916e-001 2.989403e+000 84 50 28
8.264627e-001 -5.296438e-001 2.984988e+000 139 20 31
8.357849e-001 -4.834640e-001 2.967334e+000 164 95 65
8.373671e-001 -4.841620e-001 2.972204e+000 188 113 84
8.237796e-001 -4.972412e-001 2.944754e+000 185 111 87
8.356859e-001 -4.990025e-001 2.980962e+000 118 76 54
8.340269e-001 -5.011530e-001 2.980825e+000 191 124 78
8.051866e-001 -5.344775e-001 2.925554e+000 187 113 100
8.048512e-001 -5.343540e-001 2.925539e+000 187 113 100
8.062504e-001 -5.362639e-001 2.929524e+000 190 116 100
8.191341e-001 -5.239667e-001 2.955239e+000 187 113 88
8.202699e-001 -5.230424e-001 2.958410e+000 183 114 84
7.966567e-001 -5.483469e-001 2.913518e+000 189 149 135
8.182455e-001 -5.311584e-001 2.961853e+000 194 108 86
8.158215e-001 -5.358449e-001 2.957593e+000 187 111 84
8.207764e-001 -4.759523e-001 2.899836e+000 149 28 32
8.258954e-001 -4.774013e-001 2.926824e+000 20 58 84
8.222941e-001 -5.023283e-001 2.943859e+000 184 115 89
8.222941e-001 -5.023283e-001 2.943859e+000 184 115 89
8.112494e-001 -5.249706e-001 2.935280e+000 182 114 82
8.118527e-001 -5.255312e-001 2.934629e+000 182 114 82
8.045125e-001 -5.380243e-001 2.923945e+000 190 121 103
8.300024e-001 -4.318851e-001 2.895237e+000 27 52 25
8.337971e-001 -4.263898e-001 2.916245e+000 27 51 22
8.337971e-001 -4.263898e-001 2.916245e+000 27 51 22
8.384567e-001 -4.404331e-001 2.930404e+000 152 138 109
8.401827e-001 -4.660326e-001 2.969301e+000 14 52 75
