ply
format ascii 1.0
element face 0
property list uchar int vertex_indices
element vertex 326
property float x
property float y
property float z
property uchar diffuse_red
property uchar diffuse_green
property uchar diffuse_blue
end_header
3.230436e-001 -4.479313e-001 2.783710e+000 34 64 36
3.230436e-001 -4.479313e-001 2.783710e+000 34 64 36
3.042503e-001 -1.049702e-001 2.580897e+000 172 41 52
5.420422e-001 1.630690e+000 1.068623e+001 183 33 40
4.284261e-001 -1.650280e-001 2.486004e+000 174 31 40
3.668365e-001 -2.096973e-001 2.595988e+000 154 166 178
3.668365e-001 -2.096973e-001 2.595988e+000 154 166 178
4.869435e-001 -4.401230e-001 2.582074e+000 158 163 156
4.360188e-001 -3.667185e-001 2.611923e+000 164 162 167
3.493932e-001 -6.711797e-001 2.867058e+000 160 161 166
5.054170e-001 -6.519804e-001 2.692199e+000 171 161 170
4.567735e-001 -1.610218e-002 2.352340e+000 134 147 171
3.336969e-001 -3.259478e-001 2.705365e+000 162 174 74
4.839842e-001 -3.797065e-001 2.551280e+000 158 162 163
4.442659e-001 -7.616254e-001 2.828057e+000 224 150 141
5.799879e-001 -1.359745e+000 3.025014e+000 121 68 48
4.211679e-001 -2.991274e-001 2.608650e+000 161 164 157
4.659032e-001 -4.787069e-001 2.637736e+000 150 169 133
4.360188e-001 -3.667185e-001 2.611923e+000 164 162 167
3.706199e-001 -4.147117e-001 2.717691e+000 26 65 36
3.162758e-001 -1.087200e-001 2.577700e+000 169 44 47
4.370985e-001 -1.779043e-001 2.484650e+000 151 169 194
5.215011e-001 -4.097760e-001 2.526043e+000 140 162 52
2.579847e-001 -5.278184e-002 2.607814e+000 220 161 156
6.995761e-001 1.598350e+000 1.027078e+001 160 35 42
3.363547e-001 -6.490311e-001 2.879134e+000 170 36 45
5.392643e-001 1.770489e+000 1.039543e+001 171 35 40
5.899499e-001 1.703583e+000 1.043645e+001 180 39 47
5.125105e-001 -5.242301e-001 2.605343e+000 27 63 37
4.653976e-001 -3.574413e-001 2.566863e+000 29 64 34
4.973488e-001 -3.073405e-001 2.495048e+000 28 61 30
3.393215e-001 -3.039168e-001 2.665174e+000 25 65 38
4.654272e-001 -4.194495e-001 2.598309e+000 149 174 116
4.853276e-001 -1.160065e+000 3.001868e+000 95 31 29
5.091859e-001 -1.224279e+000 3.006363e+000 106 18 19
4.211679e-001 -2.991274e-001 2.608650e+000 161 164 157
3.119741e-001 -5.293421e-001 2.840873e+000 170 41 42
3.408337e-001 -4.899776e-001 2.773635e+000 164 161 171
5.420422e-001 1.630690e+000 1.068623e+001 183 33 40
6.116990e-001 -1.184065e+000 2.904005e+000 55 134 202
5.215011e-001 -4.097760e-001 2.526043e+000 140 162 52
3.842491e-001 -1.941617e-002 2.445263e+000 158 172 195
5.651076e-001 -5.388006e-001 2.563037e+000 23 61 36
5.372626e-001 -7.079242e-001 2.673700e+000 106 72 75
5.104802e-001 -1.144795e+000 2.963055e+000 185 135 112
3.232089e-001 -2.194227e-001 2.644265e+000 135 175 122
4.112232e-001 -2.507594e-001 2.569901e+000 137 171 124
4.097823e-001 -4.775574e-001 2.690236e+000 23 63 37
5.608149e-001 -1.303395e+000 3.012260e+000 146 63 41
4.967937e-001 -7.271694e-001 2.727988e+000 162 163 168
4.025716e-001 -8.500405e-001 2.918031e+000 101 142 186
5.696900e-001 -1.170756e+000 2.929507e+000 20 83 142
3.166378e-001 -6.356945e-001 2.894370e+000 169 37 48
6.157367e-001 -1.117881e+000 2.864239e+000 127 183 235
6.041050e-001 -5.510829e-001 2.548388e+000 79 100 95
3.842491e-001 -1.941617e-002 2.445263e+000 158 172 195
3.875697e-001 -8.561682e-001 2.930040e+000 23 80 140
5.960787e-001 -1.114714e+000 2.880584e+000 16 82 152
5.850618e-001 -5.295144e-001 2.544628e+000 137 153 157
4.135226e-001 -4.186103e-001 2.660071e+000 28 60 31
5.293555e-001 -8.905926e-001 2.804316e+000 33 82 138
5.293555e-001 -8.905926e-001 2.804316e+000 33 82 138
6.183451e-001 -1.142516e+000 2.875060e+000 124 183 239
5.898023e-001 -1.169871e+000 2.912376e+000 36 82 127
5.898023e-001 -1.169871e+000 2.912376e+000 36 82 127
4.331672e-001 -8.524355e-001 2.889829e+000 23 82 142
5.994218e-001 -8.255443e-001 2.709053e+000 166 161 170
5.026678e-001 -8.795701e-001 2.817967e+000 111 158 205
5.026678e-001 -8.795701e-001 2.817967e+000 111 158 205
5.373856e-001 -1.084240e+000 2.920195e+000 121 22 27
5.735841e-001 -1.140813e+000 2.897495e+000 34 80 128
5.945129e-001 -1.147116e+000 2.884612e+000 32 85 128
3.422124e-001 -2.452434e-001 2.628546e+000 29 61 40
5.555408e-001 -1.158767e+000 2.929279e+000 27 82 144
4.331672e-001 -8.524355e-001 2.889829e+000 23 82 142
6.547026e-001 -1.476286e+000 3.039169e+000 129 71 33
3.072002e-001 -3.144921e-001 2.726224e+000 165 166 163
3.072002e-001 -3.144921e-001 2.726224e+000 165 166 163
4.869435e-001 -4.401230e-001 2.582074e+000 158 163 156
3.688328e-001 -3.324546e-001 2.661372e+000 162 165 163
7.439898e-001 -1.002934e+000 2.800780e+000 138 34 30
6.479565e-001 -1.022475e+000 2.803294e+000 150 51 46
6.602575e-001 -1.025492e+000 2.795721e+000 225 108 95
6.159372e-001 -8.374792e-001 2.707473e+000 174 48 50
6.950652e-001 -1.519973e+000 3.047761e+000 149 70 43
7.032251e-001 -1.731780e+000 3.130982e+000 180 138 110
6.384124e-001 -1.143426e+000 2.870620e+000 18 79 142
6.307379e-001 -1.190912e+000 2.891784e+000 19 87 142
3.925797e-001 -3.922993e-001 2.673209e+000 135 172 120
5.642445e-001 -7.918058e-001 2.694468e+000 158 25 30
3.936266e-001 -1.355376e-001 2.515846e+000 156 38 44
7.647940e-001 -6.351282e-001 2.635539e+000 159 21 26
8.090846e-001 -7.819094e-001 2.727808e+000 167 112 89
8.090846e-001 -7.819094e-001 2.727808e+000 167 112 89
6.233989e-001 -1.005938e+000 2.798104e+000 195 75 74
3.775994e-001 -1.462855e-001 2.534417e+000 175 38 44
7.871434e-001 -6.420637e-001 2.636205e+000 213 134 88
6.074948e-001 -1.132135e+000 2.879603e+000 18 83 141
4.823024e-001 -1.136516e+000 2.993776e+000 176 137 119
6.158111e-001 -1.442131e+000 3.044692e+000 146 104 59
4.003313e-001 -7.511706e-001 2.867342e+000 189 140 132
7.666956e-001 -1.087544e+000 2.847896e+000 193 126 92
8.366342e-001 -1.068413e-001 2.400183e+000 165 32 30
4.653976e-001 -3.574413e-001 2.566863e+000 29 64 34
7.263627e-001 -1.715556e+000 3.130764e+000 72 25 19
4.218200e-001 -8.142999e-001 2.884659e+000 92 23 45
3.299427e-001 -3.526766e-001 2.727321e+000 28 63 40
6.221779e-001 -1.574765e+000 3.109285e+000 42 13 18
6.922741e-001 -1.767841e+000 3.289957e+000 174 143 122
7.836272e-001 -3.904454e-001 2.505853e+000 36 47 17
8.683831e-001 -3.976842e-001 2.585649e+000 38 49 6
8.335568e-001 -6.084540e-001 2.669880e+000 155 24 21
4.150067e-001 -7.541020e-001 2.856350e+000 142 27 30
6.087885e-001 -1.473790e+000 3.062280e+000 161 102 58
8.340857e-001 -3.251019e-001 2.534701e+000 32 52 23
8.235112e-001 -3.888783e-001 2.530422e+000 30 54 27
3.620414e-001 -3.535284e-001 2.686210e+000 166 172 61
6.691827e-001 -1.177482e+000 2.879928e+000 176 143 108
7.814973e-001 -2.100769e-001 2.389310e+000 32 54 16
7.859382e-001 -3.101780e-001 2.454094e+000 29 54 25
7.568201e-001 -8.972059e-001 2.746736e+000 189 125 89
7.669440e-001 -1.048011e+000 2.827149e+000 189 123 88
5.500220e-001 -1.147951e+000 2.930564e+000 51 122 191
5.021294e-001 -9.500911e-001 2.867811e+000 193 134 105
4.258823e-001 -2.775821e-001 2.554884e+000 26 61 37
7.129434e-001 -1.863194e+000 3.195990e+000 181 141 116
7.095846e-001 -1.557060e+000 3.069568e+000 42 13 18
5.142945e-001 -5.645148e-001 2.611645e+000 163 162 168
7.093969e-001 -1.122187e+000 2.862379e+000 130 22 28
5.379963e-001 -1.205800e+000 2.980045e+000 71 13 20
6.578507e-001 -7.701305e-001 2.687914e+000 165 164 160
7.371307e-001 -9.781138e-001 2.783705e+000 189 97 70
7.295949e-001 -1.677517e+000 3.109179e+000 178 136 103
8.170333e-001 -4.625345e-001 2.572275e+000 31 47 13
7.848759e-001 -6.236220e-001 2.637643e+000 148 24 27
7.986438e-001 -3.269575e-001 2.478782e+000 136 139 31
3.187498e-001 -3.331264e-001 2.719851e+000 31 60 30
8.572264e-001 -5.978709e-001 2.685602e+000 147 24 25
8.117293e-001 -9.811336e-001 2.830338e+000 187 124 85
3.317721e-001 -6.992417e-002 2.547942e+000 171 35 40
8.503190e-001 -2.453675e-001 2.475886e+000 29 53 21
8.709236e-001 -3.199888e-001 2.538938e+000 32 53 10
8.066120e-001 -6.188734e-001 2.655767e+000 154 24 24
8.260666e-001 -6.300972e-001 2.666410e+000 175 97 66
3.851047e-001 -6.708536e-001 2.837754e+000 172 34 40
7.694779e-001 -1.140712e+000 2.875291e+000 197 123 87
7.616413e-001 -9.919397e-001 2.798572e+000 192 124 87
8.742902e-001 -1.211063e+000 2.988529e+000 157 23 27
7.713570e-001 -1.039539e-001 2.351700e+000 137 143 123
6.955160e-001 -9.861575e-001 2.776393e+000 188 94 74
3.299427e-001 -3.526766e-001 2.727321e+000 28 63 40
7.582355e-001 -6.711358e-001 2.624943e+000 103 28 41
7.174949e-001 -7.126945e-001 2.632680e+000 157 155 143
7.575477e-001 -7.469229e-001 2.655550e+000 14 79 117
5.608149e-001 -1.303395e+000 3.012260e+000 146 63 41
5.141059e-001 -6.895750e-002 2.340177e+000 135 150 173
5.183064e-001 -8.099478e-001 2.744534e+000 158 22 32
9.382420e-001 -6.147126e-002 2.483306e+000 174 43 41
8.680153e-001 -1.286652e-001 2.439695e+000 141 46 27
8.105358e-001 -1.801447e-001 2.402675e+000 70 100 105
8.913846e-001 -3.207275e-001 2.562290e+000 144 153 40
8.913846e-001 -3.207275e-001 2.562290e+000 144 153 40
8.817411e-001 -8.742594e-001 2.843703e+000 125 78 51
8.817411e-001 -8.742594e-001 2.843703e+000 125 78 51
6.479565e-001 -1.022475e+000 2.803294e+000 150 51 46
7.923267e-001 -1.139503e+000 2.887039e+000 192 120 91
8.527195e-001 -1.117347e+000 2.922469e+000 198 115 76
8.484815e-001 -1.147778e+000 2.932281e+000 223 85 76
8.962450e-001 -1.130244e+000 2.972617e+000 204 68 54
7.929482e-001 -1.179691e+000 2.910752e+000 131 29 31
8.637484e-001 -1.189087e+000 2.981654e+000 208 57 59
9.214849e-001 -1.215588e+000 3.033904e+000 196 65 51
9.080915e-001 -1.245773e+000 3.038131e+000 202 66 51
9.080915e-001 -1.245773e+000 3.038131e+000 202 66 51
9.098024e-001 -1.522569e+000 3.168132e+000 172 130 72
8.211410e-001 -1.127044e-001 2.389933e+000 175 33 32
8.561745e-001 -9.671302e-002 2.419651e+000 180 38 26
9.201760e-001 -7.171996e-002 2.464451e+000 164 37 32
3.927060e-001 -7.618465e-001 2.875285e+000 121 26 31
8.324120e-001 -8.610377e-001 2.784626e+000 108 65 42
8.458688e-001 -9.198594e-001 2.823836e+000 101 63 37
8.123524e-001 -9.644941e-001 2.825098e+000 95 50 24
8.564758e-001 -1.015073e+000 2.883957e+000 120 68 41
8.564758e-001 -1.015073e+000 2.883957e+000 120 68 41
8.497177e-001 -1.029745e+000 2.877959e+000 193 124 83
8.640241e-001 -1.041092e+000 2.898571e+000 128 87 59
8.640241e-001 -1.041092e+000 2.898571e+000 128 87 59
9.510512e-001 -1.051984e+000 2.987534e+000 191 121 81
6.289696e-001 -1.164762e+000 2.884588e+000 69 137 207
6.289696e-001 -1.164762e+000 2.884588e+000 69 137 207
9.576096e-001 -1.303007e+000 3.131104e+000 191 119 86
8.559337e-001 -1.343832e+000 3.032122e+000 192 126 91
1.054806e+000 -1.542838e+000 3.352107e+000 151 118 72
7.836272e-001 -3.904454e-001 2.505853e+000 36 47 17
4.438086e-001 -4.728643e-001 2.659465e+000 30 60 31
2.854385e-001 -5.350654e-001 2.881859e+000 158 158 162
7.605232e-001 -6.941039e-001 2.644624e+000 11 52 77
8.374877e-001 -9.067611e-001 2.818029e+000 191 122 85
7.578094e-001 -9.686819e-001 2.789650e+000 189 124 94
8.117293e-001 -9.811336e-001 2.830338e+000 187 124 85
9.282823e-001 -1.084072e+000 2.978485e+000 191 122 76
8.793621e-001 -1.331383e+000 3.048073e+000 198 122 85
5.655155e-001 -1.364534e+000 3.034846e+000 179 136 111
9.903153e-001 -1.503197e+000 3.242120e+000 147 84 38
6.963813e-001 -1.686454e+000 3.108397e+000 179 138 108
9.080156e-001 -1.753294e+000 3.293525e+000 158 122 87
7.969019e-001 -2.241474e-001 2.423799e+000 113 134 68
7.969019e-001 -2.241474e-001 2.423799e+000 113 134 68
8.682528e-001 -1.980269e-001 2.463159e+000 29 56 12
8.717376e-001 -2.967046e-001 2.535450e+000 123 121 20
9.254407e-001 -3.522516e-001 2.613576e+000 158 161 73
9.565145e-001 -3.252459e-001 2.644244e+000 131 139 59
9.365334e-001 -5.688481e-001 2.740569e+000 155 25 31
9.315503e-001 -5.891631e-001 2.735599e+000 226 127 85
9.150391e-001 -6.662369e-001 2.759251e+000 12 50 69
7.821715e-001 -1.067576e+000 2.836784e+000 89 57 42
8.377212e-001 -1.563170e+000 3.118341e+000 179 137 89
7.856852e-001 -1.819887e+000 3.186735e+000 192 158 129
8.061031e-001 -1.413150e-001 2.380917e+000 213 132 84
9.354522e-001 -1.313883e-001 2.537083e+000 25 81 105
5.125105e-001 -5.242301e-001 2.605343e+000 27 63 37
8.568456e-001 -6.179827e-001 2.683058e+000 232 124 86
9.078632e-001 -8.717337e-001 2.855301e+000 190 121 80
8.386789e-001 -3.556272e-001 2.534657e+000 129 132 110
3.925797e-001 -3.922993e-001 2.673209e+000 135 172 120
9.286100e-001 -1.362461e+000 3.103336e+000 188 128 80
8.497317e-001 -1.474849e+000 3.088401e+000 178 137 91
4.621994e-001 -3.955385e-001 2.588295e+000 27 60 41
4.621994e-001 -3.955385e-001 2.588295e+000 27 60 41
2.914574e-001 -4.309527e-001 2.814035e+000 168 162 166
7.745938e-001 -1.794865e+000 3.170195e+000 193 162 132
7.340632e-001 -1.032143e+000 2.818253e+000 168 32 33
-1.375803e+000 1.082547e+001 2.197153e+001 210 176 115
7.113755e-001 -1.214773e+000 2.926996e+000 176 143 108
6.883248e-001 -8.971192e-001 2.729849e+000 167 37 37
7.968887e-001 -1.308712e-001 2.369429e+000 229 147 105
7.968887e-001 -1.308712e-001 2.369429e+000 229 147 105
8.140635e-001 -1.240798e-001 2.382107e+000 233 149 105
8.140635e-001 -1.240798e-001 2.382107e+000 233 149 105
8.955081e-001 -1.185536e-001 2.452498e+000 151 43 41
9.416602e-001 -1.067746e-001 2.513764e+000 150 48 34
8.973178e-001 -3.048583e-001 2.559289e+000 147 159 40
8.849327e-001 -4.746500e-001 2.639442e+000 77 43 29
9.461344e-001 -5.033190e-001 2.710394e+000 173 151 114
7.809320e-001 -6.350869e-001 2.630873e+000 238 147 103
7.809320e-001 -6.350869e-001 2.630873e+000 238 147 103
6.721174e-001 -9.850130e-001 2.781747e+000 190 89 73
9.392912e-001 -1.058825e+000 2.990871e+000 191 123 80
9.468856e-001 -1.066754e+000 2.986979e+000 128 80 58
9.663317e-001 -1.109788e+000 3.036488e+000 152 39 32
9.560213e-001 -1.116250e+000 3.026050e+000 145 36 32
8.105724e-001 -1.175052e+000 2.923370e+000 145 25 32
8.152041e-001 -1.161425e+000 2.918520e+000 216 94 73
8.152041e-001 -1.161425e+000 2.918520e+000 216 94 73
8.095077e-001 -1.185630e+000 2.919323e+000 215 68 64
8.095907e-001 -1.210146e+000 2.940139e+000 205 62 63
8.340642e-001 -1.188820e+000 2.943927e+000 143 33 36
8.817403e-001 -1.258298e+000 3.018635e+000 192 65 48
8.817403e-001 -1.258298e+000 3.018635e+000 192 65 48
8.538808e-001 -1.266311e+000 2.993444e+000 192 60 53
9.534899e-001 -1.317220e+000 3.121300e+000 129 79 46
9.694678e-001 -1.309417e+000 3.133233e+000 107 55 26
8.302185e-001 -1.333169e+000 3.008039e+000 55 29 10
1.009237e+000 -1.523212e+000 3.288466e+000 194 149 87
8.550996e-001 -1.547667e+000 3.123100e+000 172 134 87
9.293890e-001 -1.511088e+000 3.170024e+000 174 132 81
1.185321e+000 -1.650821e+000 3.644153e+000 183 104 56
7.887014e-001 -1.264864e-001 2.358174e+000 171 43 34
4.579278e-001 -1.801920e-001 2.462515e+000 25 52 28
4.579278e-001 -1.801920e-001 2.462515e+000 25 52 28
8.855895e-001 -3.036759e-001 2.547516e+000 34 50 15
9.619037e-001 -4.933849e-001 2.728969e+000 175 153 115
7.960002e-001 -7.943452e-001 2.721955e+000 189 116 89
9.254359e-001 -7.791753e-001 2.837912e+000 189 118 81
9.238454e-001 -1.127460e+000 2.996054e+000 137 32 26
7.997507e-001 -1.168453e+000 2.911488e+000 216 96 79
5.821078e-001 -1.178062e+000 2.920901e+000 65 130 198
8.152195e-001 -1.271173e+000 2.962042e+000 141 31 29
8.083627e-001 -1.288587e+000 2.980162e+000 209 68 60
8.230136e-001 -1.259615e+000 2.977372e+000 197 59 55
1.063115e+000 -1.494744e+000 3.351138e+000 193 110 38
1.073224e+000 -1.697026e+000 3.474950e+000 141 75 20
1.396155e+000 -1.965639e+000 3.074091e+000 134 111 94
2.775563e-001 -9.406717e-002 2.602705e+000 168 43 50
3.446470e-001 -3.426548e-001 2.692619e+000 25 58 36
4.841873e-001 -4.205001e-001 2.582387e+000 29 58 30
4.228110e-001 -4.635658e-001 2.678206e+000 25 54 34
4.228110e-001 -4.635658e-001 2.678206e+000 25 54 34
8.044065e-001 -6.547781e-001 2.653777e+000 150 20 20
9.317540e-001 -6.322026e-001 2.755213e+000 12 52 67
7.077924e-001 -9.955174e-001 2.779345e+000 185 98 70
9.164457e-001 -1.108590e+000 2.993404e+000 143 23 27
9.341809e-001 -1.291567e+000 3.087228e+000 134 82 61
9.367397e-001 -1.310014e+000 3.104686e+000 188 123 86
9.387246e-001 -1.564399e+000 3.224698e+000 182 149 99
7.968758e-001 -1.802757e-001 2.408842e+000 130 126 63
7.975485e-001 -2.858696e-001 2.462262e+000 122 142 50
7.975485e-001 -2.858696e-001 2.462262e+000 122 142 50
5.007927e-001 -6.957657e-001 2.715028e+000 165 160 163
7.793862e-001 -8.617154e-001 2.738667e+000 186 126 89
7.793862e-001 -8.617154e-001 2.738667e+000 186 126 89
7.941434e-001 -1.083394e+000 2.863640e+000 194 122 79
7.941434e-001 -1.083394e+000 2.863640e+000 194 122 79
5.799879e-001 -1.359745e+000 3.025014e+000 121 68 48
8.358269e-001 -1.517155e+000 3.091061e+000 181 136 91
1.544210e+000 -1.899437e+000 3.234368e+000 130 107 91
1.448933e+000 -1.946369e+000 3.127156e+000 143 116 97
9.176720e-001 -2.179470e-001 2.523846e+000 34 56 13
9.061536e-001 -3.419708e-001 2.578007e+000 33 55 14
9.082767e-001 -5.801266e-001 2.726602e+000 150 28 24
1.012241e+000 -6.734157e-001 2.909986e+000 189 120 81
2.949034e-001 -7.898599e-001 3.046604e+000 101 139 199
7.540722e-001 -8.661091e-001 2.728006e+000 193 121 96
7.649070e-001 -1.165844e+000 2.895919e+000 134 23 30
7.766533e-001 -1.302492e+000 2.954313e+000 157 30 25
8.587781e-001 -1.161360e-001 2.415627e+000 187 99 62
9.111303e-001 -2.746149e-001 2.548851e+000 79 106 96
5.332593e-001 -4.503024e-001 2.533456e+000 115 135 168
8.375871e-001 -3.016630e-001 2.492223e+000 110 127 110
7.915915e-001 -8.136853e-001 2.729961e+000 187 123 87
8.545840e-001 -1.366425e+000 3.002390e+000 188 124 86
5.472163e-001 -2.283154e-001 2.469680e+000 110 138 172
2.501569e-001 -8.078664e-001 -5.525873e-001 0 255 0
2.466226e-001 -8.118273e-001 -6.023047e-001 255 255 0
9.898791e-001 -7.558622e-001 -4.463258e-001 255 0 0
9.952958e-001 -7.597442e-001 -4.958797e-001 255 255 0
