ply
format ascii 1.0
element face 0
property list uchar int vertex_indices
element vertex 901
property float x
property float y
property float z
property uchar diffuse_red
property uchar diffuse_green
property uchar diffuse_blue
end_header
9.340205e-001 -3.494445e-001 3.201416e+000 215 181 147
9.452972e-001 -5.367105e-001 3.236433e+000 23 58 98
9.450285e-001 -5.407327e-001 3.237626e+000 36 59 77
8.968004e-001 -5.034644e-001 3.261365e+000 168 87 78
9.053452e-001 -5.143536e-001 3.259439e+000 85 60 64
9.133231e-001 -5.170252e-001 3.256005e+000 82 59 65
9.135475e-001 -5.209391e-001 3.256006e+000 83 64 69
9.108644e-001 -5.274378e-001 3.254669e+000 77 55 57
8.475443e-001 -5.517801e-001 3.260572e+000 202 140 101
8.698155e-001 -5.391063e-001 3.273392e+000 175 123 63
8.462179e-001 -5.742994e-001 3.267182e+000 199 75 47
8.769408e-001 -5.727953e-001 3.281543e+000 168 120 82
8.769408e-001 -5.727953e-001 3.281543e+000 168 120 82
8.377458e-001 -5.919147e-001 3.263827e+000 213 115 54
8.452324e-001 -5.954089e-001 3.278820e+000 199 165 138
8.970294e-001 -6.402616e-001 3.272469e+000 117 27 37
8.985736e-001 -3.426062e-001 3.160624e+000 159 133 115
9.363940e-001 -4.392188e-001 3.229577e+000 169 153 38
8.999648e-001 -4.486341e-001 3.248973e+000 120 69 59
9.185683e-001 -4.927249e-001 3.249299e+000 122 144 146
9.002950e-001 -5.129316e-001 3.262056e+000 76 45 47
9.429703e-001 -5.458720e-001 3.240981e+000 37 58 80
9.294085e-001 -5.471100e-001 3.251376e+000 78 16 23
9.128166e-001 -5.492391e-001 3.265554e+000 82 54 53
9.269102e-001 -3.472055e-001 3.200775e+000 151 124 92
9.269102e-001 -3.472055e-001 3.200775e+000 151 124 92
9.418465e-001 -3.514289e-001 3.197143e+000 207 181 143
9.192370e-001 -4.760230e-001 3.246010e+000 98 31 27
8.720170e-001 -4.756265e-001 3.250690e+000 179 155 129
8.933665e-001 -5.399476e-001 3.269921e+000 147 109 96
8.355096e-001 -5.844111e-001 3.255430e+000 134 59 24
7.613361e-001 -6.164005e-001 3.251386e+000 50 40 48
9.286224e-001 -3.983210e-001 3.222953e+000 28 53 31
9.408608e-001 -4.553184e-001 3.228568e+000 171 36 42
9.313746e-001 -4.944437e-001 3.239875e+000 20 65 93
9.100321e-001 -5.332817e-001 3.261294e+000 27 14 16
8.415754e-001 -5.797325e-001 3.267386e+000 180 79 47
9.262237e-001 -5.418202e-001 3.252255e+000 159 123 101
8.387521e-001 -5.421307e-001 3.236797e+000 162 37 45
8.908028e-001 -5.357844e-001 3.270148e+000 137 96 88
9.352343e-001 -6.045364e-001 3.251522e+000 145 102 60
8.855463e-001 -5.749665e-001 3.279548e+000 159 113 80
8.313026e-001 -6.030545e-001 3.254720e+000 186 157 130
8.346496e-001 -6.091060e-001 3.262717e+000 167 130 101
9.233488e-001 -4.384321e-001 3.239017e+000 160 147 115
8.992107e-001 -4.514853e-001 3.248803e+000 187 139 112
8.949015e-001 -4.703010e-001 3.254738e+000 155 25 35
8.913757e-001 -4.844062e-001 3.258002e+000 21 71 111
8.708253e-001 -6.193812e-001 3.299022e+000 37 26 34
8.414610e-001 -5.745116e-001 3.249039e+000 198 143 102
9.098747e-001 -6.012680e-001 3.266855e+000 155 113 73
9.098747e-001 -6.012680e-001 3.266855e+000 155 113 73
9.272853e-001 -3.461838e-001 3.198341e+000 208 185 143
9.277903e-001 -3.472097e-001 3.200913e+000 208 185 142
9.315109e-001 -3.456722e-001 3.198415e+000 116 96 68
9.319448e-001 -3.472115e-001 3.197260e+000 197 174 139
9.465581e-001 -3.530311e-001 3.196551e+000 201 175 137
9.352436e-001 -3.834970e-001 3.217427e+000 203 133 100
9.389498e-001 -3.847996e-001 3.215114e+000 208 133 100
9.462189e-001 -3.922159e-001 3.212742e+000 150 156 132
9.560100e-001 -4.097142e-001 3.211967e+000 44 51 17
9.150413e-001 -4.448530e-001 3.241383e+000 114 40 30
9.150413e-001 -4.448530e-001 3.241383e+000 114 40 30
9.147706e-001 -4.779398e-001 3.248499e+000 111 17 21
9.403150e-001 -5.001517e-001 3.237482e+000 33 56 70
9.403150e-001 -5.001517e-001 3.237482e+000 33 56 70
9.108736e-001 -4.911828e-001 3.252483e+000 20 61 74
9.022494e-001 -5.036367e-001 3.259009e+000 72 31 27
9.137456e-001 -5.089359e-001 3.254065e+000 127 83 88
9.137630e-001 -5.088831e-001 3.254143e+000 127 83 88
9.246610e-001 -5.108348e-001 3.249070e+000 131 77 89
9.246192e-001 -5.109816e-001 3.248950e+000 131 77 89
8.967447e-001 -5.077681e-001 3.262085e+000 60 31 29
9.076361e-001 -5.160837e-001 3.258817e+000 64 43 45
9.391697e-001 -5.383352e-001 3.243835e+000 30 54 66
8.948647e-001 -5.155848e-001 3.264740e+000 125 95 91
9.186162e-001 -5.539461e-001 3.259734e+000 133 84 79
9.186162e-001 -5.539461e-001 3.259734e+000 133 84 79
9.022739e-001 -5.542043e-001 3.267073e+000 102 76 79
9.326646e-001 -3.493189e-001 3.201998e+000 206 182 144
9.365896e-001 -3.804342e-001 3.216272e+000 151 34 41
9.215317e-001 -3.792563e-001 3.224974e+000 155 39 40
8.694169e-001 -4.002448e-001 3.208349e+000 140 151 41
8.666530e-001 -4.465493e-001 3.232969e+000 123 41 35
8.747380e-001 -4.479422e-001 3.241787e+000 94 39 49
8.734096e-001 -4.546615e-001 3.243322e+000 26 73 91
8.838088e-001 -4.872359e-001 3.251692e+000 125 83 57
9.089134e-001 -5.164943e-001 3.258409e+000 122 95 98
9.192944e-001 -5.204601e-001 3.254237e+000 76 60 63
8.891526e-001 -5.236615e-001 3.267669e+000 105 68 60
8.523987e-001 -5.356052e-001 3.260542e+000 207 58 69
8.457512e-001 -5.523984e-001 3.257630e+000 191 136 94
8.836784e-001 -5.461138e-001 3.275789e+000 102 66 68
9.225412e-001 -3.747277e-001 3.223960e+000 200 142 104
9.028690e-001 -3.888039e-001 3.233825e+000 79 104 103
8.855682e-001 -5.102363e-001 3.266004e+000 68 28 31
9.223114e-001 -5.356423e-001 3.254032e+000 85 67 66
9.158710e-001 -5.475943e-001 3.259281e+000 156 108 91
8.847769e-001 -5.715931e-001 3.280551e+000 154 107 69
9.138819e-001 -3.710314e-001 3.227157e+000 169 35 41
9.209710e-001 -3.733874e-001 3.224295e+000 166 31 41
9.210083e-001 -3.734384e-001 3.224122e+000 166 31 41
9.190402e-001 -3.739766e-001 3.225643e+000 197 143 111
9.496585e-001 -4.135108e-001 3.216191e+000 138 138 53
9.382442e-001 -5.299221e-001 3.240690e+000 113 18 26
9.358274e-001 -5.353931e-001 3.245944e+000 23 55 71
9.350611e-001 -5.428736e-001 3.246325e+000 23 54 74
8.970408e-001 -5.387413e-001 3.266885e+000 135 111 89
9.318899e-001 -5.892873e-001 3.251184e+000 110 66 32
9.506791e-001 -3.553720e-001 3.194251e+000 199 177 136
9.182835e-001 -3.954515e-001 3.229842e+000 155 148 41
9.182835e-001 -3.954515e-001 3.229842e+000 155 148 41
9.448875e-001 -4.708112e-001 3.230463e+000 118 75 51
9.228553e-001 -4.778380e-001 3.244045e+000 109 34 26
9.217933e-001 -4.938931e-001 3.247452e+000 97 122 119
9.218304e-001 -4.939282e-001 3.247529e+000 97 122 119
9.472039e-001 -5.507261e-001 3.232060e+000 135 106 84
9.173936e-001 -5.481919e-001 3.261150e+000 97 52 44
9.221282e-001 -5.522560e-001 3.256709e+000 96 53 40
9.561424e-001 -4.336676e-001 3.217007e+000 102 120 99
9.081621e-001 -4.190098e-001 3.239783e+000 26 52 27
9.343160e-001 -4.361672e-001 3.231817e+000 29 48 26
9.472135e-001 -4.598408e-001 3.227896e+000 100 43 32
9.251371e-001 -4.519061e-001 3.238213e+000 151 138 110
9.251371e-001 -4.519061e-001 3.238213e+000 151 138 110
8.730289e-001 -4.497025e-001 3.240516e+000 22 68 104
9.355361e-001 -4.683584e-001 3.234345e+000 153 143 108
9.498283e-001 -4.848091e-001 3.228183e+000 140 23 31
9.508028e-001 -3.858287e-001 3.212528e+000 19 75 98
9.445061e-001 -4.652750e-001 3.230211e+000 160 138 107
9.246040e-001 -4.915793e-001 3.244088e+000 16 61 90
9.509771e-001 -5.228055e-001 3.225581e+000 141 63 50
9.112936e-001 -4.325071e-001 3.240746e+000 160 146 119
9.382278e-001 -5.065305e-001 3.240483e+000 100 23 25
9.382278e-001 -5.065305e-001 3.240483e+000 100 23 25
9.675328e-001 -4.229972e-001 3.198490e+000 82 104 102
9.236993e-001 -5.432257e-001 3.255341e+000 145 118 91
9.019006e-001 -3.730666e-001 3.227071e+000 85 117 124
9.174945e-001 -4.439088e-001 3.233904e+000 155 144 114
9.409325e-001 -3.532267e-001 3.204587e+000 57 46 28
9.219492e-001 -3.769088e-001 3.224550e+000 128 41 24
9.229273e-001 -3.793300e-001 3.224072e+000 206 129 85
9.246469e-001 -3.796933e-001 3.223297e+000 199 137 92
9.293762e-001 -3.769031e-001 3.220164e+000 211 136 96
9.284968e-001 -3.810329e-001 3.221158e+000 200 139 96
9.137376e-001 -3.785747e-001 3.228725e+000 223 130 96
9.474734e-001 -4.598405e-001 3.225979e+000 87 36 25
9.002582e-001 -4.542395e-001 3.249710e+000 186 127 84
9.002508e-001 -4.542370e-001 3.249709e+000 186 127 84
6.711794e-001 -6.401105e-001 3.041203e+000 60 48 48
8.629364e-001 -4.729325e-001 3.238119e+000 139 83 54
8.668469e-001 -4.681973e-001 3.241154e+000 119 68 43
9.187425e-001 -4.751887e-001 3.245809e+000 213 142 99
9.225294e-001 -4.764781e-001 3.243913e+000 207 135 96
9.218997e-001 -4.800403e-001 3.245037e+000 242 131 101
9.219015e-001 -4.800442e-001 3.245052e+000 242 131 101
9.296245e-001 -4.787350e-001 3.240426e+000 209 137 84
9.289509e-001 -4.826786e-001 3.241222e+000 207 131 83
9.180719e-001 -4.788632e-001 3.246856e+000 218 119 84
9.180719e-001 -4.788632e-001 3.246856e+000 218 119 84
9.181341e-001 -4.945029e-001 3.249797e+000 30 56 68
9.279777e-001 -5.050104e-001 3.245756e+000 137 63 33
9.108585e-001 -5.169228e-001 3.257312e+000 146 117 110
9.124634e-001 -5.146021e-001 3.255958e+000 67 47 46
9.125312e-001 -5.143602e-001 3.256138e+000 67 47 46
9.193649e-001 -5.195007e-001 3.253642e+000 70 50 48
9.193464e-001 -5.195240e-001 3.253650e+000 70 50 48
9.436631e-001 -5.350066e-001 3.239614e+000 101 149 152
8.857936e-001 -5.075820e-001 3.264908e+000 70 30 26
9.069092e-001 -5.193223e-001 3.259733e+000 66 47 43
9.396203e-001 -5.413507e-001 3.242874e+000 71 100 104
9.160062e-001 -5.301602e-001 3.257133e+000 115 89 66
9.418495e-001 -3.531286e-001 3.202493e+000 203 177 121
9.437461e-001 -3.827487e-001 3.212925e+000 144 24 24
9.250652e-001 -3.777426e-001 3.222720e+000 192 137 90
9.621055e-001 -4.491260e-001 3.213818e+000 58 56 34
9.621180e-001 -4.490706e-001 3.213903e+000 58 56 34
8.674474e-001 -4.483967e-001 3.232551e+000 138 32 42
9.503896e-001 -4.725815e-001 3.227135e+000 174 133 94
9.503329e-001 -4.727073e-001 3.226978e+000 174 133 94
9.518071e-001 -4.910189e-001 3.227631e+000 172 130 90
9.301555e-001 -4.966314e-001 3.243325e+000 25 55 62
8.970926e-001 -5.011007e-001 3.260528e+000 162 86 65
9.034075e-001 -5.007908e-001 3.258217e+000 65 21 19
8.968172e-001 -5.156185e-001 3.264323e+000 109 82 65
8.605218e-001 -5.213515e-001 3.260964e+000 145 31 30
9.341431e-001 -3.492744e-001 3.201697e+000 212 175 130
9.350230e-001 -3.509829e-001 3.204546e+000 210 175 116
9.349293e-001 -3.510028e-001 3.204278e+000 210 175 116
9.394540e-001 -3.521550e-001 3.203155e+000 207 175 120
9.365524e-001 -3.806427e-001 3.216454e+000 153 29 28
9.365524e-001 -3.806427e-001 3.216454e+000 153 29 28
9.215622e-001 -3.793115e-001 3.225310e+000 149 40 26
8.583809e-001 -4.463789e-001 3.216337e+000 147 34 32
8.668814e-001 -4.465996e-001 3.230342e+000 199 114 85
8.712876e-001 -4.624110e-001 3.243783e+000 28 74 92
9.238606e-001 -4.949731e-001 3.246263e+000 24 61 79
8.866724e-001 -5.229717e-001 3.268785e+000 177 111 93
9.349996e-001 -3.777911e-001 3.216548e+000 160 35 31
9.209108e-001 -3.734482e-001 3.224206e+000 163 29 30
9.241112e-001 -3.744445e-001 3.222644e+000 167 23 28
9.270602e-001 -4.195781e-001 3.229955e+000 158 144 30
9.096253e-001 -4.471987e-001 3.244596e+000 160 32 27
8.730873e-001 -4.512872e-001 3.240914e+000 27 67 84
9.101797e-001 -5.110196e-001 3.256853e+000 83 51 52
9.015588e-001 -5.111810e-001 3.267829e+000 127 91 86
9.087949e-001 -5.215788e-001 3.259945e+000 71 50 45
9.249928e-001 -4.176538e-001 3.231514e+000 30 48 26
9.363604e-001 -4.393052e-001 3.229568e+000 163 145 60
9.476203e-001 -4.677424e-001 3.228621e+000 170 137 94
9.227295e-001 -4.780408e-001 3.243897e+000 114 30 14
9.091533e-001 -4.938183e-001 3.254581e+000 25 62 70
9.166253e-001 -5.279836e-001 3.255632e+000 130 98 81
9.166253e-001 -5.279836e-001 3.255632e+000 130 98 81
8.982805e-001 -5.197808e-001 3.264207e+000 80 61 57
9.386586e-001 -3.819555e-001 3.215391e+000 139 63 36
9.389138e-001 -4.067071e-001 3.220484e+000 26 49 28
8.910494e-001 -3.984823e-001 3.232878e+000 91 111 104
9.303996e-001 -4.127437e-001 3.226363e+000 162 144 64
9.355239e-001 -4.278547e-001 3.228049e+000 28 48 20
9.383585e-001 -4.556068e-001 3.232328e+000 161 141 96
9.490094e-001 -4.662571e-001 3.225557e+000 183 131 91
9.225497e-001 -4.632959e-001 3.240921e+000 157 142 101
9.500929e-001 -4.845583e-001 3.229017e+000 142 22 24
6.716709e-001 -6.374619e-001 3.049235e+000 158 142 129
8.661133e-001 -4.034212e-001 3.201431e+000 83 98 64
9.185032e-001 -4.132663e-001 3.233016e+000 159 143 84
9.185032e-001 -4.132663e-001 3.233016e+000 159 143 84
9.147221e-001 -4.157306e-001 3.235756e+000 28 48 23
9.531099e-001 -4.289839e-001 3.217133e+000 28 47 25
9.232374e-001 -4.243939e-001 3.233457e+000 162 143 74
9.232374e-001 -4.243939e-001 3.233457e+000 162 143 74
9.249825e-001 -4.523548e-001 3.238684e+000 157 138 96
9.249825e-001 -4.523548e-001 3.238684e+000 157 138 96
9.152222e-001 -4.603102e-001 3.244672e+000 157 142 99
9.152222e-001 -4.603102e-001 3.244672e+000 157 142 99
9.226486e-001 -4.631475e-001 3.240816e+000 160 141 101
9.337609e-001 -4.068710e-001 3.222543e+000 26 50 24
9.210243e-001 -4.194647e-001 3.233243e+000 24 51 28
9.267364e-001 -4.285755e-001 3.231814e+000 28 48 23
8.689868e-001 -4.604635e-001 3.239957e+000 24 75 100
9.139344e-001 -5.299017e-001 3.257519e+000 140 106 78
8.675261e-001 -5.278693e-001 3.266776e+000 57 18 19
8.947623e-001 -4.675923e-001 3.255974e+000 147 22 28
8.947623e-001 -4.675923e-001 3.255974e+000 147 22 28
8.931391e-001 -5.279196e-001 3.265617e+000 140 106 77
9.303609e-001 -4.592270e-001 3.236237e+000 156 139 95
9.223642e-001 -4.870471e-001 3.248226e+000 24 48 56
9.223642e-001 -4.870471e-001 3.248226e+000 24 48 56
9.566900e-001 -4.440160e-001 3.202027e+000 132 137 47
9.380075e-001 -3.513761e-001 3.202501e+000 53 37 13
9.346310e-001 -3.789064e-001 3.217024e+000 113 19 17
8.775324e-001 -3.899689e-001 3.215920e+000 27 65 74
9.433163e-001 -4.083682e-001 3.217168e+000 24 29 8
9.502207e-001 -4.651870e-001 3.224862e+000 75 36 18
8.958364e-001 -4.540171e-001 3.250601e+000 139 104 64
9.263807e-001 -4.776270e-001 3.242169e+000 187 104 64
9.263849e-001 -4.776071e-001 3.242197e+000 187 104 64
9.194751e-001 -4.765197e-001 3.245471e+000 80 20 11
9.267786e-001 -4.941363e-001 3.244903e+000 98 124 122
9.267880e-001 -4.941210e-001 3.244903e+000 98 124 122
9.384835e-001 -4.986110e-001 3.238525e+000 23 39 35
9.381897e-001 -5.001313e-001 3.238998e+000 25 38 38
9.391325e-001 -5.009594e-001 3.238740e+000 91 115 104
9.387644e-001 -5.022099e-001 3.237600e+000 91 115 104
8.879299e-001 -4.821105e-001 3.258097e+000 19 43 48
8.994341e-001 -5.007826e-001 3.260253e+000 125 60 46
8.984921e-001 -5.018054e-001 3.261003e+000 49 20 12
8.986604e-001 -5.040470e-001 3.260558e+000 121 59 48
9.129590e-001 -5.085216e-001 3.255422e+000 50 26 19
9.225295e-001 -5.100091e-001 3.250315e+000 97 63 60
9.224794e-001 -5.100509e-001 3.250277e+000 97 63 60
9.227957e-001 -5.125245e-001 3.250434e+000 99 57 51
9.227841e-001 -5.125051e-001 3.250404e+000 99 57 51
8.895373e-001 -5.091489e-001 3.264874e+000 93 45 43
8.971214e-001 -5.071830e-001 3.262574e+000 38 15 6
8.987162e-001 -5.107714e-001 3.262416e+000 54 26 22
9.026644e-001 -5.075240e-001 3.260179e+000 109 63 53
9.026644e-001 -5.075240e-001 3.260179e+000 109 63 53
8.732673e-001 -5.216524e-001 3.272351e+000 39 10 0
9.254420e-001 -3.757159e-001 3.222221e+000 158 101 67
9.390655e-001 -3.843711e-001 3.215718e+000 163 105 65
9.327512e-001 -3.844686e-001 3.219337e+000 151 105 63
9.104586e-001 -3.806175e-001 3.230257e+000 121 110 71
8.750518e-001 -3.927325e-001 3.213183e+000 85 99 55
8.632476e-001 -4.109078e-001 3.203796e+000 110 110 53
9.224738e-001 -4.813017e-001 3.245762e+000 105 17 21
9.338565e-001 -4.979964e-001 3.241062e+000 28 43 43
9.339417e-001 -4.977565e-001 3.241318e+000 28 43 43
9.301097e-001 -4.967275e-001 3.243223e+000 30 43 45
9.282033e-001 -4.983637e-001 3.245195e+000 21 41 46
8.925261e-001 -4.974080e-001 3.261908e+000 52 19 10
8.931662e-001 -5.027117e-001 3.262745e+000 123 60 41
9.006187e-001 -5.001893e-001 3.259445e+000 69 25 16
9.007076e-001 -4.999901e-001 3.259565e+000 69 25 16
8.974747e-001 -5.135096e-001 3.260317e+000 47 33 19
9.037200e-001 -5.137676e-001 3.260227e+000 63 39 34
9.140520e-001 -5.202932e-001 3.254381e+000 45 23 14
9.137193e-001 -5.209628e-001 3.256649e+000 58 40 36
8.948049e-001 -5.155933e-001 3.264807e+000 89 56 47
8.651348e-001 -4.104657e-001 3.208043e+000 109 109 53
8.653713e-001 -4.454714e-001 3.228488e+000 166 86 61
9.534191e-001 -4.740833e-001 3.224660e+000 124 102 61
8.527438e-001 -5.175353e-001 3.249757e+000 162 101 57
8.977719e-001 -5.133784e-001 3.262766e+000 97 61 51
9.134314e-001 -5.169760e-001 3.256025e+000 58 41 34
8.852445e-001 -5.107817e-001 3.265646e+000 50 20 18
9.154645e-001 -5.234774e-001 3.256517e+000 64 46 34
9.204666e-001 -4.161314e-001 3.233218e+000 21 37 18
9.140872e-001 -4.643493e-001 3.246360e+000 119 25 18
9.521875e-001 -4.905006e-001 3.227353e+000 120 104 59
9.046649e-001 -4.988658e-001 3.257311e+000 140 87 47
8.905463e-001 -5.132684e-001 3.265637e+000 54 24 21
9.167542e-001 -4.199516e-001 3.235233e+000 125 109 32
6.689221e-001 -6.420371e-001 3.045254e+000 121 109 87
9.181711e-001 -4.954430e-001 3.251135e+000 19 44 49
9.313392e-001 -5.003243e-001 3.244023e+000 21 44 48
9.313392e-001 -5.003243e-001 3.244023e+000 21 44 48
9.515342e-001 -5.310164e-001 3.212393e+000 114 48 32
9.369668e-001 -5.105496e-001 3.241183e+000 71 12 15
9.410490e-001 -5.344151e-001 3.241060e+000 17 40 45
9.072183e-001 -5.206800e-001 3.260964e+000 52 36 31
9.387590e-001 -4.029598e-001 3.219625e+000 122 111 29
9.225614e-001 -4.633170e-001 3.240865e+000 124 106 68
9.357800e-001 -4.672527e-001 3.234524e+000 123 106 69
9.047583e-001 -4.873860e-001 3.251767e+000 18 46 50
9.295422e-001 -5.081555e-001 3.247112e+000 61 36 39
9.284062e-001 -4.018044e-001 3.225726e+000 22 36 16
9.421783e-001 -4.062652e-001 3.219289e+000 23 36 22
9.423247e-001 -4.304870e-001 3.225287e+000 22 35 18
9.544839e-001 -4.416867e-001 3.219003e+000 118 105 52
9.545108e-001 -4.416557e-001 3.219036e+000 118 105 52
9.099658e-001 -4.306862e-001 3.241253e+000 123 109 61
9.381835e-001 -4.565151e-001 3.232337e+000 129 107 68
9.275253e-001 -4.926716e-001 3.242187e+000 17 42 50
9.040446e-001 -4.177139e-001 3.236441e+000 124 108 26
9.151129e-001 -3.963419e-001 3.227038e+000 20 37 18
9.448530e-001 -3.544442e-001 3.201238e+000 43 34 18
9.340648e-001 -3.515220e-001 3.207316e+000 52 45 26
9.340648e-001 -3.515220e-001 3.207316e+000 52 45 26
9.408066e-001 -3.534635e-001 3.204028e+000 53 37 20
9.202328e-001 -3.784553e-001 3.225546e+000 158 88 57
9.202672e-001 -3.808797e-001 3.225681e+000 184 86 61
9.202672e-001 -3.808797e-001 3.225681e+000 184 86 61
9.426926e-001 -4.101703e-001 3.218643e+000 77 76 36
9.044919e-001 -4.540817e-001 3.248446e+000 75 44 20
9.044919e-001 -4.540817e-001 3.248446e+000 75 44 20
9.509330e-001 -4.734157e-001 3.226094e+000 145 93 59
9.225587e-001 -4.764532e-001 3.243881e+000 169 96 65
9.281082e-001 -4.814128e-001 3.241734e+000 92 19 16
9.296607e-001 -4.787104e-001 3.240419e+000 165 99 64
9.304203e-001 -4.797656e-001 3.240190e+000 94 17 11
9.304203e-001 -4.797656e-001 3.240190e+000 94 17 11
9.299078e-001 -4.822394e-001 3.240428e+000 90 15 17
9.299078e-001 -4.822394e-001 3.240428e+000 90 15 17
9.163025e-001 -4.782792e-001 3.247818e+000 172 80 52
9.163324e-001 -4.782277e-001 3.247873e+000 172 80 52
9.174190e-001 -4.829975e-001 3.247890e+000 109 11 18
9.177774e-001 -4.928853e-001 3.250077e+000 97 118 107
9.212356e-001 -4.923536e-001 3.247456e+000 92 109 95
9.293705e-001 -4.949081e-001 3.243500e+000 88 106 91
9.279464e-001 -4.969189e-001 3.244211e+000 24 40 40
9.279464e-001 -4.969189e-001 3.244211e+000 24 40 40
9.330543e-001 -4.963067e-001 3.241188e+000 95 106 89
9.366083e-001 -4.988882e-001 3.239667e+000 96 114 98
9.327225e-001 -4.987447e-001 3.242475e+000 94 109 92
9.361995e-001 -5.005572e-001 3.239887e+000 93 117 103
9.363791e-001 -5.001000e-001 3.240321e+000 93 117 103
8.886363e-001 -4.950576e-001 3.262289e+000 142 91 44
8.973170e-001 -5.050186e-001 3.261404e+000 60 23 19
9.024294e-001 -5.031794e-001 3.259407e+000 46 16 12
9.017394e-001 -5.063257e-001 3.259842e+000 53 22 17
9.115007e-001 -5.180259e-001 3.257974e+000 52 36 28
8.886469e-001 -5.188083e-001 3.266909e+000 51 20 17
9.367260e-001 -3.801157e-001 3.216514e+000 109 17 14
9.397968e-001 -3.804369e-001 3.214635e+000 155 100 64
9.492398e-001 -3.822806e-001 3.210265e+000 117 60 40
9.339022e-001 -3.813761e-001 3.218277e+000 107 22 16
9.351684e-001 -3.960935e-001 3.219562e+000 48 64 53
9.504347e-001 -4.725493e-001 3.227069e+000 139 94 55
9.300671e-001 -4.869866e-001 3.241692e+000 191 58 55
9.302345e-001 -4.866511e-001 3.241952e+000 191 58 55
8.908623e-001 -4.912521e-001 3.260549e+000 136 88 39
8.897913e-001 -5.024828e-001 3.263442e+000 45 13 10
9.007358e-001 -5.066831e-001 3.260782e+000 117 56 46
9.003971e-001 -5.073716e-001 3.260312e+000 117 56 46
9.003313e-001 -5.086224e-001 3.261097e+000 62 30 23
9.112493e-001 -5.137919e-001 3.256818e+000 86 58 53
8.815933e-001 -5.111669e-001 3.266489e+000 63 25 24
9.009415e-001 -5.153126e-001 3.262225e+000 38 21 12
9.191027e-001 -3.724825e-001 3.224420e+000 121 21 24
9.225543e-001 -4.164268e-001 3.231784e+000 124 97 24
9.225543e-001 -4.164268e-001 3.231784e+000 124 97 24
9.087027e-001 -4.609236e-001 3.247748e+000 124 109 65
9.087027e-001 -4.609236e-001 3.247748e+000 124 109 65
9.025939e-001 -4.881442e-001 3.255952e+000 23 40 46
9.372993e-001 -5.046259e-001 3.241287e+000 94 23 21
9.039256e-001 -4.973926e-001 3.256824e+000 109 40 17
8.963161e-001 -5.094128e-001 3.262511e+000 80 44 28
8.975533e-001 -5.135826e-001 3.262543e+000 64 30 21
9.489333e-001 -4.696123e-001 3.226783e+000 131 98 62
9.088056e-001 -4.603712e-001 3.247971e+000 117 108 63
9.088056e-001 -4.603712e-001 3.247971e+000 117 108 63
9.133644e-001 -4.619639e-001 3.245921e+000 122 105 62
9.134083e-001 -4.619138e-001 3.246066e+000 122 105 62
8.888566e-001 -5.031738e-001 3.263592e+000 53 14 15
9.607692e-001 -4.451775e-001 3.214569e+000 95 92 49
9.123754e-001 -4.816877e-001 3.250300e+000 104 20 15
9.098019e-001 -4.297741e-001 3.241351e+000 123 107 48
9.259904e-001 -3.777960e-001 3.221853e+000 109 62 38
9.249816e-001 -3.985261e-001 3.226715e+000 120 105 33
9.413875e-001 -4.147175e-001 3.222856e+000 22 33 16
9.121555e-001 -4.107621e-001 3.235420e+000 123 105 44
9.358547e-001 -4.671012e-001 3.234539e+000 122 103 63
9.193969e-001 -4.892344e-001 3.247103e+000 18 43 50
8.762267e-001 -5.230096e-001 3.269573e+000 133 87 38
9.421998e-001 -4.741720e-001 3.234070e+000 124 102 61
8.946351e-001 -4.683078e-001 3.255219e+000 109 15 16
9.348282e-001 -4.449103e-001 3.232317e+000 125 106 64
9.552233e-001 -4.900806e-001 3.217236e+000 115 95 58
8.752500e-001 -6.051567e-001 3.287795e+000 152 98 66
8.622266e-001 -6.090656e-001 3.292844e+000 180 135 119
7.557958e-001 -6.123036e-001 3.244121e+000 139 123 126
7.597295e-001 -6.108006e-001 3.252467e+000 138 119 125
8.740233e-001 -6.094335e-001 3.287744e+000 175 134 107
8.689771e-001 -6.018187e-001 3.289832e+000 112 41 25
8.613011e-001 -6.022215e-001 3.290355e+000 157 108 76
8.759686e-001 -5.808474e-001 3.283401e+000 174 126 82
8.736879e-001 -5.756752e-001 3.282899e+000 170 127 83
8.570008e-001 -5.732444e-001 3.281396e+000 198 112 33
8.511112e-001 -5.962585e-001 3.286314e+000 37 24 24
9.329068e-001 -5.820902e-001 3.253394e+000 130 78 39
9.306952e-001 -5.834134e-001 3.255657e+000 129 79 44
8.741786e-001 -5.548859e-001 3.277420e+000 37 28 38
9.264150e-001 -5.605745e-001 3.255912e+000 160 113 78
9.364694e-001 -5.868138e-001 3.250816e+000 101 57 28
9.297417e-001 -5.564975e-001 3.252667e+000 141 53 40
8.840570e-001 -5.707015e-001 3.278239e+000 19 61 96
7.575871e-001 -6.125792e-001 3.241755e+000 50 40 41
9.368385e-001 -5.997549e-001 3.248235e+000 32 20 25
7.606227e-001 -6.112761e-001 3.248087e+000 56 45 49
8.729869e-001 -5.999752e-001 3.291146e+000 182 137 106
8.741027e-001 -6.094159e-001 3.288221e+000 179 135 108
9.284792e-001 -5.991256e-001 3.257989e+000 49 16 18
9.396564e-001 -5.704130e-001 3.235665e+000 153 115 78
8.974628e-001 -6.366383e-001 3.289330e+000 40 27 36
9.100896e-001 -5.489957e-001 3.262249e+000 77 50 43
9.138459e-001 -5.562309e-001 3.262528e+000 98 66 69
9.198647e-001 -5.558689e-001 3.261163e+000 100 72 69
8.517350e-001 -5.923563e-001 3.285999e+000 25 15 7
8.677864e-001 -5.985552e-001 3.289234e+000 155 97 65
8.650010e-001 -6.023593e-001 3.291715e+000 192 135 106
8.672159e-001 -6.114914e-001 3.291291e+000 120 46 39
9.226523e-001 -5.509840e-001 3.256891e+000 87 45 35
9.212132e-001 -5.542798e-001 3.258974e+000 160 106 98
9.212132e-001 -5.542798e-001 3.258974e+000 160 106 98
9.345598e-001 -5.916337e-001 3.252646e+000 141 90 50
8.622236e-001 -6.091954e-001 3.292836e+000 183 133 109
8.763235e-001 -5.832813e-001 3.285224e+000 105 20 27
7.851144e-001 -6.021441e-001 3.307585e+000 138 120 117
7.873391e-001 -6.011303e-001 3.312315e+000 134 114 113
9.528910e-001 -3.548425e-001 3.187539e+000 150 130 97
9.274371e-001 -5.562769e-001 3.254524e+000 70 21 16
7.847565e-001 -6.027829e-001 3.300693e+000 51 42 45
7.365911e-001 -6.166204e-001 3.203138e+000 141 124 114
7.785008e-001 -5.999829e-001 3.303274e+000 140 122 112
9.272376e-001 -3.462126e-001 3.198238e+000 215 177 130
9.364587e-001 -3.483595e-001 3.195862e+000 97 75 49
9.316723e-001 -3.475287e-001 3.198813e+000 105 84 50
9.340052e-001 -3.483739e-001 3.199059e+000 209 174 123
9.439055e-001 -3.538532e-001 3.202013e+000 205 174 127
9.436369e-001 -5.353081e-001 3.239265e+000 101 149 152
9.432532e-001 -5.388007e-001 3.240175e+000 103 138 140
9.436433e-001 -5.460846e-001 3.236475e+000 76 97 108
9.441120e-001 -5.437873e-001 3.238218e+000 76 97 108
9.382925e-001 -5.422524e-001 3.244469e+000 31 55 61
9.382335e-001 -5.425066e-001 3.244304e+000 31 55 61
9.374195e-001 -5.435770e-001 3.245267e+000 72 109 118
9.409244e-001 -5.448193e-001 3.242618e+000 47 92 101
9.098665e-001 -5.358008e-001 3.261292e+000 131 98 72
8.934767e-001 -5.438629e-001 3.270832e+000 55 30 17
9.114914e-001 -5.554812e-001 3.263714e+000 101 71 68
9.320188e-001 -5.659523e-001 3.251351e+000 81 32 15
8.718529e-001 -5.571147e-001 3.279189e+000 28 21 18
9.360879e-001 -6.196522e-001 3.247820e+000 112 75 64
8.782341e-001 -5.736005e-001 3.281138e+000 126 22 26
8.840128e-001 -5.738035e-001 3.278935e+000 151 108 59
8.629014e-001 -6.050940e-001 3.291718e+000 194 139 97
7.820486e-001 -6.041071e-001 3.296946e+000 49 40 35
9.541208e-001 -3.500277e-001 3.157619e+000 164 125 82
9.493307e-001 -3.546359e-001 3.194012e+000 203 168 114
9.658242e-001 -7.386321e-001 3.037171e+000 54 44 42
9.360539e-001 -5.396149e-001 3.245882e+000 74 111 120
9.442845e-001 -5.457540e-001 3.238819e+000 27 48 55
8.562508e-001 -5.435681e-001 3.266158e+000 138 32 26
8.929414e-001 -5.479994e-001 3.271535e+000 63 35 31
7.704387e-001 -6.053652e-001 3.273563e+000 141 122 107
8.479033e-001 -6.001304e-001 3.284212e+000 182 143 104
9.341427e-001 -3.492716e-001 3.201694e+000 212 175 130
9.438078e-001 -3.522629e-001 3.198575e+000 205 172 126
9.438404e-001 -3.521661e-001 3.198860e+000 205 172 126
9.459784e-001 -3.542829e-001 3.199516e+000 206 176 115
9.460809e-001 -3.542499e-001 3.199776e+000 206 176 115
8.071516e-001 -5.928424e-001 3.352706e+000 148 120 108
9.556990e-001 -3.557622e-001 3.186375e+000 202 170 119
8.983212e-001 -3.413392e-001 3.165069e+000 154 131 98
9.479735e-001 -3.522111e-001 3.190883e+000 204 168 116
9.481303e-001 -3.520658e-001 3.192184e+000 204 168 116
9.418189e-001 -3.516115e-001 3.197239e+000 207 172 122
9.329010e-001 -5.554350e-001 3.249931e+000 106 36 23
8.768329e-001 -5.408499e-001 3.274142e+000 53 21 21
8.740151e-001 -5.406739e-001 3.274319e+000 168 118 59
8.760056e-001 -5.474962e-001 3.275712e+000 76 48 47
7.835539e-001 -6.022588e-001 3.304037e+000 144 118 105
7.943581e-001 -5.985630e-001 3.328067e+000 141 119 107
7.964787e-001 -6.014433e-001 3.327907e+000 49 37 37
8.490683e-001 -5.666081e-001 3.268657e+000 97 24 21
8.490683e-001 -5.666081e-001 3.268657e+000 97 24 21
8.446682e-001 -6.080768e-001 3.284480e+000 197 102 38
8.599978e-001 -6.065942e-001 3.290832e+000 188 145 100
9.042774e-001 -5.346172e-001 3.264114e+000 133 100 75
8.984519e-001 -5.492547e-001 3.270801e+000 95 65 63
7.958462e-001 -6.055039e-001 3.320609e+000 45 34 38
9.236180e-001 -5.743439e-001 3.259096e+000 150 108 58
9.319260e-001 -3.472303e-001 3.197219e+000 167 135 87
9.342993e-001 -3.478122e-001 3.196561e+000 168 134 85
9.324207e-001 -3.481859e-001 3.199697e+000 165 134 79
9.324207e-001 -3.481859e-001 3.199697e+000 165 134 79
9.368836e-001 -3.493890e-001 3.198242e+000 75 57 30
9.507793e-001 -3.543188e-001 3.191810e+000 162 132 83
9.507793e-001 -3.543188e-001 3.191810e+000 162 132 83
9.449380e-001 -3.513644e-001 3.210028e+000 44 32 11
9.493134e-001 -3.561095e-001 3.199983e+000 57 40 17
9.256757e-001 -3.791184e-001 3.222502e+000 98 36 18
9.256757e-001 -3.791184e-001 3.222502e+000 98 36 18
9.019020e-001 -5.060688e-001 3.260005e+000 56 26 16
9.432751e-001 -5.387252e-001 3.240184e+000 77 104 103
9.419403e-001 -5.395854e-001 3.241676e+000 25 41 41
9.406666e-001 -5.390698e-001 3.242796e+000 26 38 38
9.401031e-001 -5.397684e-001 3.244139e+000 52 72 71
9.409140e-001 -5.414790e-001 3.242245e+000 46 66 65
9.423613e-001 -5.459347e-001 3.237478e+000 51 76 76
9.086243e-001 -5.352853e-001 3.261747e+000 14 8 3
9.082319e-001 -5.360857e-001 3.262869e+000 100 77 52
9.102860e-001 -5.383799e-001 3.259706e+000 14 8 6
9.198327e-001 -5.606700e-001 3.252615e+000 70 35 25
8.751136e-001 -5.367622e-001 3.274310e+000 80 45 11
8.855430e-001 -5.456763e-001 3.274079e+000 65 38 33
9.575442e-001 -3.565887e-001 3.181700e+000 159 126 83
9.375356e-001 -3.492331e-001 3.196766e+000 166 134 84
9.446504e-001 -3.517395e-001 3.194359e+000 130 109 59
9.480261e-001 -3.546414e-001 3.198180e+000 165 132 80
9.190431e-001 -3.932678e-001 3.228766e+000 49 65 53
9.192062e-001 -3.930969e-001 3.229104e+000 49 65 53
8.930189e-001 -5.032058e-001 3.262384e+000 123 60 41
9.366185e-001 -5.369914e-001 3.245976e+000 19 39 38
9.386778e-001 -5.396840e-001 3.244605e+000 59 79 78
9.386778e-001 -5.396840e-001 3.244605e+000 59 79 78
9.393030e-001 -5.436471e-001 3.244517e+000 66 90 91
8.970514e-001 -5.303016e-001 3.265768e+000 108 77 49
8.737922e-001 -5.363043e-001 3.273320e+000 123 76 34
9.384073e-001 -6.029120e-001 3.243515e+000 31 11 7
8.473693e-001 -5.905602e-001 3.281706e+000 171 125 81
8.716514e-001 -6.120443e-001 3.290472e+000 146 96 61
8.716514e-001 -6.120443e-001 3.290472e+000 146 96 61
8.671262e-001 -3.936553e-001 3.202844e+000 43 43 31
8.950936e-001 -5.065639e-001 3.263120e+000 54 22 16
9.217484e-001 -5.371216e-001 3.252942e+000 65 46 39
8.871314e-001 -5.545792e-001 3.276219e+000 124 82 40
9.323876e-001 -6.234992e-001 3.249934e+000 111 69 38
9.475103e-001 -5.558879e-001 3.223176e+000 102 73 49
9.475103e-001 -5.558879e-001 3.223176e+000 102 73 49
9.368637e-001 -5.534773e-001 3.242949e+000 125 83 41
8.844641e-001 -5.555458e-001 3.276834e+000 29 11 11
8.728219e-001 -5.682148e-001 3.282042e+000 24 42 45
7.691984e-001 -6.103628e-001 3.268631e+000 38 29 24
7.903019e-001 -5.972107e-001 3.308452e+000 39 30 25
8.704723e-001 -5.355158e-001 3.273359e+000 106 62 18
7.574735e-001 -6.134411e-001 3.240842e+000 36 29 23
8.470667e-001 -5.975151e-001 3.283625e+000 136 96 60
9.265599e-001 -5.000882e-001 3.246039e+000 22 43 49
9.099239e-001 -5.333196e-001 3.261224e+000 15 7 5
9.014787e-001 -5.479245e-001 3.265410e+000 96 69 50
8.767185e-001 -6.208466e-001 3.289642e+000 117 57 20
9.445790e-001 -3.509682e-001 3.192725e+000 84 61 22
9.387586e-001 -4.318966e-001 3.228245e+000 129 110 51
9.457361e-001 -5.581367e-001 3.226789e+000 108 75 41
9.346171e-001 -6.099893e-001 3.249548e+000 103 68 26
9.082592e-001 -5.502682e-001 3.266709e+000 50 35 30
9.376686e-001 -6.393498e-001 3.245354e+000 22 16 16
8.644313e-001 -5.976379e-001 3.293463e+000 150 106 63
8.644313e-001 -5.976379e-001 3.293463e+000 150 106 63
9.058092e-001 -6.001847e-001 3.263753e+000 115 81 43
9.058092e-001 -6.001847e-001 3.263753e+000 115 81 43
9.398071e-001 -3.502036e-001 3.196195e+000 57 41 16
9.538680e-001 -3.552025e-001 3.189229e+000 165 136 77
9.582061e-001 -3.572427e-001 3.185642e+000 163 127 79
9.620171e-001 -3.308700e-001 3.254420e+000 71 54 27
9.487211e-001 -3.545970e-001 3.196980e+000 55 41 24
9.485801e-001 -3.554232e-001 3.199621e+000 159 130 72
9.058568e-001 -4.617470e-001 3.249769e+000 124 100 63
9.199635e-001 -4.939694e-001 3.248409e+000 23 35 31
8.980860e-001 -5.022901e-001 3.260536e+000 49 17 15
9.401997e-001 -5.436550e-001 3.242271e+000 22 35 35
8.961860e-001 -5.325343e-001 3.266915e+000 105 70 51
9.084465e-001 -5.397127e-001 3.260830e+000 104 67 48
8.764047e-001 -5.378330e-001 3.273286e+000 49 18 15
9.151952e-001 -5.514616e-001 3.260187e+000 101 52 38
9.206471e-001 -5.513967e-001 3.258339e+000 109 53 36
8.753158e-001 -5.414406e-001 3.273347e+000 34 10 8
8.911702e-001 -5.476612e-001 3.271651e+000 49 29 20
8.953057e-001 -5.514139e-001 3.270163e+000 81 55 47
8.953057e-001 -5.514139e-001 3.270163e+000 81 55 47
9.153812e-001 -5.521468e-001 3.261400e+000 102 52 43
8.575551e-001 -6.183879e-001 3.294668e+000 80 23 3
8.575551e-001 -6.183879e-001 3.294668e+000 80 23 3
9.449757e-001 -3.823834e-001 3.212528e+000 158 97 62
9.067312e-001 -3.837266e-001 3.231435e+000 21 36 19
8.903387e-001 -4.993469e-001 3.263324e+000 46 18 14
9.243533e-001 -5.575236e-001 3.256725e+000 123 73 46
9.311200e-001 -5.653349e-001 3.253142e+000 114 52 31
8.776763e-001 -5.710937e-001 3.282184e+000 126 85 43
7.801339e-001 -6.055039e-001 3.305149e+000 95 74 53
9.437625e-001 -3.536712e-001 3.200728e+000 164 130 82
9.437625e-001 -3.536712e-001 3.200728e+000 164 130 82
8.961768e-001 -5.095049e-001 3.262444e+000 80 44 28
7.474333e-001 -6.180935e-001 3.223132e+000 40 31 26
8.857016e-001 -5.377725e-001 3.272021e+000 56 27 21
9.016496e-001 -4.565090e-001 3.250136e+000 131 106 66
8.863701e-001 -4.836128e-001 3.258843e+000 138 95 50
9.380472e-001 -5.355885e-001 3.244041e+000 74 92 88
9.344965e-001 -5.422062e-001 3.246702e+000 20 38 40
9.163439e-001 -5.468793e-001 3.259605e+000 121 78 53
9.128655e-001 -5.506237e-001 3.264249e+000 57 33 29
9.073028e-001 -4.472938e-001 3.246447e+000 123 105 67
9.424436e-001 -4.697564e-001 3.231758e+000 129 101 62
9.318874e-001 -4.812403e-001 3.239951e+000 105 15 15
9.112937e-001 -5.074027e-001 3.256207e+000 61 27 23
7.612622e-001 -6.124866e-001 3.260355e+000 117 95 74
7.654058e-001 -6.128449e-001 3.262355e+000 37 26 22
7.712276e-001 -6.085950e-001 3.281049e+000 117 95 74
7.638241e-001 -6.117655e-001 3.255351e+000 35 26 21
9.397427e-001 -4.389048e-001 3.228068e+000 23 35 14
7.420096e-001 -6.155733e-001 3.216955e+000 108 89 67
7.622420e-001 -6.093335e-001 3.262579e+000 117 95 71
8.942345e-001 -4.689573e-001 3.254376e+000 109 15 16
9.356280e-001 -3.495950e-001 3.201308e+000 168 134 83
9.240207e-001 -5.732778e-001 3.259725e+000 116 78 41
9.368762e-001 -3.493971e-001 3.198229e+000 78 59 34
9.402836e-001 -3.518623e-001 3.200948e+000 70 50 26
9.446502e-001 -3.534398e-001 3.199428e+000 54 39 15
9.520840e-001 -3.540994e-001 3.190753e+000 155 123 82
9.344098e-001 -3.516598e-001 3.205751e+000 164 132 83
9.379376e-001 -3.514395e-001 3.202354e+000 74 53 30
9.130020e-001 -3.700840e-001 3.226828e+000 110 23 21
9.461830e-001 -3.903700e-001 3.213980e+000 107 22 23
9.184161e-001 -4.756613e-001 3.245246e+000 162 101 60
9.140540e-001 -4.848718e-001 3.237540e+000 77 25 11
8.877405e-001 -4.800231e-001 3.258083e+000 125 108 74
9.098619e-001 -4.892847e-001 3.252459e+000 82 112 105
9.098619e-001 -4.892847e-001 3.252459e+000 82 112 105
9.187228e-001 -4.915151e-001 3.248929e+000 94 118 108
9.181618e-001 -4.943954e-001 3.249885e+000 18 37 34
9.258103e-001 -4.957008e-001 3.246129e+000 100 118 110
9.291115e-001 -4.953359e-001 3.242953e+000 92 109 98
9.287112e-001 -4.981257e-001 3.243908e+000 93 112 108
9.324101e-001 -4.993906e-001 3.241894e+000 94 107 92
8.987329e-001 -4.986937e-001 3.258983e+000 116 48 31
9.512048e-001 -5.228437e-001 3.229855e+000 127 49 37
9.030054e-001 -5.028031e-001 3.258085e+000 113 58 46
9.048803e-001 -5.060402e-001 3.258764e+000 91 53 44
8.947819e-001 -5.127032e-001 3.263889e+000 120 79 70
9.005454e-001 -5.081880e-001 3.261491e+000 62 28 23
9.404708e-001 -5.433678e-001 3.242413e+000 21 39 39
8.989208e-001 -5.296254e-001 3.265584e+000 99 73 48
9.393463e-001 -5.428131e-001 3.243396e+000 25 37 39
8.996468e-001 -5.340604e-001 3.265916e+000 12 6 1
9.105231e-001 -5.568914e-001 3.262830e+000 73 52 46
9.204044e-001 -5.577535e-001 3.258057e+000 61 34 24
9.328664e-001 -3.491566e-001 3.202119e+000 165 132 86
9.481623e-001 -3.545639e-001 3.198322e+000 156 130 83
9.369834e-001 -3.514796e-001 3.203159e+000 160 129 83
9.293585e-001 -3.769945e-001 3.220128e+000 148 98 59
9.302677e-001 -3.781078e-001 3.219933e+000 107 23 17
9.302677e-001 -3.781078e-001 3.219933e+000 107 23 17
9.324219e-001 -3.792770e-001 3.218431e+000 110 22 20
9.428266e-001 -3.814915e-001 3.213002e+000 149 101 63
9.317196e-001 -3.833102e-001 3.219369e+000 109 21 20
9.537569e-001 -4.084514e-001 3.213172e+000 25 30 5
9.521896e-001 -4.130609e-001 3.215292e+000 29 33 6
9.521896e-001 -4.130609e-001 3.215292e+000 29 33 6
9.113363e-001 -4.482394e-001 3.244143e+000 130 96 58
9.113363e-001 -4.482394e-001 3.244143e+000 130 96 58
9.147412e-001 -4.780244e-001 3.248432e+000 96 13 15
9.169196e-001 -4.920075e-001 3.249693e+000 22 42 41
9.340077e-001 -4.976752e-001 3.241425e+000 27 41 41
8.949537e-001 -5.014704e-001 3.262307e+000 123 58 37
8.963276e-001 -5.056277e-001 3.262194e+000 121 59 41
9.138591e-001 -5.146660e-001 3.255651e+000 60 35 31
9.215635e-001 -5.210207e-001 3.252197e+000 57 41 36
8.947694e-001 -5.156345e-001 3.264784e+000 71 42 31
9.361310e-001 -5.488717e-001 3.247166e+000 91 29 17
8.956875e-001 -5.355793e-001 3.268077e+000 107 77 51
8.779868e-001 -5.443394e-001 3.274388e+000 50 26 21
9.322882e-001 -5.648259e-001 3.252063e+000 54 22 3
8.939942e-001 -5.494481e-001 3.271842e+000 84 56 47
9.446012e-001 -3.517765e-001 3.194276e+000 115 94 61
9.395392e-001 -3.523375e-001 3.203418e+000 163 131 75
8.862701e-001 -5.094341e-001 3.266633e+000 50 19 17
8.998174e-001 -5.109320e-001 3.261332e+000 57 23 12
9.070391e-001 -5.180768e-001 3.259357e+000 56 34 31
9.421881e-001 -5.371033e-001 3.240749e+000 18 37 41
8.838385e-001 -5.569491e-001 3.276158e+000 23 12 16
9.011666e-001 -5.519332e-001 3.268858e+000 82 55 50
8.701973e-001 -5.823069e-001 3.285044e+000 87 34 12
9.523456e-001 -4.126501e-001 3.214460e+000 23 33 13
9.523456e-001 -4.126501e-001 3.214460e+000 23 33 13
9.519390e-001 -4.908955e-001 3.226754e+000 116 100 55
9.525425e-001 -4.958654e-001 3.223365e+000 111 23 19
9.124431e-001 -5.132068e-001 3.254852e+000 53 34 31
9.014324e-001 -5.482832e-001 3.268699e+000 48 31 24
8.840448e-001 -5.567393e-001 3.276245e+000 25 10 12
8.841961e-001 -5.700602e-001 3.278810e+000 15 38 47
8.959777e-001 -4.487377e-001 3.248481e+000 119 79 55
9.193473e-001 -4.765101e-001 3.245905e+000 68 18 3
9.192773e-001 -4.765803e-001 3.245772e+000 68 18 3
9.133272e-001 -4.909232e-001 3.251817e+000 88 101 94
9.453073e-001 -5.394907e-001 3.237986e+000 16 36 43
8.972797e-001 -5.376776e-001 3.267637e+000 107 79 57
7.588514e-001 -6.118166e-001 3.242122e+000 36 29 23
8.974086e-001 -5.470575e-001 3.270139e+000 57 39 27
9.225373e-001 -5.516002e-001 3.257214e+000 64 33 22
8.855131e-001 -5.519530e-001 3.273886e+000 54 34 26
9.419819e-001 -3.513788e-001 3.197366e+000 159 130 87
9.318834e-001 -4.941547e-001 3.240698e+000 18 43 47
8.984552e-001 -5.323405e-001 3.266426e+000 22 9 3
9.511320e-001 -3.557245e-001 3.195242e+000 156 127 83
9.481758e-001 -4.316346e-001 3.221320e+000 122 105 42
9.238847e-001 -4.975841e-001 3.248085e+000 20 40 47
9.171235e-001 -3.757009e-001 3.226781e+000 143 101 60
9.534348e-001 -3.952939e-001 3.209570e+000 73 81 66
9.380975e-001 -5.539639e-001 3.245961e+000 117 79 40
8.909023e-001 -4.852969e-001 3.257854e+000 16 46 57
9.484603e-001 -4.042748e-001 3.216738e+000 22 37 18
9.480824e-001 -4.047094e-001 3.216245e+000 22 37 18
9.223669e-001 -4.166490e-001 3.231863e+000 105 101 26
9.504798e-001 -4.599064e-001 3.225332e+000 64 39 21
9.504798e-001 -4.599064e-001 3.225332e+000 64 39 21
9.574248e-001 -5.050059e-001 3.205721e+000 116 78 54
9.205198e-001 -4.767455e-001 3.245109e+000 164 98 66
9.187194e-001 -4.915152e-001 3.248923e+000 96 119 111
9.329711e-001 -4.963640e-001 3.241399e+000 93 117 108
8.908333e-001 -4.994171e-001 3.264771e+000 117 58 44
9.100029e-001 -5.153429e-001 3.257475e+000 47 32 27
9.096956e-001 -5.359265e-001 3.261191e+000 104 71 55
9.398459e-001 -5.422354e-001 3.243854e+000 21 39 41
8.935961e-001 -5.437424e-001 3.270921e+000 45 25 14
9.247753e-001 -3.466173e-001 3.201186e+000 173 142 92
9.397988e-001 -3.804460e-001 3.214670e+000 164 103 67
9.465847e-001 -3.917709e-001 3.213376e+000 114 117 93
9.224982e-001 -4.165155e-001 3.231857e+000 113 104 17
9.024821e-001 -4.882646e-001 3.255843e+000 25 43 47
9.301882e-001 -4.967105e-001 3.243367e+000 26 43 45
8.896625e-001 -4.941307e-001 3.262691e+000 142 97 51
9.083175e-001 -5.126972e-001 3.258260e+000 93 72 67
9.121072e-001 -5.153277e-001 3.256579e+000 56 38 34
9.194970e-001 -5.202998e-001 3.254162e+000 52 38 35
8.860956e-001 -5.439486e-001 3.272668e+000 45 21 17
9.167550e-001 -5.499449e-001 3.259327e+000 60 29 18
9.477555e-001 -3.532965e-001 3.196277e+000 156 132 87
9.256696e-001 -3.807844e-001 3.223011e+000 110 30 23
9.098263e-001 -3.882853e-001 3.232389e+000 104 104 41
9.035370e-001 -4.530252e-001 3.248036e+000 139 105 68
9.216817e-001 -5.213519e-001 3.252907e+000 54 39 34
9.190403e-001 -5.239716e-001 3.255457e+000 58 41 34
9.074580e-001 -5.363063e-001 3.262711e+000 94 71 53
9.279862e-001 -5.376955e-001 3.251539e+000 62 43 33
9.268057e-001 -5.550102e-001 3.254022e+000 56 12 6
9.350801e-001 -3.851245e-001 3.221216e+000 124 26 19
9.131144e-001 -4.621835e-001 3.245616e+000 123 109 72
9.209962e-001 -4.821752e-001 3.245799e+000 100 18 17
9.162438e-001 -4.826236e-001 3.248406e+000 181 50 46
9.241230e-001 -4.947072e-001 3.246305e+000 18 44 52
9.344702e-001 -5.089546e-001 3.242742e+000 124 64 37
8.687086e-001 -5.293830e-001 3.270383e+000 45 19 14
9.561523e-001 -3.555364e-001 3.187264e+000 155 128 85
9.446776e-001 -4.707978e-001 3.230309e+000 132 93 65
8.847609e-001 -4.979389e-001 3.262220e+000 77 34 25
9.530519e-001 -5.269920e-001 3.220302e+000 79 25 15
9.370084e-001 -3.514555e-001 3.203484e+000 165 135 90
9.476364e-001 -4.269353e-001 3.220603e+000 19 37 13
9.476364e-001 -4.269353e-001 3.220603e+000 19 37 13
9.320934e-001 -4.282998e-001 3.229600e+000 26 36 12
9.354556e-001 -4.682688e-001 3.234595e+000 124 106 70
8.704119e-001 -5.224409e-001 3.267996e+000 38 16 14
8.941627e-001 -5.191099e-001 3.266772e+000 47 28 22
8.983921e-001 -5.324131e-001 3.266402e+000 20 6 5
9.484314e-001 -3.551786e-001 3.199019e+000 155 129 87
9.487451e-001 -3.550740e-001 3.199489e+000 155 129 87
9.461466e-001 -5.251164e-001 3.174470e+000 43 35 32
9.118730e-001 -4.874118e-001 3.250137e+000 15 45 54
9.060433e-001 -4.920274e-001 3.256855e+000 16 45 51
8.775945e-001 -5.214694e-001 3.270297e+000 135 92 46
9.124245e-001 -4.055085e-001 3.236370e+000 21 39 17
9.205294e-001 -4.197712e-001 3.232789e+000 20 38 15
9.527424e-001 -4.296003e-001 3.217420e+000 19 37 14
9.561919e-001 -5.025593e-001 3.215357e+000 96 27 21
9.507212e-001 -5.200653e-001 3.228720e+000 109 41 28
9.142734e-001 -5.296087e-001 3.257691e+000 102 75 56
9.035394e-001 -4.068010e-001 3.236426e+000 21 40 17
9.297628e-001 -4.154895e-001 3.227916e+000 127 111 62
9.447006e-001 -5.407444e-001 3.199188e+000 97 49 29
8.907911e-001 -5.031863e-001 3.267752e+000 63 25 24
9.047428e-001 -4.186388e-001 3.238185e+000 58 58 16
9.504808e-001 -4.505752e-001 3.224214e+000 124 106 68
9.548150e-001 -4.326117e-001 3.219681e+000 99 95 31
9.640354e-001 -4.070658e-001 3.185708e+000 91 89 68
9.584760e-001 -3.572484e-001 3.186138e+000 150 124 84
9.477664e-001 -4.650438e-001 3.227442e+000 138 89 59
9.477664e-001 -4.650438e-001 3.227442e+000 138 89 59
9.286925e-001 -4.955804e-001 3.244826e+000 28 43 38
9.286925e-001 -4.955804e-001 3.244826e+000 28 43 38
9.245896e-001 -5.108724e-001 3.249038e+000 88 55 53
9.221857e-001 -5.537752e-001 3.257428e+000 66 33 22
9.257340e-001 -3.456861e-001 3.199166e+000 166 137 93
9.531085e-001 -3.547309e-001 3.190106e+000 102 86 53
9.440175e-001 -3.533396e-001 3.200829e+000 158 131 86
9.437748e-001 -3.534001e-001 3.200567e+000 158 131 86
9.205532e-001 -3.777680e-001 3.225052e+000 151 88 53
9.160052e-001 -4.769216e-001 3.247740e+000 152 89 58
9.305781e-001 -4.963468e-001 3.243652e+000 27 41 41
8.894830e-001 -5.001902e-001 3.262592e+000 46 17 11
8.965318e-001 -5.162218e-001 3.263981e+000 97 68 60
9.495284e-001 -5.424059e-001 3.236574e+000 100 68 35
9.420347e-001 -3.531312e-001 3.202734e+000 160 131 89
9.090267e-001 -3.887572e-001 3.231768e+000 101 102 39
9.056170e-001 -4.891103e-001 3.254989e+000 21 45 51
9.315264e-001 -5.100851e-001 3.243653e+000 56 38 36
9.165306e-001 -5.168994e-001 3.256899e+000 82 58 54
7.487113e-001 -6.144604e-001 3.228051e+000 110 96 77
9.344596e-001 -5.404996e-001 3.247505e+000 19 40 41
9.075311e-001 -5.454642e-001 3.266407e+000 94 67 56
9.108771e-001 -5.481095e-001 3.262289e+000 66 44 31
9.108771e-001 -5.481095e-001 3.262289e+000 66 44 31
9.408331e-001 -3.512422e-001 3.199144e+000 157 134 92
9.135242e-001 -3.709899e-001 3.226761e+000 124 26 25
9.617908e-001 -4.495512e-001 3.213335e+000 52 51 32
9.185911e-001 -4.926074e-001 3.249356e+000 76 87 78
9.579003e-001 -5.015470e-001 3.213297e+000 87 28 21
8.849986e-001 -4.977171e-001 3.262370e+000 77 37 23
9.075422e-001 -5.354206e-001 3.263311e+000 103 77 60
9.039392e-001 -5.497651e-001 3.267014e+000 48 33 28
9.461217e-001 -4.185797e-001 3.219252e+000 24 37 17
9.256361e-001 -4.510538e-001 3.238978e+000 120 107 74
9.076208e-001 -4.901569e-001 3.253554e+000 81 98 94
9.076208e-001 -4.901569e-001 3.253554e+000 81 98 94
9.540591e-001 -5.190296e-001 3.223344e+000 102 42 31
8.809196e-001 -5.250770e-001 3.269481e+000 54 21 19
9.467898e-001 -5.474261e-001 3.235553e+000 99 71 36
9.085030e-001 -4.018406e-001 3.234633e+000 126 111 56
8.910711e-001 -4.702561e-001 3.252235e+000 116 15 19
8.910711e-001 -4.702561e-001 3.252235e+000 116 15 19
9.082507e-001 -5.000056e-001 3.254324e+000 134 93 47
9.317679e-001 -6.454009e-001 3.262460e+000 28 21 25
-9.122093e-002 -1.017823e+000 5.575562e-001 125 107 105
-1.049259e-001 -1.035729e+000 6.159813e-001 155 137 150
-7.057607e-002 -7.183656e-001 2.671834e-001 141 131 165
-8.094777e-002 -7.942921e-001 5.110670e-001 56 61 93
7.886998e-001 -6.017254e-001 3.316531e+000 151 132 125
-9.576444e-002 -1.047783e+000 5.071576e-001 125 106 100
8.722254e-001 -6.093151e-001 3.290347e+000 88 41 18
8.721751e-001 -6.094564e-001 3.290233e+000 88 41 18
9.328374e-001 -6.457862e-001 3.258500e+000 153 89 48
7.826061e-001 -6.062861e-001 3.299258e+000 51 41 39
-2.276928e-001 -7.130970e-001 4.189803e-001 140 125 137
-1.632257e-001 -7.184680e-001 4.554100e-001 138 123 135
-8.508540e-002 -7.536362e-001 4.786637e-001 61 57 82
-8.359847e-002 -7.547141e-001 5.622178e-001 238 254 254
-1.207335e-001 -6.131475e-001 4.778268e-001 249 253 253
-1.292338e-001 -6.605724e-001 3.571932e-001 81 84 135
-1.066006e-001 -7.243622e-001 3.812174e-001 153 133 134
-1.091889e-001 -7.246366e-001 3.745009e-001 153 133 134
9.263428e-001 -5.989797e-001 3.261037e+000 83 44 26
8.702626e-001 -6.043496e-001 3.290208e+000 90 30 13
7.991974e-001 -5.974007e-001 3.338164e+000 117 91 74
-3.810709e-001 -5.321523e-001 7.390438e-001 45 49 76
-3.425905e-001 -5.347924e-001 6.320926e-001 252 254 253
-5.144354e-002 -1.038403e+000 7.825694e-001 29 24 30
-6.741187e-002 -5.029472e-001 1.382817e+000 125 106 99
-3.256751e-001 -7.486193e-001 7.558343e-001 36 37 67
9.246534e-001 -6.247508e-001 3.264079e+000 113 77 41
9.233345e-001 -6.286488e-001 3.261995e+000 113 77 41
9.303214e-001 -6.413693e-001 3.264011e+000 130 82 48
9.315775e-001 -6.434229e-001 3.260600e+000 69 35 10
8.613413e-001 -6.019014e-001 3.290322e+000 121 71 38
-2.562730e-001 -7.207751e-001 6.727635e-001 139 186 204
7.791118e-001 -6.054236e-001 3.296625e+000 118 96 76
-3.996327e-001 -5.564492e-001 6.061540e-001 52 55 86
8.771394e-001 -5.883522e-001 3.286006e+000 132 60 20
-1.833063e-001 -9.591781e-001 5.124198e-001 220 254 255
8.683748e-001 -6.240950e-001 3.296578e+000 27 17 18
