ply
format ascii 1.0
element face 0
property list uchar int vertex_indices
element vertex 898
property float x
property float y
property float z
property uchar diffuse_red
property uchar diffuse_green
property uchar diffuse_blue
end_header
7.288681e-001 -6.375754e-001 3.109374e+000 133 30 41
4.498693e-001 -3.431840e-001 3.376935e+000 85 70 54
7.744460e-001 -4.877462e-001 3.006871e+000 4 47 68
7.822113e-001 -4.846189e-001 3.017032e+000 15 53 76
7.993778e-001 -5.386611e-001 3.105586e+000 153 23 29
7.732417e-001 -5.645963e-001 3.050919e+000 158 26 32
7.877306e-001 -5.679137e-001 3.088764e+000 77 39 15
7.724058e-001 -5.805935e-001 3.060455e+000 203 126 99
7.802624e-001 -5.756153e-001 3.078751e+000 200 125 90
7.926638e-001 -5.740312e-001 3.114446e+000 113 23 22
4.400235e-001 -3.454351e-001 3.374571e+000 94 81 64
4.450500e-001 -3.439959e-001 3.376933e+000 94 78 62
4.549429e-001 -3.400355e-001 3.382916e+000 107 87 77
4.533650e-001 -3.480637e-001 3.377920e+000 104 86 75
7.806385e-001 -4.817151e-001 3.009833e+000 162 23 31
4.315988e-001 -3.859203e-001 3.393651e+000 39 29 30
7.907711e-001 -5.967677e-001 3.147666e+000 198 95 36
4.514655e-001 -3.386526e-001 3.373482e+000 132 111 84
4.535465e-001 -3.585924e-001 3.383148e+000 126 104 81
4.628206e-001 -3.514389e-001 3.378253e+000 69 58 52
4.495667e-001 -3.655410e-001 3.381568e+000 84 65 58
4.372015e-001 -3.296803e-001 3.380828e+000 69 52 36
7.768083e-001 -5.256499e-001 3.171006e+000 40 30 29
8.048131e-001 -5.609454e-001 3.091781e+000 195 128 83
7.863554e-001 -4.552666e-001 3.011682e+000 193 109 94
7.904788e-001 -4.745502e-001 3.030717e+000 226 146 112
7.890623e-001 -4.799342e-001 3.029883e+000 9 48 71
7.948156e-001 -4.849525e-001 3.048839e+000 6 54 76
8.027904e-001 -4.814843e-001 3.072858e+000 187 119 84
7.633159e-001 -5.245241e-001 3.008209e+000 217 88 86
7.716298e-001 -5.239036e-001 3.020144e+000 191 120 94
8.022090e-001 -5.303550e-001 3.100300e+000 127 27 26
8.022090e-001 -5.303550e-001 3.100300e+000 127 27 26
8.003611e-001 -5.370856e-001 3.097513e+000 139 26 33
8.003611e-001 -5.370856e-001 3.097513e+000 139 26 33
7.694636e-001 -5.539703e-001 3.035220e+000 67 38 24
7.695038e-001 -5.539541e-001 3.035266e+000 67 38 24
7.730727e-001 -5.603172e-001 3.047078e+000 222 75 75
7.780013e-001 -5.563462e-001 3.053616e+000 148 26 33
7.860138e-001 -5.559521e-001 3.072658e+000 245 82 82
7.854221e-001 -5.622205e-001 3.076660e+000 254 81 78
7.694840e-001 -5.722084e-001 3.049460e+000 125 26 31
7.713656e-001 -5.700956e-001 3.050392e+000 126 25 32
7.791262e-001 -5.673033e-001 3.065066e+000 153 31 42
7.822694e-001 -5.658185e-001 3.070271e+000 158 31 38
7.809178e-001 -5.775011e-001 3.078976e+000 195 120 88
7.743147e-001 -5.817100e-001 3.067501e+000 62 28 13
7.794161e-001 -5.909131e-001 3.088588e+000 111 35 10
7.794161e-001 -5.909131e-001 3.088588e+000 111 35 10
7.853219e-001 -5.837134e-001 3.098387e+000 122 43 23
7.885923e-001 -5.881706e-001 3.112849e+000 188 85 38
7.741971e-001 -5.950867e-001 3.081270e+000 164 116 82
7.705176e-001 -6.007499e-001 3.079854e+000 175 123 85
7.705176e-001 -6.007499e-001 3.079854e+000 175 123 85
7.855452e-001 -5.928131e-001 3.110276e+000 218 114 42
7.702517e-001 -6.041725e-001 3.082685e+000 168 120 82
7.693721e-001 -6.191593e-001 3.099513e+000 159 124 103
7.749846e-001 -6.152232e-001 3.109631e+000 16 9 4
7.914622e-001 -6.044916e-001 3.154940e+000 220 104 51
7.596541e-001 -6.267037e-001 3.089325e+000 162 119 98
7.626693e-001 -6.238058e-001 3.093547e+000 169 123 103
7.614944e-001 -6.290345e-001 3.097415e+000 110 47 41
7.704588e-001 -6.225393e-001 3.111833e+000 125 56 38
7.981123e-001 -5.387519e-001 3.091369e+000 212 54 61
7.974056e-001 -5.383519e-001 3.093361e+000 212 54 61
8.003631e-001 -5.355923e-001 3.097034e+000 217 59 63
8.003631e-001 -5.355923e-001 3.097034e+000 217 59 63
7.937877e-001 -5.458131e-001 3.089504e+000 141 31 36
7.994523e-001 -5.404881e-001 3.103146e+000 240 77 84
7.973370e-001 -5.435338e-001 3.097987e+000 221 66 68
7.726781e-001 -5.572759e-001 3.044867e+000 205 90 77
7.813696e-001 -5.542296e-001 3.062010e+000 143 28 28
7.827136e-001 -5.572066e-001 3.068985e+000 213 67 60
7.941030e-001 -5.477688e-001 3.088771e+000 224 72 69
7.988026e-001 -5.470374e-001 3.106389e+000 243 68 77
7.668146e-001 -5.685824e-001 3.040548e+000 209 67 71
7.683585e-001 -5.678917e-001 3.043019e+000 201 51 60
7.763496e-001 -5.670417e-001 3.059001e+000 207 47 51
7.785463e-001 -5.667582e-001 3.061332e+000 238 66 75
7.785463e-001 -5.667582e-001 3.061332e+000 238 66 75
7.769569e-001 -5.680284e-001 3.064444e+000 144 24 29
7.772800e-001 -5.692698e-001 3.065613e+000 238 83 83
7.784008e-001 -5.693012e-001 3.064592e+000 238 83 83
7.845463e-001 -5.648963e-001 3.078422e+000 193 42 44
7.849579e-001 -5.649395e-001 3.078300e+000 193 42 44
7.810591e-001 -5.898402e-001 3.091019e+000 124 39 17
7.913566e-001 -5.831062e-001 3.115645e+000 192 70 26
7.758699e-001 -6.160579e-001 3.117040e+000 166 124 99
7.987354e-001 -4.096741e-001 3.016424e+000 161 154 35
7.954552e-001 -4.535350e-001 3.031120e+000 186 143 111
7.632736e-001 -5.383332e-001 3.012143e+000 165 35 45
7.993502e-001 -5.243633e-001 3.088841e+000 90 49 23
7.980854e-001 -5.308471e-001 3.084086e+000 104 58 28
7.863803e-001 -5.419554e-001 3.063078e+000 96 56 35
7.945861e-001 -5.431731e-001 3.084877e+000 163 23 36
7.754665e-001 -5.575861e-001 3.049901e+000 154 28 39
7.746410e-001 -5.603699e-001 3.051887e+000 147 28 36
7.892139e-001 -5.524669e-001 3.079704e+000 240 69 80
7.657098e-001 -5.702461e-001 3.040360e+000 129 24 34
7.825529e-001 -5.630196e-001 3.074144e+000 217 60 61
7.735057e-001 -5.779365e-001 3.061842e+000 111 60 39
7.935891e-001 -5.870364e-001 3.134344e+000 78 44 29
7.668403e-001 -6.243054e-001 3.102068e+000 91 44 30
7.866174e-001 -3.867303e-001 2.950436e+000 200 145 104
7.976644e-001 -4.092699e-001 3.013467e+000 30 57 8
7.870525e-001 -4.888394e-001 3.033995e+000 21 82 111
7.821225e-001 -5.789627e-001 3.082953e+000 205 118 82
7.722078e-001 -5.898591e-001 3.071094e+000 130 89 59
8.009304e-001 -3.509797e-001 2.979010e+000 30 90 124
7.998609e-001 -4.621204e-001 3.051071e+000 159 27 28
7.724896e-001 -5.424484e-001 3.032378e+000 197 120 98
7.684817e-001 -5.479856e-001 3.030738e+000 194 120 99
7.819572e-001 -4.191094e-001 2.976530e+000 25 51 22
7.807242e-001 -5.476378e-001 3.056949e+000 197 124 91
7.845873e-001 -5.593610e-001 3.075199e+000 171 21 33
7.849511e-001 -5.594768e-001 3.074317e+000 171 21 33
7.917301e-001 -5.347556e-001 3.075715e+000 199 136 93
7.865064e-001 -3.846385e-001 2.944355e+000 158 27 33
8.016699e-001 -3.831376e-001 2.983824e+000 209 134 94
8.034059e-001 -3.846404e-001 2.997339e+000 160 38 36
8.064411e-001 -3.954815e-001 3.022316e+000 33 42 4
7.866045e-001 -4.304955e-001 2.977583e+000 132 138 35
7.866045e-001 -4.304955e-001 2.977583e+000 132 138 35
7.923420e-001 -4.211181e-001 2.999283e+000 90 94 49
7.951218e-001 -4.252925e-001 3.005515e+000 83 100 36
7.951218e-001 -4.252925e-001 3.005515e+000 83 100 36
7.868283e-001 -4.556508e-001 3.010839e+000 188 109 93
7.965869e-001 -4.472929e-001 3.029516e+000 91 28 20
7.975974e-001 -4.462244e-001 3.031454e+000 67 36 22
7.975974e-001 -4.462244e-001 3.031454e+000 67 36 22
7.960473e-001 -4.516889e-001 3.029398e+000 164 129 99
7.864807e-001 -4.751774e-001 3.022007e+000 195 140 98
7.896850e-001 -4.726120e-001 3.026764e+000 198 140 104
7.935977e-001 -4.721840e-001 3.036813e+000 207 137 93
7.943331e-001 -4.711183e-001 3.037671e+000 89 24 15
7.952838e-001 -4.689815e-001 3.040852e+000 195 137 84
7.952308e-001 -4.706667e-001 3.041536e+000 200 127 79
7.963647e-001 -4.695100e-001 3.044159e+000 211 131 93
7.996693e-001 -4.671432e-001 3.049284e+000 216 128 96
8.034209e-001 -4.611062e-001 3.059839e+000 231 138 104
8.026026e-001 -4.622902e-001 3.059492e+000 111 27 23
8.036874e-001 -4.599200e-001 3.062671e+000 218 131 96
7.761466e-001 -4.813811e-001 3.004979e+000 193 145 104
7.785463e-001 -4.802796e-001 3.010020e+000 209 140 98
7.917243e-001 -4.740471e-001 3.032592e+000 194 131 87
7.924685e-001 -4.733479e-001 3.034919e+000 198 133 92
7.926584e-001 -4.733298e-001 3.034909e+000 198 133 92
7.860391e-001 -5.021382e-001 3.037734e+000 172 107 84
7.891334e-001 -4.999968e-001 3.045382e+000 46 15 2
8.029148e-001 -4.863478e-001 3.075862e+000 38 7 3
7.864996e-001 -5.058228e-001 3.041284e+000 180 107 81
7.954560e-001 -5.407867e-001 3.091933e+000 141 27 33
7.740037e-001 -5.591605e-001 3.050338e+000 206 41 46
7.793195e-001 -5.533242e-001 3.057846e+000 215 60 73
7.802902e-001 -5.561057e-001 3.061721e+000 216 69 72
7.881639e-001 -5.483368e-001 3.077069e+000 136 24 30
7.905103e-001 -5.482910e-001 3.084099e+000 121 24 34
7.662304e-001 -5.670670e-001 3.037547e+000 132 23 29
7.742735e-001 -5.817838e-001 3.067430e+000 43 12 5
7.868986e-001 -5.813855e-001 3.101669e+000 97 41 12
7.881582e-001 -5.794649e-001 3.103608e+000 161 96 45
7.885513e-001 -5.817877e-001 3.107899e+000 103 47 8
7.710882e-001 -5.976599e-001 3.073568e+000 170 122 85
7.740525e-001 -5.936063e-001 3.077785e+000 165 116 84
7.711966e-001 -5.986225e-001 3.075293e+000 75 42 19
7.730719e-001 -5.967759e-001 3.077727e+000 163 118 84
7.818687e-001 -5.891085e-001 3.094741e+000 106 24 9
7.844390e-001 -5.866753e-001 3.101810e+000 168 67 28
7.644818e-001 -6.128420e-001 3.070494e+000 20 12 8
7.918137e-001 -5.973375e-001 3.136588e+000 29 14 4
7.823645e-001 -6.088207e-001 3.122589e+000 160 86 33
7.814061e-001 -6.100527e-001 3.121165e+000 165 85 35
7.890797e-001 -6.031544e-001 3.144509e+000 39 15 8
7.619500e-001 -6.269519e-001 3.080606e+000 17 11 8
7.599913e-001 -6.295959e-001 3.079719e+000 169 129 111
7.599913e-001 -6.295959e-001 3.079719e+000 169 129 111
7.624301e-001 -6.279593e-001 3.084910e+000 171 126 107
7.915770e-001 -3.833016e-001 2.950380e+000 168 28 34
7.912666e-001 -3.867717e-001 2.947977e+000 148 31 27
7.912666e-001 -3.867717e-001 2.947977e+000 148 31 27
7.966259e-001 -4.243412e-001 3.008793e+000 141 141 34
7.951512e-001 -4.242342e-001 3.010143e+000 141 141 34
8.034021e-001 -4.817108e-001 3.075152e+000 44 9 4
8.014829e-001 -4.881146e-001 3.071880e+000 50 15 14
7.720705e-001 -5.315289e-001 3.026213e+000 84 45 33
7.767289e-001 -5.381049e-001 3.040615e+000 40 18 14
7.767289e-001 -5.381049e-001 3.040615e+000 40 18 14
7.854335e-001 -5.282918e-001 3.054688e+000 171 110 81
7.711756e-001 -5.452182e-001 3.032821e+000 63 28 25
7.998200e-001 -5.310329e-001 3.097260e+000 178 116 85
7.728294e-001 -5.539495e-001 3.041178e+000 186 106 81
7.978725e-001 -5.365960e-001 3.095473e+000 143 22 30
7.705683e-001 -5.598376e-001 3.041677e+000 131 22 30
7.902852e-001 -5.460702e-001 3.081554e+000 118 15 21
7.922773e-001 -5.464481e-001 3.088517e+000 140 23 36
7.948490e-001 -5.444830e-001 3.091295e+000 135 24 26
7.955625e-001 -5.430259e-001 3.094622e+000 130 21 33
7.955625e-001 -5.430259e-001 3.094622e+000 130 21 33
7.697062e-001 -5.669338e-001 3.045524e+000 213 51 62
7.783506e-001 -5.577219e-001 3.060620e+000 129 23 27
7.814167e-001 -5.566998e-001 3.064322e+000 126 24 27
7.815590e-001 -5.559834e-001 3.066810e+000 127 22 27
7.951353e-001 -5.510567e-001 3.098216e+000 224 60 66
7.773345e-001 -5.681385e-001 3.063803e+000 132 21 28
7.746647e-001 -5.808482e-001 3.070009e+000 103 62 40
7.837164e-001 -5.854776e-001 3.098079e+000 175 63 29
7.752825e-001 -6.013100e-001 3.090266e+000 160 118 83
7.662582e-001 -6.226588e-001 3.090752e+000 27 12 7
7.844462e-001 -6.107507e-001 3.135330e+000 27 7 5
8.036612e-001 -3.497349e-001 2.967151e+000 33 78 99
7.946590e-001 -3.807731e-001 2.966128e+000 161 27 35
7.930601e-001 -3.893143e-001 2.958274e+000 153 34 33
7.943273e-001 -4.064292e-001 2.989528e+000 21 43 24
7.989588e-001 -4.033654e-001 2.996357e+000 145 138 29
7.989588e-001 -4.033654e-001 2.996357e+000 145 138 29
7.935412e-001 -4.097271e-001 2.992332e+000 50 90 84
7.990901e-001 -4.131592e-001 3.016414e+000 58 85 86
7.914134e-001 -4.256383e-001 2.998919e+000 143 135 27
7.916921e-001 -4.573848e-001 3.021422e+000 161 130 107
7.872637e-001 -4.996616e-001 3.036674e+000 175 108 75
8.011899e-001 -4.919258e-001 3.076102e+000 73 34 18
8.012224e-001 -4.964370e-001 3.078104e+000 86 58 38
7.985844e-001 -5.237712e-001 3.090055e+000 71 30 8
7.686917e-001 -5.522353e-001 3.031893e+000 188 105 84
7.826890e-001 -5.429089e-001 3.057788e+000 66 42 24
7.828358e-001 -5.429060e-001 3.057730e+000 66 42 24
7.991313e-001 -5.367926e-001 3.102828e+000 226 82 89
7.991313e-001 -5.367926e-001 3.102828e+000 226 82 89
7.704431e-001 -5.653163e-001 3.046403e+000 120 21 22
7.898755e-001 -4.072229e-001 2.980619e+000 139 133 28
8.008382e-001 -4.107393e-001 3.025730e+000 58 90 91
8.030312e-001 -4.638991e-001 3.062894e+000 136 21 18
7.903823e-001 -4.977723e-001 3.044812e+000 181 108 74
7.903823e-001 -4.977723e-001 3.044812e+000 181 108 74
7.913679e-001 -4.987946e-001 3.047730e+000 176 111 84
8.004946e-001 -4.911380e-001 3.071127e+000 180 107 80
8.008333e-001 -4.899725e-001 3.073896e+000 186 106 70
7.856598e-001 -5.065411e-001 3.039408e+000 170 103 79
7.766961e-001 -5.255597e-001 3.029382e+000 137 94 72
7.766961e-001 -5.255597e-001 3.029382e+000 137 94 72
7.859760e-001 -5.204664e-001 3.048858e+000 72 44 25
7.853107e-001 -5.228304e-001 3.048332e+000 175 105 81
7.982515e-001 -5.187217e-001 3.083135e+000 183 119 77
7.985379e-001 -5.174492e-001 3.085746e+000 183 120 78
7.989301e-001 -5.193781e-001 3.087858e+000 111 63 36
7.989301e-001 -5.193781e-001 3.087858e+000 111 63 36
7.869601e-001 -5.302535e-001 3.058438e+000 177 109 72
7.853776e-001 -5.322761e-001 3.059471e+000 41 18 9
7.858725e-001 -5.324236e-001 3.059255e+000 41 18 9
7.972348e-001 -5.231140e-001 3.085201e+000 184 117 76
7.984049e-001 -5.219993e-001 3.087309e+000 184 119 81
7.982651e-001 -5.265734e-001 3.089029e+000 184 119 79
7.742138e-001 -5.420908e-001 3.035938e+000 181 108 83
7.720294e-001 -5.474662e-001 3.034399e+000 184 109 89
7.720294e-001 -5.474662e-001 3.034399e+000 184 109 89
7.848546e-001 -5.399571e-001 3.060323e+000 182 108 77
7.848546e-001 -5.399571e-001 3.060323e+000 182 108 77
7.701062e-001 -5.567246e-001 3.038551e+000 148 16 36
7.756698e-001 -5.575896e-001 3.049619e+000 138 22 32
7.907688e-001 -4.234141e-001 2.996121e+000 25 48 12
7.993923e-001 -4.157507e-001 3.028093e+000 32 46 21
7.993923e-001 -4.157507e-001 3.028093e+000 32 46 21
7.758372e-001 -5.046691e-001 3.011428e+000 174 113 81
7.917564e-001 -4.047172e-001 2.983698e+000 76 81 19
7.734696e-001 -5.655431e-001 3.053661e+000 145 18 29
7.734757e-001 -5.655554e-001 3.053676e+000 145 18 29
7.982957e-001 -5.665701e-001 3.128508e+000 114 22 22
7.923372e-001 -4.054062e-001 2.980434e+000 45 81 52
7.929029e-001 -4.519349e-001 3.019899e+000 158 130 101
7.676280e-001 -5.263928e-001 3.012263e+000 178 111 92
7.892049e-001 -5.536616e-001 3.086746e+000 150 18 31
7.892049e-001 -5.536616e-001 3.086746e+000 150 18 31
7.965809e-001 -4.175119e-001 3.014378e+000 55 91 87
7.921468e-001 -4.267546e-001 2.988781e+000 22 49 16
7.974765e-001 -4.874489e-001 3.062012e+000 180 105 76
7.986748e-001 -5.200211e-001 3.084817e+000 158 106 71
7.971389e-001 -5.463566e-001 3.106808e+000 191 27 37
7.955674e-001 -4.932894e-001 3.057961e+000 179 106 74
7.908147e-001 -5.979332e-001 3.145811e+000 179 89 36
8.014468e-001 -3.659993e-001 2.934415e+000 16 73 100
7.898698e-001 -4.534074e-001 3.018075e+000 122 43 38
7.881926e-001 -3.794724e-001 3.007851e+000 146 44 35
7.924157e-001 -4.567347e-001 3.022159e+000 160 139 114
7.796790e-001 -4.824603e-001 3.000615e+000 210 139 112
7.882558e-001 -4.765387e-001 3.023957e+000 216 134 102
7.939425e-001 -4.711620e-001 3.037886e+000 115 33 24
8.073090e-001 -4.653949e-001 3.077397e+000 42 75 82
8.028004e-001 -4.860982e-001 3.076248e+000 53 21 17
7.864842e-001 -5.059158e-001 3.041151e+000 181 113 88
7.836338e-001 -5.511563e-001 3.066031e+000 217 57 67
7.847290e-001 -5.518878e-001 3.069294e+000 128 22 27
7.948163e-001 -3.832560e-001 2.960548e+000 194 135 98
7.911013e-001 -4.526716e-001 3.011487e+000 107 17 26
7.915614e-001 -4.536564e-001 3.013885e+000 160 138 114
7.880530e-001 -4.749277e-001 3.023317e+000 207 135 109
8.003325e-001 -4.689064e-001 3.056425e+000 17 68 97
8.013820e-001 -4.879472e-001 3.072090e+000 69 35 15
7.692751e-001 -5.251236e-001 3.004652e+000 161 57 56
7.665164e-001 -5.277818e-001 3.004850e+000 197 68 72
7.705065e-001 -5.377978e-001 3.022236e+000 95 56 44
7.705065e-001 -5.377978e-001 3.022236e+000 95 56 44
7.679535e-001 -5.560932e-001 3.031687e+000 191 116 102
7.973665e-001 -5.340668e-001 3.092126e+000 189 121 86
7.737494e-001 -5.578434e-001 3.049175e+000 145 23 29
7.929763e-001 -5.449116e-001 3.084149e+000 133 30 31
7.677073e-001 -5.634894e-001 3.039301e+000 128 28 34
7.741892e-001 -5.628606e-001 3.054174e+000 139 19 28
7.810501e-001 -5.542674e-001 3.066185e+000 197 56 65
7.810501e-001 -5.542674e-001 3.066185e+000 197 56 65
7.943398e-001 -4.138511e-001 2.977241e+000 144 136 22
7.947558e-001 -4.084383e-001 3.003236e+000 145 141 28
8.009429e-001 -4.196935e-001 3.029479e+000 80 103 79
7.825167e-001 -4.849080e-001 3.009151e+000 24 68 103
7.825503e-001 -4.851872e-001 3.012137e+000 15 49 71
7.709508e-001 -5.145047e-001 3.006394e+000 156 96 89
7.709508e-001 -5.145047e-001 3.006394e+000 156 96 89
7.767132e-001 -5.130330e-001 3.016546e+000 152 93 79
7.767132e-001 -5.130330e-001 3.016546e+000 152 93 79
8.068210e-001 -4.862240e-001 3.086787e+000 188 146 104
7.780400e-001 -5.205189e-001 3.028512e+000 127 76 62
7.780400e-001 -5.205189e-001 3.028512e+000 127 76 62
7.847700e-001 -5.181223e-001 3.047931e+000 186 112 87
7.679106e-001 -5.371053e-001 3.013255e+000 149 45 46
7.844461e-001 -5.226698e-001 3.050320e+000 184 114 87
7.998953e-001 -5.146730e-001 3.085853e+000 134 83 55
7.855421e-001 -5.437231e-001 3.065212e+000 189 112 87
7.991004e-001 -5.280415e-001 3.091700e+000 84 50 28
7.927051e-001 -5.423716e-001 3.087144e+000 139 20 31
7.998213e-001 -4.939605e-001 3.069962e+000 164 95 65
8.017495e-001 -4.947913e-001 3.074880e+000 188 113 84
7.869073e-001 -5.078598e-001 3.046537e+000 185 111 87
8.010707e-001 -5.104384e-001 3.083457e+000 118 76 54
7.995932e-001 -5.127938e-001 3.083176e+000 191 124 78
7.680976e-001 -5.461559e-001 3.026252e+000 187 113 100
7.676454e-001 -5.459870e-001 3.026400e+000 187 113 100
7.693618e-001 -5.480368e-001 3.030372e+000 190 116 100
7.836259e-001 -5.358744e-001 3.056653e+000 187 113 88
7.846227e-001 -5.345238e-001 3.060387e+000 183 114 84
7.590084e-001 -5.601922e-001 3.013977e+000 189 149 135
7.833015e-001 -5.435419e-001 3.063294e+000 194 108 86
7.807144e-001 -5.482731e-001 3.058886e+000 187 111 84
7.800532e-001 -4.843123e-001 3.002135e+000 149 28 32
7.875647e-001 -4.868438e-001 3.028438e+000 20 58 84
7.854982e-001 -5.129391e-001 3.045669e+000 184 115 89
7.854982e-001 -5.129391e-001 3.045669e+000 184 115 89
7.751362e-001 -5.370486e-001 3.035568e+000 182 114 82
7.751362e-001 -5.370486e-001 3.035568e+000 182 114 82
7.674000e-001 -5.497374e-001 3.024513e+000 190 121 103
7.900731e-001 -4.401171e-001 2.994928e+000 27 52 25
7.926479e-001 -4.335823e-001 3.019778e+000 27 51 22
7.926479e-001 -4.335823e-001 3.019778e+000 27 51 22
7.987483e-001 -4.483159e-001 3.033518e+000 152 138 109
8.038213e-001 -4.759706e-001 3.072548e+000 14 52 75
7.660480e-001 -5.435523e-001 3.023617e+000 187 119 103
7.569712e-001 -5.522420e-001 3.014575e+000 83 123 187
7.916009e-001 -3.883033e-001 2.949311e+000 196 139 101
7.916009e-001 -3.883033e-001 2.949311e+000 196 139 101
7.880359e-001 -4.432614e-001 2.987245e+000 142 136 112
7.621960e-001 -5.541615e-001 3.024662e+000 115 24 37
7.951441e-001 -4.432183e-001 3.019364e+000 152 142 117
7.818647e-001 -4.924709e-001 2.995193e+000 27 69 94
7.322499e-001 -3.165665e-001 3.446675e+000 29 18 14
7.322499e-001 -3.165665e-001 3.446675e+000 29 18 14
7.064342e-001 -3.123092e-001 3.455625e+000 206 173 105
7.073765e-001 -3.263530e-001 3.454998e+000 202 168 107
7.114267e-001 -3.303476e-001 3.453083e+000 29 20 15
7.082700e-001 -3.352771e-001 3.455406e+000 197 167 115
7.159731e-001 -3.136571e-001 3.452169e+000 204 174 115
7.891267e-001 -5.817331e-001 3.111958e+000 201 99 34
7.866403e-001 -5.852520e-001 3.104754e+000 174 65 34
7.729456e-001 -5.939859e-001 3.076388e+000 169 122 76
7.789209e-001 -5.901822e-001 3.086944e+000 174 103 57
7.836145e-001 -5.901493e-001 3.101784e+000 188 71 23
7.715787e-001 -6.023577e-001 3.081203e+000 180 124 78
7.771665e-001 -5.985402e-001 3.091359e+000 179 128 78
7.754005e-001 -5.950027e-001 3.082910e+000 174 126 80
7.796320e-001 -5.913835e-001 3.091730e+000 186 88 35
7.803194e-001 -6.133331e-001 3.123835e+000 36 13 1
7.697777e-001 -6.232266e-001 3.104188e+000 101 50 33
4.674334e-001 -3.396434e-001 3.392162e+000 85 67 53
7.789813e-001 -6.168932e-001 3.124183e+000 140 73 29
4.743340e-001 -3.313222e-001 3.390212e+000 123 101 77
4.853629e-001 -3.361094e-001 3.386143e+000 99 80 63
7.765248e-001 -6.138625e-001 3.109291e+000 57 40 23
4.725205e-001 -3.367270e-001 3.389377e+000 109 86 76
4.782734e-001 -3.386271e-001 3.386954e+000 66 50 44
4.935964e-001 -3.356198e-001 3.384416e+000 97 80 62
7.937979e-001 -5.530858e-001 3.095065e+000 225 49 56
7.898861e-001 -5.822335e-001 3.113864e+000 137 53 16
7.786068e-001 -5.936177e-001 3.090113e+000 136 84 48
7.687477e-001 -6.203719e-001 3.096469e+000 24 14 13
7.749828e-001 -6.177804e-001 3.112773e+000 174 128 98
7.703884e-001 -5.706199e-001 3.049046e+000 239 65 72
7.682034e-001 -5.944603e-001 3.064554e+000 190 135 97
7.779004e-001 -5.910336e-001 3.084564e+000 189 133 85
7.894518e-001 -5.820129e-001 3.111558e+000 195 105 34
7.725075e-001 -5.943963e-001 3.074714e+000 183 134 93
7.782759e-001 -5.949972e-001 3.091178e+000 183 130 80
7.803396e-001 -5.945397e-001 3.096436e+000 116 47 11
7.811377e-001 -5.937700e-001 3.098174e+000 104 31 13
7.839985e-001 -5.925560e-001 3.104970e+000 187 83 27
7.841096e-001 -5.925484e-001 3.104955e+000 187 83 27
7.823778e-001 -6.072416e-001 3.121587e+000 173 97 35
7.855961e-001 -6.069210e-001 3.133897e+000 175 93 33
7.766480e-001 -5.840377e-001 3.075488e+000 190 131 89
8.013837e-001 -3.579344e-001 2.976371e+000 104 161 179
8.013837e-001 -3.579344e-001 2.976371e+000 104 161 179
7.984868e-001 -5.412359e-001 3.098046e+000 143 30 32
7.925507e-001 -5.484974e-001 3.088255e+000 235 72 75
7.838662e-001 -5.836693e-001 3.095271e+000 180 60 32
7.787247e-001 -5.902277e-001 3.087029e+000 172 97 65
7.921654e-001 -5.813855e-001 3.116264e+000 118 33 10
7.828776e-001 -5.914693e-001 3.099642e+000 196 83 30
7.828776e-001 -5.914693e-001 3.099642e+000 196 83 30
7.719582e-001 -6.034990e-001 3.084334e+000 163 115 77
7.925502e-001 -5.942587e-001 3.139704e+000 106 66 43
7.640154e-001 -6.240401e-001 3.091163e+000 169 123 103
7.699217e-001 -6.236438e-001 3.108950e+000 120 52 41
7.929973e-001 -5.546568e-001 3.092286e+000 224 61 66
7.929128e-001 -5.545330e-001 3.092315e+000 224 61 66
7.719876e-001 -5.710395e-001 3.053698e+000 141 32 36
7.860977e-001 -5.858403e-001 3.102648e+000 186 68 36
7.905139e-001 -5.850604e-001 3.115209e+000 110 40 23
7.771207e-001 -6.188797e-001 3.119057e+000 133 68 30
7.604301e-001 -6.290904e-001 3.090288e+000 84 27 30
8.065919e-001 -4.243888e-001 3.055222e+000 154 141 99
7.918491e-001 -4.690264e-001 3.030366e+000 131 21 19
7.943169e-001 -4.697972e-001 3.038608e+000 219 127 90
7.944798e-001 -4.767551e-001 3.042673e+000 22 60 78
8.002884e-001 -4.929527e-001 3.072163e+000 175 109 77
7.924232e-001 -5.427590e-001 3.084094e+000 221 56 69
7.957736e-001 -5.397414e-001 3.090617e+000 239 81 82
7.860045e-001 -5.620647e-001 3.081036e+000 131 18 26
7.863758e-001 -5.821007e-001 3.100873e+000 223 117 61
7.863758e-001 -5.821007e-001 3.100873e+000 223 117 61
7.891169e-001 -5.804441e-001 3.108026e+000 176 92 28
7.700125e-001 -5.989842e-001 3.074020e+000 85 53 31
7.812304e-001 -5.904285e-001 3.094537e+000 174 63 37
7.818499e-001 -5.890825e-001 3.094836e+000 106 24 9
7.655549e-001 -6.117237e-001 3.074763e+000 33 21 16
7.892828e-001 -5.966541e-001 3.127392e+000 189 128 98
7.871350e-001 -6.031852e-001 3.129535e+000 176 88 32
7.831122e-001 -6.109052e-001 3.129152e+000 31 11 4
7.898500e-001 -6.033331e-001 3.143846e+000 39 15 8
7.988078e-001 -4.732004e-001 3.054164e+000 23 60 78
7.983970e-001 -5.428580e-001 3.100746e+000 143 23 32
7.900348e-001 -5.571865e-001 3.088526e+000 134 19 27
7.655816e-001 -6.273865e-001 3.095300e+000 86 42 28
7.825263e-001 -6.126494e-001 3.130431e+000 40 6 0
7.969941e-001 -5.259848e-001 3.084385e+000 166 109 75
7.732832e-001 -5.569842e-001 3.046025e+000 225 89 93
7.814427e-001 -5.648158e-001 3.072849e+000 128 25 29
7.880492e-001 -5.611591e-001 3.085751e+000 224 79 90
7.871396e-001 -5.679667e-001 3.089170e+000 66 37 21
7.703049e-001 -5.816510e-001 3.059296e+000 186 107 83
7.804977e-001 -5.768518e-001 3.080908e+000 80 32 21
7.675618e-001 -6.019429e-001 3.070925e+000 167 117 83
7.920749e-001 -5.942439e-001 3.131037e+000 188 147 110
7.652427e-001 -6.047091e-001 3.066842e+000 73 41 18
7.653387e-001 -6.047361e-001 3.066882e+000 73 41 18
7.508451e-001 -6.396829e-001 3.070005e+000 132 29 43
7.930628e-001 -5.596176e-001 3.099246e+000 187 117 81
7.549634e-001 -6.044286e-001 3.048716e+000 51 19 20
7.977855e-001 -4.176114e-001 3.012640e+000 55 91 87
7.689357e-001 -6.222780e-001 3.098650e+000 155 123 97
7.951931e-001 -5.601167e-001 3.110984e+000 187 120 78
7.917253e-001 -3.886237e-001 2.959801e+000 137 39 32
7.940495e-001 -4.488774e-001 3.024855e+000 85 38 23
8.024830e-001 -4.619939e-001 3.060053e+000 115 26 28
8.045176e-001 -4.604694e-001 3.065996e+000 230 125 103
8.045176e-001 -4.604694e-001 3.065996e+000 230 125 103
8.070247e-001 -4.587560e-001 3.075846e+000 60 41 42
8.016891e-001 -4.834458e-001 3.071117e+000 42 8 1
7.954788e-001 -5.407593e-001 3.092025e+000 129 25 31
7.956708e-001 -5.421161e-001 3.092770e+000 230 70 77
8.008843e-001 -5.353219e-001 3.101142e+000 139 28 27
7.716273e-001 -5.706983e-001 3.054467e+000 124 18 30
7.829803e-001 -5.620601e-001 3.076401e+000 142 14 26
7.841777e-001 -5.618905e-001 3.077440e+000 248 72 82
7.887499e-001 -5.581445e-001 3.085028e+000 201 53 55
7.958895e-001 -5.523904e-001 3.099227e+000 156 20 32
7.725785e-001 -5.821329e-001 3.066339e+000 91 52 40
7.779113e-001 -5.790461e-001 3.075598e+000 99 57 40
7.779817e-001 -5.790422e-001 3.075676e+000 99 57 40
7.746090e-001 -5.935107e-001 3.081499e+000 131 88 58
7.762871e-001 -5.924892e-001 3.083819e+000 100 65 42
7.852812e-001 -5.846748e-001 3.099733e+000 181 61 39
7.854777e-001 -5.857569e-001 3.101011e+000 128 39 24
7.896047e-001 -5.807588e-001 3.107609e+000 187 93 31
7.902556e-001 -5.801326e-001 3.108703e+000 182 87 36
7.693934e-001 -6.027648e-001 3.077421e+000 183 128 88
7.767773e-001 -5.949221e-001 3.086721e+000 113 74 43
7.868673e-001 -5.901589e-001 3.110190e+000 192 107 44
7.647565e-001 -6.111088e-001 3.075552e+000 21 10 6
7.793851e-001 -6.020559e-001 3.101677e+000 27 13 8
7.934897e-001 -5.904738e-001 3.132174e+000 198 149 111
7.945513e-001 -5.907923e-001 3.133124e+000 32 25 22
7.938422e-001 -5.932611e-001 3.134643e+000 184 139 107
7.860149e-001 -6.004629e-001 3.119501e+000 103 75 54
7.860149e-001 -6.004629e-001 3.119501e+000 103 75 54
7.626550e-001 -6.264066e-001 3.087884e+000 167 126 108
7.626550e-001 -6.264066e-001 3.087884e+000 167 126 108
7.733710e-001 -6.175546e-001 3.108534e+000 173 126 104
7.860128e-001 -6.070911e-001 3.130155e+000 110 54 18
7.840540e-001 -6.098849e-001 3.127537e+000 165 85 28
7.890836e-001 -6.050585e-001 3.140720e+000 55 22 12
7.894205e-001 -6.061189e-001 3.145929e+000 43 9 6
7.916195e-001 -6.035729e-001 3.147836e+000 180 77 39
7.900138e-001 -4.600150e-001 3.018209e+000 167 137 113
7.683534e-001 -5.344216e-001 3.011829e+000 165 84 72
7.815900e-001 -5.522826e-001 3.062884e+000 217 59 65
7.994393e-001 -5.379262e-001 3.096938e+000 136 24 32
7.664343e-001 -5.687455e-001 3.037942e+000 201 57 64
7.690773e-001 -5.664229e-001 3.042158e+000 134 24 35
7.687097e-001 -5.662181e-001 3.042188e+000 134 24 35
7.680872e-001 -5.676271e-001 3.043330e+000 205 61 74
7.711151e-001 -5.656192e-001 3.050640e+000 228 62 77
7.820501e-001 -5.569843e-001 3.069162e+000 201 54 60
7.871257e-001 -5.535124e-001 3.077686e+000 208 57 60
7.927970e-001 -5.484699e-001 3.088191e+000 220 68 70
7.923365e-001 -5.482375e-001 3.088558e+000 220 68 70
7.996297e-001 -5.412065e-001 3.100812e+000 210 64 68
7.996297e-001 -5.412065e-001 3.100812e+000 210 64 68
7.704514e-001 -5.708845e-001 3.051718e+000 140 25 29
7.730383e-001 -5.701805e-001 3.057038e+000 142 25 37
7.825203e-001 -5.645578e-001 3.074536e+000 142 22 35
7.898432e-001 -5.594878e-001 3.089282e+000 236 65 71
7.861780e-001 -5.629486e-001 3.082630e+000 205 70 72
7.752670e-001 -5.802886e-001 3.071678e+000 184 112 89
7.854069e-001 -5.735392e-001 3.089558e+000 108 60 38
7.779897e-001 -5.827177e-001 3.080167e+000 156 82 48
7.927003e-001 -5.768215e-001 3.111472e+000 186 52 35
7.768261e-001 -5.987876e-001 3.091337e+000 177 119 81
7.802306e-001 -5.979245e-001 3.099082e+000 185 95 55
7.828700e-001 -5.918792e-001 3.099392e+000 182 73 34
7.932699e-001 -5.836242e-001 3.118598e+000 107 33 24
7.683803e-001 -6.094277e-001 3.081696e+000 22 12 7
7.652504e-001 -6.215490e-001 3.089019e+000 147 113 105
7.692230e-001 -6.226371e-001 3.100072e+000 175 126 105
7.682564e-001 -6.221109e-001 3.100343e+000 175 126 105
7.750657e-001 -6.179171e-001 3.112653e+000 188 124 107
7.813716e-001 -6.122600e-001 3.121954e+000 160 85 30
7.693716e-001 -6.253220e-001 3.105195e+000 141 76 56
7.931841e-001 -4.096915e-001 2.992539e+000 57 93 90
7.862462e-001 -4.416362e-001 2.983559e+000 149 140 29
7.865177e-001 -5.053771e-001 3.043444e+000 104 67 55
7.865177e-001 -5.053771e-001 3.043444e+000 104 67 55
7.892641e-001 -5.448954e-001 3.079509e+000 208 61 68
7.977192e-001 -5.409257e-001 3.094953e+000 207 66 66
7.756452e-001 -5.695130e-001 3.063448e+000 204 61 69
7.916734e-001 -5.548608e-001 3.091030e+000 238 73 81
7.916734e-001 -5.548608e-001 3.091030e+000 238 73 81
7.928531e-001 -5.618790e-001 3.101156e+000 190 127 86
7.928531e-001 -5.618790e-001 3.101156e+000 190 127 86
7.770791e-001 -5.770212e-001 3.073113e+000 191 110 94
7.805378e-001 -5.730164e-001 3.077335e+000 99 46 30
7.747523e-001 -5.946823e-001 3.083339e+000 173 120 80
7.954996e-001 -5.868721e-001 3.134185e+000 69 40 19
7.831064e-001 -4.819658e-001 3.011301e+000 153 19 29
8.041576e-001 -4.845284e-001 3.078485e+000 158 94 66
8.041576e-001 -4.845284e-001 3.078485e+000 158 94 66
7.845563e-001 -5.111035e-001 3.042253e+000 177 106 75
7.752943e-001 -5.280005e-001 3.030353e+000 183 112 92
7.826564e-001 -5.385277e-001 3.055719e+000 162 91 67
7.866251e-001 -5.322372e-001 3.061421e+000 58 26 12
7.766478e-001 -5.758911e-001 3.068759e+000 80 39 23
7.864464e-001 -6.029202e-001 3.122828e+000 184 141 115
7.663619e-001 -6.240047e-001 3.096201e+000 170 127 102
7.634614e-001 -5.761122e-001 3.040655e+000 154 21 40
7.929150e-001 -5.506405e-001 3.091534e+000 157 19 33
7.933524e-001 -5.509015e-001 3.091120e+000 157 19 33
8.046961e-001 -4.220311e-001 3.040345e+000 106 119 100
8.046961e-001 -4.220311e-001 3.040345e+000 106 119 100
7.995331e-001 -5.662100e-001 3.128581e+000 125 21 28
7.896990e-001 -4.215084e-001 2.974930e+000 105 120 116
7.984728e-001 -4.178308e-001 3.011969e+000 59 98 104
7.973597e-001 -5.745762e-001 3.135844e+000 196 103 26
7.877260e-001 -4.261892e-001 2.961191e+000 138 147 38
7.832525e-001 -4.780334e-001 3.013980e+000 116 34 27
7.984363e-001 -4.662688e-001 3.047416e+000 220 140 102
8.020762e-001 -4.615255e-001 3.057250e+000 127 28 28
8.050813e-001 -4.591543e-001 3.064650e+000 215 136 106
7.935840e-001 -4.710531e-001 3.038142e+000 100 24 22
7.677037e-001 -5.306449e-001 3.007893e+000 202 99 92
7.745724e-001 -5.297798e-001 3.031925e+000 93 54 42
7.773719e-001 -5.334058e-001 3.039348e+000 75 44 38
7.829282e-001 -5.373666e-001 3.058048e+000 177 115 91
7.749486e-001 -5.554061e-001 3.050283e+000 144 26 37
7.835740e-001 -5.502207e-001 3.068226e+000 134 24 29
7.835740e-001 -5.502207e-001 3.068226e+000 134 24 29
7.920238e-001 -5.429494e-001 3.087478e+000 131 24 29
7.698701e-001 -5.635358e-001 3.045219e+000 192 42 53
7.992056e-001 -5.412280e-001 3.103003e+000 146 25 34
7.800285e-001 -5.657917e-001 3.073823e+000 229 62 74
7.832889e-001 -5.612640e-001 3.077978e+000 236 73 75
7.868787e-001 -5.599985e-001 3.084658e+000 125 27 27
7.965078e-001 -5.506264e-001 3.101844e+000 153 24 34
7.802443e-001 -5.844685e-001 3.088775e+000 102 24 12
7.727267e-001 -5.947899e-001 3.077775e+000 107 75 52
7.906187e-001 -5.828642e-001 3.112815e+000 114 29 9
7.926005e-001 -5.830374e-001 3.117368e+000 193 76 34
7.713829e-001 -6.077929e-001 3.086682e+000 22 13 4
7.839858e-001 -6.010458e-001 3.115124e+000 188 145 114
7.946631e-001 -5.908340e-001 3.133150e+000 28 17 19
7.598408e-001 -6.292897e-001 3.079895e+000 182 149 133
7.890874e-001 -5.970794e-001 3.124650e+000 15 3 4
7.885245e-001 -6.001595e-001 3.126564e+000 25 12 11
7.574362e-001 -6.323038e-001 3.078416e+000 196 152 139
7.893631e-001 -6.043123e-001 3.143057e+000 166 90 41
7.918060e-001 -6.012173e-001 3.145689e+000 56 19 15
7.901467e-001 -6.029944e-001 3.144113e+000 45 12 12
7.804486e-001 -6.153391e-001 3.125115e+000 40 14 6
7.838499e-001 -6.096536e-001 3.136237e+000 45 19 9
7.869097e-001 -3.834599e-001 2.949676e+000 163 33 38
7.960832e-001 -3.876663e-001 2.979152e+000 205 137 114
7.947367e-001 -4.084327e-001 3.003124e+000 136 135 30
7.944857e-001 -4.241106e-001 3.010530e+000 136 148 41
7.930508e-001 -4.761749e-001 3.039182e+000 20 68 98
8.054043e-001 -4.638332e-001 3.068282e+000 20 69 99
7.894725e-001 -4.954040e-001 3.044449e+000 94 57 40
7.733554e-001 -5.186659e-001 3.015768e+000 89 49 37
7.767249e-001 -5.409583e-001 3.046756e+000 88 52 41
7.671912e-001 -5.662587e-001 3.035881e+000 227 74 85
7.737698e-001 -5.562270e-001 3.048398e+000 217 75 79
8.012791e-001 -5.332394e-001 3.101208e+000 211 43 53
7.680462e-001 -5.675123e-001 3.039309e+000 147 30 39
7.677428e-001 -5.672739e-001 3.039427e+000 147 30 39
7.673523e-001 -5.678909e-001 3.041637e+000 218 71 80
7.749061e-001 -5.609855e-001 3.054918e+000 195 57 66
7.765417e-001 -5.603000e-001 3.057915e+000 170 43 48
7.805002e-001 -5.564202e-001 3.064771e+000 137 24 33
7.735441e-001 -5.713513e-001 3.058865e+000 180 44 46
7.733763e-001 -5.712015e-001 3.058900e+000 180 44 46
7.900111e-001 -5.572649e-001 3.090702e+000 149 24 34
7.808662e-001 -5.772142e-001 3.080447e+000 78 46 30
7.864026e-001 -5.689852e-001 3.091676e+000 182 130 92
7.906273e-001 -5.677308e-001 3.100532e+000 132 91 70
7.906273e-001 -5.677308e-001 3.100532e+000 132 91 70
7.854007e-001 -5.815617e-001 3.098936e+000 227 125 76
7.715461e-001 -5.971087e-001 3.076286e+000 168 124 91
7.761104e-001 -5.936600e-001 3.085579e+000 166 120 94
7.773370e-001 -5.925500e-001 3.088445e+000 172 115 90
7.891024e-001 -5.879692e-001 3.113533e+000 182 76 41
7.828359e-001 -5.990970e-001 3.110145e+000 212 135 87
7.829131e-001 -5.990918e-001 3.110256e+000 212 135 87
7.820560e-001 -6.077489e-001 3.119084e+000 172 89 31
7.655405e-001 -6.250014e-001 3.090253e+000 174 137 118
7.841187e-001 -6.102745e-001 3.133672e+000 153 80 35
7.827514e-001 -6.124614e-001 3.130844e+000 36 13 4
7.924712e-001 -4.263755e-001 3.006452e+000 148 147 54
7.924712e-001 -4.263755e-001 3.006452e+000 148 147 54
7.861198e-001 -5.072777e-001 3.044924e+000 184 117 90
8.017330e-001 -4.916336e-001 3.076518e+000 72 42 30
8.017330e-001 -4.916336e-001 3.076518e+000 72 42 30
7.698227e-001 -5.272953e-001 3.004707e+000 174 76 73
7.739929e-001 -5.305650e-001 3.029322e+000 88 51 34
7.742937e-001 -5.308017e-001 3.028802e+000 88 51 34
7.772183e-001 -5.285619e-001 3.036521e+000 80 43 25
8.000782e-001 -5.096873e-001 3.084613e+000 82 49 30
7.750064e-001 -5.383260e-001 3.039795e+000 60 29 18
7.821009e-001 -5.380830e-001 3.056201e+000 153 95 76
7.859292e-001 -5.317458e-001 3.061930e+000 61 35 27
7.994950e-001 -5.238170e-001 3.089733e+000 36 16 2
7.817981e-001 -5.424916e-001 3.058415e+000 78 44 29
7.965557e-001 -5.312454e-001 3.088958e+000 190 126 84
7.748797e-001 -5.573144e-001 3.050703e+000 136 24 30
7.748797e-001 -5.573144e-001 3.050703e+000 136 24 30
7.761674e-001 -5.546316e-001 3.053925e+000 142 26 23
7.953118e-001 -5.357265e-001 3.088220e+000 186 123 88
7.728351e-001 -5.779587e-001 3.062333e+000 90 63 40
7.784009e-001 -5.775127e-001 3.078186e+000 165 103 91
8.026202e-001 -5.667611e-001 3.133094e+000 151 66 41
7.750882e-001 -6.039359e-001 3.093192e+000 185 144 111
7.776948e-001 -6.024787e-001 3.097980e+000 188 143 105
7.869032e-001 -5.984528e-001 3.119881e+000 194 150 120
7.977304e-001 -5.876235e-001 3.137154e+000 31 10 17
7.977415e-001 -5.875910e-001 3.137219e+000 31 10 17
7.836627e-001 -6.126352e-001 3.135944e+000 141 69 35
7.862294e-001 -4.308586e-001 2.979826e+000 124 130 56
7.862294e-001 -4.308586e-001 2.979826e+000 124 130 56
7.954109e-001 -4.205417e-001 3.017719e+000 153 148 32
7.954109e-001 -4.205417e-001 3.017719e+000 153 148 32
7.774194e-001 -4.929758e-001 2.987727e+000 14 51 83
7.760463e-001 -4.853349e-001 2.996859e+000 150 24 35
7.973638e-001 -4.684669e-001 3.051863e+000 145 24 30
7.894558e-001 -4.975176e-001 3.045482e+000 182 116 87
7.902656e-001 -4.985833e-001 3.048405e+000 184 108 82
7.745308e-001 -5.154529e-001 3.016622e+000 190 123 102
7.831138e-001 -5.244194e-001 3.050134e+000 91 45 38
7.984724e-001 -5.137907e-001 3.081506e+000 188 124 86
7.977411e-001 -5.181766e-001 3.083575e+000 187 126 94
7.715755e-001 -5.447219e-001 3.027204e+000 191 119 103
7.827987e-001 -5.334514e-001 3.054854e+000 175 104 91
7.827987e-001 -5.334514e-001 3.054854e+000 175 104 91
7.980773e-001 -5.228948e-001 3.085033e+000 188 124 91
7.832216e-001 -5.758132e-001 3.089353e+000 187 119 84
7.653499e-001 -6.078740e-001 3.067962e+000 187 146 111
7.890536e-001 -6.000952e-001 3.131557e+000 175 93 32
7.996011e-001 -5.854652e-001 3.147585e+000 199 149 121
7.853811e-001 -4.387912e-001 2.965115e+000 28 52 31
7.879502e-001 -4.760020e-001 3.021022e+000 121 43 34
7.786105e-001 -5.852805e-001 3.085182e+000 162 53 31
7.923739e-001 -4.059377e-001 2.989010e+000 25 51 23
7.936319e-001 -4.244954e-001 3.007491e+000 75 105 50
7.936319e-001 -4.244954e-001 3.007491e+000 75 105 50
7.801108e-001 -4.844215e-001 2.989573e+000 207 129 112
7.868683e-001 -4.920472e-001 3.033169e+000 11 53 82
8.030580e-001 -5.511822e-001 3.121682e+000 74 19 20
7.870764e-001 -4.064718e-001 2.957305e+000 114 128 111
7.870764e-001 -4.064718e-001 2.957305e+000 114 128 111
7.827484e-001 -4.162226e-001 2.968684e+000 118 132 109
7.830444e-001 -5.157388e-001 3.039581e+000 181 115 91
7.839401e-001 -5.478204e-001 3.069073e+000 134 22 25
8.063666e-001 -5.313736e-001 3.111625e+000 46 14 17
7.978729e-001 -5.741232e-001 3.124511e+000 191 93 30
8.014562e-001 -4.762796e-001 3.067558e+000 13 58 90
7.706123e-001 -5.341927e-001 3.006250e+000 150 42 46
7.996022e-001 -3.984623e-001 2.893742e+000 155 155 155
8.077844e-001 -4.216608e-001 3.028882e+000 28 52 20
8.067687e-001 -5.099859e-001 3.099889e+000 175 134 90
8.310854e-001 -3.819769e-001 2.992092e+000 11 73 110
7.873025e-001 -5.821018e-001 3.103343e+000 191 110 38
7.888495e-001 -5.803208e-001 3.106880e+000 187 96 26
7.717468e-001 -5.973252e-001 3.076137e+000 163 113 64
7.761373e-001 -5.920794e-001 3.081644e+000 177 123 75
7.768853e-001 -5.937556e-001 3.085357e+000 172 120 78
7.778356e-001 -5.975057e-001 3.092656e+000 182 121 67
7.695354e-001 -6.038168e-001 3.075318e+000 170 124 68
7.790458e-001 -6.010719e-001 3.100303e+000 204 151 87
7.868592e-001 -6.069608e-001 3.137534e+000 56 21 6
7.873580e-001 -6.068689e-001 3.140323e+000 185 93 39
7.823546e-001 -5.939354e-001 3.101290e+000 180 73 31
7.840447e-001 -5.726244e-001 3.086313e+000 184 121 76
7.900154e-001 -5.911490e-001 3.124075e+000 191 98 31
8.982538e-001 -3.423147e-001 3.424345e+000 148 118 80
8.708203e-001 -3.272863e-001 3.436898e+000 175 145 56
8.708203e-001 -3.272863e-001 3.436898e+000 175 145 56
8.640940e-001 -3.210893e-001 3.439439e+000 194 165 87
8.679294e-001 -3.245604e-001 3.437395e+000 97 76 35
8.976553e-001 -3.564551e-001 3.422640e+000 96 68 47
8.913547e-001 -3.498982e-001 3.422722e+000 67 44 30
8.776624e-001 -3.204378e-001 3.433302e+000 194 163 117
8.875713e-001 -3.189661e-001 3.430377e+000 34 24 23
8.875713e-001 -3.189661e-001 3.430377e+000 34 24 23
7.890615e-001 -5.805134e-001 3.106423e+000 190 100 27
7.874370e-001 -5.852973e-001 3.107777e+000 127 65 15
7.914394e-001 -5.810810e-001 3.116523e+000 132 36 3
7.696461e-001 -5.960475e-001 3.070080e+000 173 129 80
7.714280e-001 -5.951503e-001 3.072718e+000 175 126 79
7.764792e-001 -5.893629e-001 3.080827e+000 175 126 79
7.705278e-001 -6.037544e-001 3.080021e+000 90 66 46
7.802400e-001 -5.955677e-001 3.098109e+000 210 102 37
7.826213e-001 -6.008090e-001 3.111604e+000 170 82 38
7.890927e-001 -5.953564e-001 3.125928e+000 220 153 101
7.887093e-001 -5.965692e-001 3.124900e+000 18 7 9
7.650641e-001 -6.083848e-001 3.069540e+000 172 127 87
7.711560e-001 -6.043962e-001 3.081562e+000 178 131 87
7.835537e-001 -6.035542e-001 3.118771e+000 27 20 10
7.663027e-001 -6.226559e-001 3.090979e+000 20 10 3
7.661705e-001 -6.238503e-001 3.092533e+000 176 133 100
7.781784e-001 -5.880444e-001 3.084068e+000 181 118 66
7.882709e-001 -5.834999e-001 3.108074e+000 192 119 35
7.892066e-001 -5.846527e-001 3.112715e+000 211 122 41
7.720011e-001 -5.921180e-001 3.072050e+000 170 126 78
7.746436e-001 -5.907821e-001 3.077408e+000 185 125 73
7.873816e-001 -6.069006e-001 3.140304e+000 182 90 31
7.923405e-001 -5.884549e-001 3.137955e+000 197 154 102
7.712112e-001 -5.997237e-001 3.078231e+000 174 126 77
7.648027e-001 -6.110730e-001 3.072904e+000 193 147 103
7.840186e-001 -6.104365e-001 3.131977e+000 165 90 42
7.866400e-001 -6.096985e-001 3.142280e+000 160 80 31
7.879492e-001 -6.083073e-001 3.145889e+000 168 76 36
7.784573e-001 -6.145083e-001 3.117133e+000 175 137 94
7.965862e-001 -5.400873e-001 3.093514e+000 149 31 33
7.712749e-001 -5.909083e-001 3.068937e+000 187 140 99
7.809821e-001 -5.860857e-001 3.089673e+000 190 56 32
7.929451e-001 -5.898010e-001 3.130084e+000 117 86 57
7.938255e-001 -5.884373e-001 3.131387e+000 85 68 47
7.681155e-001 -6.043554e-001 3.074113e+000 172 127 88
7.835239e-001 -5.973327e-001 3.109186e+000 179 84 32
7.852313e-001 -5.998816e-001 3.117757e+000 185 151 115
7.842926e-001 -6.035117e-001 3.120246e+000 196 152 109
7.899270e-001 -6.046136e-001 3.145716e+000 192 92 43
7.712264e-001 -6.183981e-001 3.101600e+000 23 14 6
7.766512e-001 -6.163312e-001 3.115693e+000 179 131 102
7.829192e-001 -6.107491e-001 3.129250e+000 51 19 7
7.875710e-001 -6.075895e-001 3.143251e+000 42 14 11
7.834312e-001 -5.750929e-001 3.086680e+000 114 67 45
7.834312e-001 -5.750929e-001 3.086680e+000 114 67 45
7.873147e-001 -5.824639e-001 3.103013e+000 198 107 42
7.745761e-001 -5.931058e-001 3.078731e+000 186 135 96
7.801780e-001 -5.945465e-001 3.096411e+000 116 47 11
7.810993e-001 -5.978292e-001 3.102721e+000 145 64 22
7.918102e-001 -5.634814e-001 3.098551e+000 85 50 34
7.924522e-001 -5.766094e-001 3.111779e+000 185 58 33
7.719253e-001 -6.004887e-001 3.080943e+000 139 98 67
7.877795e-001 -5.975205e-001 3.123179e+000 192 155 116
7.918001e-001 -5.853771e-001 3.120592e+000 195 84 25
7.889262e-001 -5.846864e-001 3.110377e+000 189 112 34
7.598809e-001 -6.165654e-001 3.063967e+000 160 132 118
7.863370e-001 -6.001865e-001 3.122063e+000 146 117 93
7.764679e-001 -5.944114e-001 3.085128e+000 173 128 82
7.751318e-001 -5.810112e-001 3.069650e+000 112 61 42
7.832790e-001 -5.845064e-001 3.093485e+000 194 56 34
7.754388e-001 -5.992783e-001 3.089037e+000 169 119 86
7.843169e-001 -6.008989e-001 3.116922e+000 32 13 6
7.926254e-001 -5.959372e-001 3.138218e+000 51 25 11
7.892969e-001 -6.048277e-001 3.142680e+000 189 95 55
7.853110e-001 -6.087159e-001 3.133781e+000 54 20 3
7.890653e-001 -6.061116e-001 3.146162e+000 44 9 2
7.693495e-001 -6.005771e-001 3.074522e+000 164 115 80
7.743832e-001 -5.999400e-001 3.086842e+000 167 116 80
7.801533e-001 -5.975904e-001 3.099387e+000 165 88 35
7.907409e-001 -5.579842e-001 3.090192e+000 165 22 36
7.867752e-001 -5.981065e-001 3.120254e+000 200 155 112
7.858055e-001 -6.090141e-001 3.136515e+000 165 85 34
7.849915e-001 -5.695316e-001 3.086296e+000 189 117 68
7.849915e-001 -5.695316e-001 3.086296e+000 189 117 68
7.679589e-001 -5.980297e-001 3.067518e+000 168 123 90
7.783302e-001 -5.988901e-001 3.096905e+000 148 77 26
8.010920e-001 -5.333306e-001 3.101178e+000 211 49 52
7.795023e-001 -5.894731e-001 3.089166e+000 176 72 34
7.870829e-001 -5.787207e-001 3.099588e+000 180 111 64
7.686344e-001 -6.014253e-001 3.072646e+000 174 122 83
7.779706e-001 -5.964018e-001 3.092157e+000 160 105 67
7.822754e-001 -5.894476e-001 3.096833e+000 170 62 36
7.781813e-001 -5.977675e-001 3.094013e+000 167 94 56
7.714744e-001 -6.076620e-001 3.086833e+000 20 18 15
7.882229e-001 -5.997039e-001 3.126764e+000 31 11 3
7.756009e-001 -6.166783e-001 3.110820e+000 153 113 89
7.888044e-001 -5.876046e-001 3.113664e+000 165 74 35
7.794549e-001 -5.966070e-001 3.096462e+000 175 89 44
7.949576e-001 -5.888789e-001 3.134266e+000 188 141 98
7.963231e-001 -5.892311e-001 3.139399e+000 35 18 20
7.872570e-001 -6.004944e-001 3.125686e+000 175 139 101
7.757151e-001 -6.187350e-001 3.116884e+000 97 44 28
7.884092e-001 -5.835850e-001 3.108093e+000 189 113 44
7.915320e-001 -5.933488e-001 3.129091e+000 23 17 10
7.838522e-001 -5.726302e-001 3.086302e+000 187 115 82
8.021727e-001 -5.306576e-001 3.102273e+000 147 22 24
7.728337e-001 -6.058750e-001 3.089459e+000 180 136 103
7.845063e-001 -6.059626e-001 3.124543e+000 129 68 32
7.912930e-001 -6.027458e-001 3.147226e+000 77 21 11
7.533898e-001 -6.292657e-001 3.067485e+000 188 152 136
7.817181e-001 -6.066960e-001 3.115440e+000 165 87 33
7.873107e-001 -5.709988e-001 3.094404e+000 100 57 37
7.821840e-001 -5.894829e-001 3.096786e+000 176 62 38
7.854522e-001 -5.857884e-001 3.100917e+000 128 39 24
7.654159e-001 -6.051984e-001 3.069679e+000 173 124 85
7.702915e-001 -6.036107e-001 3.080127e+000 79 51 32
7.766007e-001 -5.948616e-001 3.086755e+000 113 74 43
7.917816e-001 -5.844090e-001 3.117313e+000 94 33 17
7.740264e-001 -6.057930e-001 3.091866e+000 28 18 12
7.781183e-001 -6.027946e-001 3.099752e+000 32 19 13
7.933159e-001 -5.903571e-001 3.132349e+000 198 149 111
7.933498e-001 -5.936861e-001 3.133120e+000 38 23 15
7.835982e-001 -6.031026e-001 3.115379e+000 175 133 113
7.835982e-001 -6.031026e-001 3.115379e+000 175 133 113
7.846015e-001 -6.012897e-001 3.116563e+000 28 19 17
7.624735e-001 -6.248761e-001 3.085086e+000 19 13 11
7.624735e-001 -6.248761e-001 3.085086e+000 19 13 11
7.798369e-001 -6.147835e-001 3.125418e+000 25 7 3
7.904333e-001 -6.070526e-001 3.154917e+000 40 22 24
7.989710e-001 -5.375315e-001 3.097638e+000 136 24 32
7.771105e-001 -5.970012e-001 3.090630e+000 104 68 47
7.771105e-001 -5.970012e-001 3.090630e+000 104 68 47
7.875065e-001 -5.895537e-001 3.111309e+000 203 117 62
7.875000e-001 -6.007858e-001 3.125497e+000 192 146 121
7.584066e-001 -6.300969e-001 3.076386e+000 179 145 123
7.637348e-001 -6.266667e-001 3.091252e+000 165 112 98
7.862392e-001 -6.090013e-001 3.139527e+000 38 17 6
7.863134e-001 -6.091762e-001 3.139236e+000 38 17 6
7.970040e-001 -5.405398e-001 3.095673e+000 207 66 66
7.922655e-001 -5.673143e-001 3.102805e+000 71 40 26
8.016901e-001 -5.694251e-001 3.130509e+000 199 105 30
7.957895e-001 -5.791291e-001 3.122651e+000 210 94 39
7.817941e-001 -5.943189e-001 3.100963e+000 186 74 35
7.807836e-001 -6.008972e-001 3.105132e+000 94 67 48
7.725014e-001 -6.200732e-001 3.106443e+000 176 127 104
7.859047e-001 -6.058375e-001 3.128106e+000 166 86 32
7.985504e-001 -5.713144e-001 3.126347e+000 194 100 28
8.007371e-001 -5.485716e-001 3.109545e+000 159 19 30
8.007371e-001 -5.485716e-001 3.109545e+000 159 19 30
8.019617e-001 -5.428878e-001 3.106077e+000 154 22 30
7.814327e-001 -5.997738e-001 3.108536e+000 193 147 108
7.585564e-001 -6.296250e-001 3.078209e+000 160 128 109
7.896170e-001 -6.026468e-001 3.136850e+000 185 89 29
7.921821e-001 -6.000865e-001 3.141539e+000 188 96 37
7.735033e-001 -6.194197e-001 3.107637e+000 88 56 47
7.935727e-001 -3.827842e-001 2.994426e+000 221 132 105
7.865629e-001 -4.199481e-001 2.960527e+000 136 145 43
7.929516e-001 -4.519564e-001 3.022566e+000 94 22 25
7.863922e-001 -4.909673e-001 3.030921e+000 10 54 80
7.862439e-001 -4.908855e-001 3.031284e+000 10 54 80
7.900524e-001 -5.434375e-001 3.082432e+000 242 76 85
7.997795e-001 -5.365333e-001 3.099360e+000 127 26 32
7.770873e-001 -5.843382e-001 3.079937e+000 177 115 83
7.770873e-001 -5.843382e-001 3.079937e+000 177 115 83
