ply
format ascii 1.0
element face 0
property list uchar int vertex_indices
element vertex 787
property float x
property float y
property float z
property uchar diffuse_red
property uchar diffuse_green
property uchar diffuse_blue
end_header
5.890645e-001 -5.166976e-001 2.921803e+000 34 64 36
5.890645e-001 -5.166976e-001 2.921803e+000 34 64 36
5.877008e-001 -3.970773e-001 2.882451e+000 172 41 52
6.577843e-001 -3.882259e-001 3.556557e+000 183 33 40
6.273538e-001 -4.133305e-001 2.845394e+000 174 31 40
6.059978e-001 -4.336817e-001 2.876645e+000 154 166 178
6.063309e-001 -4.334417e-001 2.877847e+000 154 166 178
6.408370e-001 -5.121742e-001 2.859947e+000 158 163 156
6.255733e-001 -4.878219e-001 2.874152e+000 164 162 167
5.939355e-001 -5.886781e-001 2.936311e+000 160 161 166
6.426225e-001 -5.844526e-001 2.886314e+000 171 161 170
6.401580e-001 -3.571876e-001 2.807057e+000 134 147 171
5.937853e-001 -4.758205e-001 2.904551e+000 162 174 74
6.413932e-001 -4.903192e-001 2.853426e+000 158 162 163
6.214527e-001 -6.188799e-001 2.920758e+000 224 150 141
6.517865e-001 -7.939573e-001 2.957035e+000 121 68 48
6.219327e-001 -4.649108e-001 2.874696e+000 161 164 157
6.331271e-001 -5.257629e-001 2.875939e+000 150 169 133
6.253398e-001 -4.876969e-001 2.873229e+000 164 162 167
6.038991e-001 -5.055372e-001 2.903337e+000 26 65 36
5.918381e-001 -3.999816e-001 2.873932e+000 169 44 47
6.299228e-001 -4.178829e-001 2.844245e+000 151 169 194
6.534589e-001 -5.004599e-001 2.843020e+000 140 162 52
5.746989e-001 -3.833186e-001 2.886331e+000 220 161 156
6.742725e-001 -3.839698e-001 3.544213e+000 160 35 42
5.903550e-001 -5.820110e-001 2.940095e+000 170 36 45
6.588418e-001 -3.690695e-001 3.548516e+000 171 35 40
6.634266e-001 -3.766050e-001 3.549380e+000 180 39 47
6.478281e-001 -5.411395e-001 2.864457e+000 27 63 37
6.354756e-001 -4.830557e-001 2.858736e+000 29 64 34
6.475891e-001 -4.638286e-001 2.838436e+000 28 61 30
5.964091e-001 -4.664899e-001 2.890777e+000 25 65 38
6.340749e-001 -5.052580e-001 2.866444e+000 149 174 116
6.275628e-001 -7.367590e-001 2.955454e+000 95 31 29
6.334859e-001 -7.554817e-001 2.956017e+000 106 18 19
6.219327e-001 -4.649108e-001 2.874696e+000 161 164 157
5.846983e-001 -5.437926e-001 2.934616e+000 170 41 42
5.938809e-001 -5.301821e-001 2.913091e+000 164 161 171
6.577843e-001 -3.882259e-001 3.556557e+000 183 33 40
6.534589e-001 -5.004599e-001 2.843020e+000 140 162 52
6.154849e-001 -3.636329e-001 2.837142e+000 158 172 195
6.654611e-001 -5.461766e-001 2.850536e+000 23 61 36
6.515368e-001 -6.031668e-001 2.878771e+000 106 72 75
6.350676e-001 -7.338884e-001 2.947001e+000 185 135 112
5.920379e-001 -4.383540e-001 2.892745e+000 135 175 122
6.195804e-001 -4.465112e-001 2.865851e+000 137 171 124
6.152131e-001 -5.256934e-001 2.892486e+000 23 63 37
6.474025e-001 -7.784605e-001 2.954197e+000 146 63 41
6.380614e-001 -6.087084e-001 2.896315e+000 162 163 168
6.074025e-001 -6.446766e-001 2.943379e+000 101 142 186
5.848915e-001 -5.776007e-001 2.944521e+000 169 37 48
6.679514e-001 -7.304697e-001 2.922667e+000 127 183 235
6.786278e-001 -5.511910e-001 2.844650e+000 79 100 95
6.154849e-001 -3.636329e-001 2.837142e+000 158 172 195
6.028181e-001 -6.465224e-001 2.946372e+000 23 80 140
6.726901e-001 -5.428061e-001 2.843203e+000 137 153 157
6.172664e-001 -5.055990e-001 2.885599e+000 28 60 31
6.456760e-001 -6.606693e-001 2.910681e+000 33 82 138
6.456760e-001 -6.606693e-001 2.910681e+000 33 82 138
6.587110e-001 -7.435976e-001 2.933441e+000 36 82 127
6.587907e-001 -7.437567e-001 2.932694e+000 36 82 127
6.165819e-001 -6.464306e-001 2.935082e+000 23 82 142
6.702106e-001 -6.418581e-001 2.886812e+000 166 161 170
6.376131e-001 -6.568392e-001 2.915327e+000 111 158 205
6.376131e-001 -6.568392e-001 2.915327e+000 111 158 205
6.544388e-001 -7.351433e-001 2.931633e+000 34 80 128
6.607559e-001 -7.389145e-001 2.928270e+000 32 85 128
5.974911e-001 -4.460905e-001 2.885787e+000 29 61 40
6.484477e-001 -7.400858e-001 2.938049e+000 27 82 144
6.165819e-001 -6.464306e-001 2.935082e+000 23 82 142
5.859807e-001 -4.724835e-001 2.911436e+000 165 166 163
5.859807e-001 -4.724835e-001 2.911436e+000 165 166 163
6.408370e-001 -5.121742e-001 2.859947e+000 158 163 156
6.045414e-001 -4.767534e-001 2.890861e+000 162 165 163
6.840782e-001 -7.041108e-001 2.906864e+000 225 108 95
6.749655e-001 -6.465707e-001 2.885788e+000 174 48 50
6.796853e-001 -8.884603e-001 2.975787e+000 180 138 110
6.744993e-001 -7.373646e-001 2.923175e+000 18 79 142
6.110308e-001 -4.971526e-001 2.890752e+000 135 172 120
6.591686e-001 -6.311518e-001 2.884331e+000 158 25 30
6.163923e-001 -4.052558e-001 2.857018e+000 156 38 44
7.289779e-001 -5.836948e-001 2.872233e+000 159 21 26
7.377395e-001 -6.309474e-001 2.901135e+000 167 112 89
6.730455e-001 -6.978930e-001 2.907994e+000 195 75 74
6.107273e-001 -4.089836e-001 2.863052e+000 175 38 44
7.361711e-001 -5.857960e-001 2.875639e+000 213 134 88
6.270006e-001 -7.298772e-001 2.953378e+000 176 137 119
6.609139e-001 -8.166523e-001 2.960346e+000 146 104 59
6.081330e-001 -6.143290e-001 2.932885e+000 189 140 132
7.690671e-001 -3.985744e-001 2.828535e+000 165 32 30
6.354756e-001 -4.830557e-001 2.858736e+000 29 64 34
6.864826e-001 -8.841644e-001 2.973829e+000 72 25 19
6.137072e-001 -6.339988e-001 2.935716e+000 92 23 45
5.921732e-001 -4.855391e-001 2.909405e+000 28 63 40
7.437701e-001 -4.995841e-001 2.843456e+000 36 47 17
7.690300e-001 -5.060134e-001 2.873117e+000 38 49 6
7.505930e-001 -5.768644e-001 2.888408e+000 155 24 21
6.124357e-001 -6.159018e-001 2.929752e+000 142 27 30
6.582044e-001 -8.241697e-001 2.963847e+000 161 102 58
7.609294e-001 -4.793033e-001 2.857110e+000 32 52 23
7.561623e-001 -5.008996e-001 2.854584e+000 30 54 27
6.022759e-001 -4.843379e-001 2.897633e+000 166 172 61
6.832397e-001 -7.487292e-001 2.925608e+000 176 143 108
7.480729e-001 -4.699867e-001 2.830523e+000 29 54 25
6.470475e-001 -7.366135e-001 2.939201e+000 51 122 191
6.238846e-001 -4.548521e-001 2.859698e+000 26 61 37
6.799677e-001 -9.161978e-001 2.989792e+000 181 141 116
6.471693e-001 -5.552060e-001 2.868869e+000 163 162 168
6.422987e-001 -7.517501e-001 2.949488e+000 71 13 20
6.899508e-001 -6.252821e-001 2.885716e+000 165 164 160
7.096091e-001 -6.920628e-001 2.906367e+000 189 97 70
6.886468e-001 -8.764972e-001 2.970172e+000 178 136 103
7.512851e-001 -5.262928e-001 2.864127e+000 31 47 13
7.355762e-001 -5.809996e-001 2.875761e+000 148 24 27
7.510545e-001 -4.769838e-001 2.839230e+000 136 139 31
5.891350e-001 -4.784390e-001 2.907571e+000 31 60 30
7.581674e-001 -5.741487e-001 2.893681e+000 147 24 25
7.699142e-001 -4.493136e-001 2.846444e+000 29 53 21
7.729183e-001 -4.784532e-001 2.863755e+000 32 53 10
7.422190e-001 -5.799094e-001 2.880953e+000 154 24 24
7.483417e-001 -5.828567e-001 2.885441e+000 175 97 66
6.046925e-001 -5.889812e-001 2.926543e+000 172 34 40
7.168938e-001 -6.964036e-001 2.910324e+000 192 124 87
7.422883e-001 -7.586986e-001 2.957610e+000 157 23 27
7.483362e-001 -3.930169e-001 2.809996e+000 137 143 123
6.965676e-001 -6.940156e-001 2.901802e+000 188 94 74
5.924132e-001 -4.852960e-001 2.908060e+000 28 63 40
7.263174e-001 -5.958762e-001 2.871396e+000 103 28 41
7.117642e-001 -6.075007e-001 2.871352e+000 157 155 143
7.239159e-001 -6.205238e-001 2.878614e+000 14 79 117
6.474025e-001 -7.784605e-001 2.954197e+000 146 63 41
6.590817e-001 -3.748313e-001 2.800545e+000 135 150 173
6.442258e-001 -6.355686e-001 2.891903e+000 158 22 32
8.001846e-001 -3.914344e-001 2.861384e+000 174 43 41
7.589157e-001 -4.228865e-001 2.824175e+000 70 100 105
7.783865e-001 -4.797786e-001 2.870809e+000 144 153 40
7.783865e-001 -4.797786e-001 2.870809e+000 144 153 40
7.556304e-001 -6.617555e-001 2.928625e+000 125 78 51
7.557578e-001 -6.617796e-001 2.928886e+000 125 78 51
6.803805e-001 -7.035798e-001 2.907978e+000 150 51 46
7.214192e-001 -7.395219e-001 2.929937e+000 192 120 91
7.394347e-001 -7.330061e-001 2.942569e+000 198 115 76
7.371333e-001 -7.410765e-001 2.944744e+000 223 85 76
7.510000e-001 -7.363209e-001 2.955785e+000 204 68 54
7.203456e-001 -7.505270e-001 2.935538e+000 131 29 31
7.398072e-001 -7.525147e-001 2.956189e+000 208 57 59
7.546639e-001 -7.593367e-001 2.968860e+000 196 65 51
7.499638e-001 -7.673625e-001 2.969188e+000 202 66 51
7.499850e-001 -7.672616e-001 2.968002e+000 202 66 51
7.409436e-001 -8.365025e-001 2.992361e+000 172 130 72
7.639549e-001 -3.995650e-001 2.823810e+000 175 33 32
7.749705e-001 -3.970051e-001 2.835543e+000 180 38 26
7.951343e-001 -3.932547e-001 2.854951e+000 164 37 32
6.055819e-001 -6.176636e-001 2.934154e+000 121 26 31
7.422135e-001 -6.576160e-001 2.912294e+000 108 65 42
7.441257e-001 -6.755687e-001 2.923114e+000 101 63 37
7.326573e-001 -6.887417e-001 2.917684e+000 95 50 24
7.437978e-001 -7.036687e-001 2.934812e+000 120 68 41
7.437976e-001 -7.036197e-001 2.934935e+000 120 68 41
7.416524e-001 -7.081079e-001 2.933984e+000 193 124 83
7.450178e-001 -7.108593e-001 2.937878e+000 128 87 59
7.450770e-001 -7.113038e-001 2.937619e+000 128 87 59
7.682361e-001 -7.141293e-001 2.963736e+000 191 121 81
7.602568e-001 -7.803817e-001 2.989812e+000 191 119 86
7.327277e-001 -7.944733e-001 2.963748e+000 192 126 91
7.740681e-001 -8.350654e-001 3.037329e+000 151 118 72
7.431755e-001 -4.984604e-001 2.846226e+000 36 47 17
6.261695e-001 -5.239512e-001 2.882592e+000 30 60 31
5.772576e-001 -5.453760e-001 2.942185e+000 158 158 162
7.263274e-001 -6.027546e-001 2.876336e+000 11 52 77
7.418798e-001 -6.717393e-001 2.919717e+000 191 122 85
7.162927e-001 -6.896464e-001 2.908414e+000 189 124 94
7.320250e-001 -6.938089e-001 2.920861e+000 187 124 85
7.611604e-001 -7.229151e-001 2.959443e+000 191 122 76
7.395978e-001 -7.902452e-001 2.967152e+000 198 122 85
6.475469e-001 -7.950592e-001 2.960860e+000 179 136 111
7.613478e-001 -8.287028e-001 3.012523e+000 147 84 38
6.788625e-001 -8.789056e-001 2.974899e+000 179 138 108
7.320853e-001 -8.871170e-001 3.017234e+000 158 122 87
7.530536e-001 -4.387621e-001 2.828385e+000 113 134 68
7.530536e-001 -4.387621e-001 2.828385e+000 113 134 68
7.762773e-001 -4.336820e-001 2.845704e+000 29 56 12
7.731250e-001 -4.700171e-001 2.865028e+000 123 121 20
7.873549e-001 -4.928342e-001 2.887189e+000 158 161 73
7.963516e-001 -4.865031e-001 2.893789e+000 131 139 59
7.821632e-001 -5.666845e-001 2.914990e+000 155 25 31
7.804568e-001 -5.734137e-001 2.912275e+000 226 127 85
7.730751e-001 -5.972814e-001 2.915238e+000 12 50 69
7.211158e-001 -7.194285e-001 2.920834e+000 89 57 42
7.207764e-001 -8.473797e-001 2.981141e+000 179 137 89
7.000090e-001 -9.074310e-001 2.991126e+000 192 158 129
7.963632e-001 -4.173803e-001 2.873641e+000 25 81 105
6.477966e-001 -5.407337e-001 2.866081e+000 27 63 37
7.579723e-001 -5.808033e-001 2.892978e+000 232 124 86
7.632605e-001 -6.612398e-001 2.934980e+000 190 121 80
7.613933e-001 -4.894114e-001 2.859268e+000 129 132 110
6.111527e-001 -4.969764e-001 2.889877e+000 135 172 120
7.511506e-001 -7.972924e-001 2.985982e+000 188 128 80
7.271134e-001 -8.268259e-001 2.972686e+000 178 137 91
6.336653e-001 -4.963977e-001 2.865961e+000 27 60 41
6.335198e-001 -4.963923e-001 2.864545e+000 27 60 41
5.802446e-001 -5.118772e-001 2.929315e+000 168 162 166
6.976238e-001 -9.028256e-001 2.987528e+000 193 162 132
7.068794e-001 -7.083439e-001 2.915031e+000 168 32 33
5.906378e-001 -1.047436e-001 3.653346e+000 210 176 115
6.948432e-001 -7.589918e-001 2.937557e+000 176 143 108
6.966174e-001 -6.671648e-001 2.895150e+000 167 37 37
7.558369e-001 -4.019397e-001 2.816823e+000 229 147 105
7.558425e-001 -4.015236e-001 2.816683e+000 229 147 105
7.613606e-001 -4.005437e-001 2.822834e+000 233 149 105
7.613771e-001 -4.001127e-001 2.822677e+000 233 149 105
7.868855e-001 -4.072688e-001 2.847746e+000 151 43 41
7.997090e-001 -4.083231e-001 2.868806e+000 150 48 34
7.804896e-001 -4.741667e-001 2.873192e+000 147 159 40
7.710951e-001 -5.332187e-001 2.887495e+000 77 43 29
7.873432e-001 -5.450453e-001 2.908085e+000 173 151 114
7.342972e-001 -5.851394e-001 2.873941e+000 238 147 103
7.343088e-001 -5.848438e-001 2.873918e+000 238 147 103
6.892411e-001 -6.921019e-001 2.901546e+000 190 89 73
7.646690e-001 -7.158187e-001 2.962137e+000 191 123 80
7.666484e-001 -7.184464e-001 2.963071e+000 128 80 58
7.697887e-001 -7.297963e-001 2.972172e+000 152 39 32
7.670852e-001 -7.315046e-001 2.970423e+000 145 36 32
7.256603e-001 -7.493064e-001 2.939129e+000 145 25 32
7.271883e-001 -7.459401e-001 2.939663e+000 216 94 73
7.272760e-001 -7.457916e-001 2.939950e+000 216 94 73
7.249962e-001 -7.529698e-001 2.939627e+000 215 68 64
7.240743e-001 -7.592362e-001 2.944191e+000 205 62 63
7.318518e-001 -7.530253e-001 2.946408e+000 143 33 36
7.425328e-001 -7.712574e-001 2.963766e+000 192 65 48
7.425561e-001 -7.711588e-001 2.963949e+000 192 65 48
7.348123e-001 -7.740910e-001 2.957070e+000 192 60 53
7.590457e-001 -7.845918e-001 2.987586e+000 129 79 46
7.633220e-001 -7.825959e-001 2.991252e+000 107 55 26
7.262618e-001 -7.912136e-001 2.957555e+000 55 29 10
7.644970e-001 -8.320228e-001 3.022944e+000 194 149 87
7.260006e-001 -8.439165e-001 2.983287e+000 172 134 87
7.461642e-001 -8.337483e-001 2.997403e+000 174 132 81
7.962560e-001 -8.456979e-001 3.084437e+000 183 104 56
7.534324e-001 -3.991481e-001 2.812426e+000 171 43 34
6.368246e-001 -4.188589e-001 2.834399e+000 25 52 28
6.368246e-001 -4.188589e-001 2.834399e+000 25 52 28
7.772548e-001 -4.733683e-001 2.868953e+000 34 50 15
7.916952e-001 -5.423478e-001 2.913908e+000 175 153 115
7.336855e-001 -6.359012e-001 2.896773e+000 189 116 89
7.710060e-001 -6.332486e-001 2.933210e+000 189 118 81
7.584149e-001 -7.352692e-001 2.961050e+000 137 32 26
7.227261e-001 -7.473803e-001 2.936447e+000 216 96 79
6.562143e-001 -7.463854e-001 2.936571e+000 65 130 198
7.239118e-001 -7.756776e-001 2.949052e+000 141 31 29
7.210290e-001 -7.801815e-001 2.952012e+000 209 68 60
7.265477e-001 -7.715502e-001 2.950586e+000 197 59 55
7.780705e-001 -8.220000e-001 3.034478e+000 193 110 38
7.718231e-001 -8.652803e-001 3.056690e+000 141 75 20
5.799180e-001 -3.962423e-001 2.882839e+000 168 43 50
5.971776e-001 -4.808352e-001 2.897017e+000 25 58 36
6.405339e-001 -5.052158e-001 2.859813e+000 29 58 30
6.197369e-001 -5.206603e-001 2.887791e+000 25 54 34
6.197369e-001 -5.206603e-001 2.887791e+000 25 54 34
7.409694e-001 -5.922081e-001 2.880503e+000 150 20 20
7.789434e-001 -5.872009e-001 2.916951e+000 12 52 67
7.006648e-001 -6.968449e-001 2.903358e+000 185 98 70
7.565435e-001 -7.296307e-001 2.961192e+000 143 23 27
7.551491e-001 -7.785597e-001 2.979262e+000 134 82 61
7.548667e-001 -7.828522e-001 2.983011e+000 188 123 86
7.463166e-001 -8.443956e-001 3.006158e+000 182 149 99
7.541789e-001 -4.229434e-001 2.825776e+000 130 126 63
7.510210e-001 -4.614924e-001 2.837746e+000 122 142 50
7.510210e-001 -4.614924e-001 2.837746e+000 122 142 50
6.403712e-001 -5.981164e-001 2.892244e+000 165 160 163
7.264072e-001 -6.574023e-001 2.899234e+000 186 126 89
7.264072e-001 -6.574023e-001 2.899234e+000 186 126 89
7.236524e-001 -7.240205e-001 2.928119e+000 194 122 79
7.237544e-001 -7.239812e-001 2.928085e+000 194 122 79
6.518618e-001 -7.945158e-001 2.958607e+000 121 68 48
7.220198e-001 -8.372790e-001 2.974470e+000 181 136 91
7.900052e-001 -4.444051e-001 2.865522e+000 34 56 13
7.821950e-001 -4.878121e-001 2.878723e+000 33 55 14
7.734724e-001 -5.698469e-001 2.908548e+000 150 28 24
7.965144e-001 -6.019064e-001 2.959794e+000 189 120 81
5.777575e-001 -6.233452e-001 2.977198e+000 101 139 199
7.185574e-001 -6.588784e-001 2.895081e+000 193 121 96
7.123879e-001 -7.470002e-001 2.933194e+000 134 23 30
7.120703e-001 -7.845587e-001 2.945045e+000 157 30 25
7.761765e-001 -4.032025e-001 2.835165e+000 187 99 62
7.858817e-001 -4.633817e-001 2.872326e+000 79 106 96
6.566156e-001 -5.142617e-001 2.844609e+000 115 135 168
7.633672e-001 -4.686243e-001 2.850195e+000 110 127 110
7.316515e-001 -6.428781e-001 2.897095e+000 187 123 87
7.321253e-001 -8.016490e-001 2.962723e+000 188 124 86
6.663917e-001 -4.374056e-001 2.834516e+000 110 138 172
5.798542e-001 -3.937436e-001 2.912193e+000 247 154 154
5.920222e-001 -3.848520e-001 2.892894e+000 121 37 37
6.052759e-001 -3.855291e-001 2.877152e+000 227 154 149
6.035706e-001 -3.984637e-001 2.881729e+000 134 36 39
6.048323e-001 -3.959150e-001 2.874392e+000 224 159 151
6.242512e-001 -3.989801e-001 2.849230e+000 139 34 37
6.242512e-001 -3.989801e-001 2.849230e+000 139 34 37
5.819352e-001 -6.276673e-001 2.967928e+000 25 72 121
6.424184e-001 -6.768236e-001 2.913366e+000 146 41 45
7.113884e-001 -6.854474e-001 2.904395e+000 122 38 27
5.794319e-001 -7.467614e-001 3.024781e+000 49 29 35
6.297834e-001 -7.507033e-001 2.955912e+000 206 124 113
6.555936e-001 -8.165599e-001 2.953051e+000 177 129 80
5.728746e-001 -3.688069e-001 2.926644e+000 134 164 196
5.716439e-001 -3.691583e-001 2.922362e+000 134 164 196
6.002617e-001 -4.221841e-001 2.883869e+000 51 102 157
5.692375e-001 -4.897046e-001 2.956775e+000 41 55 20
5.822794e-001 -5.777926e-001 2.954170e+000 168 33 33
5.902596e-001 -5.779100e-001 2.942667e+000 159 160 173
6.202820e-001 -6.269308e-001 2.919881e+000 140 26 34
6.658971e-001 -7.270606e-001 2.917224e+000 16 79 145
7.226404e-001 -7.401800e-001 2.904277e+000 208 94 75
5.814744e-001 -7.466584e-001 3.018734e+000 159 134 123
6.586592e-001 -8.163905e-001 2.952088e+000 144 99 56
6.563727e-001 -2.735122e-001 2.951270e+000 32 27 24
5.846402e-001 -3.919885e-001 2.905323e+000 169 36 41
7.496411e-001 -4.646158e-001 2.824329e+000 123 143 52
5.769916e-001 -5.619136e-001 2.960903e+000 123 102 107
6.045000e-001 -6.132484e-001 2.935357e+000 142 25 34
5.709180e-001 -6.685988e-001 3.001721e+000 143 111 64
5.803469e-001 -7.398284e-001 3.022082e+000 124 46 46
5.841872e-001 -7.591160e-001 3.021338e+000 160 134 121
5.778917e-001 -3.758274e-001 2.915621e+000 171 35 43
5.830842e-001 -3.768630e-001 2.904380e+000 177 37 46
6.200464e-001 -3.866247e-001 2.851841e+000 173 33 42
6.200464e-001 -3.866247e-001 2.851841e+000 173 33 42
6.277953e-001 -4.038444e-001 2.843499e+000 167 32 41
6.277953e-001 -4.038444e-001 2.843499e+000 167 32 41
7.489366e-001 -4.765490e-001 2.825076e+000 136 133 39
5.905973e-001 -4.787834e-001 2.913808e+000 29 66 33
6.534659e-001 -5.982608e-001 2.876224e+000 171 160 168
5.935289e-001 -6.176785e-001 2.951134e+000 148 37 36
7.015793e-001 -6.975396e-001 2.900218e+000 182 86 62
6.420293e-001 -7.681675e-001 2.943924e+000 166 67 45
7.044892e-001 -7.819982e-001 2.913964e+000 148 27 28
5.759659e-001 -3.945225e-001 2.917370e+000 173 38 44
5.978946e-001 -4.829555e-001 2.905205e+000 25 69 35
7.935154e-001 -5.024163e-001 2.925748e+000 32 51 30
6.266345e-001 -5.296816e-001 2.880930e+000 26 58 42
6.266345e-001 -5.296816e-001 2.880930e+000 26 58 42
6.518873e-001 -6.043482e-001 2.879486e+000 149 106 113
7.101704e-001 -6.650406e-001 2.891520e+000 179 50 45
6.503488e-001 -7.936245e-001 2.953041e+000 123 68 47
5.724374e-001 -4.097807e-001 2.931968e+000 26 59 32
5.990062e-001 -4.660030e-001 2.897510e+000 25 64 43
5.808753e-001 -5.027333e-001 2.932672e+000 29 62 35
5.808753e-001 -5.027333e-001 2.932672e+000 29 62 35
5.802617e-001 -5.536526e-001 2.941560e+000 162 157 164
6.047491e-001 -5.574058e-001 2.917038e+000 157 158 173
6.281883e-001 -5.682021e-001 2.891652e+000 157 161 167
5.860057e-001 -5.783287e-001 2.947693e+000 171 34 37
6.107530e-001 -5.889023e-001 2.921207e+000 168 37 39
6.287816e-001 -5.934364e-001 2.901628e+000 157 158 168
6.181689e-001 -6.104364e-001 2.918083e+000 150 25 31
5.778443e-001 -3.843806e-001 2.915930e+000 209 152 154
5.999469e-001 -4.543635e-001 2.885121e+000 163 165 163
6.540372e-001 -5.184207e-001 2.838106e+000 113 137 166
6.540372e-001 -5.184207e-001 2.838106e+000 113 137 166
6.154680e-001 -5.259306e-001 2.892572e+000 25 61 32
5.757700e-001 -5.401757e-001 2.948575e+000 152 157 169
5.757700e-001 -5.401757e-001 2.948575e+000 152 157 169
6.053548e-001 -5.599765e-001 2.917777e+000 155 159 168
6.053548e-001 -5.599765e-001 2.917777e+000 155 159 168
6.147423e-001 -5.981227e-001 2.914768e+000 162 159 167
5.859122e-001 -6.396810e-001 2.969217e+000 94 50 81
7.582894e-001 -6.243505e-001 2.929658e+000 188 118 82
6.812567e-001 -6.981238e-001 2.900316e+000 184 89 77
6.812567e-001 -6.981238e-001 2.900316e+000 184 89 77
8.042402e-001 -3.845786e-001 2.870731e+000 191 146 128
7.602531e-001 -3.999425e-001 2.816901e+000 125 44 28
7.733248e-001 -3.940883e-001 2.829093e+000 211 128 78
7.754600e-001 -3.983399e-001 2.834153e+000 214 133 87
7.773389e-001 -4.036728e-001 2.838778e+000 153 40 33
7.905867e-001 -3.917915e-001 2.849718e+000 146 35 34
8.069506e-001 -4.002797e-001 2.883010e+000 34 48 23
7.599973e-001 -4.077716e-001 2.818512e+000 210 127 85
7.599973e-001 -4.077716e-001 2.818512e+000 210 127 85
7.635352e-001 -4.092084e-001 2.823073e+000 223 128 91
7.635352e-001 -4.092084e-001 2.823073e+000 223 128 91
7.720557e-001 -4.055565e-001 2.830386e+000 157 31 30
7.769502e-001 -4.367915e-001 2.851640e+000 62 83 41
8.082502e-001 -4.444793e-001 2.899953e+000 65 85 41
7.545522e-001 -4.507048e-001 2.926583e+000 136 137 36
8.165253e-001 -4.534454e-001 2.921038e+000 33 49 11
7.587874e-001 -4.849583e-001 2.849381e+000 124 133 26
7.584640e-001 -4.944130e-001 2.852940e+000 140 143 26
8.191049e-001 -4.808153e-001 2.943244e+000 95 83 50
7.856213e-001 -5.284005e-001 2.897248e+000 76 29 19
7.957530e-001 -5.266842e-001 2.911705e+000 88 43 34
7.952572e-001 -5.316600e-001 2.913442e+000 76 31 20
7.788364e-001 -5.457993e-001 2.897537e+000 165 130 95
7.949904e-001 -5.410968e-001 2.918096e+000 170 141 101
7.453139e-001 -5.880784e-001 2.882539e+000 225 135 103
7.541211e-001 -5.840439e-001 2.889249e+000 121 29 24
7.541211e-001 -5.840439e-001 2.889249e+000 121 29 24
7.739521e-001 -5.753471e-001 2.906083e+000 241 141 100
8.115886e-001 -5.948233e-001 2.968180e+000 115 67 42
7.793168e-001 -6.167247e-001 2.924489e+000 170 108 70
7.551517e-001 -6.638076e-001 2.925140e+000 68 31 15
7.227943e-001 -6.917224e-001 2.910119e+000 191 110 71
7.093011e-001 -6.979579e-001 2.906655e+000 123 37 34
7.993049e-001 -6.953346e-001 3.004978e+000 191 114 77
7.355037e-001 -7.459365e-001 2.944281e+000 121 21 23
7.675837e-001 -4.055626e-001 2.829456e+000 147 27 25
8.006584e-001 -3.965272e-001 2.872760e+000 156 36 32
7.863090e-001 -4.413233e-001 2.862504e+000 149 143 29
8.032980e-001 -4.514181e-001 2.896320e+000 40 49 16
8.060153e-001 -4.544701e-001 2.904344e+000 68 94 66
7.837739e-001 -5.410629e-001 2.900604e+000 162 135 104
7.185025e-001 -5.991231e-001 2.869273e+000 59 31 41
7.332815e-001 -5.992331e-001 2.878117e+000 21 70 88
7.502261e-001 -5.941188e-001 2.890542e+000 21 67 85
7.251246e-001 -6.062245e-001 2.875567e+000 22 63 88
6.253191e-001 -6.270928e-001 2.915790e+000 247 96 103
7.827821e-001 -6.172786e-001 2.933021e+000 122 69 48
7.995217e-001 -6.534624e-001 2.982011e+000 96 51 22
7.394866e-001 -6.693356e-001 2.913337e+000 65 36 26
7.394866e-001 -6.693356e-001 2.913337e+000 65 36 26
7.542449e-001 -6.910484e-001 2.936339e+000 94 48 25
7.992380e-001 -6.860487e-001 3.001734e+000 87 52 20
7.653031e-001 -7.161089e-001 2.961035e+000 182 109 71
7.716253e-001 -7.141237e-001 2.967052e+000 183 113 76
7.646019e-001 -7.333732e-001 2.966347e+000 132 26 20
7.646019e-001 -7.333732e-001 2.966347e+000 132 26 20
7.873676e-001 -3.873862e-001 2.845914e+000 169 31 34
7.965130e-001 -3.850596e-001 2.856743e+000 159 30 25
7.660526e-001 -4.118538e-001 2.824878e+000 166 28 26
7.862731e-001 -4.525309e-001 2.866492e+000 136 132 35
7.724338e-001 -4.739519e-001 2.859211e+000 27 48 11
7.875308e-001 -4.802827e-001 2.877300e+000 146 142 42
8.035473e-001 -5.643661e-001 2.945529e+000 134 29 25
8.061256e-001 -6.107293e-001 2.967176e+000 185 114 66
7.806231e-001 -6.219420e-001 2.935331e+000 182 112 70
7.806231e-001 -6.219420e-001 2.935331e+000 182 112 70
7.737269e-001 -6.244211e-001 2.926340e+000 187 104 68
8.008962e-001 -6.403594e-001 2.978269e+000 190 119 66
7.936156e-001 -7.007060e-001 2.996439e+000 184 121 68
7.364641e-001 -7.284073e-001 2.935695e+000 179 112 76
7.364641e-001 -7.284073e-001 2.935695e+000 179 112 76
8.123112e-001 -4.223644e-001 2.900623e+000 108 109 29
7.703506e-001 -5.489849e-001 2.889222e+000 119 95 71
7.474329e-001 -5.912998e-001 2.884575e+000 138 19 26
7.757718e-001 -6.039146e-001 2.914470e+000 23 71 91
7.757718e-001 -6.039146e-001 2.914470e+000 23 71 91
7.400343e-001 -6.546357e-001 2.908344e+000 179 109 69
7.272145e-001 -6.678824e-001 2.905535e+000 183 109 76
7.281076e-001 -6.863553e-001 2.911972e+000 179 104 78
7.050503e-001 -7.001599e-001 2.907400e+000 158 64 54
7.266478e-001 -7.050139e-001 2.919003e+000 185 107 76
7.266478e-001 -7.050139e-001 2.919003e+000 185 107 76
7.436816e-001 -6.999816e-001 2.929295e+000 175 111 68
7.436816e-001 -6.999816e-001 2.929295e+000 175 111 68
7.109959e-001 -7.275990e-001 2.918248e+000 108 21 21
7.611975e-001 -7.236831e-001 2.958666e+000 183 109 77
7.553433e-001 -3.772489e-001 2.801167e+000 47 87 97
7.516456e-001 -4.764617e-001 2.838819e+000 121 125 36
7.884447e-001 -4.917881e-001 2.885963e+000 147 145 60
6.525249e-001 -6.018311e-001 2.880425e+000 108 74 74
7.573000e-001 -4.811051e-001 2.845423e+000 29 48 18
7.573954e-001 -4.806816e-001 2.845671e+000 29 48 18
7.899090e-001 -5.207008e-001 2.904254e+000 156 142 107
7.484157e-001 -5.946837e-001 2.886647e+000 14 57 73
7.185596e-001 -6.696239e-001 2.898869e+000 178 109 84
8.071428e-001 -4.844205e-001 2.910071e+000 142 150 50
7.831020e-001 -6.989071e-001 2.981965e+000 184 121 77
5.747421e-001 -3.462052e-001 2.921166e+000 42 117 196
5.747421e-001 -3.462052e-001 2.921166e+000 42 117 196
7.549473e-001 -3.996690e-001 2.789725e+000 159 47 28
5.773467e-001 -3.785483e-001 2.914237e+000 123 61 66
5.773467e-001 -3.785483e-001 2.914237e+000 123 61 66
5.752583e-001 -3.914389e-001 2.925891e+000 202 106 112
5.967254e-001 -3.819893e-001 2.881429e+000 195 129 131
6.321755e-001 -3.950553e-001 2.828481e+000 13 80 147
6.394168e-001 -4.544280e-001 2.832322e+000 66 98 112
6.394168e-001 -4.544280e-001 2.832322e+000 66 98 112
6.470277e-001 -4.581077e-001 2.828494e+000 117 154 94
7.619331e-001 -4.792613e-001 2.848935e+000 49 56 15
5.814634e-001 -5.774745e-001 2.961164e+000 147 136 144
7.417824e-001 -6.432814e-001 2.919037e+000 137 80 54
7.417824e-001 -6.432814e-001 2.919037e+000 137 80 54
7.565396e-001 -6.535426e-001 2.941735e+000 143 89 61
6.047623e-001 -6.390440e-001 2.944059e+000 94 137 190
7.444290e-001 -6.677481e-001 2.932290e+000 140 86 58
6.183506e-001 -6.506099e-001 2.933185e+000 104 149 209
6.183506e-001 -6.506099e-001 2.933185e+000 104 149 209
6.370476e-001 -6.553177e-001 2.908497e+000 99 142 189
6.401280e-001 -6.713782e-001 2.915696e+000 123 30 34
6.865066e-001 -7.056085e-001 2.908560e+000 151 35 35
6.492498e-001 -7.514028e-001 2.938444e+000 62 9 6
6.301834e-001 -7.529946e-001 2.960447e+000 131 44 51
6.301834e-001 -7.529946e-001 2.960447e+000 131 44 51
5.808561e-001 -3.933488e-001 2.913785e+000 202 134 131
5.840276e-001 -3.872978e-001 2.906768e+000 196 136 133
5.988844e-001 -3.838576e-001 2.879299e+000 149 35 43
6.093735e-001 -3.884905e-001 2.862534e+000 138 47 49
6.067463e-001 -3.988713e-001 2.868903e+000 152 39 47
6.317435e-001 -4.102729e-001 2.832707e+000 47 84 115
6.425370e-001 -4.685049e-001 2.836108e+000 38 48 24
6.425370e-001 -4.685049e-001 2.836108e+000 38 48 24
6.130356e-001 -5.034101e-001 2.889811e+000 33 54 41
5.759767e-001 -5.470857e-001 2.957113e+000 157 144 156
5.814235e-001 -5.467512e-001 2.952183e+000 147 145 151
5.962567e-001 -6.037249e-001 2.943439e+000 173 126 118
5.981431e-001 -6.092408e-001 2.945416e+000 183 121 122
7.263219e-001 -6.483347e-001 2.904158e+000 124 75 53
7.263219e-001 -6.483347e-001 2.904158e+000 124 75 53
7.424753e-001 -6.515249e-001 2.922375e+000 134 82 57
5.756565e-001 -6.222343e-001 2.985357e+000 27 73 133
5.886715e-001 -6.292120e-001 2.963178e+000 92 129 191
5.994487e-001 -6.382161e-001 2.949294e+000 27 67 119
6.016314e-001 -6.417105e-001 2.950908e+000 102 144 191
7.120279e-001 -6.699203e-001 2.901535e+000 164 63 52
7.247528e-001 -7.111691e-001 2.932578e+000 131 80 56
6.568488e-001 -7.453850e-001 2.935238e+000 58 114 164
5.769481e-001 -7.291144e-001 3.055724e+000 47 36 38
5.799605e-001 -3.781133e-001 2.909400e+000 190 151 145
7.748105e-001 -4.370049e-001 2.835716e+000 42 52 18
5.838992e-001 -5.782570e-001 2.957821e+000 157 32 37
7.196322e-001 -6.112457e-001 2.875274e+000 19 76 111
7.242454e-001 -6.321893e-001 2.889291e+000 131 82 56
5.992714e-001 -6.157263e-001 2.943648e+000 127 25 36
5.983420e-001 -6.201955e-001 2.943232e+000 183 65 73
5.875486e-001 -6.315724e-001 2.969497e+000 26 68 123
6.600644e-001 -7.333536e-001 2.927260e+000 72 123 165
6.261835e-001 -3.878059e-001 2.832095e+000 157 34 42
7.534469e-001 -4.241811e-001 2.807725e+000 141 140 86
7.577444e-001 -4.818847e-001 2.844276e+000 49 58 12
5.832548e-001 -5.464864e-001 2.946544e+000 157 36 42
6.506376e-001 -6.102440e-001 2.880332e+000 160 144 144
6.100086e-001 -6.256308e-001 2.935816e+000 171 67 71
6.193084e-001 -6.491662e-001 2.929934e+000 100 126 168
6.354657e-001 -4.194912e-001 2.830335e+000 29 54 33
6.354657e-001 -4.194912e-001 2.830335e+000 29 54 33
6.488903e-001 -4.728836e-001 2.838321e+000 101 126 131
5.747430e-001 -4.674857e-001 2.946829e+000 144 160 95
6.216191e-001 -5.322603e-001 2.888902e+000 152 156 96
6.216191e-001 -5.322603e-001 2.888902e+000 152 156 96
6.449046e-001 -6.023007e-001 2.887344e+000 135 104 109
6.026244e-001 -6.086559e-001 2.937993e+000 109 60 58
5.847770e-001 -6.186303e-001 2.979749e+000 19 69 129
5.974061e-001 -6.365649e-001 2.954732e+000 93 130 182
6.120825e-001 -6.445764e-001 2.937804e+000 97 127 170
6.142216e-001 -3.915945e-001 2.856783e+000 179 129 128
5.748285e-001 -4.476873e-001 2.939735e+000 154 154 142
5.819302e-001 -4.785710e-001 2.925220e+000 26 57 41
6.110113e-001 -4.976587e-001 2.891272e+000 136 163 96
5.919343e-001 -6.328995e-001 2.966054e+000 81 116 167
5.919343e-001 -6.328995e-001 2.966054e+000 81 116 167
7.200155e-001 -6.702287e-001 2.908850e+000 191 119 86
5.766554e-001 -7.092757e-001 3.048125e+000 143 115 93
5.786469e-001 -3.838834e-001 2.917097e+000 183 139 141
6.216619e-001 -5.160636e-001 2.879097e+000 156 150 150
5.863423e-001 -5.454966e-001 2.939382e+000 160 34 45
6.059933e-001 -5.800820e-001 2.925066e+000 152 148 158
5.878283e-001 -6.191581e-001 2.962195e+000 134 21 35
6.057262e-001 -3.365089e-001 2.848055e+000 16 81 147
6.743345e-001 -4.742687e-001 2.800049e+000 66 109 144
6.423999e-001 -7.514864e-001 2.949410e+000 69 13 19
6.856130e-001 -5.989481e-001 2.901918e+000 151 151 151
7.774799e-001 -3.929048e-001 2.830766e+000 216 134 99
7.817642e-001 -3.914622e-001 2.832039e+000 214 132 88
7.768992e-001 -3.948499e-001 2.828042e+000 132 53 36
7.768992e-001 -3.948499e-001 2.828042e+000 132 53 36
7.794671e-001 -3.977348e-001 2.832523e+000 137 59 42
7.794671e-001 -3.977348e-001 2.832523e+000 137 59 42
7.882036e-001 -3.983091e-001 2.843416e+000 218 137 91
8.015517e-001 -3.850253e-001 2.854872e+000 215 129 79
8.012065e-001 -3.933783e-001 2.857760e+000 230 128 87
8.007960e-001 -3.977394e-001 2.866631e+000 248 111 87
8.088182e-001 -3.844869e-001 2.867047e+000 27 78 94
8.074207e-001 -3.961954e-001 2.871539e+000 46 72 66
7.573609e-001 -4.112983e-001 2.814637e+000 231 111 84
7.573609e-001 -4.112983e-001 2.814637e+000 231 111 84
7.716798e-001 -4.029762e-001 2.826431e+000 212 134 96
7.916642e-001 -4.017614e-001 2.849155e+000 225 123 84
7.956818e-001 -4.217766e-001 2.866632e+000 30 52 27
8.096868e-001 -4.332609e-001 2.899590e+000 37 47 11
8.096868e-001 -4.332609e-001 2.899590e+000 37 47 11
7.838743e-001 -4.510030e-001 2.863223e+000 150 145 24
8.129695e-001 -4.490262e-001 2.916881e+000 61 93 77
8.014642e-001 -4.696565e-001 2.903998e+000 77 105 59
7.587638e-001 -4.862103e-001 2.849812e+000 137 140 52
7.764484e-001 -5.313990e-001 2.893504e+000 108 30 28
7.785481e-001 -5.330631e-001 2.895118e+000 172 138 105
7.839430e-001 -5.289250e-001 2.899905e+000 96 37 27
7.928570e-001 -5.231798e-001 2.914597e+000 102 58 43
7.849224e-001 -5.305428e-001 2.902898e+000 186 131 99
7.937240e-001 -5.243385e-001 2.917113e+000 171 145 107
7.937240e-001 -5.243385e-001 2.917113e+000 171 145 107
7.934381e-001 -5.292827e-001 2.918771e+000 175 141 107
7.934381e-001 -5.292827e-001 2.918771e+000 175 141 107
7.472751e-001 -5.381917e-001 2.955401e+000 167 141 110
7.898803e-001 -5.422339e-001 2.919153e+000 173 143 107
8.047795e-001 -5.506056e-001 2.969177e+000 252 122 97
7.696168e-001 -5.767077e-001 2.905690e+000 218 140 94
7.772144e-001 -5.716859e-001 2.912381e+000 240 134 98
7.797035e-001 -5.729695e-001 2.916023e+000 228 140 107
7.819900e-001 -5.695510e-001 2.920918e+000 142 34 32
7.841627e-001 -5.697049e-001 2.922216e+000 232 139 101
7.818638e-001 -5.717033e-001 2.918591e+000 231 132 95
7.337710e-001 -5.919963e-001 2.875568e+000 224 139 97
7.337710e-001 -5.919963e-001 2.875568e+000 224 139 97
7.417681e-001 -5.863097e-001 2.879501e+000 237 135 102
7.497593e-001 -5.855911e-001 2.886933e+000 133 31 27
7.497593e-001 -5.855911e-001 2.886933e+000 133 31 27
7.417057e-001 -5.897072e-001 2.881454e+000 233 148 108
7.447695e-001 -5.886413e-001 2.883434e+000 229 150 112
7.516085e-001 -5.834789e-001 2.888438e+000 227 144 107
7.550083e-001 -5.852365e-001 2.892811e+000 235 142 104
7.596554e-001 -5.819966e-001 2.896663e+000 117 36 28
7.596554e-001 -5.819966e-001 2.896663e+000 117 36 28
8.033157e-001 -5.863060e-001 2.808215e+000 236 146 104
7.514445e-001 -5.864295e-001 2.889190e+000 234 137 104
7.723344e-001 -5.787759e-001 2.909818e+000 240 131 106
7.768147e-001 -5.771620e-001 2.914241e+000 233 131 101
7.245851e-001 -6.033995e-001 2.873664e+000 12 58 84
7.753064e-001 -5.988104e-001 2.922985e+000 5 50 71
7.753064e-001 -5.988104e-001 2.922985e+000 5 50 71
7.184438e-001 -6.132578e-001 2.874501e+000 24 85 118
7.769772e-001 -6.071524e-001 2.929509e+000 10 51 68
7.098762e-001 -6.779934e-001 2.899527e+000 151 48 39
7.149906e-001 -6.936494e-001 2.907347e+000 197 116 89
7.356105e-001 -7.062474e-001 2.926579e+000 178 114 92
7.356105e-001 -7.062474e-001 2.926579e+000 178 114 92
6.710271e-001 -7.234686e-001 2.914754e+000 125 189 251
6.710271e-001 -7.234686e-001 2.914754e+000 125 189 251
6.674080e-001 -7.340469e-001 2.920395e+000 79 139 205
7.651262e-001 -7.285291e-001 2.972504e+000 204 50 47
7.346924e-001 -7.426110e-001 2.942344e+000 208 87 64
7.346924e-001 -7.426110e-001 2.942344e+000 208 87 64
7.468089e-001 -7.372029e-001 2.951606e+000 240 72 70
6.158150e-001 -4.119578e-001 2.836242e+000 158 47 53
7.925572e-001 -3.936594e-001 2.847274e+000 149 38 36
7.925572e-001 -3.936594e-001 2.847274e+000 149 38 36
7.993709e-001 -4.303155e-001 2.874717e+000 131 142 36
8.095775e-001 -4.324190e-001 2.900217e+000 36 48 14
8.012462e-001 -4.563243e-001 2.891846e+000 68 96 75
8.127463e-001 -4.808134e-001 2.952474e+000 107 96 61
6.581050e-001 -5.154929e-001 2.839055e+000 136 175 83
6.581050e-001 -5.154929e-001 2.839055e+000 136 175 83
7.742299e-001 -5.379791e-001 2.893178e+000 165 146 113
7.742299e-001 -5.379791e-001 2.893178e+000 165 146 113
7.380469e-001 -5.905955e-001 2.878436e+000 230 159 110
7.482202e-001 -5.835391e-001 2.884524e+000 224 151 108
7.582587e-001 -5.799794e-001 2.894146e+000 224 149 106
7.865937e-001 -5.958090e-001 2.827672e+000 24 78 103
7.283765e-001 -6.724255e-001 2.905922e+000 48 23 12
7.431409e-001 -6.770785e-001 2.920755e+000 73 32 18
7.431409e-001 -6.770785e-001 2.920755e+000 73 32 18
7.543284e-001 -6.636445e-001 2.926427e+000 67 30 7
7.920244e-001 -6.624361e-001 2.992861e+000 84 44 15
6.731392e-001 -6.965908e-001 2.905223e+000 174 52 55
7.011180e-001 -6.956372e-001 2.902608e+000 196 105 79
7.698987e-001 -6.828718e-001 2.953214e+000 181 115 85
7.128524e-001 -7.067641e-001 2.910779e+000 157 35 35
7.492813e-001 -6.929445e-001 2.933325e+000 46 26 12
6.549607e-001 -7.214993e-001 2.921410e+000 35 86 150
6.623523e-001 -7.245590e-001 2.918934e+000 109 167 235
7.497437e-001 -7.097450e-001 2.943729e+000 123 73 47
8.013438e-001 -3.306142e-001 2.825620e+000 31 86 107
6.138135e-001 -3.958225e-001 2.832072e+000 178 44 51
6.253770e-001 -4.420013e-001 2.841584e+000 43 61 37
6.253770e-001 -4.420013e-001 2.841584e+000 43 61 37
7.735985e-001 -4.415846e-001 2.847416e+000 142 138 34
8.105234e-001 -4.412353e-001 2.908787e+000 34 48 14
8.105234e-001 -4.412353e-001 2.908787e+000 34 48 14
6.922898e-001 -4.597825e-001 3.019236e+000 79 107 82
7.992714e-001 -4.475283e-001 2.887933e+000 36 51 9
8.106985e-001 -4.526317e-001 2.917923e+000 140 150 47
8.106985e-001 -4.526317e-001 2.917923e+000 140 150 47
6.289476e-001 -4.846931e-001 2.855115e+000 47 61 37
6.261420e-001 -5.111813e-001 2.865883e+000 43 64 32
6.192110e-001 -5.139431e-001 2.871930e+000 157 175 100
6.242205e-001 -5.304816e-001 2.875157e+000 45 63 45
7.901612e-001 -5.301178e-001 2.913687e+000 179 146 105
7.706363e-001 -5.428389e-001 2.890237e+000 165 141 117
7.895924e-001 -5.357988e-001 2.919445e+000 178 133 97
7.895924e-001 -5.357988e-001 2.919445e+000 178 133 97
7.847219e-001 -5.466914e-001 2.912869e+000 167 143 107
7.394376e-001 -5.980408e-001 2.883298e+000 21 83 111
7.954614e-001 -6.123004e-001 2.979878e+000 196 116 72
6.698793e-001 -6.403608e-001 2.886087e+000 175 167 174
7.960328e-001 -6.174599e-001 2.976720e+000 137 81 55
7.956934e-001 -6.265969e-001 2.979349e+000 129 73 45
6.764880e-001 -6.449308e-001 2.882197e+000 188 50 50
7.941843e-001 -6.397569e-001 2.988074e+000 197 120 75
7.738706e-001 -6.465801e-001 2.944137e+000 72 42 28
7.944684e-001 -6.484907e-001 2.990294e+000 195 129 82
7.935483e-001 -6.551492e-001 2.998334e+000 195 132 87
7.680197e-001 -6.667144e-001 2.947278e+000 139 80 45
7.680197e-001 -6.667144e-001 2.947278e+000 139 80 45
7.909537e-001 -6.801741e-001 2.998543e+000 129 82 48
6.962878e-001 -6.985753e-001 2.901752e+000 198 93 80
7.633296e-001 -7.032991e-001 2.956308e+000 152 99 61
7.928281e-001 -6.849789e-001 3.011022e+000 119 72 36
6.361160e-001 -7.194281e-001 2.933788e+000 102 46 35
7.632569e-001 -7.121134e-001 2.958933e+000 66 28 12
7.226828e-001 -7.318482e-001 2.925310e+000 194 112 88
7.226828e-001 -7.318482e-001 2.925310e+000 194 112 88
8.037773e-001 -3.816306e-001 2.863112e+000 179 26 28
7.977157e-001 -3.905304e-001 2.847256e+000 174 93 67
7.876447e-001 -4.355307e-001 2.860099e+000 155 148 30
7.876447e-001 -4.355307e-001 2.860099e+000 155 148 30
7.838480e-001 -4.560436e-001 2.860972e+000 34 53 25
7.595777e-001 -4.870881e-001 2.850811e+000 126 132 65
7.595777e-001 -4.870881e-001 2.850811e+000 126 132 65
7.864144e-001 -4.803781e-001 2.880129e+000 136 134 33
7.576600e-001 -4.947692e-001 2.856137e+000 139 136 37
7.853234e-001 -5.423251e-001 2.913109e+000 112 80 54
7.967048e-001 -5.611360e-001 2.948185e+000 211 129 82
7.895819e-001 -5.785778e-001 2.909267e+000 149 15 33
8.032377e-001 -5.783121e-001 2.958742e+000 13 50 68
6.369250e-001 -6.108839e-001 2.892660e+000 159 35 38
7.679672e-001 -5.921535e-001 2.907518e+000 4 46 66
7.725848e-001 -5.990551e-001 2.914649e+000 7 49 63
6.219429e-001 -6.337153e-001 2.913630e+000 107 139 190
7.969548e-001 -6.190146e-001 2.984790e+000 191 117 74
6.434737e-001 -6.493872e-001 2.901128e+000 97 138 194
7.699418e-001 -6.345163e-001 2.933004e+000 201 122 87
7.730901e-001 -6.322244e-001 2.937464e+000 193 121 83
7.721425e-001 -6.418750e-001 2.941100e+000 197 123 74
7.354188e-001 -6.555839e-001 2.905724e+000 194 128 91
7.668767e-001 -6.573998e-001 2.946593e+000 165 98 58
7.933267e-001 -6.439902e-001 2.990417e+000 99 53 23
7.680620e-001 -6.622966e-001 2.941876e+000 200 123 82
7.673292e-001 -6.714811e-001 2.946177e+000 200 119 77
7.924301e-001 -6.639038e-001 3.001637e+000 193 131 86
7.676408e-001 -6.761423e-001 2.943734e+000 94 56 37
7.925464e-001 -6.819745e-001 3.004495e+000 193 128 75
7.644087e-001 -6.983252e-001 2.958331e+000 180 115 77
7.651791e-001 -7.059154e-001 2.966662e+000 188 115 74
7.655485e-001 -7.242214e-001 2.973639e+000 141 22 28
8.069877e-001 -3.790931e-001 2.867139e+000 168 94 65
8.069877e-001 -3.790931e-001 2.867139e+000 168 94 65
8.005422e-001 -4.299336e-001 2.867350e+000 71 83 14
8.005422e-001 -4.299336e-001 2.867350e+000 71 83 14
7.746438e-001 -4.537558e-001 2.851057e+000 99 116 55
7.746438e-001 -4.537558e-001 2.851057e+000 99 116 55
8.014309e-001 -4.625907e-001 2.906660e+000 31 53 13
8.012434e-001 -4.698836e-001 2.903370e+000 76 102 58
8.012434e-001 -4.698836e-001 2.903370e+000 76 102 58
8.113877e-001 -4.629207e-001 2.924682e+000 111 120 61
8.113877e-001 -4.629207e-001 2.924682e+000 111 120 61
7.911911e-001 -4.767748e-001 2.879194e+000 97 112 41
7.664501e-001 -5.738333e-001 2.896961e+000 160 25 26
7.968223e-001 -5.919924e-001 2.983834e+000 183 114 82
7.551451e-001 -7.293285e-001 2.962794e+000 146 19 31
6.632903e-001 -7.487660e-001 2.927680e+000 190 153 127
7.087907e-001 -7.493592e-001 2.927185e+000 176 135 104
6.971504e-001 -6.917275e-001 2.899856e+000 193 102 81
7.033601e-001 -6.961498e-001 2.906448e+000 188 88 74
8.095465e-001 -3.303474e-001 2.835972e+000 28 88 112
7.532775e-001 -4.591398e-001 2.833492e+000 121 132 102
7.532775e-001 -4.591398e-001 2.833492e+000 121 132 102
5.866784e-001 -6.569702e-001 2.957964e+000 30 19 18
5.866784e-001 -6.569702e-001 2.957964e+000 30 19 18
6.229143e-001 -4.058272e-001 2.827124e+000 206 130 124
7.085259e-001 -7.068953e-001 2.908842e+000 169 36 39
6.485711e-001 -7.370824e-001 2.931766e+000 83 20 29
7.769651e-001 -6.055911e-001 2.918918e+000 25 80 102
6.588974e-001 -5.636009e-001 2.860808e+000 173 172 179
8.013075e-001 -5.538354e-001 2.983189e+000 164 25 24
7.956529e-001 -5.423313e-001 2.940909e+000 170 153 110
7.516208e-001 -6.358857e-001 2.917765e+000 198 122 86
7.968730e-001 -4.745076e-001 2.929046e+000 138 142 44
7.254448e-001 -6.051282e-001 2.901453e+000 27 76 99
7.254448e-001 -6.051282e-001 2.901453e+000 27 76 99
7.037483e-001 -4.269166e-001 2.809751e+000 157 153 144
-3.081962e-001 -6.557724e-001 -7.202285e+000 0 255 0
-3.128578e-001 -6.562932e-001 -7.252064e+000 255 255 0
2.748021e+000 -7.867945e-001 -8.681741e+000 255 0 0
2.756767e+000 -7.878405e-001 -8.730959e+000 255 255 0
3.107512e+000 -6.578571e-001 1.526122e+001 0 255 0
3.097616e+000 -6.573409e-001 1.521221e+001 255 255 0
2.277412e+000 -7.328130e-001 -1.307181e+001 255 0 0
2.282360e+000 -7.334603e-001 -1.312156e+001 255 255 0
-3.978654e+000 -3.770862e-001 2.313409e+001 0 255 0
-3.967471e+000 -3.774895e-001 2.308535e+001 255 255 0
1.356356e+000 -6.366262e-001 4.511434e+000 255 0 0
1.336131e+000 -6.329464e-001 4.465856e+000 255 255 0
1.353992e+000 -5.514532e-001 5.165137e+000 0 255 0
1.338408e+000 -5.511887e-001 5.117628e+000 255 255 0
-2.742968e-001 -5.479108e-001 4.913458e+000 255 0 0
-2.527395e-001 -5.474360e-001 4.868346e+000 255 255 0
-5.984254e-001 -6.073056e-001 4.791004e+000 0 255 0
-5.703394e-001 -6.053602e-001 4.749683e+000 255 255 0
