ply
format ascii 1.0
element face 0
property list uchar int vertex_indices
element vertex 896
property float x
property float y
property float z
property uchar diffuse_red
property uchar diffuse_green
property uchar diffuse_blue
end_header
8.512084e-001 -4.114420e-001 2.938429e+000 144 136 22
8.511870e-001 -4.060542e-001 2.962353e+000 145 141 28
8.526316e-001 -4.158536e-001 2.990141e+000 80 103 79
8.346713e-001 -4.793244e-001 2.967350e+000 24 68 103
8.343587e-001 -4.794490e-001 2.970306e+000 15 49 71
8.216985e-001 -5.073013e-001 2.964227e+000 156 96 89
8.216985e-001 -5.073013e-001 2.964227e+000 156 96 89
8.251029e-001 -5.042938e-001 2.976307e+000 152 93 79
8.251029e-001 -5.042938e-001 2.976307e+000 152 93 79
8.536638e-001 -4.808063e-001 3.042797e+000 188 146 104
8.259606e-001 -5.121670e-001 2.986905e+000 127 76 62
8.259606e-001 -5.121670e-001 2.986905e+000 127 76 62
8.323969e-001 -5.108640e-001 3.004907e+000 186 112 87
8.166793e-001 -5.287692e-001 2.971053e+000 149 45 46
8.316522e-001 -5.152001e-001 3.007212e+000 184 114 87
8.452294e-001 -5.079036e-001 3.041737e+000 134 83 55
8.304438e-001 -5.353402e-001 3.021742e+000 189 112 87
8.431367e-001 -5.205904e-001 3.047524e+000 84 50 28
8.365525e-001 -5.342477e-001 3.042729e+000 139 20 31
8.473075e-001 -4.881053e-001 3.026516e+000 164 95 65
8.488229e-001 -4.889444e-001 3.031338e+000 188 113 84
8.352239e-001 -5.011029e-001 3.003585e+000 185 111 87
8.467342e-001 -5.039200e-001 3.039535e+000 118 76 54
8.450934e-001 -5.060537e-001 3.039250e+000 191 124 78
8.156740e-001 -5.373492e-001 2.983453e+000 187 113 100
8.152829e-001 -5.371616e-001 2.983523e+000 187 113 100
8.165658e-001 -5.391784e-001 2.987471e+000 190 116 100
8.296406e-001 -5.278087e-001 3.013341e+000 187 113 88
8.307838e-001 -5.269880e-001 3.016477e+000 183 114 84
8.068727e-001 -5.507447e-001 2.971047e+000 189 149 135
8.284835e-001 -5.350769e-001 3.019706e+000 194 108 86
8.259124e-001 -5.395741e-001 3.015396e+000 187 111 84
8.329597e-001 -4.787624e-001 2.959796e+000 149 28 32
8.379601e-001 -4.809685e-001 2.986420e+000 20 58 84
8.335069e-001 -5.060660e-001 3.002611e+000 184 115 89
8.335069e-001 -5.060660e-001 3.002611e+000 184 115 89
8.218667e-001 -5.281580e-001 2.993458e+000 182 114 82
8.224572e-001 -5.287451e-001 2.992810e+000 182 114 82
8.147786e-001 -5.407686e-001 2.981877e+000 190 121 103
8.433155e-001 -4.350701e-001 2.956675e+000 27 52 25
8.469769e-001 -4.300228e-001 2.977783e+000 27 51 22
8.469769e-001 -4.300228e-001 2.977783e+000 27 51 22
8.513860e-001 -4.445464e-001 2.991195e+000 152 138 109
8.521385e-001 -4.708713e-001 3.028987e+000 14 52 75
8.140671e-001 -5.347445e-001 2.980720e+000 187 119 103
8.054760e-001 -5.428824e-001 2.971290e+000 83 123 187
8.441330e-001 -4.397553e-001 2.946112e+000 142 136 112
8.096632e-001 -5.447820e-001 2.981492e+000 115 24 37
8.486906e-001 -4.394790e-001 2.977744e+000 152 142 117
8.342574e-001 -4.868959e-001 2.954029e+000 27 69 94
7.952667e-001 -3.094687e-001 3.299251e+000 29 18 14
7.952667e-001 -3.094687e-001 3.299251e+000 29 18 14
7.705603e-001 -3.033071e-001 3.308110e+000 206 173 105
7.704506e-001 -3.170725e-001 3.307997e+000 202 168 107
7.740867e-001 -3.212858e-001 3.306320e+000 29 20 15
7.706641e-001 -3.258339e-001 3.308548e+000 197 167 115
7.797068e-001 -3.053658e-001 3.304715e+000 204 174 115
8.302340e-001 -5.720667e-001 3.065405e+000 201 99 34
8.277363e-001 -5.753478e-001 3.058721e+000 174 65 34
8.150698e-001 -5.831605e-001 3.031424e+000 169 122 76
8.206623e-001 -5.797752e-001 3.041610e+000 174 103 57
8.246583e-001 -5.799059e-001 3.055737e+000 188 71 23
8.131518e-001 -5.911378e-001 3.035688e+000 180 124 78
8.183827e-001 -5.877212e-001 3.045530e+000 179 128 78
8.171525e-001 -5.842504e-001 3.037595e+000 174 126 80
8.210942e-001 -5.809263e-001 3.046157e+000 186 88 35
8.199451e-001 -6.019911e-001 3.075126e+000 36 13 1
8.098957e-001 -6.110526e-001 3.056225e+000 101 50 33
5.336458e-001 -3.157896e-001 3.292144e+000 85 67 53
8.185445e-001 -6.053701e-001 3.075162e+000 140 73 29
5.409237e-001 -3.082001e-001 3.290628e+000 123 101 77
5.514563e-001 -3.135976e-001 3.287345e+000 99 80 63
8.165566e-001 -6.023622e-001 3.061677e+000 57 40 23
5.390305e-001 -3.133589e-001 3.289411e+000 109 86 76
5.444649e-001 -3.155779e-001 3.287639e+000 66 50 44
5.592612e-001 -3.136286e-001 3.286667e+000 97 80 62
8.368325e-001 -5.447508e-001 3.050120e+000 225 49 56
8.307034e-001 -5.725073e-001 3.067340e+000 137 53 16
8.200080e-001 -5.830217e-001 3.044556e+000 136 84 48
8.092172e-001 -6.082892e-001 3.049178e+000 24 14 13
8.149562e-001 -6.060585e-001 3.064545e+000 174 128 98
8.150504e-001 -5.606911e-001 3.005615e+000 239 65 72
8.109080e-001 -5.834226e-001 3.020087e+000 190 135 97
8.196548e-001 -5.805316e-001 3.039374e+000 189 133 85
8.303919e-001 -5.723075e-001 3.065182e+000 195 105 34
8.146717e-001 -5.835625e-001 3.029798e+000 183 134 93
8.196058e-001 -5.843419e-001 3.045482e+000 183 130 80
8.214190e-001 -5.839698e-001 3.050547e+000 116 47 11
8.221868e-001 -5.832799e-001 3.052188e+000 104 31 13
8.247660e-001 -5.822057e-001 3.058678e+000 187 83 27
8.248827e-001 -5.822155e-001 3.058664e+000 187 83 27
8.222234e-001 -5.962359e-001 3.073393e+000 173 97 35
8.251094e-001 -5.960355e-001 3.084760e+000 175 93 33
8.191842e-001 -5.737751e-001 3.030839e+000 190 131 89
8.607689e-001 -3.579149e-001 2.938559e+000 104 161 179
8.607689e-001 -3.579149e-001 2.938559e+000 104 161 179
8.419595e-001 -5.335650e-001 3.053148e+000 143 30 32
8.360514e-001 -5.402731e-001 3.043785e+000 235 72 75
8.253869e-001 -5.736684e-001 3.049799e+000 180 60 32
8.204072e-001 -5.797838e-001 3.041715e+000 172 97 65
8.328339e-001 -5.718174e-001 3.069759e+000 118 33 10
8.239168e-001 -5.811523e-001 3.053701e+000 196 83 30
8.239168e-001 -5.811523e-001 3.053701e+000 196 83 30
8.133539e-001 -5.922366e-001 3.038600e+000 163 115 77
8.321574e-001 -5.841512e-001 3.090874e+000 106 66 43
8.046321e-001 -6.115843e-001 3.043954e+000 169 123 103
8.100902e-001 -6.114850e-001 3.060408e+000 120 52 41
8.360124e-001 -5.462592e-001 3.047588e+000 224 61 66
8.359118e-001 -5.461021e-001 3.047602e+000 224 61 66
8.163788e-001 -5.611560e-001 3.010042e+000 141 32 36
8.271820e-001 -5.758613e-001 3.056776e+000 186 68 36
8.312340e-001 -5.752172e-001 3.068635e+000 110 40 23
8.166749e-001 -6.071871e-001 3.070566e+000 133 68 30
8.010661e-001 -6.162712e-001 3.042711e+000 84 27 30
8.586212e-001 -4.214831e-001 3.012585e+000 154 141 99
8.433348e-001 -4.640782e-001 2.988147e+000 131 21 19
8.452327e-001 -4.648728e-001 2.996133e+000 219 127 90
8.447429e-001 -4.715662e-001 3.000062e+000 22 60 78
8.478436e-001 -4.872369e-001 3.028465e+000 175 109 77
8.364431e-001 -5.347234e-001 3.039801e+000 221 56 69
8.395805e-001 -5.319478e-001 3.046101e+000 239 81 82
8.291424e-001 -5.529945e-001 3.036708e+000 131 18 26
8.276260e-001 -5.721982e-001 3.055214e+000 223 117 61
8.276260e-001 -5.721982e-001 3.055214e+000 223 117 61
8.300859e-001 -5.706876e-001 3.062036e+000 176 92 28
8.120084e-001 -5.877959e-001 3.028995e+000 85 53 31
8.224504e-001 -5.799960e-001 3.048939e+000 174 63 37
8.231023e-001 -5.787287e-001 3.049271e+000 106 24 9
8.071488e-001 -5.998819e-001 3.029184e+000 33 21 16
8.291435e-001 -5.863576e-001 3.079467e+000 189 128 98
8.269065e-001 -5.926230e-001 3.080993e+000 176 88 32
8.229482e-001 -5.999544e-001 3.080001e+000 31 11 4
8.295507e-001 -5.929861e-001 3.093876e+000 39 15 8
8.484730e-001 -4.682367e-001 3.011239e+000 23 60 78
8.412403e-001 -5.347293e-001 3.056057e+000 143 23 32
8.330040e-001 -5.484332e-001 3.043951e+000 134 19 27
8.062540e-001 -6.150681e-001 3.047467e+000 86 42 28
8.223768e-001 -6.016418e-001 3.080996e+000 40 6 0
8.419307e-001 -5.188084e-001 3.040173e+000 166 109 75
8.185864e-001 -5.473957e-001 3.003179e+000 225 89 93
8.249600e-001 -5.554578e-001 3.028738e+000 128 25 29
8.309574e-001 -5.521793e-001 3.041253e+000 224 79 90
8.295331e-001 -5.586742e-001 3.044434e+000 66 37 21
8.138237e-001 -5.711989e-001 3.015312e+000 186 107 83
8.229863e-001 -5.670031e-001 3.036158e+000 80 32 21
8.099547e-001 -5.909440e-001 3.025795e+000 167 117 83
8.074355e-001 -5.931040e-001 3.021901e+000 73 41 18
8.075487e-001 -5.931303e-001 3.022033e+000 73 41 18
7.925341e-001 -6.262979e-001 3.022628e+000 132 29 43
8.351620e-001 -5.504752e-001 3.054647e+000 187 117 81
7.984536e-001 -5.924796e-001 3.004068e+000 51 19 20
8.526433e-001 -4.148285e-001 2.971924e+000 55 91 87
8.094655e-001 -6.102268e-001 3.050985e+000 155 123 97
8.369749e-001 -5.513649e-001 3.065188e+000 187 120 78
8.515316e-001 -3.871326e-001 2.921129e+000 137 39 32
8.464734e-001 -4.445112e-001 2.983346e+000 85 38 23
8.523336e-001 -4.575146e-001 3.016980e+000 115 26 28
8.552410e-001 -4.568897e-001 3.021883e+000 230 125 103
8.539123e-001 -4.560320e-001 3.022872e+000 230 125 103
8.558913e-001 -4.543980e-001 3.032335e+000 60 41 42
8.497405e-001 -4.780825e-001 3.027641e+000 42 8 1
8.390011e-001 -5.327503e-001 3.047552e+000 129 25 31
8.391070e-001 -5.340903e-001 3.048208e+000 230 70 77
8.441176e-001 -5.277171e-001 3.056421e+000 139 28 27
8.160219e-001 -5.607988e-001 3.010761e+000 124 18 30
8.264395e-001 -5.528046e-001 3.032161e+000 142 14 26
8.275088e-001 -5.526968e-001 3.033235e+000 248 72 82
8.317997e-001 -5.492628e-001 3.040637e+000 201 53 55
8.382180e-001 -5.438563e-001 3.054553e+000 156 20 32
8.157169e-001 -5.717560e-001 3.022031e+000 91 52 40
8.205880e-001 -5.689541e-001 3.031130e+000 99 57 40
8.206340e-001 -5.689589e-001 3.031180e+000 99 57 40
8.164392e-001 -5.827040e-001 3.036355e+000 131 88 58
8.180204e-001 -5.818239e-001 3.038575e+000 100 65 42
8.263660e-001 -5.745512e-001 3.054151e+000 181 61 39
8.264756e-001 -5.756154e-001 3.055328e+000 128 39 24
8.304008e-001 -5.709110e-001 3.061817e+000 187 93 31
8.311869e-001 -5.704429e-001 3.062737e+000 182 87 36
8.112488e-001 -5.914785e-001 3.032075e+000 183 128 88
8.182813e-001 -5.841984e-001 3.041280e+000 113 74 43
8.274657e-001 -5.799873e-001 3.063747e+000 192 107 44
8.066249e-001 -5.994343e-001 3.029621e+000 21 10 6
8.200270e-001 -5.911618e-001 3.055172e+000 27 13 8
8.332417e-001 -5.805023e-001 3.084337e+000 198 149 111
8.340928e-001 -5.805224e-001 3.085273e+000 32 25 22
8.337869e-001 -5.835205e-001 3.086232e+000 184 139 107
8.260779e-001 -5.899331e-001 3.071960e+000 103 75 54
8.260779e-001 -5.899331e-001 3.071960e+000 103 75 54
8.039251e-001 -6.142275e-001 3.040279e+000 167 126 108
8.039251e-001 -6.142275e-001 3.040279e+000 167 126 108
8.138823e-001 -6.060218e-001 3.060329e+000 173 126 104
8.258803e-001 -5.964566e-001 3.081266e+000 110 54 18
8.239966e-001 -5.990990e-001 3.078636e+000 165 85 28
8.289070e-001 -5.947031e-001 3.090939e+000 55 22 12
8.294067e-001 -5.959351e-001 3.095300e+000 43 9 6
8.314688e-001 -5.934834e-001 3.097432e+000 180 77 39
8.430162e-001 -4.555304e-001 2.976192e+000 167 137 113
8.173539e-001 -5.262204e-001 2.969702e+000 165 84 72
8.263053e-001 -5.434509e-001 3.019281e+000 217 59 65
8.425670e-001 -5.300922e-001 3.052596e+000 136 24 32
8.119664e-001 -5.588889e-001 2.994738e+000 201 57 64
8.143965e-001 -5.567064e-001 2.998919e+000 134 24 35
8.140956e-001 -5.564962e-001 2.998907e+000 134 24 35
8.133542e-001 -5.577952e-001 2.999933e+000 205 61 74
8.160362e-001 -5.559162e-001 3.007018e+000 228 62 77
8.261702e-001 -5.479309e-001 3.025275e+000 201 54 60
8.308439e-001 -5.447681e-001 3.033610e+000 208 57 60
8.361376e-001 -5.401118e-001 3.043805e+000 220 68 70
8.356890e-001 -5.398370e-001 3.044126e+000 220 68 70
8.426169e-001 -5.333728e-001 3.055996e+000 210 64 68
8.426169e-001 -5.333728e-001 3.055996e+000 210 64 68
8.150110e-001 -5.609489e-001 3.008086e+000 140 25 29
8.172726e-001 -5.603428e-001 3.013275e+000 142 25 37
8.258929e-001 -5.552197e-001 3.030411e+000 142 22 35
8.325869e-001 -5.505753e-001 3.044698e+000 236 65 71
8.291356e-001 -5.537803e-001 3.038253e+000 205 70 72
8.182233e-001 -5.700843e-001 3.027236e+000 184 112 89
8.275109e-001 -5.639060e-001 3.044695e+000 108 60 38
8.202890e-001 -5.724617e-001 3.035390e+000 156 82 48
8.335766e-001 -5.673441e-001 3.065497e+000 186 52 35
8.179779e-001 -5.878715e-001 3.045595e+000 177 119 81
8.210313e-001 -5.871846e-001 3.052957e+000 185 95 55
8.238029e-001 -5.814498e-001 3.053561e+000 182 73 34
8.334773e-001 -5.738510e-001 3.072169e+000 107 33 24
8.099116e-001 -5.979277e-001 3.035667e+000 22 12 7
8.062730e-001 -6.094010e-001 3.042012e+000 147 113 105
8.105614e-001 -6.119542e-001 3.051956e+000 175 126 105
8.090847e-001 -6.102440e-001 3.052272e+000 175 126 105
8.154418e-001 -6.064766e-001 3.064175e+000 188 124 107
8.214197e-001 -6.012631e-001 3.073330e+000 160 85 30
8.098579e-001 -6.132754e-001 3.056867e+000 141 76 56
8.500756e-001 -4.072262e-001 2.952211e+000 57 93 90
8.427327e-001 -4.380965e-001 2.942426e+000 149 140 29
8.352477e-001 -4.989651e-001 3.000187e+000 104 67 55
8.350761e-001 -4.986712e-001 3.000692e+000 104 67 55
8.331805e-001 -5.363964e-001 3.035353e+000 208 61 68
8.408254e-001 -5.329146e-001 3.050631e+000 207 66 66
8.195435e-001 -5.597701e-001 3.019499e+000 204 61 69
8.345540e-001 -5.461906e-001 3.046421e+000 238 73 81
8.345540e-001 -5.461906e-001 3.046421e+000 238 73 81
8.347059e-001 -5.527334e-001 3.056019e+000 190 127 86
8.347251e-001 -5.527507e-001 3.056030e+000 190 127 86
8.201159e-001 -5.670570e-001 3.028639e+000 191 110 94
8.233683e-001 -5.632499e-001 3.032924e+000 99 46 30
8.164845e-001 -5.838729e-001 3.037972e+000 173 120 80
8.352880e-001 -5.771305e-001 3.086370e+000 69 40 19
8.351415e-001 -4.763648e-001 2.969516e+000 153 19 29
8.515983e-001 -4.791456e-001 3.034698e+000 158 94 66
8.515983e-001 -4.791456e-001 3.034698e+000 158 94 66
8.329814e-001 -5.041663e-001 2.999396e+000 177 106 75
8.235984e-001 -5.201508e-001 2.987645e+000 183 112 92
8.285771e-001 -5.303225e-001 3.012433e+000 162 91 67
8.325138e-001 -5.243958e-001 3.018022e+000 58 26 12
8.198336e-001 -5.659236e-001 3.024595e+000 80 39 23
8.263574e-001 -5.923470e-001 3.074943e+000 184 141 115
8.073132e-001 -6.120132e-001 3.048283e+000 170 127 102
8.086263e-001 -5.658373e-001 2.996994e+000 154 21 40
8.359883e-001 -5.421863e-001 3.046964e+000 157 19 33
8.364016e-001 -5.424768e-001 3.046618e+000 157 19 33
8.573379e-001 -4.191714e-001 2.998742e+000 106 119 100
8.573379e-001 -4.191714e-001 2.998742e+000 106 119 100
8.399861e-001 -5.571844e-001 3.081947e+000 125 21 28
8.456761e-001 -4.180151e-001 2.936768e+000 105 120 116
8.534558e-001 -4.151578e-001 2.971203e+000 59 98 104
8.375115e-001 -5.652223e-001 3.088206e+000 196 103 26
8.446335e-001 -4.226974e-001 2.923111e+000 138 147 38
8.356855e-001 -4.726846e-001 2.971723e+000 116 34 27
8.486398e-001 -4.614143e-001 3.005014e+000 220 140 102
8.516062e-001 -4.567669e-001 3.014772e+000 127 28 28
8.542853e-001 -4.545957e-001 3.021865e+000 215 136 106
8.443617e-001 -4.659663e-001 2.995778e+000 100 24 22
8.173181e-001 -5.227048e-001 2.965657e+000 202 99 92
8.227075e-001 -5.218140e-001 2.989067e+000 93 54 42
8.246216e-001 -5.252598e-001 2.996537e+000 75 44 38
8.288857e-001 -5.292464e-001 3.014549e+000 177 115 91
8.203720e-001 -5.462828e-001 3.006892e+000 144 26 37
8.281916e-001 -5.415913e-001 3.024336e+000 134 24 29
8.281916e-001 -5.415913e-001 3.024336e+000 134 24 29
8.360170e-001 -5.349203e-001 3.042849e+000 131 24 29
8.152169e-001 -5.538978e-001 3.001819e+000 192 42 53
8.422514e-001 -5.333537e-001 3.058064e+000 146 25 34
8.235828e-001 -5.563527e-001 3.029482e+000 229 62 74
8.267896e-001 -5.521104e-001 3.033594e+000 236 73 75
8.300125e-001 -5.510289e-001 3.040110e+000 125 27 27
8.392130e-001 -5.424511e-001 3.056721e+000 153 24 34
8.221624e-001 -5.743229e-001 3.043486e+000 102 24 12
8.148645e-001 -5.840235e-001 3.032660e+000 107 75 52
8.314834e-001 -5.733171e-001 3.066419e+000 114 29 9
8.330941e-001 -5.734254e-001 3.070776e+000 193 76 34
8.124430e-001 -5.961704e-001 3.040853e+000 22 13 4
8.244905e-001 -5.908265e-001 3.067554e+000 188 145 114
8.347284e-001 -5.813474e-001 3.085012e+000 28 17 19
8.007497e-001 -6.161376e-001 3.033391e+000 182 149 133
8.292475e-001 -5.870299e-001 3.076835e+000 15 3 4
8.285208e-001 -5.898279e-001 3.078409e+000 25 12 11
7.984443e-001 -6.189237e-001 3.031733e+000 196 152 139
8.303016e-001 -5.955185e-001 3.092429e+000 166 90 41
8.320952e-001 -5.917969e-001 3.095218e+000 56 19 15
8.305987e-001 -5.935074e-001 3.093611e+000 45 12 12
8.203318e-001 -6.040201e-001 3.076085e+000 40 14 6
8.239791e-001 -5.989977e-001 3.086201e+000 45 19 9
8.481769e-001 -3.821392e-001 2.910664e+000 163 33 38
8.555171e-001 -3.865741e-001 2.938820e+000 205 137 114
8.499905e-001 -4.056656e-001 2.963515e+000 136 135 30
8.493923e-001 -4.209503e-001 2.969522e+000 136 148 41
8.433808e-001 -4.708208e-001 2.996855e+000 20 68 98
8.539860e-001 -4.590080e-001 3.025484e+000 20 69 99
8.386090e-001 -4.892338e-001 3.001641e+000 94 57 40
8.232154e-001 -5.113457e-001 2.973354e+000 89 49 37
8.232564e-001 -5.325022e-001 3.003455e+000 88 52 41
8.129139e-001 -5.565515e-001 2.992846e+000 227 74 85
8.192775e-001 -5.470238e-001 3.005062e+000 217 75 79
8.448043e-001 -5.258604e-001 3.056382e+000 211 43 53
8.134979e-001 -5.577680e-001 2.996160e+000 147 30 39
8.131703e-001 -5.574606e-001 2.996268e+000 147 30 39
8.126635e-001 -5.579841e-001 2.998323e+000 218 71 80
8.198311e-001 -5.517235e-001 3.011354e+000 195 57 66
8.212421e-001 -5.510144e-001 3.014276e+000 170 43 48
8.249796e-001 -5.474247e-001 3.020947e+000 137 24 33
8.176693e-001 -5.615530e-001 3.015005e+000 180 44 46
8.174486e-001 -5.613199e-001 3.015063e+000 180 44 46
8.329271e-001 -5.485062e-001 3.045965e+000 149 24 34
8.233661e-001 -5.673565e-001 3.035841e+000 78 46 30
8.290829e-001 -5.600738e-001 3.046335e+000 182 130 92
8.326571e-001 -5.587092e-001 3.055124e+000 132 91 70
8.326571e-001 -5.587092e-001 3.055124e+000 132 91 70
8.268025e-001 -5.717535e-001 3.053114e+000 227 125 76
8.136618e-001 -5.862087e-001 3.031186e+000 168 124 91
8.177252e-001 -5.828823e-001 3.040253e+000 166 120 94
8.193518e-001 -5.826075e-001 3.042597e+000 172 115 90
8.296788e-001 -5.780706e-001 3.066968e+000 182 76 41
8.237414e-001 -5.892024e-001 3.062860e+000 212 135 87
8.233902e-001 -5.884908e-001 3.063343e+000 212 135 87
8.222467e-001 -5.969409e-001 3.071012e+000 172 89 31
8.072364e-001 -6.140958e-001 3.042955e+000 174 137 118
8.240941e-001 -5.995064e-001 3.084031e+000 153 80 35
8.227899e-001 -6.016169e-001 3.081278e+000 36 13 4
8.475283e-001 -4.230672e-001 2.965547e+000 148 147 54
8.475283e-001 -4.230672e-001 2.965547e+000 148 147 54
8.344087e-001 -5.003726e-001 3.002174e+000 184 117 90
8.486635e-001 -4.856940e-001 3.033000e+000 72 42 30
8.486635e-001 -4.856940e-001 3.033000e+000 72 42 30
8.195302e-001 -5.194954e-001 2.962957e+000 174 76 73
8.222295e-001 -5.225914e-001 2.986563e+000 88 51 34
8.223624e-001 -5.227099e-001 2.986284e+000 88 51 34
8.249396e-001 -5.205986e-001 2.993783e+000 80 43 25
8.457196e-001 -5.030472e-001 3.040620e+000 82 49 30
8.221323e-001 -5.299665e-001 2.996699e+000 60 29 18
8.281279e-001 -5.299116e-001 3.012760e+000 153 95 76
8.319578e-001 -5.239445e-001 3.018352e+000 61 35 27
8.442022e-001 -5.167782e-001 3.045382e+000 36 16 2
8.274406e-001 -5.341283e-001 3.014881e+000 78 44 29
8.407813e-001 -5.236548e-001 3.044643e+000 190 126 84
8.201338e-001 -5.480993e-001 3.007347e+000 136 24 30
8.201338e-001 -5.480993e-001 3.007347e+000 136 24 30
8.215860e-001 -5.457732e-001 3.010321e+000 142 26 23
8.395480e-001 -5.280983e-001 3.043755e+000 186 123 88
8.163446e-001 -5.677536e-001 3.018318e+000 90 63 40
8.211143e-001 -5.674929e-001 3.033563e+000 165 103 91
8.432881e-001 -5.583454e-001 3.085923e+000 151 66 41
8.165454e-001 -5.935303e-001 3.046790e+000 185 144 111
8.185411e-001 -5.915070e-001 3.051701e+000 188 143 105
8.270745e-001 -5.881552e-001 3.072180e+000 194 150 120
8.374976e-001 -5.781591e-001 3.089057e+000 31 10 17
8.240295e-001 -6.023034e-001 3.085592e+000 141 69 35
8.438318e-001 -4.278250e-001 2.938445e+000 124 130 56
8.438318e-001 -4.278250e-001 2.938445e+000 124 130 56
8.493654e-001 -4.172245e-001 2.977138e+000 153 148 32
8.493654e-001 -4.172245e-001 2.977138e+000 153 148 32
8.295355e-001 -4.865668e-001 2.947396e+000 14 51 83
8.294445e-001 -4.797693e-001 2.954619e+000 150 24 35
8.471716e-001 -4.633529e-001 3.009225e+000 145 24 30
8.383928e-001 -4.912593e-001 3.002652e+000 182 116 87
8.389385e-001 -4.922904e-001 3.005502e+000 184 108 82
8.245229e-001 -5.082919e-001 2.974207e+000 190 123 102
8.301824e-001 -5.167333e-001 3.007056e+000 91 45 38
8.441917e-001 -5.071870e-001 3.037546e+000 188 124 86
8.431406e-001 -5.112540e-001 3.039420e+000 187 126 94
8.187597e-001 -5.359471e-001 2.984856e+000 191 119 103
8.291785e-001 -5.254992e-001 3.011471e+000 175 104 91
8.291785e-001 -5.254992e-001 3.011471e+000 175 104 91
8.430928e-001 -5.158379e-001 3.040878e+000 188 124 91
8.254625e-001 -5.664614e-001 3.043797e+000 187 119 84
8.074430e-001 -5.962869e-001 3.022978e+000 187 146 111
8.297976e-001 -5.908720e-001 3.082422e+000 175 93 32
8.393614e-001 -5.762142e-001 3.098477e+000 199 149 121
8.418538e-001 -4.347631e-001 2.925968e+000 28 52 31
8.209427e-001 -5.754870e-001 3.039816e+000 162 53 31
8.498270e-001 -4.036673e-001 2.948679e+000 25 51 23
8.487501e-001 -4.213037e-001 2.966559e+000 75 105 50
8.318158e-001 -4.775663e-001 2.950056e+000 207 129 112
8.446141e-001 -5.431299e-001 3.075599e+000 74 19 20
8.469854e-001 -4.043817e-001 2.917359e+000 114 128 111
8.469854e-001 -4.043817e-001 2.917359e+000 114 128 111
8.425937e-001 -4.137699e-001 2.926721e+000 118 132 109
8.310755e-001 -5.083849e-001 2.997088e+000 181 115 91
8.286336e-001 -5.397029e-001 3.024780e+000 134 22 25
8.494089e-001 -5.243121e-001 3.066402e+000 46 14 17
8.497994e-001 -4.709450e-001 3.024423e+000 13 58 90
8.202196e-001 -5.266876e-001 2.964002e+000 150 42 46
8.654115e-001 -3.987551e-001 2.853465e+000 155 155 155
8.605263e-001 -4.189643e-001 2.988530e+000 28 52 20
8.516243e-001 -5.037504e-001 3.055232e+000 175 134 90
9.042727e-001 -3.861322e-001 2.938498e+000 11 73 110
8.286425e-001 -5.723638e-001 3.057433e+000 191 110 38
8.301358e-001 -5.707146e-001 3.060775e+000 187 96 26
8.137481e-001 -5.863384e-001 3.031146e+000 163 113 64
8.180391e-001 -5.814718e-001 3.036555e+000 177 123 75
8.185239e-001 -5.831039e-001 3.040051e+000 172 120 78
8.191875e-001 -5.868808e-001 3.046602e+000 182 121 67
8.112489e-001 -5.924487e-001 3.030179e+000 170 124 68
8.198571e-001 -5.903080e-001 3.053893e+000 204 151 87
8.265268e-001 -5.961929e-001 3.087760e+000 56 21 6
8.273412e-001 -5.962660e-001 3.090125e+000 185 93 39
8.234337e-001 -5.835938e-001 3.054873e+000 180 73 31
8.264686e-001 -5.631083e-001 3.041348e+000 184 121 76
8.301797e-001 -5.810881e-001 3.076723e+000 191 98 31
9.590482e-001 -3.489057e-001 3.303461e+000 148 118 80
9.339005e-001 -3.321141e-001 3.315951e+000 175 145 56
9.339005e-001 -3.321141e-001 3.315951e+000 175 145 56
9.279298e-001 -3.255601e-001 3.318579e+000 194 165 87
9.313328e-001 -3.292407e-001 3.316577e+000 97 76 35
9.573193e-001 -3.626025e-001 3.301973e+000 96 68 47
9.517594e-001 -3.557479e-001 3.302481e+000 67 44 30
9.410115e-001 -3.260121e-001 3.312480e+000 194 163 117
9.506674e-001 -3.253664e-001 3.309385e+000 34 24 23
9.506674e-001 -3.253664e-001 3.309385e+000 34 24 23
8.300928e-001 -5.707439e-001 3.060449e+000 190 100 27
8.283364e-001 -5.754055e-001 3.061454e+000 127 65 15
8.322476e-001 -5.715267e-001 3.069894e+000 132 36 3
8.120248e-001 -5.850066e-001 3.025313e+000 173 129 80
8.136488e-001 -5.842196e-001 3.027914e+000 175 126 79
8.185359e-001 -5.788704e-001 3.035817e+000 175 126 79
8.121136e-001 -5.924268e-001 3.034581e+000 90 66 46
8.213669e-001 -5.851466e-001 3.051756e+000 210 102 37
8.290904e-001 -5.851215e-001 3.078070e+000 220 153 101
8.287236e-001 -5.862873e-001 3.077074e+000 18 7 9
8.069825e-001 -5.966539e-001 3.024430e+000 172 127 87
8.126091e-001 -5.930650e-001 3.036055e+000 178 131 87
8.235467e-001 -5.927517e-001 3.071040e+000 27 20 10
8.069727e-001 -6.103806e-001 3.043978e+000 20 10 3
8.067441e-001 -6.115139e-001 3.045336e+000 176 133 100
8.201873e-001 -5.777132e-001 3.038864e+000 181 118 66
8.292083e-001 -5.736433e-001 3.061918e+000 192 119 35
8.301071e-001 -5.748738e-001 3.066073e+000 211 122 41
8.144146e-001 -5.813318e-001 3.027340e+000 170 126 78
8.168167e-001 -5.801575e-001 3.032505e+000 185 125 73
8.271744e-001 -5.962521e-001 3.090158e+000 182 90 31
8.322874e-001 -5.785544e-001 3.089323e+000 197 154 102
8.130455e-001 -5.885857e-001 3.032984e+000 174 126 77
8.065276e-001 -5.992145e-001 3.027466e+000 193 147 103
8.264491e-001 -5.989395e-001 3.091654e+000 160 80 31
8.277375e-001 -5.976254e-001 3.094922e+000 168 76 36
8.182782e-001 -6.030564e-001 3.068881e+000 175 137 94
8.399734e-001 -5.321413e-001 3.049078e+000 149 31 33
8.138791e-001 -5.801421e-001 3.024399e+000 187 140 99
8.226901e-001 -5.758844e-001 3.044403e+000 190 56 32
8.338538e-001 -5.786800e-001 3.083460e+000 85 68 47
8.101512e-001 -5.931376e-001 3.028828e+000 172 127 88
8.241520e-001 -5.869215e-001 3.062299e+000 179 84 32
8.253792e-001 -5.893027e-001 3.070312e+000 185 151 115
8.242769e-001 -5.927535e-001 3.072413e+000 196 152 109
8.115701e-001 -6.064858e-001 3.054116e+000 23 14 6
8.167038e-001 -6.047627e-001 3.067281e+000 179 131 102
8.225792e-001 -5.996312e-001 3.080166e+000 51 19 7
8.273133e-001 -5.969354e-001 3.092802e+000 42 14 11
8.257733e-001 -5.654230e-001 3.041794e+000 114 67 45
8.256374e-001 -5.653684e-001 3.041818e+000 114 67 45
8.285342e-001 -5.726639e-001 3.057207e+000 198 107 42
8.165475e-001 -5.823847e-001 3.033752e+000 186 135 96
8.212914e-001 -5.839693e-001 3.050513e+000 116 47 11
8.221159e-001 -5.873951e-001 3.055948e+000 145 64 22
8.336675e-001 -5.543062e-001 3.053551e+000 85 50 34
8.334593e-001 -5.672452e-001 3.065644e+000 185 58 33
8.136518e-001 -5.893544e-001 3.035653e+000 139 98 67
8.281675e-001 -5.874240e-001 3.075211e+000 192 155 116
8.320100e-001 -5.754042e-001 3.073841e+000 195 84 25
8.296375e-001 -5.747573e-001 3.064073e+000 189 112 34
8.018218e-001 -6.042987e-001 3.018766e+000 160 132 118
8.265996e-001 -5.898912e-001 3.074106e+000 146 117 93
8.180282e-001 -5.836657e-001 3.039858e+000 173 128 82
8.180989e-001 -5.708013e-001 3.025323e+000 112 61 42
8.248293e-001 -5.744582e-001 3.048102e+000 194 56 34
8.169631e-001 -5.885678e-001 3.043138e+000 169 119 86
8.244177e-001 -5.902222e-001 3.069496e+000 32 13 6
8.327667e-001 -5.861618e-001 3.089168e+000 51 25 11
8.289554e-001 -5.942995e-001 3.092589e+000 189 95 55
8.250444e-001 -5.978575e-001 3.084342e+000 54 20 3
8.290164e-001 -5.956939e-001 3.095331e+000 44 9 2
8.115410e-001 -5.895847e-001 3.029294e+000 164 115 80
8.157960e-001 -5.889109e-001 3.041207e+000 167 116 80
8.209887e-001 -5.868776e-001 3.053227e+000 165 88 35
8.329496e-001 -5.487082e-001 3.045899e+000 165 22 36
8.269413e-001 -5.877234e-001 3.072594e+000 200 155 112
8.256685e-001 -5.982504e-001 3.086653e+000 165 85 34
8.276138e-001 -5.601574e-001 3.041533e+000 189 117 68
8.276138e-001 -5.601574e-001 3.041533e+000 189 117 68
8.104417e-001 -5.869257e-001 3.022778e+000 168 123 90
8.193150e-001 -5.880614e-001 3.050761e+000 148 77 26
8.447457e-001 -5.260176e-001 3.056287e+000 211 49 52
8.210626e-001 -5.790182e-001 3.043851e+000 176 72 34
8.285305e-001 -5.689786e-001 3.054087e+000 180 111 64
8.106114e-001 -5.900764e-001 3.027642e+000 174 122 83
8.191266e-001 -5.856000e-001 3.046457e+000 160 105 67
8.234378e-001 -5.790861e-001 3.051149e+000 170 62 36
8.192085e-001 -5.869233e-001 3.048170e+000 167 94 56
8.125843e-001 -5.961725e-001 3.040907e+000 20 18 15
8.284559e-001 -5.896578e-001 3.078431e+000 31 11 3
8.157671e-001 -6.051176e-001 3.062818e+000 153 113 89
8.293589e-001 -5.776297e-001 3.066967e+000 165 74 35
8.204113e-001 -5.858587e-001 3.050531e+000 175 89 44
8.276574e-001 -5.905448e-001 3.077229e+000 175 139 101
8.158400e-001 -6.071651e-001 3.068127e+000 97 44 28
8.292794e-001 -5.737102e-001 3.062013e+000 189 113 44
8.262353e-001 -5.630861e-001 3.041316e+000 187 115 82
8.454966e-001 -5.230076e-001 3.057851e+000 147 22 24
8.143628e-001 -5.951034e-001 3.043260e+000 180 136 103
8.249455e-001 -5.958471e-001 3.075886e+000 129 68 32
8.314177e-001 -5.928553e-001 3.096523e+000 77 21 11
7.952419e-001 -6.162935e-001 3.021065e+000 188 152 136
8.218792e-001 -5.957761e-001 3.067769e+000 165 87 33
8.294506e-001 -5.616205e-001 3.049230e+000 100 57 37
8.233536e-001 -5.791077e-001 3.051103e+000 176 62 38
8.265220e-001 -5.756887e-001 3.055197e+000 128 39 24
8.075508e-001 -5.936520e-001 3.024522e+000 173 124 85
8.119540e-001 -5.923137e-001 3.034630e+000 79 51 32
8.180833e-001 -5.840844e-001 3.041365e+000 113 74 43
8.323346e-001 -5.747458e-001 3.070645e+000 94 33 17
8.150514e-001 -5.945386e-001 3.045740e+000 28 18 12
8.188582e-001 -5.918060e-001 3.053347e+000 32 19 13
8.332398e-001 -5.805094e-001 3.084322e+000 198 149 111
8.330462e-001 -5.834266e-001 3.084965e+000 38 23 15
8.237540e-001 -5.923748e-001 3.067988e+000 175 133 113
8.237540e-001 -5.923748e-001 3.067988e+000 175 133 113
8.247118e-001 -5.906288e-001 3.069201e+000 28 19 17
8.035994e-001 -6.124855e-001 3.038093e+000 19 13 11
8.035994e-001 -6.124855e-001 3.038093e+000 19 13 11
8.199229e-001 -6.036354e-001 3.076188e+000 25 7 3
8.307346e-001 -5.971543e-001 3.103006e+000 40 22 24
8.419466e-001 -5.294477e-001 3.053188e+000 136 24 32
8.184063e-001 -5.861951e-001 3.044950e+000 104 68 47
8.184063e-001 -5.861951e-001 3.044950e+000 104 68 47
8.279504e-001 -5.792696e-001 3.064760e+000 203 117 62
8.274407e-001 -5.903561e-001 3.077438e+000 192 146 121
7.997558e-001 -6.173670e-001 3.029762e+000 179 145 123
8.046389e-001 -6.142722e-001 3.043751e+000 165 112 98
8.264953e-001 -5.987557e-001 3.089136e+000 38 17 6
8.262764e-001 -5.986378e-001 3.089126e+000 38 17 6
8.404086e-001 -5.326471e-001 3.051007e+000 207 66 66
8.339447e-001 -5.581705e-001 3.057492e+000 71 40 26
8.414262e-001 -5.593876e-001 3.084222e+000 199 105 30
8.359990e-001 -5.690726e-001 3.076180e+000 210 94 39
8.229013e-001 -5.840522e-001 3.054618e+000 186 74 35
8.216084e-001 -5.904520e-001 3.058259e+000 94 67 48
8.129079e-001 -6.083040e-001 3.058535e+000 176 127 104
8.257702e-001 -5.951874e-001 3.079500e+000 166 86 32
8.390955e-001 -5.622900e-001 3.079577e+000 194 100 28
8.428840e-001 -5.404818e-001 3.064283e+000 159 19 30
8.428840e-001 -5.404818e-001 3.064283e+000 159 19 30
8.450561e-001 -5.356120e-001 3.060840e+000 154 22 30
8.227022e-001 -5.902144e-001 3.061163e+000 193 147 108
7.998895e-001 -6.169016e-001 3.031434e+000 160 128 109
8.301539e-001 -5.932713e-001 3.087153e+000 185 89 29
8.326118e-001 -5.905317e-001 3.091912e+000 188 96 37
8.145900e-001 -6.087813e-001 3.059378e+000 88 56 47
8.527012e-001 -3.816566e-001 2.953059e+000 221 132 105
8.449475e-001 -4.171114e-001 2.921105e+000 136 145 43
8.456763e-001 -4.476141e-001 2.980886e+000 94 22 25
8.363375e-001 -4.847455e-001 2.988832e+000 10 54 80
8.363505e-001 -4.847778e-001 2.989003e+000 10 54 80
8.341901e-001 -5.352205e-001 3.038127e+000 242 76 85
8.431013e-001 -5.288794e-001 3.054669e+000 127 26 32
8.194637e-001 -5.740901e-001 3.035035e+000 177 115 83
8.194637e-001 -5.740901e-001 3.035035e+000 177 115 83
8.211857e-001 -5.794881e-001 3.046170e+000 101 27 11
8.336886e-001 -5.661234e-001 3.067251e+000 184 51 43
8.259323e-001 -5.825447e-001 3.063221e+000 207 108 49
8.084321e-001 -6.148756e-001 3.053855e+000 128 65 47
8.295729e-001 -5.948847e-001 3.094091e+000 43 17 9
8.502537e-001 -4.686230e-001 3.021836e+000 1 36 58
8.272964e-001 -5.534999e-001 3.034458e+000 134 31 34
8.249346e-001 -5.755099e-001 3.051706e+000 179 59 42
8.322314e-001 -5.733227e-001 3.069744e+000 187 72 33
8.551658e-001 -3.819847e-001 2.918840e+000 168 33 40
8.527086e-001 -3.800942e-001 2.931055e+000 167 35 41
8.526609e-001 -4.102567e-001 2.976695e+000 58 92 91
8.372610e-001 -4.828657e-001 2.988635e+000 16 76 112
8.214675e-001 -5.276075e-001 2.986992e+000 84 46 36
8.381276e-001 -4.917730e-001 3.005860e+000 184 108 82
8.533321e-001 -4.798832e-001 3.044193e+000 180 145 117
8.416777e-001 -5.275660e-001 3.049917e+000 148 22 33
8.513110e-001 -4.145824e-001 2.965295e+000 83 87 17
8.542104e-001 -4.561754e-001 3.013960e+000 147 20 29
8.242867e-001 -5.848737e-001 3.059679e+000 175 75 35
8.569962e-001 -4.587816e-001 3.037209e+000 167 152 123
8.351935e-001 -4.752940e-001 2.910598e+000 161 164 181
1.205245e+000 -2.637039e-001 2.658120e+000 182 103 90
8.568718e-001 -3.822223e-001 2.928834e+000 163 43 42
8.568718e-001 -3.822223e-001 2.928834e+000 163 43 42
8.520709e-001 -3.902817e-001 2.915198e+000 228 151 120
8.542494e-001 -3.872276e-001 2.934079e+000 173 45 44
8.593120e-001 -3.949048e-001 2.982263e+000 146 163 62
8.508486e-001 -4.286459e-001 2.979952e+000 20 53 41
8.463078e-001 -4.443395e-001 2.983468e+000 95 39 34
8.441774e-001 -4.658130e-001 2.995742e+000 117 28 19
8.436425e-001 -4.708781e-001 3.000891e+000 20 80 116
8.487577e-001 -4.658545e-001 3.008859e+000 21 81 118
8.253437e-001 -5.072158e-001 2.971066e+000 107 63 50
8.253437e-001 -5.072158e-001 2.971066e+000 107 63 50
8.212402e-001 -5.248255e-001 2.976996e+000 195 134 116
8.313670e-001 -5.123568e-001 3.007795e+000 89 54 34
8.156658e-001 -5.520607e-001 2.998573e+000 222 77 84
8.230526e-001 -5.434992e-001 3.015206e+000 229 70 75
8.263803e-001 -5.407615e-001 3.023699e+000 233 66 71
8.254967e-001 -5.516060e-001 3.032783e+000 155 23 30
8.232437e-001 -5.557649e-001 3.027171e+000 151 31 36
8.232464e-001 -5.656507e-001 3.038709e+000 107 62 45
8.142722e-001 -5.851855e-001 3.033188e+000 168 134 99
8.101796e-001 -5.919295e-001 3.027498e+000 75 50 30
8.212273e-001 -5.808207e-001 3.049279e+000 139 55 18
8.229231e-001 -5.803555e-001 3.051824e+000 128 49 19
8.273843e-001 -5.756519e-001 3.058328e+000 185 77 36
8.104432e-001 -5.985587e-001 3.035778e+000 20 10 5
8.163489e-001 -5.907900e-001 3.043812e+000 177 137 102
8.345072e-001 -5.842657e-001 3.086511e+000 176 141 117
8.278779e-001 -5.939078e-001 3.080310e+000 170 94 37
8.268884e-001 -5.944913e-001 3.080818e+000 106 55 15
8.292372e-001 -5.947645e-001 3.091044e+000 40 16 12
8.325235e-001 -5.917094e-001 3.096591e+000 180 80 36
9.752408e-001 -3.026138e-001 2.729026e+000 229 202 209
8.552966e-001 -3.835079e-001 2.914882e+000 239 150 120
8.470286e-001 -4.023838e-001 2.913283e+000 154 144 45
8.470286e-001 -4.023838e-001 2.913283e+000 154 144 45
8.616585e-001 -3.870866e-001 2.959467e+000 21 73 81
8.578286e-001 -4.030838e-001 2.981282e+000 141 141 37
8.570667e-001 -4.024079e-001 2.981980e+000 141 141 37
8.691765e-001 -4.648812e-001 2.946550e+000 169 159 134
8.442071e-001 -4.490832e-001 2.972538e+000 169 159 134
8.343425e-001 -4.794273e-001 2.970216e+000 13 59 89
8.262953e-001 -5.247061e-001 2.999178e+000 119 75 58
8.185533e-001 -5.428297e-001 2.998511e+000 146 92 76
8.167394e-001 -5.508047e-001 3.001861e+000 217 74 82
8.174778e-001 -5.521809e-001 3.000816e+000 217 74 82
8.137868e-001 -5.565382e-001 2.994657e+000 217 78 85
8.186655e-001 -5.512936e-001 3.004265e+000 217 73 75
8.168340e-001 -5.566646e-001 3.006459e+000 231 65 78
8.201854e-001 -5.483002e-001 3.010180e+000 237 76 87
8.198383e-001 -5.516842e-001 3.011330e+000 217 72 77
8.272939e-001 -5.436099e-001 3.026600e+000 217 69 70
8.276781e-001 -5.445841e-001 3.025977e+000 217 69 70
8.320342e-001 -5.376377e-001 3.035861e+000 151 32 42
8.393730e-001 -5.349426e-001 3.049957e+000 151 37 36
8.391249e-001 -5.346432e-001 3.050219e+000 151 37 36
8.134173e-001 -5.640871e-001 3.001695e+000 155 40 47
8.143439e-001 -5.624437e-001 3.005662e+000 149 33 44
8.164631e-001 -5.621336e-001 3.012031e+000 207 70 76
8.175178e-001 -5.580050e-001 3.013776e+000 219 68 72
8.204924e-001 -5.579573e-001 3.020780e+000 153 36 45
8.236374e-001 -5.536328e-001 3.027360e+000 229 75 75
8.222129e-001 -5.567615e-001 3.027514e+000 239 79 83
8.222129e-001 -5.567615e-001 3.027514e+000 239 79 83
8.246615e-001 -5.556387e-001 3.031819e+000 227 71 74
8.249455e-001 -5.522699e-001 3.033649e+000 154 30 38
8.256342e-001 -5.540266e-001 3.034961e+000 200 56 57
8.278468e-001 -5.525080e-001 3.038954e+000 233 80 80
8.481960e-001 -5.393473e-001 3.074548e+000 163 106 38
8.167079e-001 -5.722001e-001 3.025051e+000 196 130 107
8.160770e-001 -5.822899e-001 3.033826e+000 179 137 102
8.175490e-001 -5.855378e-001 3.042075e+000 188 140 99
8.099328e-001 -6.143632e-001 3.053637e+000 112 60 40
8.146165e-001 -6.080996e-001 3.061146e+000 175 139 120
8.161841e-001 -6.076298e-001 3.064043e+000 178 146 126
8.228269e-001 -6.015592e-001 3.081373e+000 37 12 4
8.289740e-001 -5.965810e-001 3.093854e+000 173 91 45
8.300032e-001 -5.984831e-001 3.093605e+000 173 91 45
8.308267e-001 -5.944621e-001 3.097465e+000 42 10 9
1.202468e+000 -2.630631e-001 2.667032e+000 101 68 52
8.561746e-001 -4.141633e-001 2.988024e+000 164 153 28
8.409888e-001 -4.571757e-001 2.968203e+000 153 138 125
8.446640e-001 -4.522791e-001 2.985525e+000 148 114 102
8.324693e-001 -4.812058e-001 2.960446e+000 21 84 128
8.483354e-001 -4.678982e-001 3.005382e+000 19 82 123
8.525756e-001 -4.610463e-001 3.021533e+000 16 78 114
8.193703e-001 -5.257074e-001 2.965460e+000 155 55 57
8.226889e-001 -5.171970e-001 2.972569e+000 112 71 59
8.286097e-001 -5.101507e-001 2.990669e+000 198 130 107
8.326610e-001 -5.039043e-001 2.999441e+000 181 117 98
8.425437e-001 -5.091559e-001 3.037430e+000 79 40 21
8.291142e-001 -5.421187e-001 3.032790e+000 149 29 37
8.431256e-001 -5.318584e-001 3.059116e+000 230 83 79
8.301321e-001 -5.519110e-001 3.041306e+000 206 78 69
8.203200e-001 -5.660520e-001 3.031017e+000 211 132 109
8.087070e-001 -6.000605e-001 3.032069e+000 96 81 73
8.104882e-001 -5.980056e-001 3.033917e+000 188 150 115
8.189095e-001 -5.921729e-001 3.051526e+000 209 163 126
8.067545e-001 -6.135914e-001 3.040360e+000 88 68 60
8.095172e-001 -6.148970e-001 3.051824e+000 112 62 40
8.231253e-001 -6.028377e-001 3.075054e+000 172 97 28
9.765220e-001 -3.067940e-001 2.730559e+000 32 26 28
8.455633e-001 -4.917934e-001 3.029835e+000 170 111 80
8.455633e-001 -4.917934e-001 3.029835e+000 170 111 80
8.195592e-001 -5.317680e-001 2.982245e+000 203 135 117
8.438092e-001 -5.097012e-001 3.041910e+000 200 145 107
8.438092e-001 -5.097012e-001 3.041910e+000 200 145 107
8.101504e-001 -5.672317e-001 2.996598e+000 160 32 42
8.272750e-001 -5.697362e-001 3.051921e+000 160 94 46
8.411649e-001 -5.631407e-001 3.079437e+000 186 98 27
8.767763e-001 -3.531201e-001 2.796235e+000 103 93 83
8.513725e-001 -4.070702e-001 2.940824e+000 25 56 28
8.391057e-001 -4.719921e-001 2.984406e+000 162 28 36
8.379541e-001 -4.800532e-001 2.990561e+000 3 56 91
8.474031e-001 -4.894414e-001 3.030052e+000 194 130 98
8.095544e-001 -5.833859e-001 3.016333e+000 178 139 106
8.341842e-001 -5.707528e-001 3.072366e+000 179 69 37
8.081805e-001 -6.129719e-001 3.048435e+000 171 135 114
8.240432e-001 -6.089159e-001 3.077830e+000 163 86 40
8.542924e-001 -4.677689e-001 3.036103e+000 11 80 121
8.215017e-001 -5.220816e-001 2.966618e+000 204 137 120
8.129520e-001 -5.480048e-001 2.981088e+000 129 32 39
8.501102e-001 -4.092583e-001 2.935189e+000 25 59 35
8.413719e-001 -4.861242e-001 3.005365e+000 198 127 100
8.413057e-001 -5.370402e-001 3.056876e+000 172 24 40
8.268335e-001 -5.904273e-001 3.073964e+000 119 99 82
8.262393e-001 -5.259614e-001 3.006165e+000 194 132 107
8.262393e-001 -5.259614e-001 3.006165e+000 194 132 107
8.560575e-001 -4.563687e-001 3.027469e+000 160 24 31
8.099855e-001 -6.109331e-001 3.050899e+000 171 139 119
8.384560e-001 -5.513809e-001 3.065425e+000 195 137 100
8.444942e-001 -5.597005e-001 3.073878e+000 95 18 26
8.560233e-001 -4.082039e-001 2.917485e+000 105 112 23
8.234917e-001 -5.994765e-001 3.082628e+000 158 84 32
8.252182e-001 -5.979941e-001 3.086903e+000 176 90 32
8.270578e-001 -5.968824e-001 3.092882e+000 42 14 11
8.588118e-001 -3.835553e-001 2.939225e+000 148 43 44
9.260309e-001 -4.316028e-001 2.845576e+000 59 104 76
8.259586e-001 -5.229390e-001 2.998620e+000 192 132 111
8.312219e-001 -5.403244e-001 3.034386e+000 210 65 74
8.162222e-001 -5.731781e-001 3.023085e+000 193 131 105
8.295047e-001 -5.706082e-001 3.058920e+000 115 60 22
8.287248e-001 -5.806266e-001 3.067477e+000 183 87 42
8.547685e-001 -3.862828e-001 2.918351e+000 224 151 126
9.331033e-001 -4.331854e-001 2.843177e+000 158 167 37
8.548131e-001 -3.992718e-001 2.963189e+000 148 159 53
8.239787e-001 -5.464593e-001 3.018495e+000 219 81 81
8.310424e-001 -5.395183e-001 3.029912e+000 244 78 89
8.307784e-001 -5.414399e-001 3.032067e+000 210 63 62
8.361936e-001 -5.438345e-001 3.050791e+000 236 75 80
8.202013e-001 -5.693159e-001 3.032762e+000 199 130 106
8.212517e-001 -5.793014e-001 3.046176e+000 140 46 21
8.167612e-001 -5.869987e-001 3.040082e+000 186 143 101
8.239399e-001 -5.777221e-001 3.050979e+000 143 52 24
8.276761e-001 -5.744828e-001 3.057253e+000 147 62 26
8.332809e-001 -5.732170e-001 3.072273e+000 87 30 7
8.187684e-001 -5.897411e-001 3.050802e+000 147 81 37
7.994617e-001 -6.199801e-001 3.029008e+000 84 65 58
8.008081e-001 -6.186040e-001 3.032238e+000 95 73 65
8.448391e-001 -5.073553e-001 3.042384e+000 105 77 59
8.436380e-001 -5.162063e-001 3.045887e+000 94 55 41
8.331181e-001 -5.394512e-001 3.042033e+000 184 49 50
8.167345e-001 -5.681639e-001 3.018350e+000 115 59 48
8.194860e-001 -5.659166e-001 3.024965e+000 129 71 62
8.213055e-001 -5.900163e-001 3.056097e+000 204 162 122
8.212002e-001 -5.900201e-001 3.056198e+000 204 162 122
8.042785e-001 -6.186259e-001 3.042439e+000 79 24 29
8.553104e-001 -4.600582e-001 3.028824e+000 4 50 75
8.461153e-001 -4.965318e-001 3.033247e+000 146 85 66
8.201069e-001 -5.366451e-001 2.996116e+000 202 129 110
8.555176e-001 -4.206862e-001 3.008035e+000 31 48 19
8.420142e-001 -5.272588e-001 3.051030e+000 166 27 31
8.656018e-001 -3.816658e-001 2.942297e+000 168 39 38
8.656018e-001 -3.816658e-001 2.942297e+000 168 39 38
8.587612e-001 -3.837268e-001 2.950444e+000 213 151 114
8.625835e-001 -3.836875e-001 2.948870e+000 213 144 115
8.692845e-001 -3.785958e-001 2.947037e+000 153 75 69
8.448355e-001 -4.460132e-001 2.977082e+000 94 31 33
8.294956e-001 -4.930601e-001 2.940859e+000 30 82 129
8.500256e-001 -4.600780e-001 3.012768e+000 219 156 122
8.550941e-001 -4.569387e-001 3.018929e+000 210 160 120
8.499765e-001 -4.638975e-001 3.020857e+000 11 75 108
8.266825e-001 -5.154253e-001 2.981980e+000 106 66 53
8.671477e-001 -4.900943e-001 3.061161e+000 86 38 30
8.620280e-001 -4.846472e-001 3.065973e+000 64 31 24
8.620280e-001 -4.846472e-001 3.065973e+000 64 31 24
8.606808e-001 -4.905644e-001 3.067726e+000 84 35 38
8.626514e-001 -4.834356e-001 3.071220e+000 79 49 51
8.242393e-001 -5.337495e-001 3.002293e+000 109 64 48
8.184817e-001 -5.533334e-001 3.006483e+000 194 54 57
8.344199e-001 -5.357054e-001 3.037819e+000 239 80 86
8.353553e-001 -5.367283e-001 3.042114e+000 224 77 77
8.293002e-001 -5.430413e-001 3.034505e+000 181 44 47
8.593620e-001 -5.366872e-001 3.072092e+000 156 108 44
8.158092e-001 -5.689362e-001 3.017061e+000 196 133 112
8.557924e-001 -5.483239e-001 3.084449e+000 121 168 193
8.183306e-001 -5.789853e-001 3.035984e+000 187 136 105
8.252060e-001 -5.795788e-001 3.056948e+000 176 76 44
8.283112e-001 -5.795354e-001 3.066338e+000 85 31 13
8.244229e-001 -5.908898e-001 3.067457e+000 184 146 116
8.265478e-001 -5.879075e-001 3.070385e+000 36 22 15
8.228082e-001 -5.963832e-001 3.073185e+000 163 93 43
8.436804e-001 -5.767052e-001 3.099648e+000 142 90 71
8.541868e-001 -3.868982e-001 2.940823e+000 219 146 122
8.519273e-001 -4.033315e-001 2.941706e+000 138 153 21
8.535985e-001 -4.074268e-001 2.958726e+000 156 162 22
8.422008e-001 -4.536301e-001 2.966541e+000 159 147 131
8.460370e-001 -4.476224e-001 2.977481e+000 169 155 133
8.442065e-001 -4.527773e-001 2.978174e+000 168 150 133
8.626311e-001 -4.365180e-001 3.056470e+000 152 106 82
8.509961e-001 -4.588128e-001 3.010976e+000 223 158 128
8.456565e-001 -4.664499e-001 3.011056e+000 11 53 87
8.268688e-001 -5.098996e-001 2.976448e+000 182 125 102
8.248142e-001 -5.175585e-001 2.975393e+000 126 84 72
8.259955e-001 -5.222224e-001 2.991990e+000 112 73 56
8.704399e-001 -4.916139e-001 3.063607e+000 166 86 81
8.223201e-001 -5.288694e-001 2.985989e+000 94 57 44
8.181801e-001 -5.501082e-001 3.005255e+000 192 55 58
8.287845e-001 -5.428425e-001 3.026926e+000 133 26 34
8.430595e-001 -5.343419e-001 3.055893e+000 248 91 92
8.430087e-001 -5.307556e-001 3.056969e+000 150 24 28
8.588435e-001 -5.246069e-001 3.080521e+000 94 57 49
8.247720e-001 -5.555542e-001 3.029833e+000 140 20 33
8.320341e-001 -5.502553e-001 3.044793e+000 231 80 86
8.557002e-001 -5.340019e-001 3.072624e+000 187 137 67
8.573234e-001 -5.272398e-001 3.082985e+000 41 26 24
8.233877e-001 -5.812757e-001 3.053509e+000 177 80 39
8.423642e-001 -5.643639e-001 3.077007e+000 107 17 27
8.248264e-001 -5.912138e-001 3.068771e+000 25 16 15
8.110938e-001 -6.123729e-001 3.052452e+000 157 116 94
8.538589e-001 -3.826024e-001 2.914552e+000 174 33 43
8.508710e-001 -4.054056e-001 2.936277e+000 137 150 56
8.601438e-001 -4.352127e-001 3.054016e+000 152 106 90
8.374195e-001 -4.779661e-001 2.979639e+000 2 39 68
8.491967e-001 -4.822913e-001 3.024762e+000 200 133 99
8.283070e-001 -5.106504e-001 2.992678e+000 166 105 84
8.287047e-001 -5.113979e-001 2.992062e+000 166 105 84
8.349282e-001 -5.010789e-001 3.003322e+000 200 128 103
8.323051e-001 -5.111763e-001 3.004356e+000 202 131 108
8.453907e-001 -4.992139e-001 3.033708e+000 200 134 98
8.317506e-001 -5.222653e-001 3.016319e+000 198 132 101
8.422597e-001 -5.141790e-001 3.038828e+000 94 62 43
8.448276e-001 -5.108329e-001 3.042262e+000 201 142 104
8.417418e-001 -5.186985e-001 3.040682e+000 147 111 88
8.257565e-001 -5.400056e-001 3.015227e+000 196 127 111
8.400173e-001 -5.309933e-001 3.047889e+000 149 36 32
8.439096e-001 -5.329963e-001 3.058500e+000 255 105 104
8.580747e-001 -5.208335e-001 3.079030e+000 117 73 66
8.192018e-001 -5.696307e-001 3.028698e+000 117 76 58
8.461877e-001 -5.602624e-001 3.086538e+000 153 66 52
8.311284e-001 -5.869860e-001 3.082092e+000 24 13 10
8.264394e-001 -5.967209e-001 3.078970e+000 149 83 32
8.594888e-001 -4.382595e-001 3.056310e+000 138 97 75
8.511835e-001 -4.786909e-001 3.035886e+000 197 123 92
8.196832e-001 -5.377393e-001 2.983590e+000 193 125 112
8.260066e-001 -5.252691e-001 2.992720e+000 197 130 106
8.307240e-001 -5.175610e-001 3.006235e+000 103 59 48
8.188435e-001 -5.420944e-001 2.985767e+000 191 129 111
8.287365e-001 -5.317799e-001 3.016363e+000 198 133 106
8.563569e-001 -5.315763e-001 3.078142e+000 86 58 47
8.588526e-001 -5.347600e-001 3.077341e+000 86 58 47
7.988367e-001 -6.217531e-001 3.026739e+000 171 146 139
8.263133e-001 -5.925524e-001 3.075078e+000 171 144 118
8.527832e-001 -4.076051e-001 2.972810e+000 21 56 29
8.547003e-001 -4.079343e-001 2.979518e+000 23 57 34
8.512503e-001 -4.280533e-001 2.981502e+000 27 54 39
8.167711e-001 -5.494756e-001 2.981797e+000 194 127 114
8.125165e-001 -5.642779e-001 2.993322e+000 142 30 42
8.124674e-001 -5.967013e-001 3.038364e+000 177 142 119
8.001680e-001 -6.150602e-001 3.027707e+000 80 66 56
8.057559e-001 -6.143592e-001 3.043140e+000 153 125 114
8.458664e-001 -4.172150e-001 2.927123e+000 28 55 32
8.509610e-001 -4.135107e-001 2.948450e+000 23 54 36
8.509610e-001 -4.135107e-001 2.948450e+000 23 54 36
8.534050e-001 -4.584606e-001 3.016762e+000 131 38 39
8.361548e-001 -5.557110e-001 3.058764e+000 184 127 98
8.443983e-001 -4.275500e-001 2.942660e+000 120 131 124
8.433862e-001 -4.379496e-001 2.945955e+000 137 145 133
8.268546e-001 -5.166692e-001 2.991045e+000 191 129 103
8.437743e-001 -5.596670e-001 3.081068e+000 119 23 27
8.437743e-001 -5.596670e-001 3.081068e+000 119 23 27
8.503276e-001 -3.793562e-001 2.898264e+000 127 137 138
8.513597e-001 -4.240852e-001 3.018367e+000 172 165 137
8.230963e-001 -5.350142e-001 3.008693e+000 194 132 108
8.518190e-001 -5.388965e-001 3.071013e+000 184 139 80
8.507536e-001 -4.640089e-001 3.023466e+000 108 188 219
8.358391e-001 -5.432822e-001 3.051077e+000 240 60 73
8.367017e-001 -5.429047e-001 3.052182e+000 146 29 32
8.474560e-001 -4.207347e-001 2.955530e+000 31 51 21
8.405441e-001 -5.295422e-001 3.049605e+000 238 77 90
8.507340e-001 -4.040507e-001 2.952860e+000 157 156 37
8.612830e-001 -5.170572e-001 3.070629e+000 84 39 39
8.260511e-001 -5.981217e-001 3.086829e+000 164 88 46
8.494469e-001 -4.246952e-001 2.967535e+000 25 56 31
8.593511e-001 -4.570811e-001 3.029966e+000 127 28 38
8.442375e-001 -5.131150e-001 3.040840e+000 187 139 106
8.442375e-001 -5.131150e-001 3.040840e+000 187 139 106
8.481805e-001 -4.013656e-001 2.944956e+000 49 90 74
8.474367e-001 -4.213470e-001 2.970902e+000 23 52 22
