ply
format ascii 1.0
element face 0
property list uchar int vertex_indices
element vertex 895
property float x
property float y
property float z
property uchar diffuse_red
property uchar diffuse_green
property uchar diffuse_blue
end_header
7.243520e-001 -6.095457e-001 3.125127e+000 215 68 64
7.240911e-001 -6.128275e-001 3.128449e+000 205 62 63
7.279716e-001 -6.089352e-001 3.129991e+000 143 33 36
7.335745e-001 -6.174421e-001 3.143104e+000 192 65 48
7.335727e-001 -6.174657e-001 3.143210e+000 192 65 48
7.301093e-001 -6.195942e-001 3.138203e+000 192 60 53
7.419114e-001 -6.228123e-001 3.160736e+000 129 79 46
7.438442e-001 -6.214990e-001 3.163133e+000 107 55 26
7.270457e-001 -6.287472e-001 3.138254e+000 55 29 10
7.466274e-001 -6.462054e-001 3.185300e+000 194 149 87
7.294084e-001 -6.551796e-001 3.156737e+000 172 134 87
7.383582e-001 -6.487497e-001 3.167055e+000 174 132 81
7.600177e-001 -6.496730e-001 3.235444e+000 183 104 56
7.196367e-001 -4.231894e-001 3.027576e+000 171 43 34
6.590418e-001 -4.423881e-001 3.040891e+000 25 52 28
6.590418e-001 -4.423881e-001 3.040891e+000 25 52 28
7.345334e-001 -4.598576e-001 3.070218e+000 34 50 15
7.449223e-001 -4.948175e-001 3.104459e+000 175 153 115
7.224317e-001 -5.482366e-001 3.092369e+000 189 116 89
7.398735e-001 -5.436967e-001 3.118986e+000 189 118 81
7.386569e-001 -5.983205e-001 3.143088e+000 137 32 26
7.235932e-001 -6.066461e-001 3.121837e+000 216 96 79
6.882556e-001 -6.112604e-001 3.121049e+000 65 130 198
7.256588e-001 -6.210679e-001 3.130898e+000 141 31 29
7.236690e-001 -6.239393e-001 3.134325e+000 209 68 60
7.267845e-001 -6.186086e-001 3.132220e+000 197 59 55
7.517201e-001 -6.402986e-001 3.197161e+000 193 110 38
7.512260e-001 -6.615574e-001 3.208327e+000 141 75 20
6.254556e-001 -4.344740e-001 3.073965e+000 168 43 50
6.399288e-001 -4.773001e-001 3.086767e+000 25 58 36
6.660797e-001 -4.871475e-001 3.060974e+000 29 58 30
6.550379e-001 -4.965381e-001 3.081195e+000 25 54 34
6.550379e-001 -4.965381e-001 3.081195e+000 25 54 34
7.233458e-001 -5.252875e-001 3.082187e+000 150 20 20
7.412376e-001 -5.191574e-001 3.108395e+000 12 52 67
7.379669e-001 -5.947284e-001 3.140982e+000 143 23 27
7.391933e-001 -6.206553e-001 3.155859e+000 134 82 61
7.398798e-001 -6.224978e-001 3.157553e+000 188 123 86
7.390324e-001 -6.538252e-001 3.172685e+000 182 149 99
7.210450e-001 -4.358085e-001 3.037603e+000 130 126 63
7.216211e-001 -4.561766e-001 3.046883e+000 122 142 50
7.216211e-001 -4.561766e-001 3.046883e+000 122 142 50
6.712903e-001 -5.354985e-001 3.086051e+000 165 160 163
7.203708e-001 -5.600248e-001 3.095991e+000 186 126 89
7.203708e-001 -5.600248e-001 3.095991e+000 186 126 89
7.221216e-001 -5.947284e-001 3.116044e+000 194 122 79
7.221623e-001 -5.947292e-001 3.116019e+000 194 122 79
6.884426e-001 -6.363954e-001 3.137500e+000 121 68 48
7.280937e-001 -6.525110e-001 3.148791e+000 181 136 91
7.393108e-001 -4.441010e-001 3.067664e+000 34 56 13
7.374424e-001 -4.671039e-001 3.078518e+000 33 55 14
7.374997e-001 -5.107548e-001 3.101726e+000 150 28 24
7.492485e-001 -5.250151e-001 3.140958e+000 189 120 81
6.365959e-001 -5.523707e-001 3.145417e+000 101 139 199
7.160823e-001 -5.617502e-001 3.093186e+000 193 121 96
7.176705e-001 -6.074642e-001 3.120063e+000 134 23 30
7.196704e-001 -6.269912e-001 3.129234e+000 157 30 25
7.306078e-001 -4.237594e-001 3.044500e+000 187 99 62
7.384527e-001 -4.540951e-001 3.070996e+000 79 106 96
6.758628e-001 -4.908229e-001 3.050399e+000 115 135 168
7.279297e-001 -4.584268e-001 3.056198e+000 110 127 110
7.218455e-001 -5.523354e-001 3.093930e+000 187 123 87
7.303515e-001 -6.337342e-001 3.142966e+000 188 124 86
6.758313e-001 -4.499167e-001 3.041876e+000 110 138 172
6.229299e-001 -4.331372e-001 3.079184e+000 247 154 154
6.295719e-001 -4.279547e-001 3.067219e+000 121 37 37
6.374111e-001 -4.275534e-001 3.058637e+000 227 154 149
6.373736e-001 -4.342470e-001 3.063082e+000 134 36 39
6.382368e-001 -4.329775e-001 3.058440e+000 224 159 151
6.500555e-001 -4.335161e-001 3.045857e+000 139 34 37
6.500555e-001 -4.335161e-001 3.045857e+000 139 34 37
6.393114e-001 -5.549285e-001 3.133568e+000 25 72 121
6.773520e-001 -5.762293e-001 3.103165e+000 146 41 45
7.154150e-001 -5.759052e-001 3.110995e+000 122 38 27
6.434981e-001 -6.178516e-001 3.172439e+000 49 29 35
6.744404e-001 -6.153635e-001 3.135517e+000 206 124 113
6.924109e-001 -6.470760e-001 3.136439e+000 177 129 80
6.163744e-001 -4.206118e-001 3.084770e+000 134 164 196
6.159980e-001 -4.209579e-001 3.082497e+000 134 164 196
6.374974e-001 -4.466455e-001 3.066503e+000 51 102 157
6.227108e-001 -4.834171e-001 3.116932e+000 41 55 20
6.360382e-001 -5.288745e-001 3.119380e+000 168 33 33
6.409107e-001 -5.283324e-001 3.112571e+000 159 160 173
6.615443e-001 -5.518542e-001 3.102766e+000 140 26 34
6.939516e-001 -6.003107e-001 3.116222e+000 16 79 145
7.271538e-001 -6.019458e-001 3.133572e+000 208 94 75
6.448543e-001 -6.175685e-001 3.168301e+000 159 134 123
6.941655e-001 -6.467161e-001 3.137166e+000 144 99 56
6.497456e-001 -3.649541e-001 3.092290e+000 32 27 24
6.256164e-001 -4.319739e-001 3.075194e+000 169 36 41
7.224154e-001 -4.584185e-001 3.054722e+000 123 143 52
6.317590e-001 -5.208683e-001 3.123196e+000 123 102 107
6.514394e-001 -5.459137e-001 3.110642e+000 142 25 34
6.353523e-001 -5.770587e-001 3.161387e+000 143 111 64
6.434240e-001 -6.138258e-001 3.169194e+000 124 46 46
6.469345e-001 -6.238152e-001 3.169788e+000 160 134 121
6.202105e-001 -4.240122e-001 3.079716e+000 171 35 43
6.235794e-001 -4.243268e-001 3.072224e+000 177 37 46
6.466663e-001 -4.275013e-001 3.045523e+000 173 33 42
6.466663e-001 -4.275013e-001 3.045523e+000 173 33 42
6.526684e-001 -4.358302e-001 3.043554e+000 167 32 41
6.526684e-001 -4.358302e-001 3.043554e+000 167 32 41
7.233704e-001 -4.643487e-001 3.059805e+000 136 133 39
6.352020e-001 -4.763797e-001 3.088856e+000 29 66 33
6.792676e-001 -5.343952e-001 3.077983e+000 171 160 168
6.451383e-001 -5.490740e-001 3.120115e+000 148 37 36
7.115128e-001 -5.825639e-001 3.108790e+000 182 86 62
6.826509e-001 -6.233299e-001 3.129787e+000 166 67 45
7.195719e-001 -6.247817e-001 3.134596e+000 148 27 28
6.206052e-001 -4.337419e-001 3.082179e+000 173 38 44
6.398125e-001 -4.781899e-001 3.084407e+000 25 69 35
7.413212e-001 -4.741498e-001 3.102352e+000 32 51 30
6.597129e-001 -5.005508e-001 3.074111e+000 26 58 42
6.597129e-001 -5.005508e-001 3.074111e+000 26 58 42
6.787379e-001 -5.376837e-001 3.080200e+000 149 106 113
7.136779e-001 -5.649433e-001 3.101189e+000 179 50 45
6.887213e-001 -6.353665e-001 3.139455e+000 123 68 47
6.195413e-001 -4.416429e-001 3.096203e+000 26 59 32
6.395565e-001 -4.692486e-001 3.078542e+000 25 64 43
6.308762e-001 -4.894955e-001 3.101588e+000 29 62 35
6.308762e-001 -4.894955e-001 3.101588e+000 29 62 35
6.340303e-001 -5.162641e-001 3.110792e+000 162 157 164
6.482997e-001 -5.165569e-001 3.095885e+000 157 158 173
6.627898e-001 -5.205517e-001 3.082531e+000 157 161 167
6.384183e-001 -5.288827e-001 3.115537e+000 171 34 37
6.536364e-001 -5.326660e-001 3.100865e+000 168 37 39
6.645778e-001 -5.337108e-001 3.090787e+000 157 158 168
6.593019e-001 -5.434168e-001 3.100429e+000 150 25 31
6.208190e-001 -4.284128e-001 3.080331e+000 209 152 154
6.398187e-001 -4.632726e-001 3.069743e+000 163 165 163
6.756105e-001 -4.929013e-001 3.051102e+000 113 137 166
6.756105e-001 -4.929013e-001 3.051102e+000 113 137 166
6.529768e-001 -4.994072e-001 3.080402e+000 25 61 32
6.302280e-001 -5.095097e-001 3.113628e+000 152 157 169
6.302280e-001 -5.095097e-001 3.113628e+000 152 157 169
6.487952e-001 -5.178616e-001 3.096693e+000 155 159 168
6.487952e-001 -5.178616e-001 3.096693e+000 155 159 168
6.567953e-001 -5.371849e-001 3.097586e+000 162 159 167
6.423112e-001 -5.609329e-001 3.135825e+000 94 50 81
7.339290e-001 -5.404363e-001 3.125650e+000 188 118 82
7.006875e-001 -5.842441e-001 3.105342e+000 184 89 77
7.006875e-001 -5.842441e-001 3.105342e+000 184 89 77
7.220658e-001 -4.235112e-001 3.033026e+000 125 44 28
7.283013e-001 -4.191330e-001 3.040314e+000 211 128 78
7.297421e-001 -4.209811e-001 3.043369e+000 214 133 87
7.309996e-001 -4.235261e-001 3.046409e+000 153 40 33
7.371121e-001 -4.155151e-001 3.052700e+000 146 35 34
7.443911e-001 -4.190964e-001 3.078112e+000 34 48 23
7.220829e-001 -4.277094e-001 3.034995e+000 210 127 85
7.220829e-001 -4.277094e-001 3.034995e+000 210 127 85
7.239387e-001 -4.281002e-001 3.037900e+000 223 128 91
7.239553e-001 -4.280899e-001 3.037875e+000 223 128 91
7.280057e-001 -4.251491e-001 3.042418e+000 157 31 30
7.320553e-001 -4.408103e-001 3.058161e+000 62 83 41
7.496324e-001 -4.455307e-001 3.113501e+000 33 49 11
7.257488e-001 -4.673651e-001 3.058534e+000 124 133 26
7.260437e-001 -4.723060e-001 3.061469e+000 140 143 26
7.408015e-001 -4.877742e-001 3.093931e+000 76 29 19
7.448899e-001 -4.857916e-001 3.105353e+000 88 43 34
7.449111e-001 -4.884861e-001 3.106727e+000 76 31 20
7.381050e-001 -4.977993e-001 3.095043e+000 165 130 95
7.455043e-001 -4.933775e-001 3.109578e+000 170 141 101
7.247871e-001 -5.224390e-001 3.084153e+000 225 135 103
7.288487e-001 -5.199024e-001 3.088866e+000 121 29 24
7.288487e-001 -5.199024e-001 3.088866e+000 121 29 24
7.376331e-001 -5.134907e-001 3.101559e+000 241 141 100
7.530519e-001 -5.200342e-001 3.157907e+000 115 67 42
7.412754e-001 -5.353456e-001 3.119113e+000 170 108 70
7.333617e-001 -5.617261e-001 3.116334e+000 68 31 15
7.197550e-001 -5.783400e-001 3.104721e+000 191 110 71
7.126546e-001 -5.829510e-001 3.103803e+000 123 37 34
7.551859e-001 -5.736385e-001 3.176908e+000 191 114 77
7.288629e-001 -6.055339e-001 3.129012e+000 121 21 23
7.262327e-001 -4.256235e-001 3.040556e+000 147 27 25
7.419073e-001 -4.177467e-001 3.068625e+000 156 36 32
7.369772e-001 -4.419884e-001 3.065142e+000 149 143 29
7.466931e-001 -4.467938e-001 3.095407e+000 68 94 66
7.400724e-001 -4.948587e-001 3.097454e+000 162 135 104
7.120905e-001 -5.304559e-001 3.074821e+000 59 31 41
7.191863e-001 -5.294116e-001 3.081902e+000 21 70 88
7.274518e-001 -5.255437e-001 3.089775e+000 21 67 85
7.164532e-001 -5.334961e-001 3.077106e+000 22 63 88
6.636243e-001 -5.514454e-001 3.107296e+000 247 96 103
7.443930e-001 -5.346426e-001 3.121197e+000 122 69 48
7.526353e-001 -5.519723e-001 3.160487e+000 96 51 22
7.267756e-001 -5.656359e-001 3.106691e+000 65 36 26
7.268149e-001 -5.655847e-001 3.106597e+000 65 36 26
7.342599e-001 -5.759894e-001 3.124973e+000 94 48 25
7.540214e-001 -5.687731e-001 3.175147e+000 87 52 20
7.402938e-001 -5.880861e-001 3.143471e+000 182 109 71
7.440457e-001 -5.862351e-001 3.146989e+000 183 113 76
7.414336e-001 -5.968024e-001 3.147586e+000 132 26 20
7.412507e-001 -5.965771e-001 3.148265e+000 132 26 20
7.352756e-001 -4.137406e-001 3.049938e+000 169 31 34
7.254789e-001 -4.291796e-001 3.038927e+000 166 28 26
7.373603e-001 -4.479999e-001 3.068791e+000 136 132 35
7.315293e-001 -4.607250e-001 3.065304e+000 27 48 11
7.391669e-001 -4.624498e-001 3.078963e+000 146 142 42
7.502324e-001 -5.043841e-001 3.130577e+000 134 29 25
7.532707e-001 -5.282109e-001 3.152906e+000 185 114 66
7.433016e-001 -5.372238e-001 3.123642e+000 182 112 70
7.433016e-001 -5.372238e-001 3.123642e+000 182 112 70
7.396553e-001 -5.390242e-001 3.119165e+000 187 104 68
7.524023e-001 -5.448176e-001 3.158181e+000 190 119 66
7.530760e-001 -5.772039e-001 3.169171e+000 184 121 68
7.284930e-001 -5.964204e-001 3.122610e+000 179 112 76
7.284930e-001 -5.964204e-001 3.122610e+000 179 112 76
7.341126e-001 -5.003654e-001 3.089255e+000 119 95 71
7.260330e-001 -5.238801e-001 3.085613e+000 138 19 26
7.388193e-001 -5.288507e-001 3.112442e+000 23 71 91
7.400495e-001 -5.281489e-001 3.109133e+000 23 71 91
7.260103e-001 -5.577403e-001 3.103393e+000 179 109 69
7.206349e-001 -5.656588e-001 3.100045e+000 183 109 76
7.230597e-001 -5.748866e-001 3.105251e+000 179 104 78
7.119232e-001 -5.836206e-001 3.101342e+000 158 64 54
7.219329e-001 -5.850526e-001 3.112184e+000 185 107 76
7.219329e-001 -5.850526e-001 3.112184e+000 185 107 76
7.302775e-001 -5.810790e-001 3.118530e+000 175 111 68
7.302775e-001 -5.810790e-001 3.118530e+000 175 111 68
7.161723e-001 -5.980720e-001 3.108886e+000 108 21 21
7.397441e-001 -5.920637e-001 3.140287e+000 183 109 77
7.187782e-001 -4.125019e-001 3.021603e+000 47 87 97
7.213097e-001 -4.643068e-001 3.052081e+000 121 125 36
7.402283e-001 -4.681797e-001 3.084572e+000 147 145 60
6.759916e-001 -5.358117e-001 3.086862e+000 108 74 74
7.242517e-001 -4.659163e-001 3.057082e+000 29 48 18
7.249059e-001 -4.658069e-001 3.055635e+000 29 48 18
7.414401e-001 -4.831620e-001 3.101966e+000 156 142 107
7.269511e-001 -5.255736e-001 3.086349e+000 14 57 73
7.162540e-001 -5.672515e-001 3.096691e+000 178 109 84
7.489070e-001 -4.624659e-001 3.100819e+000 142 150 50
7.476689e-001 -5.770539e-001 3.159760e+000 184 121 77
6.153693e-001 -4.092808e-001 3.077705e+000 42 117 196
6.153693e-001 -4.092808e-001 3.077705e+000 42 117 196
7.206167e-001 -4.263414e-001 3.030591e+000 159 47 28
6.198391e-001 -4.255208e-001 3.077256e+000 123 61 66
6.198391e-001 -4.255208e-001 3.077256e+000 123 61 66
6.190691e-001 -4.319891e-001 3.085839e+000 202 106 112
6.324109e-001 -4.264921e-001 3.060379e+000 195 129 131
6.551332e-001 -4.315998e-001 3.035055e+000 13 80 147
6.634582e-001 -4.609627e-001 3.042646e+000 66 98 112
6.634582e-001 -4.609627e-001 3.042646e+000 66 98 112
6.679677e-001 -4.623455e-001 3.041896e+000 117 154 94
7.278054e-001 -4.649788e-001 3.065541e+000 49 56 15
6.348907e-001 -5.289559e-001 3.123158e+000 147 136 144
7.266806e-001 -5.528286e-001 3.112922e+000 137 80 54
7.266806e-001 -5.528286e-001 3.112922e+000 137 80 54
7.340928e-001 -5.578160e-001 3.127378e+000 143 89 61
6.532413e-001 -5.596411e-001 3.118474e+000 94 137 190
7.295448e-001 -5.657765e-001 3.123886e+000 140 86 58
6.620416e-001 -5.646073e-001 3.114086e+000 104 149 209
6.620416e-001 -5.646073e-001 3.114086e+000 104 149 209
6.738256e-001 -5.653257e-001 3.101797e+000 99 142 189
6.762779e-001 -5.735694e-001 3.107549e+000 123 30 34
7.039000e-001 -5.879728e-001 3.111923e+000 151 35 35
6.859481e-001 -6.140491e-001 3.127782e+000 62 9 6
6.745453e-001 -6.167605e-001 3.137855e+000 131 44 51
6.745453e-001 -6.167605e-001 3.137855e+000 131 44 51
6.229686e-001 -4.327735e-001 3.079254e+000 202 134 131
6.245534e-001 -4.295947e-001 3.074554e+000 196 136 133
6.338413e-001 -4.273152e-001 3.059653e+000 149 35 43
6.407142e-001 -4.292304e-001 3.051372e+000 138 47 49
6.398135e-001 -4.345214e-001 3.055808e+000 152 39 47
6.559050e-001 -4.391647e-001 3.038663e+000 47 84 115
6.660397e-001 -4.678764e-001 3.046475e+000 38 48 24
6.660397e-001 -4.678764e-001 3.046475e+000 38 48 24
6.502874e-001 -4.875977e-001 3.077669e+000 33 54 41
6.298490e-001 -5.131699e-001 3.118132e+000 157 144 156
6.329776e-001 -5.126096e-001 3.115402e+000 147 145 151
6.459440e-001 -5.416612e-001 3.114951e+000 173 126 118
6.473509e-001 -5.444680e-001 3.117187e+000 183 121 122
7.199129e-001 -5.561011e-001 3.104843e+000 124 75 53
7.199129e-001 -5.561011e-001 3.104843e+000 124 75 53
7.276950e-001 -5.571665e-001 3.116415e+000 134 82 57
6.334856e-001 -5.533593e-001 3.139174e+000 27 73 133
6.426254e-001 -5.558395e-001 3.127723e+000 92 129 191
6.499844e-001 -5.596341e-001 3.120859e+000 27 67 119
6.513420e-001 -5.613632e-001 3.122470e+000 102 144 191
7.145189e-001 -5.680663e-001 3.105443e+000 164 63 52
7.228362e-001 -5.893643e-001 3.128273e+000 131 80 56
6.897515e-001 -6.105397e-001 3.126753e+000 58 114 164
6.374536e-001 -6.110117e-001 3.187024e+000 47 36 38
6.214923e-001 -4.252032e-001 3.074595e+000 190 151 145
7.318319e-001 -4.426250e-001 3.058855e+000 42 52 18
6.364291e-001 -5.291833e-001 3.121192e+000 157 32 37
7.149285e-001 -5.366809e-001 3.084745e+000 19 76 111
7.184717e-001 -5.475014e-001 3.095676e+000 131 82 56
6.485110e-001 -5.477764e-001 3.116261e+000 127 25 36
6.483918e-001 -5.501644e-001 3.116077e+000 183 65 73
6.416722e-001 -5.572804e-001 3.131187e+000 26 68 123
6.910864e-001 -6.040745e-001 3.122033e+000 72 123 165
6.512088e-001 -4.283407e-001 3.035619e+000 157 34 42
7.210708e-001 -4.381962e-001 3.041022e+000 141 140 86
7.260532e-001 -4.666795e-001 3.062718e+000 49 58 12
6.342993e-001 -5.123195e-001 3.111978e+000 157 36 42
6.789297e-001 -5.406769e-001 3.082867e+000 160 144 144
6.554599e-001 -5.521714e-001 3.113141e+000 171 67 71
6.626822e-001 -5.637221e-001 3.112323e+000 100 126 168
6.587321e-001 -4.435803e-001 3.038549e+000 29 54 33
6.587321e-001 -4.435803e-001 3.038549e+000 29 54 33
6.695189e-001 -4.696487e-001 3.048664e+000 101 126 131
6.235272e-001 -4.711845e-001 3.105914e+000 144 160 95
6.572013e-001 -5.020598e-001 3.080329e+000 152 156 96
6.572013e-001 -5.020598e-001 3.080329e+000 152 156 96
6.748566e-001 -5.370390e-001 3.085679e+000 135 104 109
6.500711e-001 -5.437740e-001 3.112652e+000 109 60 58
6.381162e-001 -5.508506e-001 3.135234e+000 19 69 129
6.484243e-001 -5.590072e-001 3.123980e+000 93 130 182
6.579946e-001 -5.619488e-001 3.115987e+000 97 127 170
6.438608e-001 -4.305547e-001 3.048978e+000 179 129 128
6.225303e-001 -4.608746e-001 3.100061e+000 154 154 142
6.296370e-001 -4.766449e-001 3.093799e+000 26 57 41
6.486916e-001 -4.847356e-001 3.077997e+000 136 163 96
6.445119e-001 -5.576400e-001 3.130414e+000 81 116 167
6.445119e-001 -5.576400e-001 3.130414e+000 81 116 167
7.184142e-001 -5.679237e-001 3.110582e+000 191 119 86
6.362492e-001 -6.005675e-001 3.181696e+000 143 115 93
6.208032e-001 -4.280584e-001 3.079988e+000 183 139 141
6.564772e-001 -4.936144e-001 3.073041e+000 156 150 150
6.363967e-001 -5.115529e-001 3.108035e+000 160 34 45
6.506007e-001 -5.283769e-001 3.104171e+000 152 148 158
6.412216e-001 -5.506100e-001 3.125502e+000 134 21 35
6.353261e-001 -4.041347e-001 3.036719e+000 16 81 147
6.848767e-001 -4.689783e-001 3.030086e+000 66 109 144
6.817650e-001 -6.149051e-001 3.133730e+000 69 13 19
6.951451e-001 -5.328844e-001 3.098069e+000 151 151 151
7.296207e-001 -4.184818e-001 3.042927e+000 216 134 99
7.312978e-001 -4.173550e-001 3.044423e+000 214 132 88
7.290091e-001 -4.196563e-001 3.042058e+000 132 53 36
7.290449e-001 -4.196299e-001 3.042003e+000 132 53 36
7.305532e-001 -4.207400e-001 3.044849e+000 137 59 42
7.305532e-001 -4.207400e-001 3.044849e+000 137 59 42
7.350801e-001 -4.200171e-001 3.051629e+000 218 137 91
7.408935e-001 -4.116024e-001 3.058803e+000 215 129 79
7.407920e-001 -4.160328e-001 3.061655e+000 230 128 87
7.411576e-001 -4.178316e-001 3.066920e+000 248 111 87
7.437396e-001 -4.102805e-001 3.068158e+000 27 78 94
7.442590e-001 -4.164727e-001 3.070662e+000 46 72 66
7.202916e-001 -4.300682e-001 3.033950e+000 231 111 84
7.202916e-001 -4.300682e-001 3.033950e+000 231 111 84
7.269943e-001 -4.243586e-001 3.041212e+000 212 134 96
7.376555e-001 -4.215623e-001 3.054145e+000 225 123 84
7.411555e-001 -4.311648e-001 3.065852e+000 30 52 27
7.361517e-001 -4.472364e-001 3.066638e+000 150 145 24
7.502430e-001 -4.420293e-001 3.103060e+000 61 93 77
7.464112e-001 -4.541666e-001 3.093794e+000 77 105 59
7.254571e-001 -4.677123e-001 3.059340e+000 137 140 52
7.370059e-001 -4.899593e-001 3.089601e+000 108 30 28
7.381735e-001 -4.905895e-001 3.091071e+000 172 138 105
7.403117e-001 -4.880851e-001 3.094443e+000 96 37 27
7.446122e-001 -4.835664e-001 3.104157e+000 102 58 43
7.409620e-001 -4.885533e-001 3.096521e+000 186 131 99
7.451328e-001 -4.840192e-001 3.105862e+000 171 145 107
7.451328e-001 -4.840192e-001 3.105862e+000 171 145 107
7.452498e-001 -4.866952e-001 3.107229e+000 175 141 107
7.453121e-001 -4.866893e-001 3.107200e+000 175 141 107
7.214671e-001 -4.928826e-001 3.135429e+000 167 141 110
7.459774e-001 -4.937047e-001 3.104406e+000 173 143 107
7.369979e-001 -5.140959e-001 3.098141e+000 218 140 94
7.409010e-001 -5.107236e-001 3.101744e+000 240 134 98
7.406304e-001 -5.117363e-001 3.106989e+000 228 140 107
7.420941e-001 -5.095042e-001 3.109217e+000 142 34 32
7.429884e-001 -5.093062e-001 3.110637e+000 232 139 101
7.418603e-001 -5.106858e-001 3.108643e+000 231 132 95
7.193005e-001 -5.255215e-001 3.079130e+000 224 139 97
7.193005e-001 -5.255215e-001 3.079130e+000 224 139 97
7.228754e-001 -5.219532e-001 3.081925e+000 237 135 102
7.269688e-001 -5.208691e-001 3.086774e+000 133 31 27
7.273002e-001 -5.208234e-001 3.086293e+000 133 31 27
7.223782e-001 -5.234008e-001 3.084803e+000 233 148 108
7.243537e-001 -5.226358e-001 3.085037e+000 229 150 112
7.277403e-001 -5.193468e-001 3.087815e+000 227 144 107
7.297328e-001 -5.202102e-001 3.090456e+000 235 142 104
7.316676e-001 -5.181470e-001 3.093341e+000 117 36 28
7.319680e-001 -5.178022e-001 3.092801e+000 117 36 28
7.562513e-001 -5.192813e-001 3.028810e+000 236 146 104
7.276981e-001 -5.208851e-001 3.088683e+000 234 137 104
7.374289e-001 -5.154448e-001 3.102671e+000 240 131 106
7.398991e-001 -5.140153e-001 3.105448e+000 233 131 101
7.139068e-001 -5.320588e-001 3.081205e+000 12 58 84
7.412863e-001 -5.251598e-001 3.110254e+000 5 50 71
7.412863e-001 -5.251598e-001 3.110254e+000 5 50 71
7.134090e-001 -5.376030e-001 3.077802e+000 24 85 118
7.427148e-001 -5.294075e-001 3.114738e+000 10 51 68
7.133491e-001 -5.718791e-001 3.095287e+000 151 48 39
7.156963e-001 -5.800503e-001 3.103149e+000 197 116 89
7.268237e-001 -5.852368e-001 3.116673e+000 178 114 92
7.268237e-001 -5.852368e-001 3.116673e+000 178 114 92
6.911617e-001 -5.995040e-001 3.117068e+000 125 189 251
6.911617e-001 -5.995040e-001 3.117068e+000 125 189 251
6.896831e-001 -6.053085e-001 3.121635e+000 79 139 205
7.416510e-001 -5.948368e-001 3.149864e+000 204 50 47
7.288863e-001 -6.038822e-001 3.127400e+000 208 87 64
7.288863e-001 -6.038822e-001 3.127400e+000 208 87 64
7.337482e-001 -6.003785e-001 3.134990e+000 240 72 70
6.409614e-001 -4.359418e-001 3.063023e+000 158 47 53
7.373385e-001 -4.173820e-001 3.053505e+000 149 38 36
7.373385e-001 -4.173820e-001 3.053505e+000 149 38 36
7.421595e-001 -4.348500e-001 3.074231e+000 131 142 36
7.484744e-001 -4.343168e-001 3.088992e+000 36 48 14
7.460173e-001 -4.478428e-001 3.083853e+000 68 96 75
6.717351e-001 -4.894034e-001 3.061583e+000 136 175 83
6.717351e-001 -4.894034e-001 3.061583e+000 136 175 83
7.363063e-001 -4.933588e-001 3.089809e+000 165 146 113
7.363063e-001 -4.933588e-001 3.089809e+000 165 146 113
7.224090e-001 -5.243186e-001 3.079639e+000 230 159 110
7.256990e-001 -5.199005e-001 3.085792e+000 224 151 108
7.309781e-001 -5.172454e-001 3.091294e+000 224 149 106
7.478407e-001 -5.248836e-001 3.043460e+000 24 78 103
7.209894e-001 -5.682070e-001 3.102310e+000 48 23 12
7.290923e-001 -5.695316e-001 3.111944e+000 73 32 18
7.290923e-001 -5.695316e-001 3.111944e+000 73 32 18
7.334897e-001 -5.615782e-001 3.116200e+000 67 30 7
7.540356e-001 -5.570700e-001 3.158864e+000 84 44 15
6.907076e-001 -5.852304e-001 3.109846e+000 174 52 55
7.086793e-001 -5.819710e-001 3.100178e+000 196 105 79
7.411592e-001 -5.707586e-001 3.136732e+000 181 115 85
7.133092e-001 -5.875100e-001 3.110277e+000 157 35 35
7.324831e-001 -5.774278e-001 3.121924e+000 46 26 12
6.818036e-001 -5.997509e-001 3.123444e+000 35 86 150
6.852525e-001 -6.002569e-001 3.122845e+000 109 167 235
7.337320e-001 -5.861093e-001 3.128847e+000 123 73 47
6.481033e-001 -4.512994e-001 3.065972e+000 43 61 37
6.481033e-001 -4.512994e-001 3.065972e+000 43 61 37
7.308428e-001 -4.433292e-001 3.054899e+000 142 138 34
6.825978e-001 -4.494336e-001 3.189130e+000 79 107 82
7.434718e-001 -4.434545e-001 3.083299e+000 36 51 9
6.521628e-001 -4.737335e-001 3.076150e+000 47 61 37
6.518135e-001 -4.879820e-001 3.084661e+000 43 64 32
6.481359e-001 -4.897542e-001 3.088936e+000 157 175 100
6.518525e-001 -4.984983e-001 3.091375e+000 45 63 45
7.454264e-001 -4.873062e-001 3.100207e+000 179 146 105
7.349192e-001 -4.964749e-001 3.087714e+000 165 141 117
7.443584e-001 -4.905127e-001 3.106382e+000 178 133 97
7.454598e-001 -4.902252e-001 3.104391e+000 178 133 97
7.434157e-001 -4.966189e-001 3.100772e+000 167 143 107
7.222316e-001 -5.282225e-001 3.085039e+000 21 83 111
7.521801e-001 -5.299010e-001 3.150332e+000 196 116 72
6.851134e-001 -5.552359e-001 3.096406e+000 175 167 174
7.541626e-001 -5.326053e-001 3.144967e+000 137 81 55
7.523927e-001 -5.376324e-001 3.151766e+000 129 73 45
6.896772e-001 -5.575622e-001 3.092313e+000 188 50 50
7.523703e-001 -5.447654e-001 3.158219e+000 197 120 75
7.432360e-001 -5.505819e-001 3.126189e+000 72 42 28
7.529231e-001 -5.494968e-001 3.159942e+000 195 129 82
7.537619e-001 -5.529387e-001 3.163976e+000 195 132 87
7.413336e-001 -5.618616e-001 3.129075e+000 139 80 45
7.406658e-001 -5.622021e-001 3.130316e+000 139 80 45
7.544059e-001 -5.666187e-001 3.163287e+000 129 82 48
7.037133e-001 -5.845255e-001 3.105479e+000 198 93 80
7.405397e-001 -5.814727e-001 3.136990e+000 152 99 61
7.551726e-001 -5.686396e-001 3.173900e+000 119 72 36
6.705620e-001 -6.001756e-001 3.134381e+000 102 46 35
7.408296e-001 -5.861014e-001 3.139314e+000 66 28 12
7.221094e-001 -5.991554e-001 3.115681e+000 194 112 88
7.216377e-001 -5.993465e-001 3.116515e+000 194 112 88
7.422686e-001 -4.090853e-001 3.063130e+000 179 26 28
7.385192e-001 -4.152481e-001 3.055703e+000 174 93 67
7.367723e-001 -4.390438e-001 3.064476e+000 155 148 30
7.367723e-001 -4.390438e-001 3.064476e+000 155 148 30
7.353440e-001 -4.503644e-001 3.067119e+000 34 53 25
7.259680e-001 -4.680989e-001 3.059919e+000 126 132 65
7.259680e-001 -4.680989e-001 3.059919e+000 126 132 65
7.393508e-001 -4.621760e-001 3.078547e+000 136 134 33
7.260191e-001 -4.723465e-001 3.062327e+000 139 136 37
7.427481e-001 -4.945131e-001 3.102336e+000 112 80 54
7.493051e-001 -5.026478e-001 3.127807e+000 211 129 82
7.434688e-001 -5.143962e-001 3.108508e+000 149 15 33
7.523220e-001 -5.111554e-001 3.138699e+000 13 50 68
6.643202e-001 -5.416529e-001 3.103579e+000 159 35 38
7.357888e-001 -5.229662e-001 3.102261e+000 4 46 66
7.388943e-001 -5.260257e-001 3.106785e+000 7 49 63
6.567164e-001 -5.549565e-001 3.120387e+000 107 139 190
7.529185e-001 -5.330154e-001 3.155649e+000 191 117 74
6.697950e-001 -5.616939e-001 3.110978e+000 97 138 194
7.393131e-001 -5.451006e-001 3.120537e+000 201 122 87
7.408908e-001 -5.436382e-001 3.123492e+000 193 121 83
7.422083e-001 -5.483828e-001 3.123848e+000 197 123 74
7.249600e-001 -5.587014e-001 3.099675e+000 194 128 91
7.403292e-001 -5.571235e-001 3.128049e+000 165 98 58
7.536728e-001 -5.471095e-001 3.156866e+000 99 53 23
7.407635e-001 -5.595914e-001 3.126082e+000 200 123 82
7.413214e-001 -5.644551e-001 3.128217e+000 200 119 77
7.546261e-001 -5.575014e-001 3.164206e+000 193 131 86
7.393358e-001 -5.674795e-001 3.131001e+000 94 56 37
7.555575e-001 -5.671193e-001 3.166651e+000 193 128 75
7.408658e-001 -5.788559e-001 3.138150e+000 180 115 77
7.415278e-001 -5.826607e-001 3.144453e+000 188 115 74
7.425867e-001 -5.919962e-001 3.149616e+000 141 22 28
7.434721e-001 -4.073885e-001 3.066204e+000 168 94 65
7.436953e-001 -4.073307e-001 3.066056e+000 168 94 65
7.430266e-001 -4.350455e-001 3.068931e+000 71 83 14
7.430266e-001 -4.350455e-001 3.068931e+000 71 83 14
7.320401e-001 -4.496336e-001 3.057925e+000 99 116 55
7.320401e-001 -4.496336e-001 3.057925e+000 99 116 55
7.445417e-001 -4.505288e-001 3.098373e+000 31 53 13
7.463433e-001 -4.542749e-001 3.093261e+000 76 102 58
7.463433e-001 -4.542749e-001 3.093261e+000 76 102 58
7.420251e-001 -4.598321e-001 3.076637e+000 97 112 41
7.335713e-001 -5.132111e-001 3.095190e+000 160 25 26
7.533164e-001 -5.184998e-001 3.148942e+000 183 114 82
7.372022e-001 -5.956029e-001 3.143245e+000 146 19 31
6.868965e-001 -6.127422e-001 3.130016e+000 190 153 127
7.170348e-001 -6.085971e-001 3.115844e+000 176 135 104
7.100540e-001 -5.819833e-001 3.102444e+000 188 88 74
7.210917e-001 -4.546443e-001 3.047670e+000 121 132 102
7.211771e-001 -4.546207e-001 3.047523e+000 121 132 102
6.355766e-001 -5.700091e-001 3.158440e+000 30 19 18
6.355766e-001 -5.700091e-001 3.158440e+000 30 19 18
6.449649e-001 -4.327888e-001 3.055979e+000 206 130 124
7.131739e-001 -5.874988e-001 3.104632e+000 169 36 39
7.398295e-001 -5.298358e-001 3.111645e+000 25 80 102
6.742347e-001 -5.150528e-001 3.078842e+000 173 172 179
7.524037e-001 -4.970987e-001 3.149525e+000 164 25 24
7.490282e-001 -4.922643e-001 3.119475e+000 170 153 110
7.319368e-001 -5.468146e-001 3.107061e+000 198 122 86
7.202686e-001 -5.320850e-001 3.087235e+000 27 76 99
7.202686e-001 -5.320850e-001 3.087235e+000 27 76 99
6.920160e-001 -4.407602e-001 3.036419e+000 157 153 144
6.434833e-001 -6.179549e-001 3.172757e+000 49 29 35
6.458653e-001 -6.250903e-001 3.174195e+000 40 66 110
6.447911e-001 -6.524343e-001 3.197604e+000 127 88 77
6.950681e-001 -6.667537e-001 3.150107e+000 179 131 99
6.192571e-001 -4.313637e-001 3.604906e+000 99 83 59
6.390334e-001 -4.591425e-001 3.581398e+000 130 112 76
6.390334e-001 -4.591425e-001 3.581398e+000 130 112 76
6.248044e-001 -4.292815e-001 3.603553e+000 24 19 14
6.260527e-001 -4.459632e-001 3.600475e+000 59 47 31
6.319914e-001 -4.401021e-001 3.597311e+000 103 87 56
6.319914e-001 -4.401021e-001 3.597311e+000 103 87 56
6.359267e-001 -4.440257e-001 3.591008e+000 19 14 11
6.433446e-001 -4.885163e-001 3.576587e+000 30 21 16
6.433446e-001 -4.885163e-001 3.576587e+000 30 21 16
6.265609e-001 -4.326078e-001 3.603454e+000 27 21 21
7.206650e-001 -6.599690e-001 3.156304e+000 173 136 91
6.327383e-001 -4.659505e-001 3.579911e+000 173 150 96
6.318959e-001 -4.353846e-001 3.073064e+000 149 42 44
7.270117e-001 -5.181931e-001 3.085999e+000 129 24 20
7.031236e-001 -5.837629e-001 3.102516e+000 115 45 35
7.544308e-001 -5.780785e-001 3.190475e+000 202 58 52
7.446860e-001 -5.921923e-001 3.155038e+000 210 51 53
7.459725e-001 -5.916965e-001 3.152786e+000 210 51 53
7.454058e-001 -5.929923e-001 3.157662e+000 126 31 23
7.226403e-001 -6.029439e-001 3.120907e+000 185 109 80
7.297114e-001 -6.044777e-001 3.133073e+000 136 20 31
7.314729e-001 -6.038128e-001 3.133068e+000 138 25 25
7.518785e-001 -5.968798e-001 3.173805e+000 243 62 59
7.518785e-001 -5.968798e-001 3.173805e+000 243 62 59
7.503947e-001 -5.985080e-001 3.173053e+000 233 65 69
7.508473e-001 -5.984488e-001 3.172253e+000 233 65 69
7.274236e-001 -6.139194e-001 3.130827e+000 233 75 71
7.350780e-001 -6.079691e-001 3.138741e+000 142 19 22
7.389003e-001 -6.094374e-001 3.149136e+000 149 20 25
7.416987e-001 -6.100415e-001 3.153059e+000 130 20 25
7.405003e-001 -6.125275e-001 3.154613e+000 208 49 56
7.448030e-001 -6.074334e-001 3.159272e+000 136 24 26
7.484495e-001 -6.046844e-001 3.165638e+000 223 76 69
7.363003e-001 -6.268433e-001 3.151614e+000 185 106 79
7.466767e-001 -6.289719e-001 3.176435e+000 171 55 27
7.462710e-001 -6.326905e-001 3.175542e+000 168 61 27
7.360797e-001 -6.389581e-001 3.158509e+000 167 118 71
7.418238e-001 -6.390121e-001 3.173253e+000 175 115 69
7.447177e-001 -6.424165e-001 3.180074e+000 181 94 39
7.342652e-001 -6.488811e-001 3.159826e+000 171 124 65
7.347043e-001 -6.512956e-001 3.162124e+000 170 122 73
7.478080e-001 -6.459318e-001 3.187113e+000 102 70 28
7.285069e-001 -6.839794e-001 3.176399e+000 111 48 44
7.388380e-001 -5.137173e-001 3.103295e+000 137 22 25
7.069444e-001 -5.587452e-001 3.087442e+000 157 54 42
7.273600e-001 -6.045532e-001 3.125073e+000 224 103 90
7.469168e-001 -6.033763e-001 3.162434e+000 206 61 53
7.493316e-001 -6.035349e-001 3.168977e+000 202 59 52
7.244689e-001 -6.137561e-001 3.129473e+000 141 26 26
7.427894e-001 -6.091240e-001 3.156097e+000 137 23 30
7.449914e-001 -6.087844e-001 3.158214e+000 215 74 65
7.341777e-001 -6.176927e-001 3.140805e+000 211 66 60
7.414236e-001 -6.213138e-001 3.158325e+000 188 115 68
7.191718e-001 -6.277178e-001 3.127859e+000 126 16 24
7.384585e-001 -6.234680e-001 3.156084e+000 187 112 79
7.417705e-001 -6.232420e-001 3.161057e+000 107 47 23
7.433737e-001 -6.219706e-001 3.164202e+000 83 38 21
7.357997e-001 -6.259726e-001 3.151857e+000 191 112 74
7.357997e-001 -6.259726e-001 3.151857e+000 191 112 74
6.327301e-001 -4.276686e-001 3.069307e+000 174 34 48
7.506360e-001 -5.823743e-001 3.167770e+000 149 25 21
7.461272e-001 -6.145852e-001 3.164560e+000 76 38 17
7.461272e-001 -6.145852e-001 3.164560e+000 76 38 17
7.457883e-001 -6.494515e-001 3.184148e+000 56 35 14
7.463049e-001 -5.993470e-001 3.164441e+000 148 21 24
7.463049e-001 -5.993470e-001 3.164441e+000 148 21 24
7.267612e-001 -4.332905e-001 3.047889e+000 45 87 95
6.919278e-001 -6.492544e-001 3.142227e+000 100 50 24
6.521820e-001 -4.925139e-001 3.085912e+000 160 155 149
7.230626e-001 -6.204743e-001 3.145495e+000 198 67 62
6.888351e-001 -6.314074e-001 3.142384e+000 156 81 66
6.423194e-001 -6.499425e-001 3.203399e+000 143 102 88
7.246957e-001 -6.621351e-001 3.174260e+000 108 85 62
7.161237e-001 -6.914546e-001 3.180567e+000 121 32 28
7.315803e-001 -6.340816e-001 3.166529e+000 143 104 63
6.446155e-001 -6.537077e-001 3.198438e+000 139 95 84
6.430984e-001 -6.557424e-001 3.203132e+000 152 97 87
7.211831e-001 -6.188753e-001 3.143147e+000 147 37 40
7.172013e-001 -6.882180e-001 3.180292e+000 114 39 34
6.689605e-001 -4.177066e-001 3.559559e+000 80 64 56
6.763891e-001 -4.188210e-001 3.548654e+000 98 82 66
6.394374e-001 -6.201699e-001 3.188719e+000 25 61 119
6.638416e-001 -4.592074e-001 3.564566e+000 163 139 93
6.815811e-001 -4.689570e-001 3.545042e+000 32 23 16
6.815811e-001 -4.689570e-001 3.545042e+000 32 23 16
6.450190e-001 -6.456297e-001 3.185842e+000 168 100 39
7.210714e-001 -6.813335e-001 3.180986e+000 192 156 131
6.768204e-001 -4.676997e-001 3.548602e+000 161 136 96
6.807616e-001 -4.802599e-001 3.543956e+000 141 119 78
6.797596e-001 -4.896648e-001 3.542826e+000 139 117 76
7.307092e-001 -6.808834e-001 3.196650e+000 33 21 25
6.845492e-001 -4.878243e-001 3.532495e+000 168 144 100
6.975789e-001 -6.602904e-001 3.159694e+000 44 12 16
6.743238e-001 -4.508231e-001 3.554639e+000 165 138 95
6.743238e-001 -4.508231e-001 3.554639e+000 165 138 95
6.412437e-001 -6.306410e-001 3.192168e+000 151 121 111
7.213447e-001 -6.667997e-001 3.177955e+000 191 163 126
6.993978e-001 -6.404238e-001 3.233781e+000 157 126 108
7.251121e-001 -4.243128e-001 3.038489e+000 204 129 86
7.367606e-001 -4.189307e-001 3.053716e+000 226 134 97
7.414675e-001 -4.158457e-001 3.060895e+000 230 128 87
7.439657e-001 -4.203919e-001 3.071602e+000 29 67 51
7.492015e-001 -4.306113e-001 3.091586e+000 47 54 13
7.334133e-001 -4.971799e-001 3.086139e+000 88 57 41
7.334133e-001 -4.971799e-001 3.086139e+000 88 57 41
7.247378e-001 -5.198885e-001 3.084140e+000 162 35 35
7.232228e-001 -5.308789e-001 3.087599e+000 9 50 73
7.404090e-001 -5.211572e-001 3.108960e+000 16 63 83
7.112728e-001 -5.735401e-001 3.098328e+000 198 87 69
7.263526e-001 -5.704255e-001 3.109180e+000 200 122 89
7.016740e-001 -5.835926e-001 3.105086e+000 136 51 42
7.127414e-001 -5.830120e-001 3.108797e+000 132 40 30
7.574571e-001 -5.717002e-001 3.177312e+000 196 124 83
7.526605e-001 -5.841010e-001 3.169150e+000 143 32 30
7.559658e-001 -5.815514e-001 3.177372e+000 205 60 52
7.565282e-001 -5.770528e-001 3.177859e+000 206 59 55
7.549757e-001 -5.802716e-001 3.186757e+000 141 30 25
7.453599e-001 -5.946665e-001 3.151311e+000 141 24 26
7.478816e-001 -5.904120e-001 3.152878e+000 208 61 55
7.457644e-001 -5.938494e-001 3.152865e+000 134 32 28
7.527466e-001 -5.885451e-001 3.168059e+000 150 29 32
7.511443e-001 -5.887774e-001 3.171332e+000 150 29 32
7.544464e-001 -5.858212e-001 3.170709e+000 150 26 24
7.562188e-001 -5.899425e-001 3.186042e+000 161 26 34
7.356494e-001 -6.041808e-001 3.140755e+000 135 22 24
7.461275e-001 -5.967980e-001 3.161423e+000 204 52 51
7.241250e-001 -6.104039e-001 3.131298e+000 135 27 30
7.258100e-001 -6.143520e-001 3.134197e+000 232 70 68
7.409511e-001 -6.122538e-001 3.154033e+000 232 70 74
7.470057e-001 -6.055438e-001 3.163282e+000 144 28 30
7.463542e-001 -6.038179e-001 3.165028e+000 223 60 66
7.463206e-001 -6.038334e-001 3.164966e+000 223 60 66
7.500586e-001 -6.018212e-001 3.167625e+000 139 23 29
7.280539e-001 -6.179022e-001 3.139822e+000 153 22 29
7.294459e-001 -6.176507e-001 3.136800e+000 153 22 29
7.294900e-001 -6.177756e-001 3.141944e+000 131 23 29
7.310611e-001 -6.175222e-001 3.138800e+000 131 23 29
7.593918e-001 -6.116918e-001 3.214555e+000 187 111 54
7.478333e-001 -6.276588e-001 3.174160e+000 118 32 4
7.574095e-001 -6.263092e-001 3.198923e+000 120 44 6
7.296801e-001 -6.422330e-001 3.155196e+000 183 128 76
7.329563e-001 -6.441594e-001 3.162357e+000 114 80 46
7.475453e-001 -6.359202e-001 3.179866e+000 132 43 7
7.495233e-001 -6.339713e-001 3.180718e+000 137 54 18
7.317271e-001 -6.462190e-001 3.158449e+000 174 125 80
7.543838e-001 -6.479737e-001 3.202174e+000 188 145 100
7.599767e-001 -6.478074e-001 3.220143e+000 49 19 12
7.524978e-001 -6.545515e-001 3.200702e+000 174 86 29
7.476335e-001 -4.395657e-001 3.092082e+000 65 91 64
7.492361e-001 -5.115556e-001 3.128507e+000 26 59 79
7.167585e-001 -5.514064e-001 3.091999e+000 196 127 99
7.444995e-001 -5.695816e-001 3.139651e+000 67 31 7
7.548276e-001 -5.746563e-001 3.180161e+000 151 26 29
7.543612e-001 -5.798809e-001 3.179565e+000 140 30 27
7.534511e-001 -5.806339e-001 3.174077e+000 207 63 54
7.575137e-001 -5.782339e-001 3.182877e+000 211 55 55
7.583510e-001 -5.746712e-001 3.195011e+000 43 21 5
7.275275e-001 -5.985175e-001 3.125584e+000 135 84 61
7.397766e-001 -5.964248e-001 3.144059e+000 185 47 46
7.490122e-001 -5.872842e-001 3.160965e+000 175 33 32
7.504411e-001 -5.884468e-001 3.161016e+000 139 29 28
7.578995e-001 -5.878014e-001 3.187064e+000 230 62 57
7.578995e-001 -5.878014e-001 3.187064e+000 230 62 57
7.224960e-001 -6.081451e-001 3.121663e+000 125 30 32
7.338458e-001 -6.068221e-001 3.139090e+000 231 74 78
7.338458e-001 -6.068221e-001 3.139090e+000 231 74 78
7.415107e-001 -5.986908e-001 3.147087e+000 202 66 62
7.415107e-001 -5.986908e-001 3.147087e+000 202 66 62
7.407726e-001 -6.007200e-001 3.147468e+000 132 27 26
7.412329e-001 -6.001777e-001 3.150164e+000 134 28 27
7.424361e-001 -5.998798e-001 3.148276e+000 134 28 27
7.434318e-001 -5.983113e-001 3.155348e+000 141 28 27
7.434318e-001 -5.983113e-001 3.155348e+000 141 28 27
7.443959e-001 -5.986538e-001 3.149071e+000 137 24 28
7.443959e-001 -5.986538e-001 3.149071e+000 137 24 28
7.427195e-001 -6.029245e-001 3.149252e+000 146 23 29
7.215190e-001 -6.116451e-001 3.129764e+000 130 27 31
7.334723e-001 -6.146345e-001 3.140848e+000 192 55 54
7.253425e-001 -6.193705e-001 3.128262e+000 224 61 67
7.253527e-001 -6.194534e-001 3.128210e+000 224 61 67
7.231759e-001 -6.214693e-001 3.131399e+000 131 22 38
7.253455e-001 -6.200528e-001 3.139690e+000 135 28 33
7.354699e-001 -6.144588e-001 3.145611e+000 135 30 35
7.541488e-001 -6.119825e-001 3.182757e+000 190 130 77
7.298011e-001 -6.289490e-001 3.147503e+000 197 114 89
7.383305e-001 -6.396929e-001 3.163244e+000 175 128 76
7.290391e-001 -6.480780e-001 3.159072e+000 170 130 80
6.346017e-001 -4.375669e-001 3.070049e+000 190 38 52
7.317637e-001 -5.257016e-001 3.096457e+000 15 52 70
7.524325e-001 -5.326597e-001 3.149357e+000 137 81 55
7.426567e-001 -5.509846e-001 3.127530e+000 72 42 28
7.525676e-001 -5.667454e-001 3.167356e+000 129 82 48
7.266932e-001 -5.801296e-001 3.114683e+000 135 79 60
7.322147e-001 -6.030705e-001 3.135529e+000 133 31 24
7.272711e-001 -6.123607e-001 3.133700e+000 131 28 22
7.272711e-001 -6.123607e-001 3.133700e+000 131 28 22
7.302397e-001 -6.125233e-001 3.134300e+000 228 58 67
7.294588e-001 -6.144765e-001 3.139567e+000 145 25 29
7.211638e-001 -6.240260e-001 3.135091e+000 213 83 76
7.524166e-001 -6.109574e-001 3.176747e+000 191 130 83
7.413362e-001 -6.233528e-001 3.161923e+000 165 96 72
7.241559e-001 -6.837648e-001 3.175249e+000 75 16 16
7.133074e-001 -3.399644e-001 3.081267e+000 199 42 42
4.567156e-001 -4.768450e-001 3.401888e+000 112 87 70
4.354513e-001 -4.828432e-001 3.409936e+000 102 69 59
7.437075e-001 -4.687839e-001 3.088003e+000 35 52 21
7.404614e-001 -5.160620e-001 3.107756e+000 155 22 32
7.440868e-001 -5.128188e-001 3.114395e+000 145 23 30
7.069891e-001 -5.250254e-001 3.336451e+000 21 12 15
7.278850e-001 -5.600111e-001 3.105001e+000 159 95 65
7.284847e-001 -5.669496e-001 3.110718e+000 198 123 84
7.411949e-001 -5.765886e-001 3.134759e+000 82 40 16
7.546075e-001 -5.768038e-001 3.175495e+000 147 26 26
7.570284e-001 -5.760253e-001 3.187335e+000 151 24 33
7.423985e-001 -6.312456e-001 3.168924e+000 139 44 25
4.531868e-001 -4.724077e-001 3.401166e+000 87 69 59
7.348684e-001 -4.414805e-001 3.061963e+000 27 53 21
7.238865e-001 -5.225566e-001 3.083685e+000 164 71 49
7.318851e-001 -4.496872e-001 3.059559e+000 82 112 80
7.171358e-001 -5.760827e-001 3.101816e+000 189 117 93
7.568193e-001 -5.874027e-001 3.179496e+000 166 22 31
7.172816e-001 -6.256935e-001 3.133960e+000 155 21 35
4.500583e-001 -4.768335e-001 3.405155e+000 42 29 47
7.346738e-001 -6.333189e-001 3.151908e+000 180 123 78
7.584542e-001 -6.154757e-001 3.213162e+000 198 103 24
7.400680e-001 -4.058894e-001 3.071147e+000 12 86 116
7.271862e-001 -4.273653e-001 3.037919e+000 229 130 95
7.271862e-001 -4.273653e-001 3.037919e+000 229 130 95
7.279077e-001 -4.234731e-001 3.043423e+000 220 140 102
7.295356e-001 -4.225458e-001 3.045594e+000 220 140 105
7.317609e-001 -4.243932e-001 3.047184e+000 246 121 95
7.391916e-001 -4.172197e-001 3.057863e+000 216 134 88
7.387957e-001 -4.174592e-001 3.058498e+000 216 134 88
7.398412e-001 -4.148649e-001 3.064589e+000 157 51 33
7.412117e-001 -4.143358e-001 3.062262e+000 157 51 33
7.457159e-001 -4.357285e-001 3.075050e+000 40 53 11
7.448312e-001 -4.383791e-001 3.095467e+000 145 149 37
7.316758e-001 -4.495889e-001 3.059941e+000 87 114 102
7.316758e-001 -4.495889e-001 3.059941e+000 87 114 102
7.388555e-001 -4.496819e-001 3.068029e+000 94 116 53
7.398031e-001 -4.524443e-001 3.076121e+000 95 111 38
7.398031e-001 -4.524443e-001 3.076121e+000 95 111 38
7.457126e-001 -4.465647e-001 3.098838e+000 74 107 67
7.457126e-001 -4.465647e-001 3.098838e+000 74 107 67
7.483640e-001 -4.423896e-001 3.105715e+000 67 100 86
7.326579e-001 -4.554614e-001 3.074583e+000 90 116 106
7.364020e-001 -4.569753e-001 3.072678e+000 96 119 74
7.431225e-001 -4.535952e-001 3.085865e+000 80 105 68
7.453980e-001 -4.553537e-001 3.104074e+000 83 116 73
7.495227e-001 -4.566345e-001 3.130607e+000 161 156 116
7.347274e-001 -4.956156e-001 3.091874e+000 92 41 36
7.347274e-001 -4.956156e-001 3.091874e+000 92 41 36
7.368335e-001 -4.947803e-001 3.092622e+000 88 43 35
7.404102e-001 -4.927798e-001 3.096949e+000 94 40 34
7.404102e-001 -4.927798e-001 3.096949e+000 94 40 34
7.429323e-001 -4.891251e-001 3.103174e+000 178 145 110
7.429323e-001 -4.891251e-001 3.103174e+000 178 145 110
7.437751e-001 -4.894695e-001 3.110622e+000 182 149 118
7.465626e-001 -4.911720e-001 3.107087e+000 111 79 59
7.392029e-001 -5.113709e-001 3.104426e+000 228 153 114
7.462677e-001 -5.072808e-001 3.111950e+000 239 143 97
7.473535e-001 -5.062919e-001 3.114084e+000 226 142 100
7.458949e-001 -5.069507e-001 3.119341e+000 133 29 17
7.458949e-001 -5.069507e-001 3.119341e+000 133 29 17
7.469779e-001 -5.042845e-001 3.122363e+000 244 147 96
7.225968e-001 -5.212228e-001 3.077769e+000 242 141 110
7.225968e-001 -5.212228e-001 3.077769e+000 242 141 110
7.241842e-001 -5.212425e-001 3.084241e+000 222 154 108
7.306571e-001 -5.195444e-001 3.093681e+000 222 145 106
7.342004e-001 -5.181014e-001 3.091801e+000 228 146 109
7.361825e-001 -5.161718e-001 3.100564e+000 232 145 112
7.408651e-001 -5.133876e-001 3.107702e+000 222 148 111
7.402849e-001 -5.271643e-001 3.106306e+000 19 80 103
7.405496e-001 -5.369612e-001 3.119379e+000 52 26 13
7.528685e-001 -5.317675e-001 3.150689e+000 202 126 82
7.241446e-001 -5.610733e-001 3.102756e+000 205 130 95
7.136650e-001 -5.707362e-001 3.093169e+000 248 101 96
7.312947e-001 -5.627168e-001 3.112888e+000 199 126 95
7.313257e-001 -5.626522e-001 3.112844e+000 199 126 95
6.895964e-001 -5.831677e-001 3.111899e+000 202 82 85
6.919729e-001 -5.860252e-001 3.115102e+000 169 57 58
7.411238e-001 -5.808090e-001 3.139221e+000 196 125 94
6.810464e-001 -6.036702e-001 3.133484e+000 77 133 209
7.516426e-001 -5.873723e-001 3.162694e+000 135 33 29
7.575110e-001 -5.805535e-001 3.181727e+000 142 30 29
7.266114e-001 -6.052400e-001 3.122920e+000 226 104 88
7.386788e-001 -6.006419e-001 3.145565e+000 252 82 74
7.385058e-001 -6.003600e-001 3.146314e+000 252 82 74
7.424858e-001 -5.945477e-001 3.149008e+000 228 63 67
7.515592e-001 -5.906268e-001 3.174219e+000 154 24 30
7.198918e-001 -6.130276e-001 3.134746e+000 241 92 90
7.403881e-001 -6.095319e-001 3.152562e+000 214 57 54
7.152686e-001 -6.240817e-001 3.141492e+000 234 77 79
6.400024e-001 -4.282400e-001 3.058659e+000 163 49 58
7.370522e-001 -4.151820e-001 3.052785e+000 167 38 38
7.430027e-001 -4.190115e-001 3.070699e+000 177 158 122
6.351419e-001 -4.554711e-001 3.082095e+000 159 180 93
7.431049e-001 -4.435975e-001 3.071608e+000 52 100 95
6.470913e-001 -4.813941e-001 3.085938e+000 146 162 99
7.212770e-001 -4.636481e-001 3.049518e+000 153 146 26
7.200735e-001 -4.639329e-001 3.051033e+000 153 146 26
6.518931e-001 -4.949230e-001 3.089365e+000 49 62 36
7.365416e-001 -4.965495e-001 3.092215e+000 179 147 124
6.420752e-001 -5.361854e-001 3.129419e+000 167 89 83
7.269754e-001 -5.201018e-001 3.084019e+000 210 158 113
7.403111e-001 -5.176357e-001 3.109975e+000 25 75 104
7.177093e-001 -5.305155e-001 3.079915e+000 22 84 115
7.558229e-001 -5.197680e-001 3.150485e+000 89 44 21
7.558229e-001 -5.197680e-001 3.150485e+000 89 44 21
6.661404e-001 -5.166941e-001 3.372277e+000 22 15 13
7.228178e-001 -5.485825e-001 3.088628e+000 116 57 44
7.228178e-001 -5.485825e-001 3.088628e+000 116 57 44
7.214561e-001 -5.625080e-001 3.103175e+000 71 38 25
7.270970e-001 -5.604941e-001 3.104975e+000 72 37 29
7.427156e-001 -5.513465e-001 3.119380e+000 195 123 98
6.965388e-001 -5.788922e-001 3.106413e+000 169 52 52
7.254253e-001 -5.764289e-001 3.109886e+000 126 70 54
7.286926e-001 -5.746153e-001 3.114405e+000 133 72 38
7.286926e-001 -5.746153e-001 3.114405e+000 133 72 38
7.519807e-001 -5.618429e-001 3.164950e+000 84 49 26
7.059320e-001 -5.863264e-001 3.096358e+000 172 48 50
7.548385e-001 -5.712153e-001 3.165632e+000 117 74 47
7.555365e-001 -5.706765e-001 3.175279e+000 196 129 84
7.539065e-001 -5.764809e-001 3.172521e+000 200 120 82
7.574985e-001 -5.771732e-001 3.176047e+000 206 57 53
7.567030e-001 -5.785285e-001 3.184453e+000 208 62 57
7.497992e-001 -5.904923e-001 3.161783e+000 213 64 62
7.565126e-001 -5.832710e-001 3.177325e+000 145 32 35
7.540956e-001 -5.834730e-001 3.181714e+000 145 32 35
7.523474e-001 -5.855376e-001 3.182519e+000 222 64 68
7.271431e-001 -6.064827e-001 3.124685e+000 142 30 29
7.244928e-001 -6.054759e-001 3.138469e+000 155 23 31
7.399038e-001 -5.985202e-001 3.153690e+000 214 65 60
7.399038e-001 -5.985202e-001 3.153690e+000 214 65 60
7.465287e-001 -5.947386e-001 3.161457e+000 142 30 29
7.305368e-001 -6.082306e-001 3.132416e+000 152 30 33
7.305368e-001 -6.082306e-001 3.132416e+000 152 30 33
7.278581e-001 -6.171213e-001 3.149921e+000 150 29 30
7.353344e-001 -6.161863e-001 3.147098e+000 235 78 72
7.255651e-001 -4.172075e-001 3.023452e+000 33 92 113
7.328942e-001 -4.406707e-001 3.059222e+000 150 156 36
7.328942e-001 -4.406707e-001 3.059222e+000 150 156 36
6.376719e-001 -4.700336e-001 3.089658e+000 45 59 36
7.472738e-001 -4.445047e-001 3.094460e+000 61 102 109
7.475799e-001 -4.568634e-001 3.103471e+000 167 156 27
7.475394e-001 -4.566908e-001 3.103596e+000 167 156 27
7.345423e-001 -4.966527e-001 3.088134e+000 174 145 125
7.527764e-001 -5.013979e-001 3.151939e+000 20 55 74
6.370936e-001 -5.385312e-001 3.137946e+000 146 50 53
6.465554e-001 -5.375038e-001 3.124195e+000 196 121 123
6.505991e-001 -5.396647e-001 3.120558e+000 198 116 118
7.528952e-001 -5.125188e-001 3.143822e+000 23 81 111
7.546110e-001 -5.214843e-001 3.154105e+000 200 123 81
7.546110e-001 -5.214843e-001 3.154105e+000 200 123 81
6.655526e-001 -5.567467e-001 3.114460e+000 70 60 109
7.466757e-001 -5.347151e-001 3.117086e+000 85 46 20
7.080274e-001 -5.587480e-001 3.083512e+000 177 57 58
7.529797e-001 -5.357720e-001 3.158959e+000 126 71 42
7.543958e-001 -5.350568e-001 3.157353e+000 126 71 42
7.441594e-001 -5.507426e-001 3.124637e+000 52 23 12
7.537587e-001 -5.501219e-001 3.165636e+000 118 73 46
7.522603e-001 -5.521049e-001 3.160890e+000 130 91 62
7.552192e-001 -5.551211e-001 3.164930e+000 127 88 62
7.522980e-001 -5.666482e-001 3.167037e+000 145 98 66
7.414171e-001 -5.815166e-001 3.135446e+000 165 101 81
7.414202e-001 -5.861758e-001 3.138296e+000 85 51 37
7.430700e-001 -5.800988e-001 3.143320e+000 82 47 28
7.291105e-001 -5.939398e-001 3.122511e+000 149 102 75
7.291105e-001 -5.939398e-001 3.122511e+000 149 102 75
7.487793e-001 -5.935372e-001 3.166665e+000 165 32 28
7.375876e-001 -6.044190e-001 3.145487e+000 162 34 20
