ply
format ascii 1.0
element face 0
property list uchar int vertex_indices
element vertex 901
property float x
property float y
property float z
property uchar diffuse_red
property uchar diffuse_green
property uchar diffuse_blue
end_header
9.226223e-001 -4.863250e-001 3.273793e+000 20 65 93
9.017922e-001 -5.246181e-001 3.294389e+000 27 14 16
8.348657e-001 -5.703852e-001 3.299808e+000 180 79 47
9.176970e-001 -5.328549e-001 3.285495e+000 159 123 101
8.320498e-001 -5.332931e-001 3.270169e+000 162 37 45
8.829459e-001 -5.272074e-001 3.302997e+000 137 96 88
9.267180e-001 -5.942601e-001 3.284253e+000 145 102 60
8.778979e-001 -5.656850e-001 3.311855e+000 159 113 80
8.248974e-001 -5.931586e-001 3.287177e+000 186 157 130
8.281778e-001 -5.991462e-001 3.294965e+000 167 130 101
9.145912e-001 -4.314810e-001 3.273423e+000 160 147 115
8.909694e-001 -4.444244e-001 3.282843e+000 187 139 112
8.867942e-001 -4.629173e-001 3.288483e+000 155 25 35
8.833771e-001 -4.767717e-001 3.291550e+000 21 71 111
8.635720e-001 -6.094134e-001 3.330513e+000 37 26 34
8.347742e-001 -5.651168e-001 3.281881e+000 198 143 102
9.018348e-001 -5.912686e-001 3.299245e+000 155 113 73
9.018348e-001 -5.912686e-001 3.299245e+000 155 113 73
9.182484e-001 -3.407719e-001 3.234398e+000 208 185 143
9.187407e-001 -3.417975e-001 3.236909e+000 208 185 142
9.223852e-001 -3.402583e-001 3.234485e+000 116 96 68
9.228172e-001 -3.417547e-001 3.233340e+000 197 174 139
9.371487e-001 -3.474032e-001 3.232628e+000 201 175 137
9.261172e-001 -3.774555e-001 3.252783e+000 203 133 100
9.297560e-001 -3.786998e-001 3.250514e+000 208 133 100
9.369031e-001 -3.859200e-001 3.248142e+000 150 156 132
9.465482e-001 -4.030202e-001 3.247252e+000 44 51 17
9.064695e-001 -4.378157e-001 3.275667e+000 114 40 30
9.064695e-001 -4.378157e-001 3.275667e+000 114 40 30
9.062907e-001 -4.702848e-001 3.282348e+000 111 17 21
9.314026e-001 -4.918645e-001 3.271421e+000 33 56 70
9.314026e-001 -4.918645e-001 3.271421e+000 33 56 70
9.025060e-001 -4.833025e-001 3.286126e+000 20 61 74
8.940837e-001 -4.955837e-001 3.292392e+000 72 31 27
9.053703e-001 -5.006964e-001 3.287527e+000 127 83 88
9.053870e-001 -5.006452e-001 3.287604e+000 127 83 88
9.160781e-001 -5.024785e-001 3.282643e+000 131 77 89
9.160377e-001 -5.026220e-001 3.282524e+000 131 77 89
8.886983e-001 -4.996738e-001 3.295357e+000 60 31 29
8.993983e-001 -5.077573e-001 3.292107e+000 64 43 45
9.303853e-001 -5.293245e-001 3.277308e+000 30 54 66
8.868753e-001 -5.073587e-001 3.297886e+000 125 95 91
9.102675e-001 -5.448189e-001 3.292701e+000 133 84 79
9.102675e-001 -5.448189e-001 3.292701e+000 133 84 79
8.942453e-001 -5.451868e-001 3.299851e+000 102 76 79
9.235188e-001 -3.438574e-001 3.237965e+000 206 182 144
9.274285e-001 -3.744420e-001 3.251682e+000 151 34 41
9.126593e-001 -3.734102e-001 3.260183e+000 155 39 40
8.617156e-001 -3.939788e-001 3.243605e+000 140 151 41
8.590987e-001 -4.395519e-001 3.267309e+000 123 41 35
8.670039e-001 -4.409677e-001 3.275951e+000 94 39 49
8.657200e-001 -4.475663e-001 3.277393e+000 26 73 91
8.759870e-001 -4.795125e-001 3.285329e+000 125 83 57
9.006515e-001 -5.081520e-001 3.291707e+000 122 95 98
9.108400e-001 -5.119691e-001 3.287608e+000 76 60 63
8.812990e-001 -5.153129e-001 3.300672e+000 105 68 60
8.453494e-001 -5.270640e-001 3.293511e+000 207 58 69
8.388940e-001 -5.435108e-001 3.290499e+000 191 136 94
8.759886e-001 -5.373927e-001 3.308419e+000 102 66 68
9.136358e-001 -3.689636e-001 3.259230e+000 200 142 104
8.943920e-001 -3.828945e-001 3.268726e+000 79 104 103
8.777502e-001 -5.021606e-001 3.299150e+000 68 28 31
9.138422e-001 -5.268301e-001 3.287281e+000 85 67 66
9.075596e-001 -5.386035e-001 3.292304e+000 156 108 91
8.771322e-001 -5.623899e-001 3.312865e+000 154 107 69
9.051376e-001 -3.653978e-001 3.262375e+000 169 35 41
9.120934e-001 -3.676587e-001 3.259566e+000 166 31 41
9.121307e-001 -3.677068e-001 3.259398e+000 166 31 41
9.102010e-001 -3.682534e-001 3.260876e+000 197 143 111
9.403309e-001 -4.067939e-001 3.251344e+000 138 138 53
9.294586e-001 -5.210642e-001 3.274296e+000 113 18 26
9.270982e-001 -5.264710e-001 3.279393e+000 23 55 71
9.263699e-001 -5.338043e-001 3.279700e+000 23 54 74
8.890728e-001 -5.300538e-001 3.299790e+000 135 111 89
9.233956e-001 -5.793304e-001 3.284045e+000 110 66 32
9.411967e-001 -3.496630e-001 3.230362e+000 199 177 136
9.095170e-001 -3.893235e-001 3.264800e+000 155 148 41
9.095170e-001 -3.893235e-001 3.264800e+000 155 148 41
9.358049e-001 -4.630522e-001 3.264812e+000 118 75 51
9.142184e-001 -4.701213e-001 3.278004e+000 109 34 26
9.132204e-001 -4.858795e-001 3.281199e+000 97 122 119
9.132567e-001 -4.859145e-001 3.281274e+000 97 122 119
9.383173e-001 -5.413430e-001 3.265681e+000 135 106 84
9.090489e-001 -5.392002e-001 3.294133e+000 97 52 44
9.137082e-001 -5.431291e-001 3.289758e+000 96 53 40
9.467417e-001 -4.265221e-001 3.251981e+000 102 120 99
8.996562e-001 -4.125121e-001 3.274311e+000 26 52 27
9.253409e-001 -4.291664e-001 3.266416e+000 29 48 26
9.380544e-001 -4.522782e-001 3.262397e+000 100 43 32
9.163858e-001 -4.446654e-001 3.272522e+000 151 138 110
9.163858e-001 -4.446654e-001 3.272522e+000 151 138 110
8.653378e-001 -4.426862e-001 3.274687e+000 22 68 104
9.266296e-001 -4.607141e-001 3.268612e+000 153 143 108
9.406921e-001 -4.767285e-001 3.262466e+000 140 23 31
9.413732e-001 -3.796488e-001 3.247998e+000 19 75 98
9.354144e-001 -4.576312e-001 3.264610e+000 160 138 107
9.159734e-001 -4.835753e-001 3.277931e+000 16 61 90
9.419403e-001 -5.139227e-001 3.259587e+000 141 63 50
9.027621e-001 -4.257306e-001 3.275142e+000 160 146 119
9.293707e-001 -4.981489e-001 3.274297e+000 100 23 25
9.293707e-001 -4.981489e-001 3.274297e+000 100 23 25
9.579038e-001 -4.158766e-001 3.233961e+000 82 104 102
9.152228e-001 -5.342633e-001 3.288502e+000 145 118 91
8.934099e-001 -3.674263e-001 3.262248e+000 85 117 124
9.088848e-001 -4.368188e-001 3.268356e+000 155 144 114
9.316226e-001 -3.476823e-001 3.240484e+000 57 46 28
9.130617e-001 -3.711065e-001 3.259788e+000 128 41 24
9.140282e-001 -3.734703e-001 3.259301e+000 206 129 85
9.157150e-001 -3.738142e-001 3.258542e+000 199 137 92
9.203448e-001 -3.710399e-001 3.255508e+000 211 136 96
9.194941e-001 -3.750957e-001 3.256444e+000 200 139 96
9.050159e-001 -3.727992e-001 3.263844e+000 223 130 96
9.383131e-001 -4.522611e-001 3.260520e+000 87 36 25
8.920019e-001 -4.471263e-001 3.283709e+000 186 127 84
8.919947e-001 -4.471240e-001 3.283709e+000 186 127 84
6.685130e-001 -6.281727e-001 3.077282e+000 60 48 48
8.555273e-001 -4.654498e-001 3.272115e+000 139 83 54
8.593372e-001 -4.608258e-001 3.275137e+000 119 68 43
9.101783e-001 -4.675544e-001 3.279746e+000 213 142 99
9.138953e-001 -4.687891e-001 3.277886e+000 207 135 96
9.132872e-001 -4.722898e-001 3.278955e+000 242 131 101
9.132889e-001 -4.722937e-001 3.278969e+000 242 131 101
9.208591e-001 -4.709472e-001 3.274467e+000 209 137 84
9.202097e-001 -4.748190e-001 3.275211e+000 207 131 83
9.095306e-001 -4.711645e-001 3.280738e+000 218 119 84
9.095306e-001 -4.711645e-001 3.280738e+000 218 119 84
9.096334e-001 -4.865084e-001 3.283483e+000 30 56 68
9.193156e-001 -4.967354e-001 3.279455e+000 137 63 33
9.025602e-001 -5.085562e-001 3.290632e+000 146 117 110
9.041279e-001 -5.062665e-001 3.289330e+000 67 47 46
9.041933e-001 -5.060307e-001 3.289509e+000 67 47 46
9.109076e-001 -5.110236e-001 3.287034e+000 70 50 48
9.108895e-001 -5.110466e-001 3.287041e+000 70 50 48
9.347847e-001 -5.260165e-001 3.273211e+000 101 149 152
8.779657e-001 -4.995493e-001 3.298101e+000 70 30 26
8.986943e-001 -5.109398e-001 3.292975e+000 66 47 43
9.308375e-001 -5.322718e-001 3.276340e+000 71 100 104
9.076433e-001 -5.215054e-001 3.290353e+000 115 89 66
9.325249e-001 -3.475652e-001 3.238436e+000 203 177 121
9.344518e-001 -3.766576e-001 3.248399e+000 144 24 24
9.161197e-001 -3.718976e-001 3.257995e+000 192 137 90
9.526368e-001 -4.416162e-001 3.248735e+000 58 56 34
9.526488e-001 -4.415623e-001 3.248819e+000 58 56 34
8.598832e-001 -4.413553e-001 3.266885e+000 138 32 42
9.412063e-001 -4.647408e-001 3.261547e+000 174 133 94
9.411514e-001 -4.648635e-001 3.261392e+000 174 133 94
9.426507e-001 -4.827999e-001 3.261876e+000 172 130 90
9.214281e-001 -4.884999e-001 3.277151e+000 25 55 62
8.890209e-001 -4.931302e-001 3.293889e+000 162 86 65
8.952108e-001 -4.927860e-001 3.291643e+000 65 21 19
8.887888e-001 -5.073817e-001 3.297481e+000 109 82 65
8.532626e-001 -5.130798e-001 3.294066e+000 145 31 30
9.249671e-001 -3.438072e-001 3.237673e+000 212 175 130
9.258283e-001 -3.455025e-001 3.240451e+000 210 175 116
9.257371e-001 -3.455200e-001 3.240188e+000 210 175 116
9.301742e-001 -3.466247e-001 3.239087e+000 207 175 120
9.273924e-001 -3.746480e-001 3.251857e+000 153 29 28
9.273924e-001 -3.746480e-001 3.251857e+000 153 29 28
9.126885e-001 -3.734673e-001 3.260510e+000 149 40 26
8.510290e-001 -4.392672e-001 3.251002e+000 147 34 32
8.593278e-001 -4.395779e-001 3.264736e+000 199 114 85
8.636639e-001 -4.551673e-001 3.277773e+000 28 74 92
9.152511e-001 -4.869206e-001 3.280030e+000 24 61 79
8.788647e-001 -5.146561e-001 3.301765e+000 177 111 93
9.258626e-001 -3.718609e-001 3.251971e+000 160 35 31
9.120349e-001 -3.677176e-001 3.259479e+000 163 29 30
9.151755e-001 -3.686700e-001 3.257947e+000 167 23 28
9.181872e-001 -4.129257e-001 3.264720e+000 158 144 30
9.011651e-001 -4.401579e-001 3.278782e+000 160 32 27
8.653991e-001 -4.442413e-001 3.275063e+000 27 67 84
9.018782e-001 -5.027722e-001 3.290233e+000 83 51 52
8.934122e-001 -5.030506e-001 3.300964e+000 127 91 86
9.005477e-001 -5.131461e-001 3.293167e+000 71 50 45
9.161533e-001 -4.110609e-001 3.266260e+000 30 48 26
9.273576e-001 -4.322140e-001 3.264190e+000 163 145 60
9.384766e-001 -4.600213e-001 3.263041e+000 170 137 94
9.140962e-001 -4.703190e-001 3.277857e+000 114 30 14
9.008250e-001 -4.859070e-001 3.288155e+000 25 62 70
9.082460e-001 -5.193587e-001 3.288903e+000 130 98 81
9.082460e-001 -5.193587e-001 3.288903e+000 130 98 81
8.902348e-001 -5.114537e-001 3.297335e+000 80 61 57
9.294614e-001 -3.759179e-001 3.250810e+000 139 63 36
9.297771e-001 -4.002015e-001 3.255583e+000 26 49 28
8.828474e-001 -3.924005e-001 3.267690e+000 91 111 104
9.214443e-001 -4.061909e-001 3.261269e+000 162 144 64
9.265063e-001 -4.209888e-001 3.262801e+000 28 48 20
9.293591e-001 -4.481979e-001 3.266756e+000 161 141 96
9.398384e-001 -4.585367e-001 3.260055e+000 183 131 91
9.138810e-001 -4.558520e-001 3.275070e+000 157 142 101
9.409498e-001 -4.764868e-001 3.263288e+000 142 22 24
6.689733e-001 -6.256420e-001 3.085180e+000 158 142 129
8.585033e-001 -3.970399e-001 3.236793e+000 83 98 64
9.097801e-001 -4.067974e-001 3.267754e+000 159 143 84
9.097801e-001 -4.067974e-001 3.267754e+000 159 143 84
9.060789e-001 -4.092462e-001 3.270408e+000 28 48 23
9.437567e-001 -4.219458e-001 3.252137e+000 28 47 25
9.144505e-001 -4.176844e-001 3.268100e+000 162 143 74
9.144505e-001 -4.176844e-001 3.268100e+000 162 143 74
9.162349e-001 -4.451090e-001 3.272980e+000 157 138 96
9.162349e-001 -4.451090e-001 3.272980e+000 157 138 96
9.066865e-001 -4.529836e-001 3.278754e+000 157 142 99
9.066865e-001 -4.529836e-001 3.278754e+000 157 142 99
9.139776e-001 -4.557055e-001 3.274969e+000 160 141 101
9.247265e-001 -4.003959e-001 3.257587e+000 26 50 24
9.122683e-001 -4.128618e-001 3.267928e+000 24 51 28
9.178937e-001 -4.217549e-001 3.266462e+000 28 48 23
8.614125e-001 -4.532334e-001 3.274038e+000 24 75 100
9.056124e-001 -5.212619e-001 3.290730e+000 140 106 78
8.601311e-001 -5.194929e-001 3.299716e+000 57 18 19
8.866470e-001 -4.602752e-001 3.289717e+000 147 22 28
8.866470e-001 -4.602752e-001 3.289717e+000 147 22 28
8.852203e-001 -5.194556e-001 3.298633e+000 140 106 77
9.215290e-001 -4.518018e-001 3.270535e+000 156 139 95
9.137570e-001 -4.791789e-001 3.282018e+000 24 48 56
9.137570e-001 -4.791789e-001 3.282018e+000 24 48 56
9.473420e-001 -4.365265e-001 3.237218e+000 132 137 47
9.287566e-001 -3.458607e-001 3.238451e+000 53 37 13
9.255041e-001 -3.729584e-001 3.252427e+000 113 19 17
8.696169e-001 -3.839567e-001 3.251126e+000 27 65 74
9.341010e-001 -4.017860e-001 3.252330e+000 24 29 8
9.410228e-001 -4.574792e-001 3.259386e+000 75 36 18
8.876682e-001 -4.469304e-001 3.284574e+000 139 104 64
9.176748e-001 -4.698872e-001 3.276176e+000 187 104 64
9.176787e-001 -4.698680e-001 3.276204e+000 187 104 64
9.109007e-001 -4.688528e-001 3.279405e+000 80 20 11
9.181096e-001 -4.860798e-001 3.278712e+000 98 124 122
9.181188e-001 -4.860647e-001 3.278712e+000 98 124 122
9.296015e-001 -4.903708e-001 3.272451e+000 23 39 35
9.293173e-001 -4.918655e-001 3.272900e+000 25 38 38
9.302438e-001 -4.926714e-001 3.272643e+000 91 115 104
9.298890e-001 -4.938895e-001 3.271513e+000 91 115 104
8.799938e-001 -4.745365e-001 3.291654e+000 19 43 48
8.913148e-001 -4.928078e-001 3.293629e+000 125 60 46
8.903939e-001 -4.938183e-001 3.294353e+000 49 20 12
8.905670e-001 -4.960085e-001 3.293899e+000 121 59 48
9.045959e-001 -5.003041e-001 3.288859e+000 50 26 19
9.139851e-001 -5.016873e-001 3.283865e+000 97 63 60
9.139364e-001 -5.017278e-001 3.283827e+000 97 63 60
9.142534e-001 -5.041514e-001 3.283960e+000 99 57 51
9.142421e-001 -5.041321e-001 3.283931e+000 99 57 51
8.816370e-001 -5.010731e-001 3.298061e+000 93 45 43
8.890642e-001 -4.991042e-001 3.295841e+000 38 15 6
8.906370e-001 -5.026136e-001 3.295658e+000 54 26 22
8.944993e-001 -4.994005e-001 3.293505e+000 109 63 53
8.944993e-001 -4.994005e-001 3.293505e+000 109 63 53
8.657254e-001 -5.134311e-001 3.305245e+000 39 10 0
9.164835e-001 -3.699072e-001 3.257524e+000 158 101 67
9.298667e-001 -3.782851e-001 3.251110e+000 163 105 65
9.236752e-001 -3.784315e-001 3.254640e+000 151 105 63
9.018072e-001 -3.748233e-001 3.265320e+000 121 110 71
8.672013e-001 -3.866469e-001 3.248415e+000 85 99 55
8.557136e-001 -4.044020e-001 3.239036e+000 110 110 53
9.138519e-001 -4.735297e-001 3.279655e+000 105 17 21
9.250616e-001 -4.898071e-001 3.274929e+000 28 43 43
9.251443e-001 -4.895727e-001 3.275184e+000 28 43 43
9.213837e-001 -4.885935e-001 3.277050e+000 30 43 45
9.195175e-001 -4.902184e-001 3.278963e+000 21 41 46
8.845337e-001 -4.895397e-001 3.295263e+000 52 19 10
8.851766e-001 -4.947375e-001 3.296040e+000 123 60 41
8.924749e-001 -4.922158e-001 3.292845e+000 69 25 16
8.925609e-001 -4.920219e-001 3.292964e+000 69 25 16
8.894350e-001 -5.052790e-001 3.293578e+000 47 33 19
8.955517e-001 -5.055145e-001 3.293498e+000 63 39 34
9.057046e-001 -5.118228e-001 3.287739e+000 45 23 14
9.053761e-001 -5.124989e-001 3.289955e+000 58 40 36
8.868160e-001 -5.073692e-001 3.297950e+000 89 56 47
8.575523e-001 -4.040000e-001 3.243205e+000 109 109 53
8.578493e-001 -4.384611e-001 3.262927e+000 166 86 61
9.441846e-001 -4.661790e-001 3.259119e+000 124 102 61
8.456563e-001 -5.092677e-001 3.283107e+000 162 101 57
8.897194e-001 -5.051732e-001 3.295976e+000 97 61 51
9.050829e-001 -5.085898e-001 3.289377e+000 58 41 34
8.774371e-001 -5.026893e-001 3.298796e+000 50 20 18
9.070935e-001 -5.149554e-001 3.289807e+000 64 46 34
9.117119e-001 -4.095987e-001 3.267932e+000 21 37 18
9.055835e-001 -4.569579e-001 3.280369e+000 119 25 18
9.430220e-001 -4.822898e-001 3.261607e+000 120 104 59
8.964385e-001 -4.908885e-001 3.290776e+000 140 87 47
8.826374e-001 -5.051092e-001 3.298777e+000 54 24 21
9.080835e-001 -4.133689e-001 3.269864e+000 125 109 32
6.662781e-001 -6.301269e-001 3.081203e+000 121 109 87
9.096697e-001 -4.874404e-001 3.284785e+000 19 44 49
9.225977e-001 -4.921186e-001 3.277806e+000 21 44 48
9.225977e-001 -4.921186e-001 3.277806e+000 21 44 48
9.425393e-001 -5.218523e-001 3.246597e+000 114 48 32
9.281477e-001 -5.020915e-001 3.274949e+000 71 12 15
9.322209e-001 -5.254533e-001 3.274630e+000 17 40 45
8.989987e-001 -5.122791e-001 3.294169e+000 52 36 31
9.296158e-001 -3.965246e-001 3.254774e+000 122 111 29
9.138926e-001 -4.558721e-001 3.275015e+000 124 106 68
9.268652e-001 -4.596307e-001 3.268800e+000 123 106 69
8.965068e-001 -4.795953e-001 3.285446e+000 18 46 50
9.208553e-001 -4.998214e-001 3.280760e+000 61 36 39
9.194594e-001 -3.954781e-001 3.260736e+000 22 36 16
9.329758e-001 -3.997481e-001 3.254424e+000 23 36 22
9.331810e-001 -4.235219e-001 3.260087e+000 22 35 18
9.451382e-001 -4.343981e-001 3.253863e+000 118 105 52
9.451647e-001 -4.343677e-001 3.253896e+000 118 105 52
9.014551e-001 -4.239553e-001 3.275652e+000 123 109 61
9.291907e-001 -4.490876e-001 3.266756e+000 129 107 68
9.188422e-001 -4.846197e-001 3.276066e+000 17 42 50
8.956261e-001 -4.112271e-001 3.271039e+000 124 108 26
9.064206e-001 -3.901804e-001 3.262040e+000 20 37 18
9.354733e-001 -3.488334e-001 3.237202e+000 43 34 18
9.248857e-001 -3.460575e-001 3.243157e+000 52 45 26
9.248857e-001 -3.460575e-001 3.243157e+000 52 45 26
9.315015e-001 -3.479096e-001 3.239934e+000 53 37 20
9.113835e-001 -3.726347e-001 3.260746e+000 158 88 57
9.114241e-001 -3.750102e-001 3.260857e+000 184 86 61
9.114241e-001 -3.750102e-001 3.260857e+000 184 86 61
9.334926e-001 -4.035655e-001 3.253758e+000 77 76 36
8.961506e-001 -4.469480e-001 3.282482e+000 75 44 20
8.961506e-001 -4.469480e-001 3.282482e+000 75 44 20
9.417436e-001 -4.655463e-001 3.260523e+000 145 93 59
9.139239e-001 -4.687644e-001 3.277855e+000 169 96 65
9.193793e-001 -4.735863e-001 3.275721e+000 92 19 16
9.208945e-001 -4.709229e-001 3.274461e+000 165 99 64
9.216420e-001 -4.719525e-001 3.274228e+000 94 17 11
9.216420e-001 -4.719525e-001 3.274228e+000 94 17 11
9.211473e-001 -4.743788e-001 3.274439e+000 90 15 17
9.211473e-001 -4.743788e-001 3.274439e+000 90 15 17
9.077938e-001 -4.706063e-001 3.281682e+000 172 80 52
9.078227e-001 -4.705563e-001 3.281736e+000 172 80 52
9.089017e-001 -4.752248e-001 3.281714e+000 109 11 18
9.092785e-001 -4.849274e-001 3.283770e+000 97 118 107
9.126696e-001 -4.843733e-001 3.281215e+000 92 109 95
9.206535e-001 -4.868158e-001 3.277336e+000 88 106 91
9.192633e-001 -4.887962e-001 3.278012e+000 24 40 40
9.192633e-001 -4.887962e-001 3.278012e+000 24 40 40
9.242708e-001 -4.881547e-001 3.275067e+000 95 106 89
9.277634e-001 -4.906580e-001 3.273564e+000 96 114 98
9.239506e-001 -4.905545e-001 3.276306e+000 94 109 92
9.273674e-001 -4.922962e-001 3.273763e+000 93 117 103
9.275409e-001 -4.918519e-001 3.274192e+000 93 117 103
8.807170e-001 -4.872508e-001 3.295650e+000 142 91 44
8.892515e-001 -4.969735e-001 3.294715e+000 60 23 19
8.942577e-001 -4.951384e-001 3.292786e+000 46 16 12
8.935902e-001 -4.982269e-001 3.293183e+000 53 22 17
9.031913e-001 -5.096404e-001 3.291272e+000 52 36 28
8.807902e-001 -5.105548e-001 3.299968e+000 51 20 17
9.275607e-001 -3.741318e-001 3.251922e+000 109 17 14
9.305731e-001 -3.744206e-001 3.250085e+000 155 100 64
9.398365e-001 -3.761591e-001 3.245810e+000 117 60 40
9.247953e-001 -3.753901e-001 3.253631e+000 107 22 16
9.260780e-001 -3.898107e-001 3.254765e+000 48 64 53
9.412503e-001 -4.647090e-001 3.261483e+000 139 94 55
9.213155e-001 -4.790387e-001 3.275636e+000 191 58 55
9.214775e-001 -4.787124e-001 3.275893e+000 191 58 55
8.828893e-001 -4.835015e-001 3.293984e+000 136 88 39
8.818686e-001 -4.945302e-001 3.296717e+000 45 13 10
8.926066e-001 -4.985878e-001 3.294098e+000 117 56 46
8.922781e-001 -4.992589e-001 3.293631e+000 117 56 46
8.922153e-001 -5.004920e-001 3.294389e+000 62 30 23
9.029341e-001 -5.054845e-001 3.290176e+000 86 58 53
8.738589e-001 -5.030881e-001 3.299608e+000 63 25 24
8.928316e-001 -5.070521e-001 3.295438e+000 38 21 12
9.102607e-001 -3.667791e-001 3.259693e+000 121 21 24
9.137606e-001 -4.098691e-001 3.266529e+000 124 97 24
9.137606e-001 -4.098691e-001 3.266529e+000 124 97 24
9.002960e-001 -4.536316e-001 3.281746e+000 124 109 65
9.002960e-001 -4.536316e-001 3.281746e+000 124 109 65
8.943801e-001 -4.803813e-001 3.289534e+000 23 40 46
9.284545e-001 -4.962897e-001 3.275102e+000 94 23 21
8.957109e-001 -4.894434e-001 3.290309e+000 109 40 17
8.882822e-001 -5.012904e-001 3.295759e+000 80 44 28
8.895070e-001 -5.053708e-001 3.295756e+000 64 30 21
9.397726e-001 -4.618324e-001 3.261228e+000 131 98 62
9.003957e-001 -4.530909e-001 3.281971e+000 117 108 63
9.003957e-001 -4.530909e-001 3.281971e+000 117 108 63
9.048700e-001 -4.546188e-001 3.279960e+000 122 105 62
9.049125e-001 -4.545711e-001 3.280101e+000 122 105 62
8.809531e-001 -4.952138e-001 3.296854e+000 53 14 15
9.513154e-001 -4.377580e-001 3.249505e+000 95 92 49
9.039522e-001 -4.739789e-001 3.284074e+000 104 20 15
9.012908e-001 -4.230641e-001 3.275754e+000 123 107 48
9.170276e-001 -3.719394e-001 3.257146e+000 109 62 38
9.160930e-001 -3.922867e-001 3.261726e+000 120 105 33
9.322198e-001 -4.080593e-001 3.257842e+000 22 33 16
9.035510e-001 -4.043848e-001 3.270117e+000 123 105 44
9.269378e-001 -4.594821e-001 3.268815e+000 122 103 63
9.108597e-001 -4.813208e-001 3.280892e+000 18 43 50
8.686319e-001 -5.147318e-001 3.302515e+000 133 87 38
9.331759e-001 -4.663829e-001 3.268310e+000 124 102 61
8.865258e-001 -4.609705e-001 3.288971e+000 109 15 16
9.258687e-001 -4.377319e-001 3.266831e+000 125 106 64
9.460157e-001 -4.817812e-001 3.251709e+000 115 95 58
8.678865e-001 -5.953651e-001 3.319650e+000 152 98 66
8.551309e-001 -5.992783e-001 3.324534e+000 180 135 119
7.509715e-001 -6.023763e-001 3.276550e+000 139 123 126
7.548092e-001 -6.009502e-001 3.284755e+000 138 119 125
8.666979e-001 -5.995590e-001 3.319559e+000 175 134 107
8.617276e-001 -5.921326e-001 3.321660e+000 112 41 25
8.542089e-001 -5.925536e-001 3.322153e+000 157 108 76
8.685257e-001 -5.715111e-001 3.315556e+000 174 126 82
8.662776e-001 -5.664450e-001 3.315105e+000 170 127 83
8.499280e-001 -5.641008e-001 3.313620e+000 198 112 33
8.442178e-001 -5.867085e-001 3.318226e+000 37 24 24
9.243656e-001 -5.722891e-001 3.286278e+000 130 78 39
9.221987e-001 -5.736115e-001 3.288478e+000 129 79 44
8.667064e-001 -5.460307e-001 3.309920e+000 37 28 38
9.179350e-001 -5.512542e-001 3.288917e+000 160 113 78
9.278757e-001 -5.768821e-001 3.283720e+000 101 57 28
9.211875e-001 -5.472227e-001 3.285781e+000 141 53 40
8.764288e-001 -5.615003e-001 3.310606e+000 19 61 96
7.527360e-001 -6.026082e-001 3.274242e+000 50 40 41
9.282828e-001 -5.895368e-001 3.281081e+000 32 20 25
7.556946e-001 -6.013737e-001 3.280463e+000 56 45 49
8.656475e-001 -5.903229e-001 3.322972e+000 182 137 106
8.667745e-001 -5.995466e-001 3.320027e+000 179 135 108
9.200707e-001 -5.890368e-001 3.290619e+000 49 16 18
9.309781e-001 -5.606780e-001 3.269027e+000 153 115 78
8.897381e-001 -6.261536e-001 3.320928e+000 40 27 36
9.018951e-001 -5.400185e-001 3.295188e+000 77 50 43
9.055961e-001 -5.470964e-001 3.295406e+000 98 66 69
9.114929e-001 -5.467126e-001 3.294085e+000 100 72 69
8.448182e-001 -5.828787e-001 3.317953e+000 25 15 7
8.605531e-001 -5.889313e-001 3.321101e+000 155 97 65
8.578315e-001 -5.926865e-001 3.323494e+000 192 135 106
8.600280e-001 -6.016283e-001 3.323002e+000 120 46 39
9.142179e-001 -5.418799e-001 3.289951e+000 87 45 35
9.128137e-001 -5.451318e-001 3.291958e+000 160 106 98
9.128137e-001 -5.451318e-001 3.291958e+000 160 106 98
9.260151e-001 -5.816324e-001 3.285462e+000 141 90 50
8.551280e-001 -5.994065e-001 3.324525e+000 183 133 109
8.688776e-001 -5.739067e-001 3.317324e+000 105 20 27
7.795410e-001 -5.928644e-001 3.338873e+000 138 120 117
7.817080e-001 -5.919047e-001 3.343520e+000 134 114 113
9.433759e-001 -3.490789e-001 3.223799e+000 150 130 97
9.189256e-001 -5.470302e-001 3.287596e+000 70 21 16
7.792097e-001 -5.934247e-001 3.332120e+000 51 42 45
7.322488e-001 -6.063093e-001 3.236327e+000 141 124 114
7.730646e-001 -5.907308e-001 3.334655e+000 140 122 112
9.182020e-001 -3.407993e-001 3.234297e+000 215 177 130
9.272445e-001 -3.428530e-001 3.231971e+000 97 75 49
9.225479e-001 -3.420798e-001 3.234858e+000 105 84 50
9.248349e-001 -3.429026e-001 3.235097e+000 209 174 123
9.345416e-001 -3.482645e-001 3.237963e+000 205 174 127
9.347619e-001 -5.263046e-001 3.272870e+000 101 149 152
9.343946e-001 -5.297357e-001 3.273729e+000 103 138 140
9.348060e-001 -5.368423e-001 3.270039e+000 76 97 108
9.352553e-001 -5.346008e-001 3.271771e+000 76 97 108
9.295363e-001 -5.331724e-001 3.277892e+000 31 55 61
9.294799e-001 -5.334192e-001 3.277728e+000 31 55 61
9.286836e-001 -5.344795e-001 3.278660e+000 72 109 118
9.321273e-001 -5.356588e-001 3.276065e+000 47 92 101
9.016382e-001 -5.270854e-001 3.294365e+000 131 98 72
8.855888e-001 -5.351167e-001 3.303604e+000 55 30 17
9.032851e-001 -5.463795e-001 3.296570e+000 101 71 68
9.234499e-001 -5.564683e-001 3.284412e+000 81 32 15
8.644322e-001 -5.482344e-001 3.311630e+000 28 21 18
9.276086e-001 -6.090389e-001 3.280494e+000 112 75 64
8.707280e-001 -5.643827e-001 3.313408e+000 126 22 26
8.763934e-001 -5.645454e-001 3.311260e+000 151 108 59
8.557821e-001 -5.953755e-001 3.323466e+000 194 139 97
7.765646e-001 -5.947058e-001 3.328429e+000 49 40 35
9.446290e-001 -3.440978e-001 3.194534e+000 164 125 82
9.398743e-001 -3.489443e-001 3.230132e+000 203 168 114
9.575594e-001 -7.237945e-001 3.073086e+000 54 44 42
9.273336e-001 -5.306048e-001 3.279296e+000 74 111 120
9.354285e-001 -5.365341e-001 3.272341e+000 27 48 55
8.491347e-001 -5.349020e-001 3.298950e+000 138 32 26
8.850756e-001 -5.391765e-001 3.304255e+000 63 35 31
7.652418e-001 -5.957734e-001 3.305489e+000 141 122 107
8.410905e-001 -5.904954e-001 3.316126e+000 182 143 104
9.249666e-001 -3.438047e-001 3.237669e+000 212 175 130
9.344484e-001 -3.466771e-001 3.234610e+000 205 172 126
9.344793e-001 -3.465847e-001 3.234890e+000 205 172 126
9.365785e-001 -3.486568e-001 3.235520e+000 206 176 115
9.366786e-001 -3.486263e-001 3.235776e+000 206 176 115
8.010070e-001 -5.840750e-001 3.383194e+000 148 120 108
9.461312e-001 -3.499609e-001 3.222657e+000 202 170 119
8.899342e-001 -3.358236e-001 3.201785e+000 154 131 98
9.385450e-001 -3.465461e-001 3.227088e+000 204 168 116
9.386946e-001 -3.464150e-001 3.228361e+000 204 168 116
9.325015e-001 -3.460334e-001 3.233304e+000 207 172 122
9.242851e-001 -5.461477e-001 3.283116e+000 106 36 23
8.692702e-001 -5.322452e-001 3.306836e+000 53 21 21
8.665098e-001 -5.320817e-001 3.307006e+000 168 118 59
8.684768e-001 -5.387721e-001 3.308315e+000 76 48 47
7.780194e-001 -5.929513e-001 3.335393e+000 144 118 105
7.885427e-001 -5.895057e-001 3.358985e+000 141 119 107
7.906287e-001 -5.923194e-001 3.358807e+000 49 37 37
8.421630e-001 -5.575169e-001 3.301182e+000 97 24 21
8.421630e-001 -5.575169e-001 3.301182e+000 97 24 21
8.379451e-001 -5.982926e-001 3.316313e+000 197 102 38
8.529441e-001 -5.968470e-001 3.322580e+000 188 145 100
8.961542e-001 -5.259677e-001 3.297127e+000 133 100 75
8.904784e-001 -5.403830e-001 3.303537e+000 95 65 63
7.900360e-001 -5.962368e-001 3.351623e+000 45 34 38
9.152307e-001 -5.647813e-001 3.291909e+000 150 108 58
9.227989e-001 -3.417729e-001 3.233300e+000 167 135 87
9.251264e-001 -3.423298e-001 3.232655e+000 168 134 85
9.232811e-001 -3.427289e-001 3.235719e+000 165 134 79
9.232811e-001 -3.427289e-001 3.235719e+000 165 134 79
9.276589e-001 -3.438807e-001 3.234294e+000 75 57 30
9.412969e-001 -3.486099e-001 3.227982e+000 162 132 83
9.412969e-001 -3.486099e-001 3.227982e+000 162 132 83
9.355283e-001 -3.458940e-001 3.245839e+000 44 32 11
9.398493e-001 -3.504396e-001 3.235968e+000 57 40 17
9.167224e-001 -3.732411e-001 3.257771e+000 98 36 18
9.167224e-001 -3.732411e-001 3.257771e+000 98 36 18
8.937487e-001 -4.979757e-001 3.293346e+000 56 26 16
9.344167e-001 -5.296603e-001 3.273740e+000 77 104 103
9.331075e-001 -5.305230e-001 3.275188e+000 25 41 41
9.318568e-001 -5.300292e-001 3.276289e+000 26 38 38
9.313040e-001 -5.307271e-001 3.277597e+000 52 72 71
9.321077e-001 -5.323837e-001 3.275729e+000 46 66 65
9.335471e-001 -5.367105e-001 3.271019e+000 51 76 76
9.004189e-001 -5.265881e-001 3.294812e+000 14 8 3
9.000347e-001 -5.273830e-001 3.295903e+000 100 77 52
9.020601e-001 -5.295972e-001 3.292790e+000 14 8 6
9.114939e-001 -5.513440e-001 3.285669e+000 70 35 25
8.675754e-001 -5.282434e-001 3.307035e+000 80 45 11
8.778171e-001 -5.369443e-001 3.306752e+000 65 38 33
9.479511e-001 -3.507237e-001 3.218075e+000 159 126 83
9.283001e-001 -3.437132e-001 3.232851e+000 166 134 84
9.352810e-001 -3.461250e-001 3.230487e+000 130 109 59
9.385880e-001 -3.489900e-001 3.234212e+000 165 132 80
9.102563e-001 -3.871730e-001 3.263767e+000 49 65 53
9.104154e-001 -3.870079e-001 3.264100e+000 49 65 53
8.850339e-001 -4.952202e-001 3.295680e+000 123 60 41
9.278779e-001 -5.280347e-001 3.279411e+000 19 39 38
9.299048e-001 -5.306593e-001 3.278046e+000 59 79 78
9.299048e-001 -5.306593e-001 3.278046e+000 59 79 78
9.305317e-001 -5.345320e-001 3.277932e+000 66 90 91
8.890591e-001 -5.217784e-001 3.298768e+000 108 77 49
8.662803e-001 -5.277936e-001 3.306065e+000 123 76 34
9.298371e-001 -5.925967e-001 3.276425e+000 31 11 7
8.405460e-001 -5.810955e-001 3.313755e+000 171 125 81
8.643768e-001 -6.021471e-001 3.322205e+000 146 96 61
8.643768e-001 -6.021471e-001 3.322205e+000 146 96 61
8.594622e-001 -3.874848e-001 3.238263e+000 43 43 31
8.870742e-001 -4.985099e-001 3.296376e+000 54 22 16
9.132981e-001 -5.282701e-001 3.286200e+000 65 46 39
8.793962e-001 -5.456773e-001 3.308775e+000 124 82 40
9.239903e-001 -6.128415e-001 3.282520e+000 111 69 38
9.386528e-001 -5.463188e-001 3.256936e+000 102 73 49
9.386528e-001 -5.463188e-001 3.256936e+000 102 73 49
9.281739e-001 -5.441635e-001 3.276300e+000 125 83 41
8.767846e-001 -5.466394e-001 3.309363e+000 29 11 11
8.654096e-001 -5.591285e-001 3.314331e+000 24 42 45
7.640421e-001 -6.006458e-001 3.300604e+000 38 29 24
7.846087e-001 -5.880188e-001 3.339778e+000 39 30 25
8.630261e-001 -5.270319e-001 3.306103e+000 106 62 18
7.526169e-001 -6.034643e-001 3.273328e+000 36 29 23
8.402662e-001 -5.879271e-001 3.315574e+000 136 96 60
9.179113e-001 -4.919203e-001 3.279772e+000 22 43 49
9.016862e-001 -5.246552e-001 3.294319e+000 15 7 5
8.934509e-001 -5.390230e-001 3.298275e+000 96 69 50
8.693687e-001 -6.107487e-001 3.321326e+000 117 57 20
9.352122e-001 -3.453556e-001 3.228893e+000 84 61 22
9.296866e-001 -4.249390e-001 3.262965e+000 129 110 51
9.369131e-001 -5.485629e-001 3.260448e+000 108 75 41
9.261334e-001 -5.995937e-001 3.282265e+000 103 68 26
9.000963e-001 -5.413098e-001 3.299541e+000 50 35 30
9.292221e-001 -6.283185e-001 3.277907e+000 22 16 16
8.572558e-001 -5.880781e-001 3.325245e+000 150 106 63
8.572558e-001 -5.880781e-001 3.325245e+000 150 106 63
8.978552e-001 -5.901951e-001 3.296206e+000 115 81 43
8.978552e-001 -5.901951e-001 3.296206e+000 115 81 43
9.305290e-001 -3.446517e-001 3.232288e+000 57 41 16
9.443305e-001 -3.494433e-001 3.225454e+000 165 136 77
9.485929e-001 -3.513968e-001 3.221932e+000 163 127 79
9.520959e-001 -3.261630e-001 3.289530e+000 71 54 27
9.392711e-001 -3.489339e-001 3.233039e+000 55 41 24
9.391300e-001 -3.497665e-001 3.235618e+000 159 130 72
8.975079e-001 -4.544632e-001 3.283713e+000 124 100 63
9.114265e-001 -4.859681e-001 3.282132e+000 23 35 31
8.899983e-001 -4.942910e-001 3.293890e+000 49 17 15
9.314146e-001 -5.345181e-001 3.275733e+000 22 35 35
8.882165e-001 -5.239766e-001 3.299872e+000 105 70 51
9.002601e-001 -5.309181e-001 3.293875e+000 104 67 48
8.688435e-001 -5.292835e-001 3.306024e+000 49 18 15
9.069079e-001 -5.424005e-001 3.293158e+000 101 52 38
9.122520e-001 -5.423030e-001 3.291360e+000 109 53 36
8.677876e-001 -5.328215e-001 3.306050e+000 34 10 8
8.833391e-001 -5.388522e-001 3.304367e+000 49 29 20
8.874051e-001 -5.425014e-001 3.302887e+000 81 55 47
8.874051e-001 -5.425014e-001 3.302887e+000 81 55 47
9.070899e-001 -5.430809e-001 3.294341e+000 102 52 43
8.505778e-001 -6.084452e-001 3.326229e+000 80 23 3
8.505778e-001 -6.084452e-001 3.326229e+000 80 23 3
9.356557e-001 -3.762927e-001 3.248016e+000 158 97 62
8.981640e-001 -3.778895e-001 3.266439e+000 21 36 19
8.823951e-001 -4.914566e-001 3.296629e+000 46 18 14
9.159049e-001 -5.482785e-001 3.289735e+000 123 73 46
9.225647e-001 -5.558782e-001 3.286172e+000 114 52 31
8.701718e-001 -5.619381e-001 3.314453e+000 126 85 43
7.746740e-001 -5.961550e-001 3.336446e+000 95 74 53
9.344039e-001 -3.480752e-001 3.236707e+000 164 130 82
9.344039e-001 -3.480752e-001 3.236707e+000 164 130 82
8.881462e-001 -5.013805e-001 3.295692e+000 80 44 28
7.428264e-001 -6.079049e-001 3.255916e+000 40 31 26
8.779516e-001 -5.291860e-001 3.304804e+000 56 27 21
8.933694e-001 -4.493502e-001 3.284108e+000 131 106 66
8.784693e-001 -4.760188e-001 3.292369e+000 138 95 50
9.292769e-001 -5.266398e-001 3.277532e+000 74 92 88
9.258136e-001 -5.331570e-001 3.280072e+000 20 38 40
9.080204e-001 -5.379025e-001 3.292630e+000 121 78 53
9.046146e-001 -5.416220e-001 3.297138e+000 57 33 29
8.988870e-001 -4.402741e-001 3.280589e+000 123 105 67
9.334059e-001 -4.620374e-001 3.266084e+000 129 101 62
9.230842e-001 -4.733898e-001 3.273985e+000 105 15 15
9.029596e-001 -4.992202e-001 3.289634e+000 61 27 23
7.562905e-001 -6.026791e-001 3.292463e+000 117 95 74
7.603476e-001 -6.030337e-001 3.294429e+000 37 26 22
7.660036e-001 -5.990084e-001 3.312792e+000 117 95 74
7.588040e-001 -6.019281e-001 3.287569e+000 35 26 21
9.306722e-001 -4.317983e-001 3.262732e+000 23 35 14
7.375116e-001 -6.054068e-001 3.249869e+000 108 89 67
7.572331e-001 -5.996110e-001 3.294668e+000 117 95 71
8.861368e-001 -4.616012e-001 3.288138e+000 109 15 16
9.264235e-001 -3.441131e-001 3.237293e+000 168 134 83
9.156206e-001 -5.637404e-001 3.292534e+000 116 78 41
9.276518e-001 -3.438886e-001 3.234282e+000 78 59 34
9.309907e-001 -3.463164e-001 3.236930e+000 70 50 26
9.352754e-001 -3.478347e-001 3.235438e+000 54 39 15
9.425766e-001 -3.483818e-001 3.226952e+000 155 123 82
9.252272e-001 -3.461779e-001 3.241623e+000 164 132 83
9.286888e-001 -3.459217e-001 3.238306e+000 74 53 30
9.042733e-001 -3.644697e-001 3.262059e+000 110 23 21
9.368598e-001 -3.841231e-001 3.249372e+000 107 22 23
9.098612e-001 -4.680135e-001 3.279189e+000 162 101 60
9.056329e-001 -4.769826e-001 3.271552e+000 77 25 11
8.798017e-001 -4.724923e-001 3.291658e+000 125 108 74
9.015093e-001 -4.814462e-001 3.286117e+000 82 112 105
9.015093e-001 -4.814462e-001 3.286117e+000 82 112 105
9.102027e-001 -4.835726e-001 3.282660e+000 94 118 108
9.096600e-001 -4.864036e-001 3.283570e+000 18 37 34
9.171635e-001 -4.876257e-001 3.279897e+000 100 118 110
9.204026e-001 -4.872306e-001 3.276796e+000 92 109 98
9.200171e-001 -4.899726e-001 3.277707e+000 93 112 108
9.236483e-001 -4.911824e-001 3.275731e+000 94 107 92
8.906230e-001 -4.907544e-001 3.292400e+000 116 48 31
9.421573e-001 -5.139890e-001 3.263780e+000 127 49 37
8.948231e-001 -4.947573e-001 3.291495e+000 113 58 46
8.966682e-001 -4.979279e-001 3.292136e+000 91 53 44
8.867864e-001 -5.045304e-001 3.297076e+000 120 79 70
8.924230e-001 -5.000688e-001 3.294779e+000 62 28 23
9.316798e-001 -5.342359e-001 3.275876e+000 21 39 39
8.908888e-001 -5.211077e-001 3.298598e+000 99 73 48
9.305739e-001 -5.337059e-001 3.276840e+000 25 37 39
8.916124e-001 -5.254532e-001 3.298886e+000 12 6 1
9.023430e-001 -5.477562e-001 3.295690e+000 73 52 46
9.120349e-001 -5.485279e-001 3.291029e+000 61 34 24
9.237158e-001 -3.436993e-001 3.238085e+000 165 132 86
9.387211e-001 -3.489151e-001 3.234353e+000 156 130 83
9.277528e-001 -3.459709e-001 3.239092e+000 160 129 83
9.203275e-001 -3.711293e-001 3.255472e+000 148 98 59
9.212220e-001 -3.722151e-001 3.255274e+000 107 23 17
9.212220e-001 -3.722151e-001 3.255274e+000 107 23 17
9.233385e-001 -3.733402e-001 3.253796e+000 110 22 20
9.335472e-001 -3.754300e-001 3.248483e+000 149 101 63
9.226611e-001 -3.773004e-001 3.254679e+000 109 21 20
9.443361e-001 -4.018002e-001 3.248441e+000 25 30 5
9.428107e-001 -4.063377e-001 3.250473e+000 29 33 6
9.428107e-001 -4.063377e-001 3.250473e+000 29 33 6
9.028446e-001 -4.411683e-001 3.278332e+000 130 96 58
9.028446e-001 -4.411683e-001 3.278332e+000 130 96 58
9.062623e-001 -4.703670e-001 3.282282e+000 96 13 15
9.084364e-001 -4.840670e-001 3.283400e+000 22 42 41
9.252086e-001 -4.894935e-001 3.275290e+000 27 41 41
8.869236e-001 -4.935136e-001 3.295625e+000 123 58 37
8.882819e-001 -4.975811e-001 3.295480e+000 121 59 41
9.054959e-001 -5.063219e-001 3.289032e+000 60 35 31
9.130693e-001 -5.124922e-001 3.285611e+000 57 41 36
8.867809e-001 -5.074100e-001 3.297927e+000 71 42 31
9.274352e-001 -5.396831e-001 3.280473e+000 91 29 17
8.877342e-001 -5.269725e-001 3.300982e+000 107 77 51
8.704091e-001 -5.356643e-001 3.307048e+000 50 26 21
9.237101e-001 -5.553660e-001 3.285123e+000 54 22 3
8.861103e-001 -5.405954e-001 3.304545e+000 84 56 47
9.352333e-001 -3.461607e-001 3.230407e+000 115 94 61
9.302582e-001 -3.468053e-001 3.239344e+000 163 131 75
8.784333e-001 -5.013788e-001 3.299774e+000 50 19 17
8.917178e-001 -5.027587e-001 3.294598e+000 57 23 12
8.988182e-001 -5.097165e-001 3.292617e+000 56 34 31
9.333462e-001 -5.280797e-001 3.274304e+000 18 37 41
8.761747e-001 -5.480147e-001 3.308685e+000 23 12 16
8.931484e-001 -5.429831e-001 3.301615e+000 82 55 50
8.628718e-001 -5.729748e-001 3.317140e+000 87 34 12
9.429635e-001 -4.059279e-001 3.249661e+000 23 33 13
9.429635e-001 -4.059279e-001 3.249661e+000 23 33 13
9.427835e-001 -4.826676e-001 3.261022e+000 116 100 55
9.433956e-001 -4.875070e-001 3.257658e+000 111 23 19
9.041060e-001 -5.048904e-001 3.288259e+000 53 34 31
8.933981e-001 -5.394054e-001 3.301492e+000 48 31 24
8.763752e-001 -5.478103e-001 3.308771e+000 25 10 12
8.765607e-001 -5.608787e-001 3.311171e+000 15 38 47
8.877944e-001 -4.417412e-001 3.282544e+000 119 79 55
9.107745e-001 -4.688477e-001 3.279830e+000 68 18 3
9.107062e-001 -4.689157e-001 3.279698e+000 68 18 3
9.049099e-001 -4.830346e-001 3.285482e+000 88 101 94
9.364137e-001 -5.303862e-001 3.271584e+000 16 36 43
8.893008e-001 -5.290193e-001 3.300535e+000 107 79 57
7.539531e-001 -6.018859e-001 3.274595e+000 36 29 23
8.894498e-001 -5.382297e-001 3.302904e+000 57 39 27
9.141069e-001 -5.424860e-001 3.290262e+000 64 33 22
8.778051e-001 -5.430950e-001 3.306506e+000 54 34 26
9.326603e-001 -3.458062e-001 3.233431e+000 159 130 87
9.231191e-001 -4.860450e-001 3.274604e+000 18 43 47
8.904388e-001 -5.237768e-001 3.299398e+000 22 9 3
9.416398e-001 -3.500156e-001 3.231333e+000 156 127 83
9.389247e-001 -4.245925e-001 3.256206e+000 122 105 42
9.152792e-001 -4.894933e-001 3.281791e+000 20 40 47
9.083267e-001 -3.699577e-001 3.261972e+000 143 101 60
9.439880e-001 -3.888840e-001 3.245028e+000 73 81 66
9.293799e-001 -5.446545e-001 3.279254e+000 117 79 40
8.829147e-001 -4.776467e-001 3.291394e+000 16 46 57
9.391279e-001 -3.977572e-001 3.251957e+000 22 37 18
9.387597e-001 -3.981800e-001 3.251469e+000 22 37 18
9.135765e-001 -4.100886e-001 3.266604e+000 105 101 26
9.412604e-001 -4.523091e-001 3.259894e+000 64 39 21
9.412604e-001 -4.523091e-001 3.259894e+000 64 39 21
9.482460e-001 -4.962901e-001 3.240309e+000 116 78 54
9.119253e-001 -4.690676e-001 3.279051e+000 164 98 66
9.101993e-001 -4.835726e-001 3.282654e+000 96 119 111
9.241898e-001 -4.882116e-001 3.275274e+000 93 117 108
8.828766e-001 -4.915362e-001 3.298047e+000 117 58 44
9.017167e-001 -5.070132e-001 3.290803e+000 47 32 27
9.014712e-001 -5.272083e-001 3.294265e+000 104 71 55
9.310608e-001 -5.331418e-001 3.277296e+000 21 39 41
8.857027e-001 -5.350019e-001 3.303690e+000 45 25 14
9.157849e-001 -3.412288e-001 3.237175e+000 173 142 92
9.305753e-001 -3.744298e-001 3.250119e+000 164 103 67
9.372592e-001 -3.854884e-001 3.248769e+000 114 117 93
9.137048e-001 -4.099573e-001 3.266599e+000 113 104 17
8.942701e-001 -4.805000e-001 3.289424e+000 25 43 47
9.214609e-001 -4.885768e-001 3.277192e+000 26 43 45
8.817180e-001 -4.863441e-001 3.296053e+000 142 97 51
9.000549e-001 -5.044349e-001 3.291592e+000 93 72 67
9.037794e-001 -5.069842e-001 3.289930e+000 56 38 34
9.110383e-001 -5.118100e-001 3.287537e+000 52 38 35
8.783533e-001 -5.352421e-001 3.305384e+000 45 21 17
9.084333e-001 -5.409015e-001 3.292332e+000 60 29 18
9.383231e-001 -3.476572e-001 3.232360e+000 156 132 87
9.167201e-001 -3.748772e-001 3.258254e+000 110 30 23
9.012062e-001 -3.823532e-001 3.267339e+000 104 104 41
8.952118e-001 -4.459138e-001 3.282086e+000 139 105 68
9.131843e-001 -5.128226e-001 3.286303e+000 54 39 34
9.105998e-001 -5.154190e-001 3.288772e+000 58 41 34
8.992774e-001 -5.276006e-001 3.295745e+000 94 71 53
9.194134e-001 -5.287992e-001 3.284835e+000 62 43 33
9.183054e-001 -5.457852e-001 3.287115e+000 56 12 6
9.259539e-001 -3.790834e-001 3.256479e+000 124 26 19
9.046262e-001 -4.548325e-001 3.279658e+000 123 109 72
9.124072e-001 -4.743903e-001 3.279680e+000 100 18 17
9.077475e-001 -4.748676e-001 3.282219e+000 181 50 46
9.155071e-001 -4.866597e-001 3.280073e+000 18 44 52
9.256945e-001 -5.005504e-001 3.276484e+000 124 64 37
8.612843e-001 -5.210073e-001 3.303236e+000 45 19 14
9.465739e-001 -3.497462e-001 3.223533e+000 155 128 85
9.356009e-001 -4.630374e-001 3.264661e+000 132 93 65
8.769268e-001 -4.900880e-001 3.295546e+000 77 34 25
9.439997e-001 -5.179651e-001 3.254390e+000 79 25 15
9.277762e-001 -3.459501e-001 3.239411e+000 165 135 90
9.383830e-001 -4.199859e-001 3.255543e+000 19 37 13
9.383830e-001 -4.199859e-001 3.255543e+000 19 37 13
9.231446e-001 -4.214489e-001 3.264308e+000 26 36 12
9.265508e-001 -4.606271e-001 3.268860e+000 124 106 70
8.629368e-001 -5.141810e-001 3.300962e+000 38 16 14
8.861916e-001 -5.108348e-001 3.299841e+000 47 28 22
8.903770e-001 -5.238481e-001 3.299374e+000 20 6 5
9.389850e-001 -3.495223e-001 3.235031e+000 155 129 87
9.392904e-001 -3.494233e-001 3.235492e+000 155 129 87
9.373293e-001 -5.157564e-001 3.209498e+000 43 35 32
9.034771e-001 -4.795866e-001 3.283863e+000 15 45 54
8.977684e-001 -4.841823e-001 3.290391e+000 16 45 51
8.699647e-001 -5.132264e-001 3.303240e+000 135 92 46
9.037948e-001 -3.992477e-001 3.271092e+000 21 39 17
9.117844e-001 -4.131602e-001 3.267479e+000 20 38 15
9.433998e-001 -4.225520e-001 3.252415e+000 19 37 14
9.470096e-001 -4.939809e-001 3.249766e+000 96 27 21
9.416779e-001 -5.112589e-001 3.262691e+000 109 41 28
9.059424e-001 -5.209760e-001 3.290901e+000 102 75 56
8.950968e-001 -4.005412e-001 3.271117e+000 21 40 17
9.208256e-001 -4.088956e-001 3.262765e+000 127 111 62
9.359079e-001 -5.312822e-001 3.233570e+000 97 49 29
8.828407e-001 -4.952538e-001 3.300934e+000 63 25 24
8.963085e-001 -4.121461e-001 3.272740e+000 58 58 16
9.412354e-001 -4.431601e-001 3.258881e+000 124 106 68
9.454335e-001 -4.255146e-001 3.254607e+000 99 95 31
9.544583e-001 -4.001721e-001 3.221577e+000 91 89 68
9.488579e-001 -3.514059e-001 3.222421e+000 150 124 84
9.386142e-001 -4.573675e-001 3.261910e+000 138 89 59
9.386142e-001 -4.573675e-001 3.261910e+000 138 89 59
9.199893e-001 -4.874872e-001 3.278628e+000 28 43 38
9.199893e-001 -4.874872e-001 3.278628e+000 28 43 38
9.160087e-001 -5.025150e-001 3.282612e+000 88 55 53
9.137688e-001 -5.446197e-001 3.290451e+000 66 33 22
9.167255e-001 -3.402961e-001 3.235206e+000 166 137 93
9.435839e-001 -3.489916e-001 3.226316e+000 102 86 53
9.346528e-001 -3.477506e-001 3.236810e+000 158 131 86
9.344161e-001 -3.478081e-001 3.236552e+000 158 131 86
9.116956e-001 -3.719565e-001 3.260268e+000 151 88 53
9.074978e-001 -4.692776e-001 3.281616e+000 152 89 58
9.218410e-001 -4.882216e-001 3.277476e+000 27 41 41
8.815580e-001 -4.922818e-001 3.295902e+000 46 17 11
8.885089e-001 -5.079745e-001 3.297138e+000 97 68 60
9.405613e-001 -5.332145e-001 3.270186e+000 100 68 35
9.327064e-001 -3.475691e-001 3.238673e+000 160 131 89
9.004257e-001 -3.828124e-001 3.266724e+000 101 102 39
8.973449e-001 -4.813112e-001 3.288587e+000 21 45 51
9.228125e-001 -5.016750e-001 3.277359e+000 56 38 36
9.081168e-001 -5.085118e-001 3.290240e+000 82 58 54
7.440385e-001 -6.044023e-001 3.260757e+000 110 96 77
9.257721e-001 -5.314896e-001 3.280875e+000 19 40 41
8.993694e-001 -5.366027e-001 3.299286e+000 94 67 56
9.026637e-001 -5.391479e-001 3.295236e+000 66 44 31
9.026637e-001 -5.391479e-001 3.295236e+000 66 44 31
9.315313e-001 -3.456913e-001 3.235171e+000 157 134 92
9.047852e-001 -3.653548e-001 3.261984e+000 124 26 25
9.523339e-001 -4.420268e-001 3.248262e+000 52 51 32
9.100758e-001 -4.846468e-001 3.283068e+000 76 87 78
9.486841e-001 -4.929662e-001 3.247761e+000 87 28 21
8.771577e-001 -4.898721e-001 3.295695e+000 77 37 23
8.993544e-001 -5.267397e-001 3.296339e+000 103 77 60
8.958611e-001 -5.408347e-001 3.299834e+000 48 33 28
9.368770e-001 -4.117955e-001 3.254290e+000 24 37 17
9.168703e-001 -4.438353e-001 3.273281e+000 120 107 74
8.993140e-001 -4.823176e-001 3.287177e+000 81 98 94
8.993140e-001 -4.823176e-001 3.287177e+000 81 98 94
9.449563e-001 -5.101869e-001 3.257443e+000 102 42 31
8.732321e-001 -5.167451e-001 3.302415e+000 54 21 19
9.378975e-001 -5.381310e-001 3.269136e+000 99 71 36
8.999468e-001 -3.956523e-001 3.269415e+000 126 111 56
8.830445e-001 -4.628666e-001 3.286021e+000 116 15 19
8.830445e-001 -4.628666e-001 3.286021e+000 116 15 19
8.999592e-001 -4.919693e-001 3.287847e+000 134 93 47
9.234277e-001 -6.343951e-001 3.294608e+000 28 21 25
-7.676057e-002 -9.817338e-001 6.263815e-001 125 107 105
-9.024520e-002 -9.998678e-001 6.839031e-001 155 137 150
-5.712728e-002 -6.844614e-001 3.420571e-001 141 131 165
-6.723191e-002 -7.612505e-001 5.826155e-001 56 61 93
7.830284e-001 -5.925298e-001 3.347643e+000 151 132 125
-8.113749e-002 -1.010865e+000 5.762162e-001 125 106 100
8.649306e-001 -5.994719e-001 3.322107e+000 88 41 18
8.648820e-001 -5.996096e-001 3.321993e+000 88 41 18
9.244854e-001 -6.347346e-001 3.290727e+000 153 89 48
7.771037e-001 -5.968729e-001 3.330669e+000 51 41 39
-2.120302e-001 -6.810446e-001 4.916608e-001 140 125 137
-1.485004e-001 -6.864218e-001 5.279121e-001 138 123 135
-7.142643e-002 -7.209818e-001 5.508905e-001 61 57 82
-6.999411e-002 -7.227208e-001 6.335206e-001 238 254 254
-1.069725e-001 -5.827834e-001 5.511684e-001 249 253 253
-1.151571e-001 -6.284953e-001 4.313736e-001 81 84 135
-9.267160e-002 -6.914320e-001 4.546652e-001 153 133 134
-9.522037e-002 -6.916568e-001 4.480021e-001 153 133 134
9.179721e-001 -5.889224e-001 3.293602e+000 83 44 26
8.629928e-001 -5.946124e-001 3.322009e+000 90 30 13
7.932565e-001 -5.884426e-001 3.368894e+000 117 91 74
-3.637949e-001 -5.061104e-001 8.090223e-001 45 49 76
-3.258167e-001 -5.076650e-001 7.035404e-001 252 254 253
-3.771625e-002 -1.003645e+000 8.485630e-001 29 24 30
-5.523398e-002 -4.819015e-001 1.446028e+000 125 106 99
-3.085601e-001 -7.191205e-001 8.239285e-001 36 37 67
9.163912e-001 -6.142002e-001 3.296357e+000 113 77 41
9.151149e-001 -6.180081e-001 3.294277e+000 113 77 41
9.219952e-001 -6.304635e-001 3.296157e+000 130 82 48
9.232384e-001 -6.324451e-001 3.292801e+000 69 35 10
8.542451e-001 -5.922450e-001 3.322122e+000 121 71 38
-2.402479e-001 -6.907994e-001 7.423800e-001 139 186 204
7.736858e-001 -5.960125e-001 3.328092e+000 118 96 76
-3.820152e-001 -5.289544e-001 6.773573e-001 52 55 86
8.696882e-001 -5.788841e-001 3.318044e+000 132 60 20
-1.676826e-001 -9.239838e-001 5.818132e-001 220 254 255
8.611887e-001 -6.140212e-001 3.328072e+000 27 17 18
9.233603e-001 -6.321641e-001 3.292964e+000 54 21 4
7.608209e-001 -5.991241e-001 3.298512e+000 113 92 70
9.244892e-001 -5.721128e-001 3.286330e+000 87 48 19
9.254980e-001 -6.111778e-001 3.288832e+000 102 63 32
8.505356e-001 -5.980909e-001 3.324978e+000 134 49 23
-3.827494e-001 -5.056965e-001 7.079175e-001 247 255 251
9.256693e-001 -6.055915e-001 3.287770e+000 107 67 32
7.767393e-001 -5.948498e-001 3.334364e+000 115 93 72
8.588356e-001 -5.910502e-001 3.322523e+000 154 105 63
8.646193e-001 -5.953803e-001 3.320611e+000 147 97 62
7.879252e-001 -5.908438e-001 3.358491e+000 114 93 74
8.779171e-001 -5.636717e-001 3.311699e+000 119 80 37
9.192306e-001 -5.907050e-001 3.289612e+000 36 10 12
8.915326e-001 -6.236909e-001 3.315473e+000 23 14 15
8.969685e-001 -5.845813e-001 3.298530e+000 117 79 42
9.188628e-001 -3.773050e-001 3.256974e+000 182 79 61
9.137135e-001 -4.102066e-001 3.266832e+000 105 101 26
9.174551e-001 -4.891963e-001 3.279512e+000 20 44 45
9.183721e-001 -4.883258e-001 3.278791e+000 94 114 98
9.210464e-001 -5.059898e-001 3.280047e+000 51 25 24
9.040863e-001 -5.061156e-001 3.289489e+000 50 36 30
9.294368e-001 -5.334617e-001 3.277760e+000 18 34 34
9.340213e-001 -3.441429e-001 3.228251e+000 81 60 33
8.714789e-001 -5.373030e-001 3.307484e+000 86 53 47
8.673442e-001 -6.017968e-001 3.320651e+000 140 95 57
8.969550e-001 -4.929082e-001 3.291218e+000 52 22 18
8.872272e-001 -4.984152e-001 3.296372e+000 49 23 21
9.029541e-001 -5.228327e-001 3.292776e+000 103 73 55
9.205864e-001 -5.934955e-001 3.293420e+000 109 70 36
9.234356e-001 -6.373330e-001 3.283781e+000 115 60 28
9.202026e-001 -4.749210e-001 3.277101e+000 100 15 13
8.875850e-001 -4.913851e-001 3.293920e+000 76 32 24
8.923156e-001 -5.046309e-001 3.295259e+000 39 20 16
7.584439e-001 -5.996565e-001 3.294035e+000 115 97 75
