ply
format ascii 1.0
element face 0
property list uchar int vertex_indices
element vertex 897
property float x
property float y
property float z
property uchar diffuse_red
property uchar diffuse_green
property uchar diffuse_blue
end_header
8.402352e-001 -5.143071e-001 3.325490e+000 165 35 45
8.670190e-001 -5.085750e-001 3.398905e+000 90 49 23
8.656731e-001 -5.141938e-001 3.394177e+000 104 58 28
8.557928e-001 -5.222444e-001 3.373680e+000 96 56 35
8.611732e-001 -5.251797e-001 3.393823e+000 163 23 36
8.455654e-001 -5.348826e-001 3.359842e+000 154 28 39
8.443049e-001 -5.374332e-001 3.361399e+000 147 28 36
8.556277e-001 -5.329024e-001 3.388372e+000 240 69 80
8.363098e-001 -5.450711e-001 3.349559e+000 129 24 34
8.490386e-001 -5.416157e-001 3.382063e+000 217 60 61
8.405441e-001 -5.538724e-001 3.369218e+000 111 60 39
8.513654e-001 -5.675051e-001 3.435122e+000 78 44 29
8.266486e-001 -5.975161e-001 3.400987e+000 91 44 30
8.820073e-001 -3.748208e-001 3.282107e+000 200 145 104
8.839831e-001 -3.995292e-001 3.338079e+000 30 57 8
8.645995e-001 -4.722754e-001 3.350591e+000 21 82 111
8.462900e-001 -5.566467e-001 3.388932e+000 205 118 82
8.373325e-001 -5.650866e-001 3.376652e+000 130 89 59
8.957631e-001 -3.448616e-001 3.311277e+000 30 90 124
8.779573e-001 -4.502851e-001 3.368102e+000 159 27 28
8.460349e-001 -5.199079e-001 3.344705e+000 197 120 98
8.420983e-001 -5.245242e-001 3.342334e+000 194 120 99
8.721262e-001 -4.052041e-001 3.302965e+000 25 51 22
8.506453e-001 -5.265970e-001 3.367293e+000 197 124 91
8.511576e-001 -5.385445e-001 3.383464e+000 171 21 33
8.517424e-001 -5.386778e-001 3.382483e+000 171 21 33
8.592555e-001 -5.162044e-001 3.386768e+000 199 136 93
8.836000e-001 -3.727606e-001 3.275777e+000 158 27 33
8.926424e-001 -3.745723e-001 3.313987e+000 209 134 94
8.926686e-001 -3.767061e-001 3.326224e+000 160 38 36
8.919674e-001 -3.880424e-001 3.348155e+000 33 42 4
8.763450e-001 -4.164071e-001 3.302436e+000 132 138 35
8.763450e-001 -4.164071e-001 3.302436e+000 132 138 35
8.790798e-001 -4.091227e-001 3.324401e+000 90 94 49
8.806017e-001 -4.135149e-001 3.330035e+000 83 100 36
8.806017e-001 -4.135149e-001 3.330035e+000 83 100 36
8.698349e-001 -4.407793e-001 3.331845e+000 188 109 93
8.779119e-001 -4.349558e-001 3.349871e+000 91 28 20
8.784640e-001 -4.341169e-001 3.352063e+000 67 36 22
8.784640e-001 -4.341169e-001 3.352063e+000 67 36 22
8.770050e-001 -4.389134e-001 3.349454e+000 164 129 99
8.666204e-001 -4.591748e-001 3.340567e+000 195 140 98
8.695849e-001 -4.574115e-001 3.345058e+000 198 140 104
8.720797e-001 -4.578149e-001 3.354620e+000 207 137 93
8.725781e-001 -4.569237e-001 3.355722e+000 89 24 15
8.736051e-001 -4.555138e-001 3.358394e+000 195 137 84
8.732206e-001 -4.567995e-001 3.359131e+000 200 127 79
8.740859e-001 -4.559577e-001 3.361692e+000 211 131 93
8.766987e-001 -4.543281e-001 3.366898e+000 216 128 96
8.797213e-001 -4.496275e-001 3.377025e+000 231 138 104
8.788923e-001 -4.505982e-001 3.376575e+000 111 27 23
8.796875e-001 -4.486664e-001 3.379712e+000 218 131 96
8.584212e-001 -4.631001e-001 3.323673e+000 193 145 104
8.601851e-001 -4.625438e-001 3.328548e+000 209 140 98
8.704147e-001 -4.591253e-001 3.350731e+000 194 131 87
8.711511e-001 -4.587037e-001 3.352708e+000 198 133 92
8.711094e-001 -4.586622e-001 3.352942e+000 198 133 92
8.620510e-001 -4.845743e-001 3.353036e+000 172 107 84
8.643513e-001 -4.832468e-001 3.360318e+000 46 15 2
8.750263e-001 -4.733910e-001 3.390011e+000 38 7 3
8.617759e-001 -4.881614e-001 3.356037e+000 180 107 81
8.610825e-001 -5.231610e-001 3.400804e+000 141 27 33
8.440076e-001 -5.361840e-001 3.360005e+000 206 41 46
8.486453e-001 -5.316856e-001 3.367672e+000 215 60 73
8.488435e-001 -5.344973e-001 3.371125e+000 216 69 72
8.552923e-001 -5.288222e-001 3.386144e+000 136 24 30
8.568983e-001 -5.293749e-001 3.392520e+000 121 24 34
8.374525e-001 -5.421317e-001 3.347166e+000 132 23 29
8.402062e-001 -5.576646e-001 3.374188e+000 43 12 5
8.486222e-001 -5.601229e-001 3.406017e+000 97 41 12
8.497113e-001 -5.585451e-001 3.408028e+000 161 96 45
8.495437e-001 -5.609468e-001 3.411611e+000 103 47 8
8.351629e-001 -5.721647e-001 3.378395e+000 170 122 85
8.378729e-001 -5.689393e-001 3.382695e+000 165 116 84
8.350197e-001 -5.731368e-001 3.379868e+000 75 42 19
8.366720e-001 -5.717427e-001 3.382358e+000 163 118 84
8.438858e-001 -5.663658e-001 3.398874e+000 106 24 9
8.458694e-001 -5.647306e-001 3.405481e+000 168 67 28
8.280146e-001 -5.852925e-001 3.373985e+000 20 12 8
8.498452e-001 -5.776163e-001 3.435761e+000 29 14 4
8.406273e-001 -5.859867e-001 3.421700e+000 160 86 33
8.395964e-001 -5.868890e-001 3.420387e+000 165 85 35
8.455794e-001 -5.825172e-001 3.441865e+000 39 15 8
8.237210e-001 -5.985151e-001 3.381510e+000 17 11 8
8.218391e-001 -6.007198e-001 3.380263e+000 169 129 111
8.218391e-001 -6.007198e-001 3.380263e+000 169 129 111
8.237693e-001 -5.997106e-001 3.385206e+000 171 126 107
8.877690e-001 -3.723057e-001 3.281832e+000 168 28 34
8.873981e-001 -3.753753e-001 3.279430e+000 148 31 27
8.873981e-001 -3.753753e-001 3.279430e+000 148 31 27
8.817324e-001 -4.129380e-001 3.333193e+000 141 141 34
8.806636e-001 -4.127849e-001 3.333827e+000 141 141 34
8.759834e-001 -4.691436e-001 3.389709e+000 44 9 4
8.743382e-001 -4.749148e-001 3.385838e+000 50 15 14
8.475630e-001 -5.096390e-001 3.339522e+000 84 45 33
8.496518e-001 -5.167560e-001 3.352642e+000 40 18 14
8.496518e-001 -5.167560e-001 3.352642e+000 40 18 14
8.571110e-001 -5.092192e-001 3.366813e+000 171 110 81
8.446762e-001 -5.223944e-001 3.344621e+000 63 28 25
8.656550e-001 -5.150036e-001 3.406379e+000 178 116 85
8.443249e-001 -5.308841e-001 3.352006e+000 186 106 81
8.634285e-001 -5.198043e-001 3.404359e+000 143 22 30
8.416489e-001 -5.360823e-001 3.351852e+000 131 22 30
8.569607e-001 -5.271276e-001 3.390568e+000 118 15 21
8.583005e-001 -5.280644e-001 3.396719e+000 140 23 36
8.603400e-001 -5.265740e-001 3.399824e+000 135 24 26
8.610537e-001 -5.255278e-001 3.402706e+000 130 21 33
8.610537e-001 -5.255278e-001 3.402706e+000 130 21 33
8.397979e-001 -5.426814e-001 3.354779e+000 213 51 62
8.471215e-001 -5.357884e-001 3.369746e+000 129 23 27
8.495884e-001 -5.352779e-001 3.373515e+000 126 24 27
8.495107e-001 -5.347214e-001 3.375848e+000 127 22 27
8.589482e-001 -5.326057e-001 3.405853e+000 224 60 66
8.447534e-001 -5.453234e-001 3.371994e+000 132 21 28
8.405221e-001 -5.569956e-001 3.376508e+000 103 62 40
8.456439e-001 -5.633846e-001 3.402191e+000 175 63 29
8.371698e-001 -5.767027e-001 3.393374e+000 160 118 83
8.271856e-001 -5.954835e-001 3.391175e+000 27 12 7
8.413949e-001 -5.885920e-001 3.432836e+000 27 7 5
8.988010e-001 -3.433660e-001 3.301803e+000 33 78 99
8.884433e-001 -3.709246e-001 3.297297e+000 161 27 35
8.876447e-001 -3.783054e-001 3.288835e+000 153 34 33
8.832260e-001 -3.954318e-001 3.316812e+000 21 43 24
8.870138e-001 -3.933924e-001 3.323666e+000 145 138 29
8.870138e-001 -3.933924e-001 3.323666e+000 145 138 29
8.824404e-001 -3.985578e-001 3.318507e+000 50 90 84
8.842846e-001 -4.032240e-001 3.340926e+000 58 85 86
8.782447e-001 -4.131978e-001 3.323265e+000 143 135 27
8.734094e-001 -4.433977e-001 3.341387e+000 161 130 107
8.634620e-001 -4.823724e-001 3.352424e+000 175 108 75
8.731829e-001 -4.784169e-001 3.389458e+000 73 34 18
8.722376e-001 -4.825534e-001 3.391349e+000 86 58 38
8.662491e-001 -5.079840e-001 3.399931e+000 71 30 8
8.418001e-001 -5.285363e-001 3.343119e+000 188 105 84
8.527820e-001 -5.224729e-001 3.368546e+000 66 42 24
8.529842e-001 -5.225045e-001 3.368452e+000 66 42 24
8.642199e-001 -5.205458e-001 3.410666e+000 226 82 89
8.642199e-001 -5.205458e-001 3.410666e+000 226 82 89
8.405523e-001 -5.413168e-001 3.355711e+000 120 21 22
8.800361e-001 -3.953196e-001 3.308241e+000 139 133 28
8.787022e-001 -4.522647e-001 3.379601e+000 136 21 18
8.657204e-001 -4.813129e-001 3.360114e+000 181 108 74
8.657204e-001 -4.813129e-001 3.360114e+000 181 108 74
8.662185e-001 -4.824761e-001 3.362787e+000 176 111 84
8.730369e-001 -4.774169e-001 3.385121e+000 180 107 80
8.732763e-001 -4.764941e-001 3.387547e+000 186 106 70
8.610966e-001 -4.886495e-001 3.354256e+000 170 103 79
8.515182e-001 -5.041459e-001 3.343862e+000 137 94 72
8.515182e-001 -5.041459e-001 3.343862e+000 137 94 72
8.590254e-001 -5.018656e-001 3.362025e+000 72 44 25
8.582197e-001 -5.039422e-001 3.361369e+000 175 105 81
8.669314e-001 -5.030020e-001 3.394299e+000 183 119 77
8.672777e-001 -5.019939e-001 3.396400e+000 183 120 78
8.672243e-001 -5.038935e-001 3.398238e+000 111 63 36
8.672243e-001 -5.038935e-001 3.398238e+000 111 63 36
8.579694e-001 -5.113539e-001 3.370200e+000 177 109 72
8.561461e-001 -5.130375e-001 3.370928e+000 41 18 9
8.566564e-001 -5.132517e-001 3.370720e+000 41 18 9
8.655507e-001 -5.070324e-001 3.395493e+000 184 117 76
8.665189e-001 -5.062199e-001 3.397570e+000 184 119 81
8.654270e-001 -5.103721e-001 3.399180e+000 184 119 79
8.473321e-001 -5.195463e-001 3.348637e+000 181 108 83
8.445851e-001 -5.239035e-001 3.346698e+000 184 109 89
8.450162e-001 -5.245932e-001 3.346029e+000 184 109 89
8.548709e-001 -5.201194e-001 3.371149e+000 182 108 77
8.548709e-001 -5.201194e-001 3.371149e+000 182 108 77
8.419274e-001 -5.330693e-001 3.349056e+000 148 16 36
8.457082e-001 -5.348813e-001 3.359687e+000 138 22 32
8.777616e-001 -4.109345e-001 3.321245e+000 25 48 12
8.562025e-001 -4.851964e-001 3.326944e+000 174 113 81
8.816429e-001 -3.933430e-001 3.311395e+000 76 81 19
8.424128e-001 -5.419793e-001 3.362896e+000 145 18 29
8.425909e-001 -5.421746e-001 3.362669e+000 145 18 29
8.582136e-001 -5.489472e-001 3.431629e+000 114 22 22
8.456190e-001 -5.039460e-001 3.326555e+000 178 111 92
8.549558e-001 -5.342926e-001 3.394399e+000 150 18 31
8.549558e-001 -5.342926e-001 3.394399e+000 150 18 31
8.817746e-001 -4.068930e-001 3.338569e+000 55 91 87
8.715044e-001 -4.732855e-001 3.376861e+000 180 105 76
8.671799e-001 -5.043217e-001 3.395513e+000 158 106 71
8.610839e-001 -5.292912e-001 3.413450e+000 191 27 37
8.696287e-001 -4.781562e-001 3.372659e+000 179 106 74
8.475172e-001 -5.779544e-001 3.443551e+000 179 89 36
8.998429e-001 -3.566776e-001 3.269845e+000 16 73 100
8.721320e-001 -4.393484e-001 3.338752e+000 122 43 38
8.770927e-001 -3.707363e-001 3.335235e+000 146 44 35
8.742787e-001 -4.430043e-001 3.341965e+000 160 139 114
8.625270e-001 -4.645153e-001 3.319520e+000 210 139 112
8.684102e-001 -4.608646e-001 3.341956e+000 216 134 102
8.725973e-001 -4.570541e-001 3.355498e+000 115 33 24
8.830531e-001 -4.559745e-001 3.391833e+000 42 75 82
8.756853e-001 -4.738445e-001 3.389778e+000 53 21 17
8.617987e-001 -4.882511e-001 3.355888e+000 181 113 88
8.518252e-001 -5.303910e-001 3.375739e+000 217 57 67
8.523849e-001 -5.312886e-001 3.378780e+000 128 22 27
8.898798e-001 -3.731051e-001 3.291131e+000 194 135 98
8.736874e-001 -4.380602e-001 3.333397e+000 107 17 26
8.748916e-001 -4.398314e-001 3.334388e+000 160 138 114
8.684690e-001 -4.593387e-001 3.341421e+000 207 135 109
8.763745e-001 -4.562906e-001 3.373259e+000 17 68 97
8.743679e-001 -4.750078e-001 3.385996e+000 69 35 15
8.481021e-001 -5.027732e-001 3.319776e+000 161 57 56
8.455129e-001 -5.050495e-001 3.319293e+000 197 68 72
8.459927e-001 -5.151645e-001 3.335280e+000 95 56 44
8.459927e-001 -5.151645e-001 3.335280e+000 95 56 44
8.407822e-001 -5.320679e-001 3.342594e+000 191 116 102
8.634690e-001 -5.172119e-001 3.401511e+000 189 121 86
8.440554e-001 -5.349279e-001 3.358950e+000 145 23 29
8.590236e-001 -5.263154e-001 3.393456e+000 133 30 31
8.390489e-001 -5.391414e-001 3.349008e+000 128 28 34
8.433962e-001 -5.397583e-001 3.363252e+000 139 19 28
8.492730e-001 -5.330307e-001 3.375321e+000 197 56 65
8.492730e-001 -5.330307e-001 3.375321e+000 197 56 65
8.844989e-001 -4.018754e-001 3.304621e+000 144 136 22
8.829214e-001 -3.981439e-001 3.328149e+000 145 141 28
8.639859e-001 -4.674175e-001 3.327405e+000 24 68 103
8.635358e-001 -4.677109e-001 3.330184e+000 15 49 71
8.507454e-001 -4.933271e-001 3.321931e+000 156 96 89
8.507454e-001 -4.933271e-001 3.321931e+000 156 96 89
8.533169e-001 -4.912506e-001 3.333936e+000 152 93 79
8.533169e-001 -4.912506e-001 3.333936e+000 152 93 79
8.772954e-001 -4.740345e-001 3.400409e+000 188 146 104
8.531894e-001 -4.994032e-001 3.343589e+000 127 76 62
8.531894e-001 -4.994032e-001 3.343589e+000 127 76 62
8.583244e-001 -4.995556e-001 3.361121e+000 186 112 87
8.446725e-001 -5.139478e-001 3.326844e+000 149 45 46
8.573003e-001 -5.037856e-001 3.363013e+000 184 114 87
8.683826e-001 -4.994352e-001 3.397167e+000 134 83 55
8.543728e-001 -5.237162e-001 3.375639e+000 189 112 87
8.654459e-001 -5.117169e-001 3.401854e+000 84 50 28
8.589971e-001 -5.241926e-001 3.396036e+000 139 20 31
8.719813e-001 -4.797550e-001 3.384065e+000 164 95 65
8.730943e-001 -4.809015e-001 3.388694e+000 188 113 84
8.614820e-001 -4.903070e-001 3.360626e+000 185 111 87
8.701184e-001 -4.955861e-001 3.395385e+000 118 76 54
8.685170e-001 -4.975426e-001 3.394878e+000 191 124 78
8.426171e-001 -5.228002e-001 3.338102e+000 187 113 100
8.421920e-001 -5.225750e-001 3.338219e+000 187 113 100
8.430957e-001 -5.247832e-001 3.341929e+000 190 116 100
8.544981e-001 -5.160591e-001 3.367976e+000 187 113 88
8.553984e-001 -5.154498e-001 3.371131e+000 183 114 84
8.344004e-001 -5.344494e-001 3.324982e+000 189 149 135
8.527027e-001 -5.232956e-001 3.373552e+000 194 108 86
8.503288e-001 -5.272142e-001 3.369026e+000 187 111 84
8.628786e-001 -4.663714e-001 3.320090e+000 149 28 32
8.659871e-001 -4.702915e-001 3.345618e+000 20 58 84
8.596946e-001 -4.948492e-001 3.359344e+000 184 115 89
8.596946e-001 -4.948492e-001 3.359344e+000 184 115 89
8.481950e-001 -5.148237e-001 3.348668e+000 182 114 82
8.488696e-001 -5.154452e-001 3.347926e+000 182 114 82
8.417057e-001 -5.259196e-001 3.336344e+000 190 121 103
8.769659e-001 -4.216384e-001 3.341180e+000 27 51 22
8.769659e-001 -4.216384e-001 3.341180e+000 27 51 22
8.797687e-001 -4.364376e-001 3.353304e+000 152 138 109
8.412950e-001 -5.200522e-001 3.335633e+000 187 119 103
8.333520e-001 -5.268902e-001 3.325656e+000 83 123 187
8.757681e-001 -4.288909e-001 3.310223e+000 142 136 112
8.366430e-001 -5.294696e-001 3.335513e+000 115 24 37
8.782395e-001 -4.307139e-001 3.340643e+000 152 142 117
8.641591e-001 -4.738566e-001 3.314124e+000 27 69 94
8.120148e-001 -3.231656e-001 3.651964e+000 29 18 14
8.120148e-001 -3.231656e-001 3.651964e+000 29 18 14
7.879978e-001 -3.167260e-001 3.659639e+000 206 173 105
7.873496e-001 -3.299127e-001 3.658559e+000 202 168 107
7.907774e-001 -3.340096e-001 3.656851e+000 29 20 15
7.871681e-001 -3.383546e-001 3.658485e+000 197 167 115
7.969066e-001 -3.188910e-001 3.656711e+000 204 174 115
8.498734e-001 -5.612201e-001 3.415180e+000 201 99 34
8.478070e-001 -5.638599e-001 3.408439e+000 174 65 34
8.371187e-001 -5.691778e-001 3.381187e+000 169 122 76
8.419504e-001 -5.667829e-001 3.391439e+000 174 103 57
8.448685e-001 -5.678999e-001 3.405151e+000 188 71 23
8.346608e-001 -5.769386e-001 3.384731e+000 180 124 78
8.391734e-001 -5.744765e-001 3.394623e+000 179 128 78
8.386603e-001 -5.706615e-001 3.387157e+000 174 126 80
8.420309e-001 -5.681619e-001 3.395734e+000 186 88 35
8.380809e-001 -5.898483e-001 3.422315e+000 36 13 1
8.293104e-001 -5.969610e-001 3.403161e+000 101 50 33
5.610274e-001 -3.171603e-001 3.633184e+000 85 67 53
8.365868e-001 -5.930051e-001 3.422099e+000 140 73 29
5.684422e-001 -3.101610e-001 3.632488e+000 123 101 77
5.785137e-001 -3.155849e-001 3.629587e+000 99 80 63
8.357189e-001 -5.892792e-001 3.409204e+000 57 40 23
5.664445e-001 -3.149315e-001 3.631021e+000 109 86 76
5.716940e-001 -3.171817e-001 3.629437e+000 66 50 44
5.861324e-001 -3.159119e-001 3.629155e+000 97 80 62
8.583166e-001 -5.346174e-001 3.402498e+000 225 49 56
8.502010e-001 -5.617809e-001 3.417021e+000 137 53 16
8.410044e-001 -5.700212e-001 3.394030e+000 136 84 48
8.292334e-001 -5.938825e-001 3.396526e+000 24 14 13
8.338099e-001 -5.928939e-001 3.411687e+000 174 128 98
8.396810e-001 -5.462856e-001 3.357825e+000 239 65 72
8.338518e-001 -5.686011e-001 3.370099e+000 190 135 97
8.411025e-001 -5.673343e-001 3.389199e+000 189 133 85
8.500509e-001 -5.614526e-001 3.414945e+000 195 105 34
8.368192e-001 -5.694484e-001 3.379602e+000 183 134 93
8.404955e-001 -5.713121e-001 3.394829e+000 183 130 80
8.419334e-001 -5.713322e-001 3.399778e+000 116 47 11
8.425793e-001 -5.707965e-001 3.401439e+000 104 31 13
8.446713e-001 -5.702633e-001 3.407854e+000 187 83 27
8.447815e-001 -5.702763e-001 3.407848e+000 187 83 27
8.406364e-001 -5.843598e-001 3.421073e+000 173 97 35
8.426336e-001 -5.849471e-001 3.432165e+000 175 93 33
8.414905e-001 -5.603859e-001 3.381395e+000 190 131 89
8.953134e-001 -3.512223e-001 3.309047e+000 104 161 179
8.953134e-001 -3.512223e-001 3.309047e+000 104 161 179
8.634757e-001 -5.243624e-001 3.406343e+000 143 30 32
8.581799e-001 -5.299563e-001 3.396658e+000 235 72 75
8.462227e-001 -5.616507e-001 3.399862e+000 180 60 32
8.417081e-001 -5.667909e-001 3.391520e+000 172 97 65
8.521287e-001 -5.613613e-001 3.419482e+000 118 33 10
8.442327e-001 -5.689339e-001 3.403098e+000 196 83 30
8.442327e-001 -5.689339e-001 3.403098e+000 196 83 30
8.346161e-001 -5.781672e-001 3.387465e+000 163 115 77
8.495192e-001 -5.742922e-001 3.439032e+000 106 66 43
8.249969e-001 -5.965168e-001 3.391146e+000 169 123 103
8.291671e-001 -5.976138e-001 3.407184e+000 120 52 41
8.576392e-001 -5.358740e-001 3.399938e+000 224 61 66
8.575513e-001 -5.357219e-001 3.399956e+000 224 61 66
8.406501e-001 -5.470418e-001 3.362112e+000 141 32 36
8.473938e-001 -5.642175e-001 3.406512e+000 186 68 36
8.503642e-001 -5.645377e-001 3.418299e+000 110 40 23
8.349583e-001 -5.943790e-001 3.417548e+000 133 68 30
8.214384e-001 -6.007537e-001 3.389531e+000 84 27 30
8.860591e-001 -4.160136e-001 3.375731e+000 154 141 99
8.714902e-001 -4.544683e-001 3.348771e+000 131 21 19
8.727819e-001 -4.557745e-001 3.356436e+000 219 127 90
8.718348e-001 -4.623577e-001 3.359713e+000 22 60 78
8.724619e-001 -4.790710e-001 3.385959e+000 175 109 77
8.590335e-001 -5.244546e-001 3.393208e+000 221 56 69
8.617412e-001 -5.223129e-001 3.399568e+000 239 81 82
8.515034e-001 -5.413617e-001 3.388767e+000 131 18 26
8.480755e-001 -5.606632e-001 3.405256e+000 223 117 61
8.480755e-001 -5.606632e-001 3.405256e+000 223 117 61
8.500597e-001 -5.597267e-001 3.411996e+000 176 92 28
8.341672e-001 -5.733452e-001 3.378421e+000 85 53 31
8.432108e-001 -5.675113e-001 3.398511e+000 174 63 37
8.438676e-001 -5.663514e-001 3.398937e+000 106 24 9
8.289756e-001 -5.846750e-001 3.377657e+000 33 21 16
8.473154e-001 -5.756174e-001 3.427788e+000 189 128 98
8.447842e-001 -5.815726e-001 3.428801e+000 176 88 32
8.407133e-001 -5.883285e-001 3.427260e+000 31 11 4
8.463936e-001 -5.827602e-001 3.441330e+000 39 15 8
8.748581e-001 -4.600091e-001 3.370774e+000 23 60 78
8.625597e-001 -5.255812e-001 3.409044e+000 143 23 32
8.549171e-001 -5.376004e-001 3.396173e+000 134 19 27
8.262158e-001 -6.001648e-001 3.394324e+000 86 42 28
8.400148e-001 -5.899664e-001 3.428103e+000 40 6 0
8.648809e-001 -5.095581e-001 3.394834e+000 166 109 75
8.437103e-001 -5.335685e-001 3.356565e+000 225 89 93
8.479205e-001 -5.430664e-001 3.380770e+000 128 25 29
8.529828e-001 -5.409252e-001 3.393258e+000 224 79 90
8.511580e-001 -5.472384e-001 3.395831e+000 66 37 21
8.374674e-001 -5.568080e-001 3.366403e+000 186 107 83
8.450698e-001 -5.543886e-001 3.387082e+000 80 32 21
8.322357e-001 -5.760425e-001 3.375068e+000 167 117 83
8.300167e-001 -5.777999e-001 3.371083e+000 73 41 18
8.300982e-001 -5.778341e-001 3.371204e+000 73 41 18
8.141743e-001 -6.088583e-001 3.369185e+000 132 29 43
8.561439e-001 -5.402548e-001 3.406483e+000 187 117 81
8.225831e-001 -5.757913e-001 3.353580e+000 51 19 20
8.831022e-001 -4.070309e-001 3.337084e+000 55 91 87
8.292892e-001 -5.958765e-001 3.398127e+000 155 123 97
8.572446e-001 -5.417955e-001 3.416512e+000 187 120 78
8.864054e-001 -3.776257e-001 3.290062e+000 137 39 32
8.756279e-001 -4.357730e-001 3.345574e+000 85 38 23
8.785947e-001 -4.503327e-001 3.377128e+000 115 26 28
8.815467e-001 -4.504460e-001 3.381644e+000 230 125 103
8.798322e-001 -4.493528e-001 3.382925e+000 230 125 103
8.811544e-001 -4.484251e-001 3.392190e+000 60 41 42
8.747621e-001 -4.704487e-001 3.385821e+000 42 8 1
8.610918e-001 -5.231554e-001 3.400864e+000 129 25 31
8.610783e-001 -5.244589e-001 3.401426e+000 230 70 77
8.656221e-001 -5.191059e-001 3.409918e+000 139 28 27
8.402876e-001 -5.467260e-001 3.362791e+000 124 18 30
8.492287e-001 -5.407964e-001 3.384285e+000 142 14 26
8.501883e-001 -5.408075e-001 3.385372e+000 248 72 82
8.539631e-001 -5.381526e-001 3.392880e+000 201 53 55
8.594006e-001 -5.340747e-001 3.406871e+000 156 20 32
8.388254e-001 -5.578024e-001 3.372902e+000 91 52 40
8.430264e-001 -5.558718e-001 3.382024e+000 99 57 40
8.430730e-001 -5.558838e-001 3.382074e+000 99 57 40
8.381390e-001 -5.690996e-001 3.385999e+000 131 88 58
8.395759e-001 -5.684751e-001 3.388241e+000 100 65 42
8.468590e-001 -5.627987e-001 3.404019e+000 181 61 39
8.468442e-001 -5.638877e-001 3.405088e+000 128 39 24
8.503717e-001 -5.599457e-001 3.411786e+000 187 93 31
8.510845e-001 -5.595886e-001 3.412746e+000 182 87 36
8.330712e-001 -5.770041e-001 3.381103e+000 183 128 88
8.395543e-001 -5.709113e-001 3.390701e+000 113 74 43
8.470604e-001 -5.685877e-001 3.412955e+000 192 107 44
8.284979e-001 -5.842812e-001 3.378039e+000 21 10 6
8.400268e-001 -5.784363e-001 3.403700e+000 27 13 8
8.511837e-001 -5.705096e-001 3.432989e+000 198 149 111
8.520512e-001 -5.707691e-001 3.433880e+000 32 25 22
8.514777e-001 -5.735461e-001 3.434654e+000 184 139 107
8.447795e-001 -5.785087e-001 3.420179e+000 103 75 54
8.447795e-001 -5.785087e-001 3.420179e+000 103 75 54
8.245632e-001 -5.989215e-001 3.387279e+000 167 126 108
8.245632e-001 -5.989215e-001 3.387279e+000 167 126 108
8.331340e-001 -5.926467e-001 3.407510e+000 173 126 104
8.436329e-001 -5.852331e-001 3.428781e+000 110 54 18
8.418904e-001 -5.875245e-001 3.426010e+000 165 85 28
8.459266e-001 -5.842304e-001 3.438355e+000 55 22 12
8.461498e-001 -5.857453e-001 3.442442e+000 43 9 6
8.479700e-001 -5.835421e-001 3.444817e+000 180 77 39
8.722703e-001 -4.456348e-001 3.337870e+000 167 137 113
8.455004e-001 -5.114664e-001 3.325749e+000 165 84 72
8.503072e-001 -5.311476e-001 3.372517e+000 217 59 65
8.642178e-001 -5.210396e-001 3.406075e+000 136 24 32
8.374739e-001 -5.437986e-001 3.347383e+000 201 57 64
8.396374e-001 -5.420763e-001 3.351627e+000 134 24 35
8.393489e-001 -5.418520e-001 3.351628e+000 134 24 35
8.385369e-001 -5.431239e-001 3.352485e+000 205 61 74
8.407115e-001 -5.418406e-001 3.359542e+000 228 62 77
8.496104e-001 -5.357484e-001 3.377976e+000 201 54 60
8.536823e-001 -5.334253e-001 3.386379e+000 208 57 60
8.582810e-001 -5.298108e-001 3.396690e+000 220 68 70
8.578514e-001 -5.295502e-001 3.396991e+000 220 68 70
8.639612e-001 -5.243804e-001 3.409104e+000 210 64 68
8.639612e-001 -5.243804e-001 3.409104e+000 210 64 68
8.394817e-001 -5.466703e-001 3.360172e+000 140 25 29
8.413453e-001 -5.464924e-001 3.365290e+000 142 25 37
8.487218e-001 -5.429786e-001 3.382431e+000 142 22 35
8.543988e-001 -5.396686e-001 3.396731e+000 236 65 71
8.513792e-001 -5.422002e-001 3.390192e+000 205 70 72
8.409582e-001 -5.566161e-001 3.378109e+000 184 112 89
8.489908e-001 -5.521444e-001 3.395669e+000 108 60 38
8.423187e-001 -5.594449e-001 3.385880e+000 156 82 48
8.533003e-001 -5.568856e-001 3.415708e+000 186 52 35
8.388037e-001 -5.746379e-001 3.394619e+000 177 119 81
8.413034e-001 -5.745554e-001 3.401857e+000 185 95 55
8.441362e-001 -5.692243e-001 3.402930e+000 182 73 34
8.525160e-001 -5.634872e-001 3.421693e+000 107 33 24
8.313214e-001 -5.833345e-001 3.384088e+000 22 12 7
8.269207e-001 -5.945140e-001 3.389307e+000 147 113 105
8.302902e-001 -5.977604e-001 3.398851e+000 175 126 105
8.288860e-001 -5.960130e-001 3.399290e+000 175 126 105
8.343476e-001 -5.933711e-001 3.411261e+000 188 124 107
8.396898e-001 -5.891776e-001 3.420654e+000 160 85 30
8.292432e-001 -5.992752e-001 3.403501e+000 141 76 56
8.823460e-001 -3.985694e-001 3.318415e+000 57 93 90
8.747088e-001 -4.270366e-001 3.306755e+000 149 140 29
8.617718e-001 -4.880215e-001 3.357573e+000 104 67 55
8.616311e-001 -4.878194e-001 3.357998e+000 104 67 55
8.561805e-001 -5.256768e-001 3.388657e+000 208 61 68
8.625685e-001 -5.235369e-001 3.403932e+000 207 66 66
8.431419e-001 -5.463988e-001 3.371398e+000 204 61 69
8.563483e-001 -5.356774e-001 3.398747e+000 238 73 81
8.563483e-001 -5.356774e-001 3.398747e+000 238 73 81
8.555652e-001 -5.424504e-001 3.407597e+000 190 127 86
8.556350e-001 -5.424794e-001 3.407564e+000 190 127 86
8.428051e-001 -5.538919e-001 3.379736e+000 191 110 94
8.458104e-001 -5.506601e-001 3.384227e+000 99 46 30
8.380584e-001 -5.703269e-001 3.387464e+000 173 120 80
8.531517e-001 -5.675016e-001 3.435237e+000 69 40 19
8.644430e-001 -4.647581e-001 3.329680e+000 153 19 29
8.760080e-001 -4.719303e-001 3.392591e+000 158 94 66
8.760080e-001 -4.719303e-001 3.392591e+000 158 94 66
8.594873e-001 -4.928792e-001 3.356309e+000 177 106 75
8.506279e-001 -5.070091e-001 3.343585e+000 183 112 92
8.534413e-001 -5.183503e-001 3.366895e+000 162 91 67
8.570890e-001 -5.132023e-001 3.372808e+000 58 26 12
8.428460e-001 -5.525736e-001 3.375919e+000 80 39 23
8.447149e-001 -5.809793e-001 3.422942e+000 184 141 115
8.273761e-001 -5.974031e-001 3.395266e+000 170 127 102
8.338557e-001 -5.504036e-001 3.348958e+000 154 21 40
8.578627e-001 -5.319702e-001 3.399575e+000 157 19 33
8.582554e-001 -5.322389e-001 3.399253e+000 157 19 33
8.858379e-001 -4.129789e-001 3.362547e+000 106 119 100
8.858379e-001 -4.129789e-001 3.362547e+000 106 119 100
8.587792e-001 -5.484306e-001 3.432387e+000 125 21 28
8.839662e-001 -4.073580e-001 3.336345e+000 59 98 104
8.556569e-001 -5.563349e-001 3.437798e+000 196 103 26
8.783149e-001 -4.113138e-001 3.289363e+000 138 147 38
8.649688e-001 -4.614116e-001 3.332048e+000 116 34 27
8.757807e-001 -4.532438e-001 3.365175e+000 220 140 102
8.781375e-001 -4.495004e-001 3.374976e+000 127 28 28
8.804224e-001 -4.480128e-001 3.381966e+000 215 136 106
8.720300e-001 -4.568107e-001 3.355895e+000 100 24 22
8.459291e-001 -5.079486e-001 3.322020e+000 202 99 92
8.496932e-001 -5.087056e-001 3.344720e+000 93 54 42
8.508702e-001 -5.124613e-001 3.351794e+000 75 44 38
8.537161e-001 -5.175305e-001 3.368938e+000 177 115 91
8.453369e-001 -5.329165e-001 3.360153e+000 144 26 37
8.519133e-001 -5.298002e-001 3.377524e+000 134 24 29
8.519133e-001 -5.298002e-001 3.377524e+000 134 24 29
8.584756e-001 -5.248444e-001 3.396059e+000 131 24 29
8.403903e-001 -5.396323e-001 3.354590e+000 192 42 53
8.634844e-001 -5.244674e-001 3.411137e+000 146 25 34
8.465214e-001 -5.438999e-001 3.381360e+000 229 62 74
8.495106e-001 -5.402455e-001 3.385710e+000 236 73 75
8.522302e-001 -5.397412e-001 3.392170e+000 125 27 27
8.602954e-001 -5.329159e-001 3.409081e+000 153 24 34
8.435143e-001 -5.617634e-001 3.393617e+000 102 24 12
8.367928e-001 -5.700503e-001 3.382307e+000 107 75 52
8.509900e-001 -5.625322e-001 3.416135e+000 114 29 9
8.522737e-001 -5.629959e-001 3.420369e+000 193 76 34
8.334279e-001 -5.820074e-001 3.389329e+000 22 13 4
8.435132e-001 -5.791062e-001 3.415803e+000 188 145 114
8.525526e-001 -5.714469e-001 3.433657e+000 28 17 19
8.218737e-001 -6.002173e-001 3.380373e+000 182 149 133
8.476015e-001 -5.761510e-001 3.425195e+000 15 3 4
8.467508e-001 -5.790522e-001 3.426504e+000 25 12 11
8.196525e-001 -6.026992e-001 3.378498e+000 196 152 139
8.477486e-001 -5.860162e-001 3.439392e+000 166 90 41
8.489648e-001 -5.819892e-001 3.442704e+000 56 19 15
8.475552e-001 -5.834574e-001 3.440984e+000 45 12 12
8.384592e-001 -5.920659e-001 3.422996e+000 40 14 6
8.415031e-001 -5.880154e-001 3.433195e+000 45 19 9
8.838991e-001 -3.720366e-001 3.280342e+000 163 33 38
8.891239e-001 -3.783070e-001 3.307240e+000 205 137 114
8.814282e-001 -3.976893e-001 3.329507e+000 136 135 30
8.801276e-001 -4.126385e-001 3.334020e+000 136 148 41
8.709043e-001 -4.614857e-001 3.356510e+000 20 68 98
8.796963e-001 -4.523847e-001 3.385152e+000 20 69 99
8.653752e-001 -4.791017e-001 3.359625e+000 94 57 40
8.515535e-001 -4.978389e-001 3.330392e+000 89 49 37
8.488897e-001 -5.197363e-001 3.357845e+000 88 52 41
8.385905e-001 -5.415004e-001 3.345766e+000 227 74 85
8.443263e-001 -5.334236e-001 3.358344e+000 217 75 79
8.663594e-001 -5.173756e-001 3.410036e+000 211 43 53
8.388955e-001 -5.428785e-001 3.348887e+000 147 30 39
8.386319e-001 -5.426198e-001 3.348956e+000 147 30 39
8.379872e-001 -5.432029e-001 3.350876e+000 218 71 80
8.442003e-001 -5.382061e-001 3.364184e+000 195 57 66
8.454698e-001 -5.378475e-001 3.367007e+000 170 43 48
8.488063e-001 -5.350091e-001 3.373771e+000 137 24 33
8.415582e-001 -5.477597e-001 3.366889e+000 180 44 46
8.413730e-001 -5.475487e-001 3.366937e+000 180 44 46
8.547517e-001 -5.378082e-001 3.398074e+000 149 24 34
8.454460e-001 -5.547365e-001 3.386777e+000 78 46 30
8.505429e-001 -5.486407e-001 3.397559e+000 182 130 92
8.534554e-001 -5.480094e-001 3.406242e+000 132 91 70
8.534554e-001 -5.480094e-001 3.406242e+000 132 91 70
8.473904e-001 -5.600639e-001 3.403268e+000 227 125 76
8.356437e-001 -5.720009e-001 3.380700e+000 168 124 91
8.390896e-001 -5.695182e-001 3.389809e+000 166 120 94
8.405306e-001 -5.694954e-001 3.392114e+000 172 115 90
8.490506e-001 -5.670476e-001 3.416271e+000 182 76 41
8.431936e-001 -5.772401e-001 3.411333e+000 212 135 87
8.428298e-001 -5.765146e-001 3.411857e+000 212 135 87
8.408726e-001 -5.849938e-001 3.418660e+000 172 89 31
8.275389e-001 -5.991022e-001 3.389944e+000 174 137 118
8.417333e-001 -5.883770e-001 3.431085e+000 153 80 35
8.405740e-001 -5.901809e-001 3.428250e+000 36 13 4
8.782812e-001 -4.142483e-001 3.330215e+000 148 147 54
8.782812e-001 -4.142483e-001 3.330215e+000 148 147 54
8.608799e-001 -4.895399e-001 3.359230e+000 184 117 90
8.731985e-001 -4.780288e-001 3.390305e+000 72 42 30
8.731985e-001 -4.780288e-001 3.390305e+000 72 42 30
8.482655e-001 -5.047739e-001 3.319832e+000 174 76 73
8.493606e-001 -5.092810e-001 3.342251e+000 88 51 34
8.494348e-001 -5.093294e-001 3.342050e+000 88 51 34
8.515308e-001 -5.078766e-001 3.349470e+000 80 43 25
8.691934e-001 -4.948311e-001 3.396381e+000 82 49 30
8.483405e-001 -5.168842e-001 3.351481e+000 60 29 18
8.530767e-001 -5.180272e-001 3.367147e+000 153 95 76
8.566325e-001 -5.128413e-001 3.373056e+000 61 35 27
8.669059e-001 -5.081165e-001 3.399986e+000 36 16 2
8.521115e-001 -5.221309e-001 3.368884e+000 78 44 29
8.633913e-001 -5.144529e-001 3.398700e+000 190 126 84
8.449728e-001 -5.346336e-001 3.360491e+000 136 24 30
8.449728e-001 -5.346336e-001 3.360491e+000 136 24 30
8.461856e-001 -5.325568e-001 3.363656e+000 142 26 23
8.620884e-001 -5.185764e-001 3.397508e+000 186 123 88
8.398292e-001 -5.538032e-001 3.369619e+000 90 63 40
8.434285e-001 -5.546323e-001 3.384466e+000 165 103 91
8.616057e-001 -5.498950e-001 3.436336e+000 151 66 41
8.371208e-001 -5.800651e-001 3.395320e+000 185 144 111
8.388043e-001 -5.784959e-001 3.400272e+000 188 143 105
8.457937e-001 -5.769536e-001 3.420568e+000 194 150 120
8.551231e-001 -5.688162e-001 3.437846e+000 31 10 17
8.414299e-001 -5.911332e-001 3.432424e+000 141 69 35
8.762613e-001 -4.170105e-001 3.303818e+000 124 130 56
8.762613e-001 -4.170105e-001 3.303818e+000 124 130 56
8.795432e-001 -4.094619e-001 3.341743e+000 153 148 32
8.795432e-001 -4.094619e-001 3.341743e+000 153 148 32
8.601057e-001 -4.729765e-001 3.307534e+000 14 51 83
8.597909e-001 -4.668842e-001 3.314923e+000 150 24 35
8.739950e-001 -4.552438e-001 3.369033e+000 145 24 30
8.650318e-001 -4.810823e-001 3.360448e+000 182 116 87
8.653412e-001 -4.822574e-001 3.363128e+000 184 108 82
8.528699e-001 -4.950360e-001 3.331469e+000 190 123 102
8.558925e-001 -5.052136e-001 3.362648e+000 91 45 38
8.678915e-001 -4.984201e-001 3.393003e+000 188 124 86
8.665010e-001 -5.024744e-001 3.394563e+000 187 126 94
8.455654e-001 -5.217170e-001 3.339646e+000 191 119 103
8.543463e-001 -5.138031e-001 3.366235e+000 175 104 91
8.543463e-001 -5.138031e-001 3.366235e+000 175 104 91
8.661780e-001 -5.069190e-001 3.395672e+000 188 124 91
8.469607e-001 -5.543931e-001 3.394556e+000 187 119 84
8.297789e-001 -5.808785e-001 3.371914e+000 187 146 111
8.476563e-001 -5.804192e-001 3.430366e+000 175 93 32
8.563502e-001 -5.675834e-001 3.447108e+000 199 149 121
8.750017e-001 -4.227999e-001 3.291179e+000 28 52 31
8.423608e-001 -5.622053e-001 3.390067e+000 162 53 31
8.825866e-001 -3.950011e-001 3.315110e+000 25 51 23
8.797755e-001 -4.128276e-001 3.331053e+000 75 105 50
8.642447e-001 -5.349203e-001 3.427382e+000 74 19 20
8.814917e-001 -3.935830e-001 3.285283e+000 114 128 111
8.814917e-001 -3.935830e-001 3.285283e+000 114 128 111
8.763032e-001 -4.028723e-001 3.293486e+000 118 132 109
8.577288e-001 -4.967545e-001 3.353664e+000 181 115 91
8.524149e-001 -5.279617e-001 3.378106e+000 134 22 25
8.701949e-001 -5.167016e-001 3.419936e+000 46 14 17
8.753405e-001 -4.635124e-001 3.383156e+000 13 58 90
8.486671e-001 -5.117954e-001 3.320307e+000 150 42 46
9.030327e-001 -3.851211e-001 3.225667e+000 155 155 155
8.893665e-001 -4.122612e-001 3.353116e+000 28 52 20
8.738709e-001 -4.966039e-001 3.410610e+000 175 134 90
9.336341e-001 -3.796178e-001 3.311347e+000 11 73 110
8.488626e-001 -5.609769e-001 3.407440e+000 191 110 38
8.501418e-001 -5.596618e-001 3.410819e+000 187 96 26
8.357363e-001 -5.721330e-001 3.380657e+000 163 113 64
8.396953e-001 -5.679948e-001 3.386358e+000 177 123 75
8.398662e-001 -5.697743e-001 3.389634e+000 172 120 78
8.399374e-001 -5.737885e-001 3.395693e+000 182 121 67
8.331466e-001 -5.777954e-001 3.379265e+000 170 124 68
8.399831e-001 -5.775146e-001 3.402481e+000 204 151 87
8.438444e-001 -5.853464e-001 3.435051e+000 56 21 6
8.436118e-001 -5.713230e-001 3.404022e+000 180 73 31
8.482272e-001 -5.511325e-001 3.392460e+000 184 121 76
8.487508e-001 -5.705045e-001 3.425470e+000 191 98 31
9.677864e-001 -3.685336e-001 3.665746e+000 148 118 80
9.435074e-001 -3.520599e-001 3.677307e+000 175 145 56
9.435074e-001 -3.520599e-001 3.677307e+000 175 145 56
9.378627e-001 -3.456607e-001 3.679888e+000 194 165 87
9.411128e-001 -3.492254e-001 3.677933e+000 97 76 35
9.656706e-001 -3.815226e-001 3.663284e+000 96 68 47
9.605637e-001 -3.747293e-001 3.663875e+000 67 44 30
9.507990e-001 -3.463014e-001 3.674816e+000 194 163 117
9.603003e-001 -3.459168e-001 3.672496e+000 34 24 23
9.603003e-001 -3.459168e-001 3.672496e+000 34 24 23
8.501680e-001 -5.596959e-001 3.410471e+000 190 100 27
8.481595e-001 -5.641060e-001 3.411144e+000 127 65 15
8.515438e-001 -5.610626e-001 3.419606e+000 132 36 3
8.345162e-001 -5.704520e-001 3.375071e+000 173 129 80
8.359380e-001 -5.699224e-001 3.377700e+000 175 126 79
8.403332e-001 -5.654948e-001 3.385829e+000 175 126 79
8.336903e-001 -5.780592e-001 3.383520e+000 90 66 46
8.417674e-001 -5.725330e-001 3.400843e+000 210 102 37
8.474159e-001 -5.743498e-001 3.426505e+000 220 153 101
8.470863e-001 -5.753891e-001 3.425458e+000 18 7 9
8.292477e-001 -5.812746e-001 3.373296e+000 172 127 87
8.340444e-001 -5.787762e-001 3.384921e+000 178 131 87
8.422291e-001 -5.809694e-001 3.419057e+000 27 20 10
8.273820e-001 -5.954930e-001 3.391230e+000 20 10 3
8.270177e-001 -5.966385e-001 3.392474e+000 176 133 100
8.417713e-001 -5.646399e-001 3.388885e+000 181 118 66
8.491030e-001 -5.625048e-001 3.411660e+000 192 119 35
8.495249e-001 -5.639539e-001 3.415741e+000 211 122 41
8.368291e-001 -5.671706e-001 3.377351e+000 170 126 78
8.388466e-001 -5.664551e-001 3.382495e+000 185 125 73
8.443047e-001 -5.855825e-001 3.437382e+000 182 90 31
8.500000e-001 -5.688797e-001 3.437845e+000 197 154 102
8.348496e-001 -5.743493e-001 3.382259e+000 174 126 77
8.285064e-001 -5.838762e-001 3.376026e+000 193 147 103
8.433917e-001 -5.882007e-001 3.438634e+000 160 80 31
8.444561e-001 -5.871840e-001 3.441921e+000 168 76 36
8.368731e-001 -5.904358e-001 3.416146e+000 175 137 94
8.619233e-001 -5.226658e-001 3.402418e+000 149 31 33
8.365598e-001 -5.658500e-001 3.374575e+000 187 140 99
8.438890e-001 -5.633292e-001 3.394430e+000 190 56 32
8.519016e-001 -5.687299e-001 3.432290e+000 85 68 47
8.321456e-001 -5.783224e-001 3.377850e+000 172 127 88
8.436907e-001 -5.749761e-001 3.410976e+000 179 84 32
8.441957e-001 -5.777226e-001 3.418629e+000 185 151 115
8.428580e-001 -5.810910e-001 3.420393e+000 196 152 109
8.312638e-001 -5.925571e-001 3.401448e+000 23 14 6
8.354230e-001 -5.919110e-001 3.414393e+000 179 131 102
8.403787e-001 -5.880032e-001 3.427402e+000 51 19 7
8.442078e-001 -5.863817e-001 3.439919e+000 42 14 11
8.474465e-001 -5.533458e-001 3.392710e+000 114 67 45
8.473235e-001 -5.532914e-001 3.392723e+000 114 67 45
8.487873e-001 -5.612535e-001 3.407187e+000 198 107 42
8.384133e-001 -5.686369e-001 3.383543e+000 186 135 96
8.418113e-001 -5.713236e-001 3.399739e+000 116 47 11
8.421382e-001 -5.749657e-001 3.404752e+000 145 64 22
8.546096e-001 -5.437218e-001 3.405081e+000 85 50 34
8.531905e-001 -5.567956e-001 3.415838e+000 185 58 33
8.352184e-001 -5.752643e-001 3.384801e+000 139 98 67
8.466046e-001 -5.764093e-001 3.423656e+000 192 155 116
8.509444e-001 -5.650128e-001 3.423128e+000 195 84 25
8.493372e-001 -5.637192e-001 3.413679e+000 189 112 34
8.243285e-001 -5.880287e-001 3.367172e+000 160 132 118
8.451482e-001 -5.786169e-001 3.422251e+000 146 117 93
8.394517e-001 -5.702883e-001 3.389300e+000 173 128 82
8.409340e-001 -5.571886e-001 3.376231e+000 112 61 42
8.457581e-001 -5.622792e-001 3.398169e+000 194 56 34
8.379622e-001 -5.751064e-001 3.392159e+000 169 119 86
8.432816e-001 -5.785117e-001 3.417758e+000 32 13 6
8.502543e-001 -5.762565e-001 3.437237e+000 51 25 11
8.459190e-001 -5.839263e-001 3.439938e+000 189 95 55
8.425712e-001 -5.866785e-001 3.431609e+000 54 20 3
8.457502e-001 -5.854351e-001 3.442481e+000 44 9 2
8.335972e-001 -5.750213e-001 3.378580e+000 164 115 80
8.369409e-001 -5.752579e-001 3.390250e+000 167 116 80
8.412154e-001 -5.742388e-001 3.402166e+000 165 88 35
8.546503e-001 -5.378824e-001 3.398036e+000 165 22 36
8.456349e-001 -5.764330e-001 3.420976e+000 200 155 112
8.430159e-001 -5.872251e-001 3.433820e+000 165 85 34
8.494459e-001 -5.483967e-001 3.392868e+000 189 117 68
8.494459e-001 -5.483967e-001 3.392868e+000 189 117 68
8.330654e-001 -5.720543e-001 3.372456e+000 168 123 90
8.397277e-001 -5.751543e-001 3.399640e+000 148 77 26
8.663086e-001 -5.175074e-001 3.409926e+000 211 49 52
8.422475e-001 -5.662238e-001 3.393625e+000 176 72 34
8.491572e-001 -5.575708e-001 3.404408e+000 180 111 64
8.328118e-001 -5.753806e-001 3.376919e+000 174 122 83
8.399433e-001 -5.725638e-001 3.395642e+000 160 105 67
8.440434e-001 -5.668111e-001 3.400739e+000 170 62 36
8.398543e-001 -5.739286e-001 3.397211e+000 167 94 56
8.335831e-001 -5.820452e-001 3.389376e+000 20 18 15
8.466759e-001 -5.788280e-001 3.426546e+000 31 11 3
8.348007e-001 -5.919823e-001 3.410052e+000 153 113 89
8.487847e-001 -5.666473e-001 3.416260e+000 165 74 35
8.408986e-001 -5.731020e-001 3.399597e+000 175 89 44
8.459821e-001 -5.795449e-001 3.425237e+000 175 139 101
8.344221e-001 -5.942421e-001 3.415046e+000 97 44 28
8.491538e-001 -5.625676e-001 3.411767e+000 189 113 44
8.480183e-001 -5.511006e-001 3.392419e+000 187 115 82
8.669903e-001 -5.147067e-001 3.411689e+000 147 22 24
8.353257e-001 -5.813061e-001 3.391611e+000 180 136 103
8.432423e-001 -5.844160e-001 3.423495e+000 129 68 32
8.481218e-001 -5.829408e-001 3.443895e+000 77 21 11
8.173533e-001 -5.993597e-001 3.368324e+000 188 152 136
8.407578e-001 -5.836315e-001 3.415620e+000 165 87 33
8.506429e-001 -5.503048e-001 3.400255e+000 100 57 37
8.439624e-001 -5.668220e-001 3.400692e+000 176 62 38
8.468737e-001 -5.639377e-001 3.404978e+000 128 39 24
8.299231e-001 -5.784794e-001 3.373564e+000 173 124 85
8.335513e-001 -5.779788e-001 3.383539e+000 79 51 32
8.393384e-001 -5.707802e-001 3.390798e+000 113 74 43
8.514734e-001 -5.641870e-001 3.420141e+000 94 33 17
8.357172e-001 -5.808910e-001 3.394206e+000 28 18 12
8.389901e-001 -5.788901e-001 3.401852e+000 32 19 13
8.511843e-001 -5.705135e-001 3.432981e+000 198 149 111
8.509513e-001 -5.734873e-001 3.433359e+000 38 23 15
8.427106e-001 -5.805103e-001 3.416105e+000 175 133 113
8.427106e-001 -5.805103e-001 3.416105e+000 175 133 113
8.436002e-001 -5.789344e-001 3.417438e+000 28 19 17
8.244664e-001 -5.971142e-001 3.385249e+000 19 13 11
8.244664e-001 -5.971142e-001 3.385249e+000 19 13 11
8.380034e-001 -5.915804e-001 3.423154e+000 25 7 3
8.468472e-001 -5.874425e-001 3.449867e+000 40 22 24
8.637653e-001 -5.204863e-001 3.406596e+000 136 24 32
8.393317e-001 -5.730199e-001 3.394116e+000 104 68 47
8.393317e-001 -5.730199e-001 3.394116e+000 104 68 47
8.474367e-001 -5.680047e-001 3.414057e+000 203 117 62
8.457096e-001 -5.792973e-001 3.425482e+000 192 146 121
8.211135e-001 -6.011584e-001 3.376749e+000 179 145 123
8.250217e-001 -5.992034e-001 3.390623e+000 165 112 98
8.436856e-001 -5.879998e-001 3.436180e+000 38 17 6
8.434427e-001 -5.878369e-001 3.436198e+000 38 17 6
8.622203e-001 -5.233170e-001 3.404255e+000 207 66 66
8.545533e-001 -5.476958e-001 3.408599e+000 71 40 26
8.599822e-001 -5.508009e-001 3.434517e+000 199 105 30
8.547783e-001 -5.594183e-001 3.426190e+000 210 94 39
8.431200e-001 -5.717611e-001 3.403712e+000 186 74 35
8.413879e-001 -5.780464e-001 3.406745e+000 94 67 48
8.322542e-001 -5.947293e-001 3.405545e+000 176 127 104
8.437438e-001 -5.839444e-001 3.427116e+000 166 86 32
8.578558e-001 -5.531111e-001 3.429793e+000 194 100 28
8.634106e-001 -5.316502e-001 3.416615e+000 159 19 30
8.634106e-001 -5.316502e-001 3.416615e+000 159 19 30
8.660429e-001 -5.270979e-001 3.413607e+000 154 22 30
8.422157e-001 -5.780311e-001 3.409612e+000 193 147 108
8.211498e-001 -6.008071e-001 3.378393e+000 160 128 109
8.476786e-001 -5.830236e-001 3.434757e+000 185 89 29
8.498919e-001 -5.808066e-001 3.439590e+000 188 96 37
8.338078e-001 -5.953610e-001 3.406372e+000 88 56 47
8.857754e-001 -3.743527e-001 3.320995e+000 221 132 105
8.789010e-001 -4.058572e-001 3.287855e+000 136 145 43
8.749005e-001 -4.385277e-001 3.342934e+000 94 22 25
8.641885e-001 -4.739979e-001 3.347558e+000 10 54 80
8.641398e-001 -4.740034e-001 3.347750e+000 10 54 80
8.570128e-001 -5.247722e-001 3.391443e+000 242 76 85
8.647524e-001 -5.201034e-001 3.408100e+000 127 26 32
8.414746e-001 -5.609241e-001 3.385407e+000 177 115 83
8.414746e-001 -5.609241e-001 3.385407e+000 177 115 83
8.421929e-001 -5.668010e-001 3.395829e+000 101 27 11
8.533704e-001 -5.558413e-001 3.417455e+000 184 51 43
8.455185e-001 -5.709278e-001 3.412224e+000 207 108 49
8.280088e-001 -6.005991e-001 3.400424e+000 128 65 47
8.464947e-001 -5.847788e-001 3.441311e+000 43 17 9
8.760499e-001 -4.611856e-001 3.380826e+000 1 36 58
8.498602e-001 -5.415865e-001 3.386506e+000 134 31 34
8.455942e-001 -5.634929e-001 3.401559e+000 179 59 42
8.515149e-001 -5.627875e-001 3.419347e+000 187 72 33
8.903122e-001 -3.726033e-001 3.288129e+000 168 33 40
8.833343e-001 -4.031022e-001 3.341629e+000 58 92 91
8.651018e-001 -4.721987e-001 3.347572e+000 16 76 112
8.483378e-001 -5.140010e-001 3.342369e+000 84 46 36
8.645778e-001 -4.817604e-001 3.363468e+000 184 108 82
8.771915e-001 -4.733640e-001 3.401608e+000 180 145 117
8.637838e-001 -5.185478e-001 3.403530e+000 148 22 33
8.824575e-001 -4.064019e-001 3.330494e+000 83 87 17
8.807211e-001 -4.490348e-001 3.374500e+000 147 20 29
8.440768e-001 -5.728776e-001 3.408603e+000 175 75 35
8.818336e-001 -4.529835e-001 3.396555e+000 167 152 123
8.680349e-001 -4.602346e-001 3.273517e+000 161 164 181
1.243205e+000 -2.587165e-001 3.066813e+000 182 103 90
8.910485e-001 -3.735798e-001 3.298211e+000 163 43 42
8.910485e-001 -3.735798e-001 3.298211e+000 163 43 42
8.869430e-001 -3.802188e-001 3.284471e+000 228 151 120
8.881012e-001 -3.785725e-001 3.302692e+000 173 45 44
8.900285e-001 -3.891041e-001 3.348167e+000 146 163 62
8.807094e-001 -4.207123e-001 3.343439e+000 20 53 41
8.755935e-001 -4.356917e-001 3.345544e+000 95 39 34
8.719525e-001 -4.567124e-001 3.355787e+000 117 28 19
8.709384e-001 -4.618146e-001 3.360344e+000 20 80 116
8.755520e-001 -4.577468e-001 3.368512e+000 21 81 118
8.537721e-001 -4.937555e-001 3.328721e+000 107 63 50
8.537721e-001 -4.937555e-001 3.328721e+000 107 63 50
8.487845e-001 -5.106765e-001 3.333064e+000 195 134 116
8.571224e-001 -5.011055e-001 3.363725e+000 89 54 34
8.410196e-001 -5.376199e-001 3.351697e+000 222 77 84
8.474272e-001 -5.307860e-001 3.368477e+000 229 70 75
8.502004e-001 -5.288304e-001 3.376927e+000 233 66 71
8.483379e-001 -5.396481e-001 3.384907e+000 155 23 30
8.463660e-001 -5.431889e-001 3.379168e+000 151 31 36
8.452277e-001 -5.532806e-001 3.389610e+000 107 62 45
8.361661e-001 -5.712069e-001 3.382683e+000 168 134 99
8.323193e-001 -5.771374e-001 3.376617e+000 75 50 30
8.419956e-001 -5.682953e-001 3.398709e+000 139 55 18
8.434808e-001 -5.680814e-001 3.401258e+000 128 49 19
8.475392e-001 -5.641772e-001 3.407996e+000 185 77 36
8.317025e-001 -5.838621e-001 3.384214e+000 20 10 5
8.372538e-001 -5.772890e-001 3.392618e+000 177 137 102
8.522089e-001 -5.744275e-001 3.434874e+000 176 141 117
8.458456e-001 -5.829748e-001 3.428018e+000 170 94 37
8.448319e-001 -5.835068e-001 3.428428e+000 106 55 15
8.463983e-001 -5.844753e-001 3.438369e+000 40 16 12
8.492759e-001 -5.819761e-001 3.444061e+000 180 80 36
1.017910e+000 -2.903327e-001 3.119925e+000 229 202 209
8.902203e-001 -3.738461e-001 3.284874e+000 239 150 120
8.818153e-001 -3.914268e-001 3.281576e+000 154 144 45
8.818153e-001 -3.914268e-001 3.281576e+000 154 144 45
8.938072e-001 -3.803385e-001 3.327158e+000 21 73 81
8.885404e-001 -3.968806e-001 3.346443e+000 141 141 37
8.875967e-001 -3.961399e-001 3.347314e+000 141 141 37
8.987573e-001 -4.539795e-001 3.310261e+000 169 159 134
8.740016e-001 -4.394097e-001 3.334748e+000 169 159 134
8.635319e-001 -4.676870e-001 3.330109e+000 13 59 89
8.523612e-001 -5.121905e-001 3.354408e+000 119 75 58
8.441507e-001 -5.289160e-001 3.352410e+000 146 92 76
8.418806e-001 -5.366260e-001 3.355019e+000 217 74 82
8.426620e-001 -5.380186e-001 3.353860e+000 217 74 82
8.392771e-001 -5.415735e-001 3.347582e+000 217 78 85
8.436228e-001 -5.374278e-001 3.357272e+000 217 73 75
8.414989e-001 -5.425748e-001 3.358961e+000 231 65 78
8.447921e-001 -5.349293e-001 3.363239e+000 237 76 87
8.442506e-001 -5.382069e-001 3.364110e+000 217 72 77
8.507922e-001 -5.317719e-001 3.379560e+000 217 69 70
8.511217e-001 -5.325989e-001 3.378970e+000 217 69 70
8.549892e-001 -5.268355e-001 3.389021e+000 151 32 42
8.612529e-001 -5.254482e-001 3.403027e+000 151 37 36
8.609156e-001 -5.250501e-001 3.403361e+000 151 37 36
8.382125e-001 -5.492205e-001 3.353773e+000 155 40 47
8.388929e-001 -5.478792e-001 3.357757e+000 149 33 44
8.405405e-001 -5.480508e-001 3.363970e+000 207 70 76
8.416120e-001 -5.442630e-001 3.365948e+000 219 68 72
8.440428e-001 -5.447842e-001 3.372779e+000 153 36 45
8.468109e-001 -5.411742e-001 3.379505e+000 229 75 75
8.453058e-001 -5.440974e-001 3.379393e+000 239 79 83
8.453058e-001 -5.440974e-001 3.379393e+000 239 79 83
8.474318e-001 -5.433966e-001 3.383696e+000 227 71 74
8.477286e-001 -5.403066e-001 3.385669e+000 154 30 38
8.482719e-001 -5.421419e-001 3.386805e+000 200 56 57
8.501643e-001 -5.409770e-001 3.390872e+000 233 80 80
8.678563e-001 -5.313723e-001 3.426825e+000 163 106 38
8.395409e-001 -5.584200e-001 3.375821e+000 196 130 107
8.379513e-001 -5.685184e-001 3.383584e+000 179 137 102
8.387335e-001 -5.722185e-001 3.391334e+000 188 140 99
8.294867e-001 -6.001854e-001 3.400288e+000 112 60 40
8.337653e-001 -5.948351e-001 3.408106e+000 175 139 120
8.350994e-001 -5.946206e-001 3.410997e+000 178 146 126
8.406021e-001 -5.901313e-001 3.428344e+000 37 12 4
8.458513e-001 -5.863258e-001 3.440962e+000 173 91 45
8.474579e-001 -5.893540e-001 3.440085e+000 173 91 45
8.474775e-001 -5.845932e-001 3.444656e+000 42 10 9
1.240077e+000 -2.585160e-001 3.075193e+000 101 68 52
8.857849e-001 -4.076813e-001 3.352485e+000 164 153 28
8.708661e-001 -4.467006e-001 3.329944e+000 153 138 125
8.735537e-001 -4.432534e-001 3.346933e+000 148 114 102
8.622399e-001 -4.687017e-001 3.320606e+000 21 84 128
8.752757e-001 -4.594633e-001 3.365045e+000 19 82 123
8.786167e-001 -4.540932e-001 3.381108e+000 16 78 114
8.476493e-001 -5.107453e-001 3.321914e+000 155 55 57
8.507426e-001 -5.032199e-001 3.329395e+000 112 71 59
8.556967e-001 -4.979495e-001 3.347275e+000 198 130 107
8.592094e-001 -4.926320e-001 3.356342e+000 181 117 98
8.661238e-001 -5.003198e-001 3.392784e+000 79 40 21
8.522339e-001 -5.308285e-001 3.385633e+000 149 29 37
8.643805e-001 -5.232056e-001 3.412182e+000 230 83 79
8.522083e-001 -5.405962e-001 3.393298e+000 206 78 69
