ply
format ascii 1.0
element face 0
property list uchar int vertex_indices
element vertex 900
property float x
property float y
property float z
property uchar diffuse_red
property uchar diffuse_green
property uchar diffuse_blue
end_header
9.735857e-001 -4.093633e-001 3.131040e+000 29 39 28
9.069144e-001 -4.034225e-001 3.191858e+000 158 153 87
9.642238e-001 -4.300426e-001 3.125633e+000 104 102 64
9.642238e-001 -4.300426e-001 3.125633e+000 104 102 64
9.199985e-001 -4.499883e-001 3.195182e+000 165 35 37
9.041401e-001 -4.869145e-001 3.210177e+000 18 68 97
8.953355e-001 -5.400672e-001 3.226873e+000 142 112 94
9.150042e-001 -3.768545e-001 3.183006e+000 188 144 99
9.567767e-001 -4.302988e-001 3.171259e+000 29 50 31
9.030174e-001 -4.925873e-001 3.213953e+000 17 71 98
8.839058e-001 -5.097640e-001 3.221932e+000 99 45 50
9.525704e-001 -5.233234e-001 3.164474e+000 87 23 23
9.180480e-001 -4.209024e-001 3.189065e+000 29 55 26
9.356345e-001 -5.543947e-001 3.203471e+000 143 111 70
9.356345e-001 -5.543947e-001 3.203471e+000 143 111 70
9.227501e-001 -4.392052e-001 3.196372e+000 151 145 113
9.453875e-001 -5.433132e-001 3.184488e+000 82 18 26
9.716055e-001 -3.995212e-001 3.130555e+000 123 113 88
9.442834e-001 -4.860537e-001 3.192955e+000 146 25 34
9.474027e-001 -4.693912e-001 3.176852e+000 148 137 107
-9.711137e-001 -7.532147e-001 1.125438e+000 51 42 25
-1.366698e+000 -1.839094e-001 1.079746e+000 234 193 137
-9.213008e-001 -7.657732e-001 1.100616e+000 45 36 21
-1.307578e+000 -4.907627e-001 1.046055e+000 168 138 88
-1.620074e+000 -2.124897e-001 1.580812e+000 158 119 79
-1.526606e+000 -2.818139e-001 1.616442e+000 136 121 107
-1.519768e+000 -3.165380e-001 1.647740e+000 58 53 57
-1.519768e+000 -3.165380e-001 1.647740e+000 58 53 57
-1.374623e+000 -6.172713e-001 1.452214e+000 125 107 84
-1.374623e+000 -6.172713e-001 1.452214e+000 125 107 84
-1.311687e+000 -6.307690e-001 1.443047e+000 139 122 96
-1.311687e+000 -6.307690e-001 1.443047e+000 139 122 96
-1.644363e+000 -2.059215e-001 1.312398e+000 61 48 34
-1.510780e+000 -2.512540e-001 1.355964e+000 43 30 18
-1.407727e+000 -3.698087e-001 1.307680e+000 62 50 34
-1.473542e+000 -3.784401e-001 1.711211e+000 54 45 46
-1.484739e+000 -3.785279e-001 1.704857e+000 54 45 46
-1.004736e+000 -5.080911e-001 1.994551e+000 179 156 115
-1.587729e+000 -5.561294e-001 1.798957e+000 18 14 5
-1.587729e+000 -5.561294e-001 1.798957e+000 18 14 5
-1.511020e+000 -2.195227e-001 1.360844e+000 176 146 96
-1.524579e+000 -3.123262e-001 1.592826e+000 25 19 21
2.300743e-003 -3.945464e-001 1.981163e+000 182 144 96
-1.738331e+000 -2.258669e-001 1.264192e+000 67 49 39
-1.738331e+000 -2.258669e-001 1.264192e+000 67 49 39
9.470358e-001 -5.181192e-001 3.188552e+000 160 57 56
9.568725e-001 -3.255948e-001 3.121255e+000 210 129 107
9.341978e-001 -5.382577e-001 3.202978e+000 27 60 82
-1.562388e+000 -2.719753e-001 1.640349e+000 59 50 51
9.317378e-001 -5.483257e-001 3.206162e+000 67 15 11
-1.590916e+000 -2.613159e-001 1.603103e+000 43 34 26
-1.840235e+000 -3.138101e-001 1.713663e+000 90 77 61
-1.805145e+000 -2.108052e-001 1.594004e+000 100 87 58
-1.868092e+000 -2.224641e-001 1.596507e+000 158 153 131
-1.540086e+000 -2.815265e-001 1.608460e+000 155 144 138
-1.828063e+000 -2.988523e-001 1.704240e+000 133 127 113
9.178540e-001 -5.275866e-001 3.211805e+000 89 70 74
-2.036729e+000 -8.561571e-002 1.709424e+000 159 132 102
-1.998295e+000 -2.299767e-001 1.725039e+000 60 83 73
-2.004650e+000 -2.297652e-001 1.721829e+000 60 83 73
-1.978454e+000 -2.592483e-001 1.696724e+000 170 164 132
-1.872221e+000 -2.591553e-001 1.701320e+000 47 62 59
9.304990e-001 -6.471540e-001 3.221395e+000 38 25 33
-1.907308e+000 -1.953845e-001 1.642992e+000 55 74 70
-1.994247e+000 -1.642891e-001 1.701984e+000 64 91 76
-1.981964e+000 -2.066348e-001 1.672059e+000 173 165 136
-1.739965e+000 -1.566903e-001 1.418269e+000 194 167 120
-1.513273e+000 -2.186218e-001 1.593616e+000 53 39 36
-1.717907e+000 -1.512767e-001 1.418154e+000 194 170 122
-1.729361e+000 -1.687087e-001 1.614510e+000 215 184 137
9.187713e-001 -3.800973e-001 3.180928e+000 141 47 37
9.329929e-001 -3.841574e-001 3.172639e+000 140 42 36
9.329929e-001 -3.841574e-001 3.172639e+000 140 42 36
9.220072e-001 -4.869323e-001 3.201555e+000 218 89 90
9.341532e-001 -5.006781e-001 3.196759e+000 124 147 148
9.253031e-001 -5.067831e-001 3.202879e+000 146 74 49
9.355034e-001 -5.444614e-001 3.201530e+000 32 59 74
9.393121e-001 -5.768513e-001 3.166626e+000 83 49 39
9.272992e-001 -5.969136e-001 3.216212e+000 85 32 44
9.131168e-001 -5.158774e-001 3.212395e+000 119 95 105
9.456926e-001 -5.593367e-001 3.172975e+000 69 29 26
9.552518e-001 -5.027428e-001 3.166561e+000 119 101 80
9.371881e-001 -5.780049e-001 3.162989e+000 74 38 35
8.032416e-001 -5.986413e-001 3.298514e+000 55 44 48
9.435790e-001 -4.474152e-001 3.184177e+000 158 148 111
9.514930e-001 -4.905821e-001 3.179966e+000 138 129 99
9.434111e-001 -3.549812e-001 3.152823e+000 82 62 45
9.647227e-001 -3.875537e-001 3.099162e+000 15 45 79
9.627817e-001 -4.071065e-001 3.103745e+000 90 26 29
9.710307e-001 -4.005994e-001 3.124341e+000 158 103 88
9.678356e-001 -4.059241e-001 3.116566e+000 96 31 35
9.648803e-001 -4.076413e-001 3.109245e+000 96 33 28
9.460007e-001 -3.925248e-001 3.166869e+000 151 145 31
9.653522e-001 -4.202858e-001 3.120097e+000 105 108 61
9.612531e-001 -4.227534e-001 3.108541e+000 88 100 60
9.632982e-001 -4.329288e-001 3.122956e+000 23 26 7
9.643073e-001 -4.324522e-001 3.126370e+000 33 33 14
9.467832e-001 -5.131780e-001 3.138369e+000 77 25 25
9.472135e-001 -5.144992e-001 3.139704e+000 139 64 59
9.482360e-001 -5.150411e-001 3.141548e+000 78 27 27
9.374001e-001 -4.997213e-001 3.194664e+000 124 155 162
9.516036e-001 -5.177248e-001 3.156371e+000 126 60 54
9.508638e-001 -5.182288e-001 3.153624e+000 128 67 58
9.481185e-001 -5.241597e-001 3.154534e+000 81 27 25
9.518496e-001 -5.227645e-001 3.161764e+000 115 36 42
9.501699e-001 -5.264143e-001 3.157810e+000 122 41 47
9.203629e-001 -5.114234e-001 3.207517e+000 128 89 99
9.073467e-001 -5.395915e-001 3.221429e+000 134 98 86
8.117275e-001 -5.950323e-001 3.322641e+000 65 55 56
9.420792e-001 -3.541110e-001 3.151667e+000 202 180 142
9.421247e-001 -3.541360e-001 3.151693e+000 202 180 142
9.545575e-001 -3.590883e-001 3.134983e+000 187 164 129
9.628267e-001 -4.035941e-001 3.104913e+000 101 29 30
9.628267e-001 -4.035941e-001 3.104913e+000 101 29 30
9.691998e-001 -4.004499e-001 3.119872e+000 113 28 40
9.474960e-001 -3.935634e-001 3.167336e+000 25 51 22
9.552462e-001 -4.658476e-001 3.123855e+000 126 96 86
9.570393e-001 -4.855729e-001 3.146823e+000 109 59 48
9.521535e-001 -4.918675e-001 3.137565e+000 103 59 43
9.478836e-001 -5.011936e-001 3.132297e+000 99 55 42
1.002242e+000 -4.251544e-001 3.240411e+000 30 23 24
9.178836e-001 -4.851873e-001 3.203328e+000 142 27 35
9.568898e-001 -4.950426e-001 3.153817e+000 102 56 43
9.568562e-001 -5.042915e-001 3.165950e+000 101 58 45
9.540964e-001 -5.111748e-001 3.156709e+000 74 24 26
8.982046e-001 -5.140694e-001 3.219370e+000 69 40 42
9.308576e-001 -5.101711e-001 3.201725e+000 81 54 62
9.397837e-001 -5.422508e-001 3.199698e+000 76 110 129
9.398271e-001 -5.438429e-001 3.200004e+000 28 54 71
9.449431e-001 -5.590925e-001 3.174631e+000 111 67 56
9.301457e-001 -6.321901e-001 3.185555e+000 29 32 25
9.352106e-001 -3.803316e-001 3.170412e+000 168 33 39
9.476575e-001 -3.936554e-001 3.167414e+000 33 53 26
9.671780e-001 -4.238000e-001 3.131631e+000 92 100 64
9.671780e-001 -4.238000e-001 3.131631e+000 92 100 64
9.177964e-001 -4.173101e-001 3.189435e+000 31 53 36
9.605416e-001 -4.467922e-001 3.126569e+000 31 32 19
9.605416e-001 -4.467922e-001 3.126569e+000 31 32 19
9.432745e-001 -4.817332e-001 3.113146e+000 95 51 64
9.590345e-001 -4.859242e-001 3.148892e+000 133 70 59
9.493554e-001 -4.969641e-001 3.129947e+000 104 57 49
9.559652e-001 -4.910773e-001 3.148785e+000 133 73 62
9.098481e-001 -4.828662e-001 3.207280e+000 160 37 40
9.545659e-001 -5.125822e-001 3.162166e+000 128 61 55
9.518403e-001 -5.207312e-001 3.173792e+000 85 30 25
8.810309e-001 -5.290305e-001 3.227588e+000 149 102 92
9.376394e-001 -5.649377e-001 3.151417e+000 87 44 37
9.416257e-001 -5.368201e-001 3.194730e+000 19 52 81
9.350796e-001 -5.990166e-001 3.171672e+000 76 46 38
9.206143e-001 -3.757165e-001 3.178300e+000 162 33 38
9.732436e-001 -3.923172e-001 3.123807e+000 51 66 75
9.596519e-001 -4.196282e-001 3.105152e+000 29 36 21
9.646258e-001 -4.194467e-001 3.117770e+000 96 97 53
9.579611e-001 -4.453566e-001 3.115979e+000 103 105 66
9.107146e-001 -4.290140e-001 3.195884e+000 26 51 31
9.450949e-001 -4.296221e-001 3.176764e+000 29 52 31
9.197278e-001 -4.954514e-001 3.204740e+000 134 155 155
9.067233e-001 -5.115714e-001 3.214939e+000 86 55 61
9.450132e-001 -5.634343e-001 3.171568e+000 111 67 56
7.846114e-001 -6.056420e-001 3.259128e+000 56 47 48
9.423118e-001 -5.717962e-001 3.167826e+000 113 63 54
9.404980e-001 -5.790601e-001 3.170967e+000 105 68 56
9.362531e-001 -5.822386e-001 3.162565e+000 104 57 49
9.290877e-001 -5.943539e-001 3.214692e+000 49 13 15
9.276245e-001 -3.966979e-001 3.178209e+000 152 148 110
9.622201e-001 -4.242101e-001 3.110500e+000 30 37 21
9.591972e-001 -4.312533e-001 3.110091e+000 29 35 22
9.583324e-001 -4.366827e-001 3.112037e+000 28 35 25
9.603476e-001 -4.412418e-001 3.118217e+000 31 38 21
9.018091e-001 -4.411107e-001 3.201827e+000 37 53 27
9.018091e-001 -4.411107e-001 3.201827e+000 37 53 27
9.335401e-001 -4.699573e-001 3.191676e+000 156 146 111
9.414860e-001 -4.725394e-001 3.186761e+000 164 116 90
9.577377e-001 -4.983243e-001 3.170874e+000 121 103 81
9.331439e-001 -4.970291e-001 3.195695e+000 28 60 89
9.287815e-001 -5.717227e-001 3.211135e+000 103 56 30
9.328494e-001 -4.542274e-001 3.188542e+000 168 34 40
9.382387e-001 -5.015261e-001 3.194569e+000 31 62 73
9.430392e-001 -5.386187e-001 3.194371e+000 16 52 83
9.321257e-001 -5.922545e-001 3.202747e+000 129 87 63
9.276275e-001 -6.437954e-001 3.221309e+000 133 97 71
9.084135e-001 -4.167340e-001 3.193199e+000 29 53 30
9.407336e-001 -4.262709e-001 3.177999e+000 28 55 32
9.090314e-001 -4.330632e-001 3.196948e+000 157 149 111
9.400223e-001 -4.317260e-001 3.185660e+000 162 150 108
9.600310e-001 -4.588779e-001 3.134570e+000 106 100 84
9.481366e-001 -5.199943e-001 3.147621e+000 136 84 70
9.502776e-001 -5.299336e-001 3.178504e+000 106 23 30
9.323922e-001 -6.337484e-001 3.200648e+000 23 32 26
9.436453e-001 -3.838713e-001 3.168189e+000 160 42 41
9.167484e-001 -5.530709e-001 3.220002e+000 82 53 55
9.524203e-001 -5.072769e-001 3.175056e+000 117 29 32
-1.694969e+000 -2.323442e-001 1.645153e+000 138 118 83
-2.311843e+000 -3.710656e-002 1.382075e+000 137 110 79
-1.996557e+000 -1.063702e-001 1.631724e+000 216 190 153
-1.996557e+000 -1.063702e-001 1.631724e+000 216 190 153
9.341337e-001 -3.851241e-001 3.172834e+000 208 136 97
9.698379e-001 -4.012460e-001 3.121432e+000 165 96 82
9.677813e-001 -4.060120e-001 3.116571e+000 96 31 35
9.461656e-001 -3.924712e-001 3.166979e+000 151 145 31
9.525150e-001 -5.135473e-001 3.159099e+000 132 60 61
9.382338e-001 -5.406670e-001 3.200021e+000 29 53 69
9.353588e-001 -5.792911e-001 3.155996e+000 81 42 35
9.419136e-001 -3.870819e-001 3.169236e+000 208 139 108
9.233710e-001 -4.211825e-001 3.187904e+000 31 43 14
9.621441e-001 -4.414531e-001 3.128921e+000 29 35 26
9.499660e-001 -5.234851e-001 3.184484e+000 145 56 52
9.343850e-001 -6.264054e-001 3.197520e+000 77 84 77
8.732574e-001 -6.072256e-001 3.247736e+000 184 134 99
9.371402e-001 -5.992474e-001 3.200190e+000 84 49 30
9.430976e-001 -5.539269e-001 3.182421e+000 112 75 56
9.206482e-001 -4.249636e-001 3.189409e+000 156 153 82
9.206482e-001 -4.249636e-001 3.189409e+000 156 153 82
9.331247e-001 -4.010828e-001 3.174701e+000 28 53 27
9.034715e-001 -5.347029e-001 3.222029e+000 136 104 91
9.308935e-001 -5.938157e-001 3.202399e+000 129 87 63
9.501937e-001 -5.298623e-001 3.178328e+000 106 23 30
9.225494e-001 -3.770213e-001 3.178079e+000 216 136 99
9.221641e-001 -3.792197e-001 3.178711e+000 213 138 105
9.694620e-001 -4.014765e-001 3.118870e+000 173 93 83
9.694620e-001 -4.014765e-001 3.118870e+000 173 93 83
9.584042e-001 -4.120056e-001 3.100268e+000 104 43 43
9.583686e-001 -4.113023e-001 3.097024e+000 92 117 110
9.674747e-001 -4.060106e-001 3.117791e+000 97 37 31
9.167078e-001 -3.945996e-001 3.185054e+000 68 96 93
9.525373e-001 -4.096515e-001 3.169720e+000 39 51 24
9.634057e-001 -4.391935e-001 3.131623e+000 88 91 58
9.634057e-001 -4.391935e-001 3.131623e+000 88 91 58
9.526179e-001 -4.477667e-001 3.107709e+000 113 119 93
9.526179e-001 -4.477667e-001 3.107709e+000 113 119 93
9.577438e-001 -4.634880e-001 3.129766e+000 60 36 32
9.556995e-001 -4.641707e-001 3.125091e+000 64 39 34
9.540786e-001 -4.651824e-001 3.120978e+000 53 26 23
9.512737e-001 -4.785606e-001 3.122484e+000 78 36 37
9.166024e-001 -4.765253e-001 3.202642e+000 215 113 93
9.200694e-001 -4.779494e-001 3.200739e+000 208 121 98
9.506893e-001 -4.962348e-001 3.133325e+000 105 56 44
8.985076e-001 -5.064695e-001 3.217229e+000 155 85 77
9.254322e-001 -5.424778e-001 3.119034e+000 66 51 46
8.964236e-001 -5.094362e-001 3.220264e+000 143 90 87
8.993377e-001 -5.115916e-001 3.218858e+000 140 90 89
9.364463e-001 -5.009617e-001 3.196020e+000 36 59 72
9.486429e-001 -5.224122e-001 3.154343e+000 124 54 54
9.525064e-001 -5.224077e-001 3.160024e+000 111 41 39
9.098678e-001 -5.409690e-001 3.217941e+000 29 17 11
9.316030e-001 -5.404091e-001 3.204031e+000 58 99 124
9.101524e-001 -6.376469e-001 3.148903e+000 54 69 59
9.101524e-001 -6.376469e-001 3.148903e+000 54 69 59
9.156270e-001 -6.406783e-001 3.164108e+000 28 33 29
9.223722e-001 -3.743786e-001 3.179474e+000 172 39 40
9.161377e-001 -3.770514e-001 3.175817e+000 167 36 35
9.319480e-001 -3.792431e-001 3.174081e+000 208 139 102
9.079044e-001 -3.815326e-001 3.185248e+000 172 38 41
9.680725e-001 -4.012299e-001 3.114320e+000 103 28 32
9.680725e-001 -4.012299e-001 3.114320e+000 103 28 32
9.305313e-001 -3.858284e-001 3.175389e+000 201 143 101
9.380346e-001 -3.877785e-001 3.170706e+000 156 40 35
9.380346e-001 -3.877785e-001 3.170706e+000 156 40 35
9.506453e-001 -4.284996e-001 3.171851e+000 141 138 32
9.572924e-001 -4.615431e-001 3.128037e+000 58 36 33
9.255770e-001 -4.817506e-001 3.198873e+000 142 27 35
9.249428e-001 -4.864427e-001 3.198773e+000 140 28 38
9.510681e-001 -5.104566e-001 3.149989e+000 80 29 26
9.475968e-001 -5.151046e-001 3.133864e+000 75 28 30
9.032694e-001 -5.015595e-001 3.215306e+000 89 41 32
9.508962e-001 -5.134503e-001 3.148150e+000 76 26 21
9.497426e-001 -5.139725e-001 3.149965e+000 83 28 28
9.527988e-001 -5.150943e-001 3.158390e+000 91 37 31
9.288759e-001 -5.529136e-001 3.128386e+000 96 75 72
9.288759e-001 -5.529136e-001 3.128386e+000 96 75 72
9.317672e-001 -5.541365e-001 3.134839e+000 102 76 71
9.243242e-001 -5.639152e-001 3.131895e+000 96 71 67
9.303648e-001 -5.674676e-001 3.140413e+000 102 73 69
8.911369e-001 -5.475025e-001 3.228667e+000 138 103 92
9.328054e-001 -5.728831e-001 3.144940e+000 93 65 61
8.921052e-001 -6.630352e-001 3.141862e+000 108 61 64
9.216277e-001 -6.362610e-001 3.168294e+000 29 34 28
9.216277e-001 -6.362610e-001 3.168294e+000 29 34 28
9.409034e-001 -3.565877e-001 3.157776e+000 207 185 146
9.145126e-001 -3.734492e-001 3.181661e+000 173 39 43
9.245355e-001 -3.767798e-001 3.176122e+000 170 36 37
9.324593e-001 -3.790405e-001 3.172395e+000 169 31 39
9.711877e-001 -3.991564e-001 3.125162e+000 111 29 38
9.707888e-001 -3.997208e-001 3.122890e+000 114 30 35
9.656973e-001 -4.048354e-001 3.110258e+000 101 31 27
9.656973e-001 -4.048354e-001 3.110258e+000 101 31 27
9.717396e-001 -4.055547e-001 3.127590e+000 114 27 33
9.717396e-001 -4.055547e-001 3.127590e+000 114 27 33
9.623623e-001 -4.094792e-001 3.111756e+000 102 31 29
9.078058e-001 -4.137082e-001 3.194298e+000 37 54 39
9.596376e-001 -4.381789e-001 3.119398e+000 94 98 45
9.596376e-001 -4.381789e-001 3.119398e+000 94 98 45
9.089766e-001 -4.196056e-001 3.194352e+000 161 150 71
9.089766e-001 -4.196056e-001 3.194352e+000 161 150 71
9.119795e-001 -4.290167e-001 3.195992e+000 35 52 31
9.356900e-001 -4.385389e-001 3.183997e+000 37 52 20
9.541237e-001 -4.691990e-001 3.127053e+000 103 86 70
9.542548e-001 -4.691543e-001 3.129772e+000 78 64 51
9.542548e-001 -4.691543e-001 3.129772e+000 78 64 51
8.950848e-001 -4.551322e-001 3.206791e+000 143 107 85
9.485089e-001 -4.864609e-001 3.134513e+000 104 54 43
9.574154e-001 -4.860911e-001 3.137826e+000 107 58 44
9.652624e-001 -4.828613e-001 3.150846e+000 132 71 60
9.617395e-001 -4.858283e-001 3.152722e+000 105 57 46
9.583424e-001 -5.011770e-001 3.167265e+000 118 99 78
9.420427e-001 -5.229441e-001 3.134346e+000 86 44 43
8.909211e-001 -5.213516e-001 3.224202e+000 76 46 44
9.275811e-001 -5.784169e-001 3.141570e+000 118 87 82
9.022686e-001 -6.451833e-001 3.143229e+000 41 44 37
9.255291e-001 -6.343991e-001 3.174417e+000 26 31 25
9.284760e-001 -6.311755e-001 3.186968e+000 37 42 35
9.267792e-001 -6.353641e-001 3.185160e+000 26 31 25
9.697659e-001 -4.060208e-001 3.124147e+000 106 30 32
9.062324e-001 -4.041399e-001 3.191834e+000 162 159 79
9.536194e-001 -4.378580e-001 3.104008e+000 41 51 43
9.536194e-001 -4.378580e-001 3.104008e+000 41 51 43
9.573674e-001 -4.395032e-001 3.113182e+000 83 83 49
9.509028e-001 -4.420093e-001 3.103332e+000 97 112 89
9.527449e-001 -4.436875e-001 3.105965e+000 42 50 35
9.527449e-001 -4.436875e-001 3.105965e+000 42 50 35
9.664282e-001 -4.375164e-001 3.138968e+000 28 35 23
9.664282e-001 -4.375164e-001 3.138968e+000 28 35 23
9.657619e-001 -4.406020e-001 3.131064e+000 29 38 19
9.657619e-001 -4.406020e-001 3.131064e+000 29 38 19
9.629373e-001 -4.516671e-001 3.137716e+000 29 32 20
9.629373e-001 -4.516671e-001 3.137716e+000 29 32 20
9.567211e-001 -4.633600e-001 3.128456e+000 93 56 56
9.456043e-001 -4.854980e-001 3.120148e+000 147 92 92
9.189247e-001 -5.264332e-001 3.107055e+000 141 115 119
9.410099e-001 -5.152710e-001 3.125704e+000 81 38 39
9.421106e-001 -5.209847e-001 3.150648e+000 130 69 64
9.561288e-001 -5.164232e-001 3.164557e+000 127 64 52
8.991807e-001 -5.206765e-001 3.221237e+000 92 71 70
9.234163e-001 -5.581190e-001 3.211901e+000 80 24 17
9.399820e-001 -5.855023e-001 3.168895e+000 103 63 52
9.148101e-001 -6.337714e-001 3.157410e+000 34 37 30
9.044339e-001 -6.444473e-001 3.144641e+000 41 44 35
9.335719e-001 -6.212945e-001 3.202376e+000 100 63 46
9.574795e-001 -4.090786e-001 3.095703e+000 26 67 111
9.597009e-001 -4.194900e-001 3.105111e+000 31 40 24
9.558058e-001 -4.362387e-001 3.108048e+000 79 93 78
9.558058e-001 -4.362387e-001 3.108048e+000 79 93 78
9.057119e-001 -4.117121e-001 3.194050e+000 160 155 60
9.599973e-001 -4.315065e-001 3.127449e+000 94 95 55
9.599973e-001 -4.315065e-001 3.127449e+000 94 95 55
9.556627e-001 -4.446917e-001 3.109620e+000 112 118 89
9.526036e-001 -4.495209e-001 3.108613e+000 41 46 40
9.526036e-001 -4.495209e-001 3.108613e+000 41 46 40
9.209322e-001 -4.495185e-001 3.194940e+000 170 34 36
9.238730e-001 -4.677331e-001 3.198227e+000 169 32 43
9.372191e-001 -4.718054e-001 3.191582e+000 164 38 39
9.056515e-001 -5.212890e-001 3.218596e+000 77 59 59
9.351299e-001 -5.797403e-001 3.162451e+000 70 34 28
9.718893e-001 -4.024469e-001 3.123990e+000 149 90 74
9.318435e-001 -4.212006e-001 3.184595e+000 33 57 33
9.613060e-001 -4.408832e-001 3.118566e+000 28 36 25
9.536398e-001 -4.338847e-001 3.173119e+000 102 122 104
9.536398e-001 -4.338847e-001 3.173119e+000 102 122 104
9.508147e-001 -4.799633e-001 3.123735e+000 79 34 29
9.508147e-001 -4.799633e-001 3.123735e+000 79 34 29
9.157104e-001 -4.921273e-001 3.203528e+000 29 56 83
9.452711e-001 -5.333503e-001 3.147412e+000 112 90 66
8.941953e-001 -5.404968e-001 3.226589e+000 150 115 94
9.233414e-001 -5.558743e-001 3.214451e+000 133 87 77
9.258308e-001 -5.908692e-001 3.215818e+000 84 37 21
9.142079e-001 -4.106683e-001 3.191379e+000 160 150 101
9.142079e-001 -4.106683e-001 3.191379e+000 160 150 101
9.662583e-001 -4.288005e-001 3.126604e+000 99 95 58
9.662583e-001 -4.288005e-001 3.126604e+000 99 95 58
9.637638e-001 -4.374982e-001 3.129020e+000 80 82 68
9.637638e-001 -4.374982e-001 3.129020e+000 80 82 68
9.053448e-001 -4.280753e-001 3.196810e+000 35 55 33
9.409120e-001 -4.262384e-001 3.178035e+000 30 56 28
9.593387e-001 -5.071539e-001 3.148166e+000 99 41 34
9.481192e-001 -5.136501e-001 3.149707e+000 83 25 20
9.189379e-001 -6.060762e-001 3.222079e+000 151 109 71
9.269693e-001 -6.477697e-001 3.197102e+000 79 49 47
9.272766e-001 -4.169159e-001 3.184267e+000 159 153 101
9.441756e-001 -5.022430e-001 3.131759e+000 114 62 51
9.429731e-001 -5.090258e-001 3.125521e+000 132 116 117
8.914861e-001 -5.289939e-001 3.223467e+000 146 119 100
9.490845e-001 -3.830128e-001 3.169227e+000 151 40 36
9.024294e-001 -6.301892e-001 3.138836e+000 103 72 63
9.316733e-001 -6.342423e-001 3.200472e+000 22 33 25
9.689214e-001 -4.041743e-001 3.113638e+000 169 96 83
9.604195e-001 -4.076167e-001 3.101554e+000 182 102 97
9.530612e-001 -3.874567e-001 3.163206e+000 23 79 106
9.505235e-001 -4.458316e-001 3.113923e+000 29 36 14
9.276139e-001 -5.342353e-001 3.203478e+000 103 22 28
9.236452e-001 -6.373794e-001 3.221459e+000 135 99 73
9.566714e-001 -4.650984e-001 3.138816e+000 104 97 81
9.460354e-001 -5.421620e-001 3.184772e+000 85 15 26
9.533588e-001 -4.343198e-001 3.176578e+000 30 54 30
9.437028e-001 -5.263724e-001 3.153325e+000 81 30 29
9.374285e-001 -5.639418e-001 3.160999e+000 85 40 35
7.693715e-001 -3.687362e-001 3.119280e+000 126 48 42
7.693715e-001 -3.687362e-001 3.119280e+000 126 48 42
7.784126e-001 -3.719010e-001 3.111862e+000 189 121 98
7.864708e-001 -3.784055e-001 3.105916e+000 192 115 97
7.115453e-001 -4.021306e-001 3.128732e+000 43 44 27
7.819496e-001 -4.780570e-001 3.140444e+000 196 117 96
7.084542e-001 -4.915951e-001 3.170460e+000 74 51 33
7.109826e-001 -4.889733e-001 3.173066e+000 74 51 33
7.620685e-001 -4.879857e-001 3.161114e+000 26 51 74
7.679686e-001 -4.907813e-001 3.157637e+000 21 51 74
7.827559e-001 -4.960125e-001 3.145123e+000 29 55 78
7.711784e-001 -3.856309e-001 3.123252e+000 52 87 98
8.008474e-001 -4.725236e-001 3.120583e+000 167 130 114
8.007290e-001 -4.726529e-001 3.120398e+000 167 130 114
7.671530e-001 -4.747871e-001 3.153547e+000 171 114 96
7.750892e-001 -4.752193e-001 3.146367e+000 171 133 100
7.039015e-001 -4.862820e-001 3.164988e+000 132 84 65
7.879849e-001 -5.360954e-001 3.152225e+000 38 91 125
7.901629e-001 -5.388356e-001 3.147829e+000 67 112 147
7.256035e-001 -5.208424e-001 3.191090e+000 35 15 14
7.775489e-001 -6.258762e-001 3.088776e+000 129 115 105
7.874118e-001 -3.734990e-001 3.102635e+000 140 31 35
7.733448e-001 -3.706620e-001 3.116335e+000 141 36 45
7.807092e-001 -4.836858e-001 3.143063e+000 115 28 30
7.406342e-001 -4.790791e-001 3.173308e+000 125 94 64
7.728675e-001 -4.922189e-001 3.152926e+000 18 58 93
7.277695e-001 -5.196014e-001 3.189895e+000 113 75 49
7.233900e-001 -5.325953e-001 3.196743e+000 87 55 30
7.932968e-001 -6.322276e-001 3.101786e+000 142 122 113
8.028681e-001 -6.354694e-001 3.109684e+000 142 126 113
7.135084e-001 -5.966926e-001 3.225885e+000 129 70 38
7.922580e-001 -3.727840e-001 3.097965e+000 146 29 37
7.723354e-001 -4.112287e-001 3.129262e+000 18 49 27
7.667727e-001 -4.625402e-001 3.149872e+000 133 28 33
7.716471e-001 -4.915777e-001 3.154915e+000 102 135 146
7.795115e-001 -4.947078e-001 3.148333e+000 73 98 108
7.191238e-001 -4.885643e-001 3.176235e+000 52 28 22
7.191238e-001 -4.885643e-001 3.176235e+000 52 28 22
7.885943e-001 -5.292568e-001 3.142662e+000 110 26 27
7.891925e-001 -5.473363e-001 3.150762e+000 163 122 85
7.773139e-001 -5.447395e-001 3.165058e+000 146 113 85
7.404827e-001 -5.524448e-001 3.197719e+000 41 17 30
7.337545e-001 -5.840573e-001 3.211323e+000 147 78 39
7.790982e-001 -6.321643e-001 3.178184e+000 30 21 24
7.895531e-001 -3.748228e-001 3.100905e+000 164 110 88
7.767877e-001 -3.921107e-001 3.119558e+000 135 137 65
7.609837e-001 -4.136388e-001 3.141156e+000 23 44 25
7.609837e-001 -4.136388e-001 3.141156e+000 23 44 25
7.869197e-001 -4.677562e-001 3.131652e+000 136 130 108
8.056522e-001 -4.328136e-001 3.103319e+000 97 112 106
7.038316e-001 -4.364869e-001 3.139304e+000 93 45 41
7.141480e-001 -5.479130e-001 3.201297e+000 44 16 15
7.805867e-001 -5.933012e-001 3.169570e+000 51 16 26
7.443324e-001 -4.832955e-001 3.170536e+000 10 52 84
5.496347e-001 -5.389181e-001 3.155701e+000 34 29 36
6.951831e-001 -3.906854e-001 3.118861e+000 207 190 146
7.656646e-001 -4.776963e-001 3.155008e+000 127 20 30
7.970718e-001 -5.165862e-001 3.131052e+000 146 43 41
7.762299e-001 -5.361380e-001 3.161783e+000 154 113 77
7.784422e-001 -4.151383e-001 3.123807e+000 149 143 44
7.627732e-001 -3.816018e-001 3.128482e+000 66 93 91
9.151524e-001 -4.194755e-001 3.191852e+000 122 105 23
7.346996e-001 -3.220531e-001 3.055601e+000 164 127 74
7.932627e-001 -3.380325e-001 3.039780e+000 242 204 170
8.270218e-001 -3.708225e-001 3.050631e+000 23 19 18
7.115203e-001 -3.567984e-001 3.100684e+000 95 35 26
7.730387e-001 -3.703804e-001 3.115318e+000 151 50 53
7.730387e-001 -3.703804e-001 3.115318e+000 151 50 53
7.789133e-001 -3.712343e-001 3.109682e+000 127 45 47
7.896384e-001 -3.781292e-001 3.100931e+000 220 149 139
7.896384e-001 -3.781292e-001 3.100931e+000 220 149 139
7.971783e-001 -3.861424e-001 3.098698e+000 146 172 197
7.156984e-001 -3.800319e-001 3.115430e+000 26 31 6
7.858783e-001 -3.905560e-001 3.108163e+000 78 116 152
7.201930e-001 -4.055086e-001 3.132011e+000 40 39 17
7.202593e-001 -4.055321e-001 3.132207e+000 40 39 17
7.245106e-001 -4.054711e-001 3.135045e+000 66 61 41
7.055502e-001 -4.353055e-001 3.138069e+000 85 33 20
7.094791e-001 -4.541253e-001 3.151485e+000 111 64 42
7.094791e-001 -4.541253e-001 3.151485e+000 111 64 42
7.683929e-001 -4.726443e-001 3.151685e+000 213 150 136
7.746436e-001 -4.786030e-001 3.148111e+000 225 157 146
7.744562e-001 -4.789870e-001 3.147734e+000 225 157 146
7.710145e-001 -4.807587e-001 3.153480e+000 123 19 28
6.989247e-001 -4.846354e-001 3.158810e+000 85 34 14
7.971639e-001 -5.180191e-001 3.129569e+000 164 50 43
7.019346e-001 -4.895560e-001 3.166566e+000 75 48 26
7.019346e-001 -4.895560e-001 3.166566e+000 75 48 26
7.302549e-001 -5.501809e-001 3.201349e+000 30 28 52
7.277413e-001 -5.529192e-001 3.203593e+000 22 30 48
7.277413e-001 -5.529192e-001 3.203593e+000 22 30 48
8.375613e-001 -6.467399e-001 3.135887e+000 126 106 79
8.375613e-001 -6.467399e-001 3.135887e+000 126 106 79
8.484617e-001 -6.439861e-001 3.147873e+000 125 105 78
7.228840e-001 -5.960856e-001 3.221620e+000 185 146 141
7.618610e-001 -6.272672e-001 3.234497e+000 60 48 50
7.919192e-001 -3.402426e-001 3.040524e+000 46 36 29
7.936755e-001 -3.593509e-001 3.094548e+000 148 184 221
7.930435e-001 -3.602934e-001 3.092813e+000 148 184 221
7.667214e-001 -3.613818e-001 3.117034e+000 176 30 43
7.873053e-001 -3.733983e-001 3.101955e+000 157 38 45
7.838102e-001 -3.774708e-001 3.107342e+000 210 166 151
7.598854e-001 -3.725736e-001 3.124469e+000 57 99 148
7.609627e-001 -3.804178e-001 3.127617e+000 139 155 39
7.605854e-001 -3.809946e-001 3.126888e+000 139 155 39
7.190003e-001 -3.932968e-001 3.126265e+000 85 100 46
7.190003e-001 -3.932968e-001 3.126265e+000 85 100 46
7.085290e-001 -4.023302e-001 3.122507e+000 111 118 49
7.094797e-001 -4.013773e-001 3.124045e+000 111 118 49
7.138769e-001 -4.055024e-001 3.127679e+000 37 40 23
7.138769e-001 -4.055024e-001 3.127679e+000 37 40 23
8.029392e-001 -4.927599e-001 3.120801e+000 173 57 46
6.994516e-001 -4.710723e-001 3.152098e+000 74 33 27
7.819324e-001 -4.836856e-001 3.142550e+000 154 24 36
7.067469e-001 -4.735364e-001 3.158666e+000 93 43 27
7.133373e-001 -4.735158e-001 3.164339e+000 78 31 19
7.102270e-001 -4.767349e-001 3.162372e+000 149 80 64
7.109384e-001 -4.760657e-001 3.163411e+000 149 80 64
7.084183e-001 -4.839812e-001 3.166890e+000 75 24 13
7.106025e-001 -4.843207e-001 3.168216e+000 140 93 65
6.915274e-001 -5.080776e-001 3.165372e+000 99 67 43
7.939203e-001 -5.396783e-001 3.138592e+000 33 84 125
6.950210e-001 -5.090264e-001 3.168038e+000 97 66 45
7.881165e-001 -5.358478e-001 3.152554e+000 67 128 189
8.246126e-001 -6.399959e-001 3.046656e+000 29 20 21
6.911024e-001 -5.390072e-001 3.184189e+000 98 63 43
6.996174e-001 -5.337944e-001 3.187927e+000 86 59 40
7.436907e-001 -5.457126e-001 3.192476e+000 125 47 42
7.389483e-001 -5.543838e-001 3.196736e+000 34 34 60
7.389483e-001 -5.543838e-001 3.196736e+000 34 34 60
7.309806e-001 -5.526017e-001 3.199442e+000 30 28 47
7.792219e-001 -5.934966e-001 3.176835e+000 141 103 55
7.166040e-001 -5.721195e-001 3.211455e+000 127 68 42
7.228596e-001 -5.708987e-001 3.213892e+000 111 65 43
7.081243e-001 -5.823007e-001 3.215947e+000 84 43 22
7.245406e-001 -5.953645e-001 3.217615e+000 187 152 144
7.893016e-001 -3.714697e-001 3.099818e+000 182 37 41
7.164251e-001 -3.785982e-001 3.115768e+000 30 37 20
7.116780e-001 -4.484975e-001 3.147702e+000 117 69 49
7.560385e-001 -4.489224e-001 3.154552e+000 181 155 164
6.999359e-001 -4.734685e-001 3.153828e+000 75 27 17
6.999359e-001 -4.734685e-001 3.153828e+000 75 27 17
7.809561e-001 -4.831201e-001 3.143548e+000 151 28 36
7.870824e-001 -5.103982e-001 3.146386e+000 146 30 31
7.950996e-001 -5.437084e-001 3.135954e+000 169 149 114
7.903796e-001 -5.331928e-001 3.148449e+000 86 143 197
6.931003e-001 -5.156792e-001 3.173099e+000 125 86 60
6.984702e-001 -5.136087e-001 3.175828e+000 92 64 43
7.865207e-001 -5.968467e-001 3.159326e+000 185 152 109
7.086411e-001 -5.654769e-001 3.206920e+000 117 62 35
7.091180e-001 -5.721581e-001 3.205257e+000 121 66 23
7.404269e-001 -5.668780e-001 3.200368e+000 30 78 129
7.725928e-001 -3.634444e-001 3.114446e+000 178 37 43
7.756480e-001 -3.649426e-001 3.111848e+000 193 36 45
7.144377e-001 -3.832939e-001 3.116416e+000 93 94 43
7.097135e-001 -3.917755e-001 3.118174e+000 34 42 19
7.101915e-001 -3.910740e-001 3.118846e+000 34 42 19
7.122229e-001 -3.955421e-001 3.122101e+000 93 100 55
7.761444e-001 -4.138717e-001 3.125405e+000 29 68 24
7.987863e-001 -4.722165e-001 3.122173e+000 171 136 140
7.108025e-001 -4.787617e-001 3.163131e+000 143 87 69
7.112021e-001 -4.783620e-001 3.163824e+000 143 87 69
7.665781e-001 -4.893833e-001 3.158855e+000 95 163 220
7.802102e-001 -5.425120e-001 3.160818e+000 180 70 58
7.802102e-001 -5.425120e-001 3.160818e+000 180 70 58
8.179520e-001 -6.380641e-001 3.126801e+000 51 41 31
8.250801e-001 -6.397331e-001 3.133065e+000 53 44 36
7.052462e-001 -5.611208e-001 3.205485e+000 111 65 48
7.817120e-001 -6.267339e-001 3.176804e+000 178 147 122
7.087123e-001 -5.926368e-001 3.218496e+000 123 81 57
7.976952e-001 -3.865496e-001 3.097557e+000 98 132 161
7.175477e-001 -3.922924e-001 3.123655e+000 30 43 17
7.175477e-001 -3.922924e-001 3.123655e+000 30 43 17
7.747163e-001 -4.621382e-001 3.143117e+000 162 165 159
7.747163e-001 -4.621382e-001 3.143117e+000 162 165 159
7.853121e-001 -4.681300e-001 3.136179e+000 170 36 37
7.998690e-001 -4.844708e-001 3.122973e+000 162 24 29
7.998690e-001 -4.844708e-001 3.122973e+000 162 24 29
7.769540e-001 -4.742178e-001 3.143153e+000 151 24 31
7.711292e-001 -4.943410e-001 3.157144e+000 19 87 148
7.872762e-001 -5.893130e-001 3.160230e+000 44 26 22
7.128650e-001 -5.655167e-001 3.207351e+000 71 16 19
7.414682e-001 -5.695068e-001 3.202386e+000 166 135 115
7.007933e-001 -5.846479e-001 3.211555e+000 29 35 21
8.121394e-001 -3.701640e-001 3.082794e+000 105 139 178
7.283875e-001 -3.941833e-001 3.130879e+000 53 72 82
7.337998e-001 -3.936456e-001 3.134042e+000 102 107 110
7.907106e-001 -4.130047e-001 3.108725e+000 27 65 40
8.082325e-001 -4.300766e-001 3.098601e+000 23 68 39
8.064590e-001 -4.311967e-001 3.104556e+000 114 143 159
7.165010e-001 -4.366208e-001 3.146795e+000 106 28 26
7.641942e-001 -4.601430e-001 3.151987e+000 170 37 35
7.784322e-001 -5.003841e-001 3.148753e+000 35 67 117
7.867133e-001 -5.029311e-001 3.143444e+000 65 30 35
7.108701e-001 -4.865270e-001 3.169745e+000 128 97 69
7.849939e-001 -4.017084e-001 3.113126e+000 25 67 42
7.895211e-001 -5.026525e-001 3.134295e+000 117 176 242
7.896194e-001 -5.023321e-001 3.134569e+000 117 176 242
7.853275e-001 -5.970454e-001 3.162094e+000 175 145 95
7.435728e-001 -6.037119e-001 3.215560e+000 152 100 38
7.844227e-001 -5.431609e-001 3.156416e+000 82 20 23
7.289497e-001 -5.266812e-001 3.190375e+000 136 106 70
7.044675e-001 -5.504395e-001 3.197559e+000 114 84 63
7.869660e-001 -4.426700e-001 3.125911e+000 164 165 170
7.476817e-001 -4.666478e-001 3.164452e+000 144 20 30
7.299495e-001 -5.707226e-001 3.208606e+000 154 133 117
7.517961e-001 -3.618463e-001 3.122645e+000 74 106 144
7.964937e-001 -4.013148e-001 3.100771e+000 65 99 42
6.941467e-001 -5.018040e-001 3.161490e+000 123 93 67
7.354522e-001 -5.630241e-001 3.199615e+000 17 81 153
6.991916e-001 -4.812011e-001 3.154908e+000 116 57 34
7.976335e-001 -3.686766e-001 3.081838e+000 12 92 163
7.822746e-001 -4.871203e-001 3.142065e+000 239 100 105
7.094356e-001 -4.450941e-001 3.148226e+000 109 62 44
7.070529e-001 -6.050744e-001 3.226285e+000 73 34 18
7.998568e-001 -5.137087e-001 3.123670e+000 172 53 49
7.002190e-001 -5.969919e-001 3.221144e+000 88 40 28
7.936589e-001 -5.416693e-001 3.145152e+000 31 82 132
7.426473e-001 -5.184195e-001 3.189419e+000 160 118 80
7.377374e-001 -5.509898e-001 3.197054e+000 142 110 99
7.885534e-001 -5.786750e-001 3.161402e+000 127 79 40
8.179059e-001 -6.378194e-001 3.122638e+000 152 131 110
7.099503e-001 -5.770409e-001 3.213975e+000 64 28 16
7.078670e-001 -4.359510e-001 3.140816e+000 97 31 25
7.462490e-001 -6.098873e-001 3.211353e+000 108 68 43
7.792894e-001 -4.496807e-001 3.132623e+000 175 37 41
6.868188e-001 -4.878131e-001 3.148594e+000 111 63 43
7.121107e-001 -4.712206e-001 3.163782e+000 90 29 24
6.934273e-001 -4.907540e-001 3.160362e+000 123 98 67
6.851343e-001 -5.937470e-001 3.201656e+000 65 67 46
7.735222e-001 -4.033778e-001 3.128041e+000 27 61 36
7.083123e-001 -4.690425e-001 3.156394e+000 124 103 76
7.320569e-001 -3.233341e-001 3.056610e+000 205 174 120
7.784434e-001 -6.418146e-001 2.979511e+000 255 253 233
7.344257e-001 -3.951425e-001 3.137631e+000 104 102 89
7.371186e-001 -5.655240e-001 3.201986e+000 13 61 116
7.582392e-001 -6.454647e-001 2.969161e+000 34 29 26
7.800532e-001 -5.491103e-001 3.156681e+000 86 16 18
7.800532e-001 -5.491103e-001 3.156681e+000 86 16 18
7.719551e-001 -3.666776e-001 3.118225e+000 180 124 109
7.719717e-001 -4.348267e-001 3.140868e+000 156 155 151
7.796440e-001 -3.586879e-001 3.094547e+000 12 87 144
6.817089e-001 -6.027134e-001 3.212092e+000 27 18 23
7.447836e-001 -6.433316e-001 3.199298e+000 34 25 30
6.373087e-001 -5.298907e-001 3.169695e+000 46 38 35
9.401819e-001 -3.831834e-001 3.168275e+000 208 146 107
9.358113e-001 -3.804960e-001 3.170286e+000 161 36 34
7.864821e-001 -3.781320e-001 3.106606e+000 235 153 142
7.708958e-001 -3.859126e-001 3.122550e+000 67 121 148
7.013277e-001 -4.725844e-001 3.152960e+000 137 97 67
7.892020e-001 -5.039968e-001 3.142820e+000 154 45 44
7.074313e-001 -4.990758e-001 3.171794e+000 124 89 63
6.970726e-001 -5.308973e-001 3.180643e+000 82 54 35
7.260021e-001 -5.238117e-001 3.188544e+000 130 97 64
7.263944e-001 -5.360067e-001 3.194932e+000 109 78 47
7.180539e-001 -5.449671e-001 3.197384e+000 107 73 37
8.202170e-001 -6.364565e-001 3.129006e+000 64 52 36
8.483907e-001 -6.393720e-001 3.151251e+000 125 105 78
6.826551e-001 -5.882280e-001 3.198231e+000 33 37 19
7.166031e-001 -5.707249e-001 3.209692e+000 92 45 34
6.871706e-001 -5.898566e-001 3.203111e+000 34 36 22
6.876845e-001 -5.934244e-001 3.204336e+000 61 63 47
7.300985e-001 -5.943783e-001 3.216012e+000 148 113 91
7.234085e-001 -4.552951e-001 2.445787e+000 217 183 112
8.041239e-001 -3.867041e-001 3.093752e+000 49 108 161
7.009161e-001 -4.443780e-001 3.140350e+000 151 86 64
7.616269e-001 -4.590751e-001 3.152113e+000 167 161 162
7.094629e-001 -4.866217e-001 3.166002e+000 140 93 65
7.086240e-001 -4.938960e-001 3.171312e+000 126 97 67
7.274174e-001 -5.191845e-001 3.184895e+000 89 61 37
7.274174e-001 -5.191845e-001 3.184895e+000 89 61 37
7.342581e-001 -5.302509e-001 3.189056e+000 43 14 16
7.833043e-001 -5.578194e-001 3.162033e+000 156 76 51
7.217085e-001 -5.365699e-001 3.193710e+000 104 74 36
8.783333e-001 -6.570499e-001 3.087509e+000 159 138 101
6.973154e-001 -5.584256e-001 3.195367e+000 87 51 35
8.401753e-001 -6.390331e-001 3.148854e+000 56 43 34
7.092208e-001 -5.440483e-001 2.464641e+000 119 87 48
7.669363e-001 -3.626587e-001 3.118995e+000 191 164 164
7.990300e-001 -4.732547e-001 3.124948e+000 175 162 162
7.728733e-001 -4.777105e-001 3.149228e+000 142 26 33
7.768034e-001 -4.789909e-001 3.146895e+000 153 27 33
6.979556e-001 -4.762744e-001 3.154205e+000 153 83 59
6.896399e-001 -5.539009e-001 3.186834e+000 117 76 57
6.933847e-001 -5.546955e-001 3.189621e+000 118 77 59
8.471430e-001 -6.401296e-001 3.155770e+000 46 35 28
6.872394e-001 -4.429298e-001 2.387630e+000 165 116 58
6.872394e-001 -4.429298e-001 2.387630e+000 165 116 58
7.822563e-001 -3.677144e-001 3.106814e+000 183 34 45
3.951890e-001 -6.563560e-001 2.660141e+000 173 134 79
7.054780e-001 -3.866917e-001 3.111502e+000 34 40 15
4.087897e-001 -6.616899e-001 2.669040e+000 98 65 29
7.121881e-001 -3.956838e-001 3.122017e+000 93 100 55
6.975727e-001 -4.816810e-001 3.156876e+000 149 83 56
7.062931e-001 -4.971348e-001 3.169631e+000 130 96 68
7.274668e-001 -5.208479e-001 3.188510e+000 138 102 68
7.401269e-001 -5.665629e-001 3.199971e+000 19 82 153
7.158962e-001 -5.767137e-001 3.211320e+000 77 35 13
7.329153e-001 -5.794615e-001 3.210218e+000 113 27 32
7.331942e-001 -5.787037e-001 3.210856e+000 113 27 32
7.105950e-001 -5.817264e-001 3.214473e+000 128 76 31
7.797983e-001 -6.299785e-001 3.179093e+000 39 31 29
7.111558e-001 -5.938237e-001 3.219624e+000 80 41 18
8.119633e-001 -3.746754e-001 3.084787e+000 48 105 160
7.831109e-001 -4.209449e-001 3.122232e+000 145 180 117
7.918546e-001 -4.538852e-001 3.122681e+000 183 35 40
7.772403e-001 -4.488446e-001 3.136832e+000 159 164 170
7.020877e-001 -4.337283e-001 2.435837e+000 199 146 68
7.020877e-001 -4.337283e-001 2.435837e+000 199 146 68
6.229205e-001 -4.221168e-001 2.460616e+000 232 192 126
7.524149e-001 -5.177506e-001 2.536646e+000 168 114 66
7.417653e-001 -5.457916e-001 2.564797e+000 39 24 17
7.591118e-001 -5.473904e-001 2.563778e+000 36 26 16
7.884283e-001 -4.068935e-001 3.112260e+000 164 164 165
7.568706e-001 -4.353323e-001 3.148155e+000 26 63 37
7.679491e-001 -4.585697e-001 3.147815e+000 159 162 169
7.114039e-001 -4.725983e-001 3.162389e+000 96 27 20
7.007891e-001 -5.835277e-001 3.206616e+000 100 62 39
7.174336e-001 -6.001556e-001 3.221024e+000 170 149 144
7.684875e-001 -3.658100e-001 3.119342e+000 140 110 107
7.685204e-001 -3.657558e-001 3.119505e+000 140 110 107
3.775107e-001 -6.512019e-001 2.666280e+000 190 158 98
3.953296e-001 -6.727834e-001 2.678454e+000 192 158 95
7.618629e-001 -4.379582e-001 3.145948e+000 158 161 168
7.313014e-001 -6.018874e-001 3.215799e+000 175 157 155
7.225527e-001 -6.062403e-001 3.223114e+000 184 154 150
3.808535e-001 -6.631215e-001 2.672120e+000 151 119 70
7.371686e-001 -5.663890e-001 3.202607e+000 20 81 155
7.298210e-001 -5.715331e-001 3.207944e+000 154 133 117
7.413478e-001 -5.964942e-001 3.207844e+000 151 27 40
6.378794e-001 -5.003998e-001 2.503452e+000 216 182 118
7.288565e-001 -5.469734e-001 3.194825e+000 147 125 111
6.371460e-001 -5.449305e-001 3.150049e+000 49 40 31
7.108034e-001 -4.716102e-001 3.160048e+000 73 38 23
7.302578e-001 -5.996275e-001 3.214573e+000 155 126 114
7.990017e-001 -3.774409e-001 3.093616e+000 173 155 164
7.793384e-001 -4.824467e-001 3.144832e+000 141 27 42
7.246733e-001 -5.330921e-001 3.194394e+000 83 54 26
7.245043e-001 -5.952511e-001 3.217724e+000 157 120 115
7.273153e-001 -5.956131e-001 3.216854e+000 161 127 116
7.916157e-001 -3.770429e-001 3.100206e+000 164 38 43
7.690536e-001 -4.809839e-001 3.153557e+000 204 82 84
8.063802e-001 -6.371264e-001 3.115345e+000 54 43 36
7.233215e-001 -5.955742e-001 3.218786e+000 151 121 113
7.680782e-001 -4.044330e-001 3.131548e+000 154 152 140
6.979112e-001 -3.543871e-001 3.091924e+000 101 43 20
7.032202e-001 -3.505086e-001 3.102193e+000 105 42 26
7.032202e-001 -3.505086e-001 3.102193e+000 105 42 26
7.038783e-001 -3.609978e-001 3.102311e+000 110 44 31
7.945793e-001 -3.806305e-001 3.101980e+000 249 127 124
7.143624e-001 -3.631981e-001 3.110097e+000 31 38 22
7.755215e-001 -3.734590e-001 3.112701e+000 154 42 42
6.942724e-001 -3.806682e-001 3.102112e+000 104 109 48
6.942724e-001 -3.806682e-001 3.102112e+000 104 109 48
6.947679e-001 -4.185612e-001 3.125091e+000 78 60 39
7.045938e-001 -4.169856e-001 3.135284e+000 55 33 22
7.015581e-001 -4.277137e-001 3.126893e+000 135 106 92
8.028530e-001 -4.929367e-001 3.124948e+000 194 75 74
6.971135e-001 -4.745084e-001 3.149605e+000 140 63 53
6.973351e-001 -4.830504e-001 3.160783e+000 137 43 41
6.970461e-001 -4.889432e-001 3.162795e+000 137 105 80
7.769037e-001 -5.549182e-001 3.158760e+000 151 45 41
7.845485e-001 -5.748427e-001 3.167705e+000 144 100 53
7.788960e-001 -5.947260e-001 3.175200e+000 139 103 59
7.031645e-001 -6.121114e-001 3.223594e+000 141 70 45
7.629908e-001 -6.373745e-001 3.227492e+000 63 54 57
7.629908e-001 -6.373745e-001 3.227492e+000 63 54 57
7.344372e-001 -3.192660e-001 3.067120e+000 45 34 23
7.013096e-001 -3.724035e-001 3.107339e+000 107 109 44
7.013096e-001 -3.724035e-001 3.107339e+000 107 109 44
7.601196e-001 -3.717734e-001 3.124319e+000 55 103 157
7.085227e-001 -3.812743e-001 3.117530e+000 28 36 21
7.085227e-001 -3.812743e-001 3.117530e+000 28 36 21
7.116232e-001 -3.833818e-001 3.120825e+000 35 39 23
7.169276e-001 -3.829391e-001 3.120751e+000 29 35 12
7.131926e-001 -3.885530e-001 3.127290e+000 33 40 17
8.073017e-001 -4.411361e-001 3.113368e+000 44 61 29
8.073017e-001 -4.411361e-001 3.113368e+000 44 61 29
7.024002e-001 -4.194663e-001 3.132136e+000 133 105 85
6.988447e-001 -4.438334e-001 3.142900e+000 110 62 42
7.827566e-001 -5.053583e-001 3.150661e+000 115 37 29
7.049635e-001 -4.893305e-001 3.162741e+000 129 93 69
7.153429e-001 -4.815618e-001 3.170265e+000 134 45 39
7.903653e-001 -5.327783e-001 3.148615e+000 84 148 204
6.756546e-001 -5.170659e-001 3.153192e+000 92 50 28
6.932047e-001 -5.216785e-001 3.165514e+000 89 60 40
7.833406e-001 -5.708798e-001 3.169107e+000 183 143 92
6.800190e-001 -5.554794e-001 3.178573e+000 84 46 24
6.800190e-001 -5.554794e-001 3.178573e+000 84 46 24
7.357034e-001 -5.613384e-001 3.191452e+000 25 22 55
6.971062e-001 -3.624485e-001 3.093583e+000 112 42 31
6.970150e-001 -3.646311e-001 3.094873e+000 127 113 68
7.011138e-001 -3.706502e-001 3.103704e+000 42 45 15
7.636948e-001 -3.706418e-001 3.121941e+000 171 38 46
7.636948e-001 -3.706418e-001 3.121941e+000 171 38 46
7.071395e-001 -3.736373e-001 3.112149e+000 83 93 39
7.071395e-001 -3.736373e-001 3.112149e+000 83 93 39
6.947526e-001 -3.978133e-001 3.108269e+000 91 92 47
7.025342e-001 -3.920194e-001 3.118659e+000 94 101 40
7.098492e-001 -3.938742e-001 3.120851e+000 86 98 49
7.098492e-001 -3.938742e-001 3.120851e+000 86 98 49
6.942627e-001 -4.008539e-001 3.112999e+000 95 98 43
6.942627e-001 -4.008539e-001 3.112999e+000 95 98 43
7.060623e-001 -4.031047e-001 3.122382e+000 33 38 11
7.094080e-001 -3.979985e-001 3.128025e+000 99 109 57
7.763643e-001 -4.137947e-001 3.124923e+000 30 64 25
6.866429e-001 -4.965108e-001 3.157553e+000 136 99 55
7.920601e-001 -5.304553e-001 3.146738e+000 37 87 138
6.831650e-001 -5.131681e-001 3.160437e+000 93 48 26
6.895446e-001 -5.052806e-001 3.165093e+000 82 50 29
6.871320e-001 -5.137273e-001 3.165935e+000 94 58 34
6.891942e-001 -5.139378e-001 3.167984e+000 95 63 42
7.769284e-001 -5.443554e-001 3.164586e+000 180 147 119
6.795537e-001 -5.322170e-001 3.167610e+000 82 46 25
6.806576e-001 -5.443446e-001 3.162626e+000 95 57 31
6.871694e-001 -5.391548e-001 3.189840e+000 94 57 38
6.848756e-001 -5.598954e-001 3.181748e+000 84 47 29
7.032239e-001 -5.932748e-001 3.207655e+000 108 62 29
7.057031e-001 -5.933104e-001 3.207073e+000 84 45 22
7.109743e-001 -6.055167e-001 3.217023e+000 162 101 57
6.955517e-001 -3.671794e-001 3.095786e+000 44 41 22
7.073187e-001 -3.708372e-001 3.110030e+000 31 39 16
7.011578e-001 -3.736388e-001 3.110882e+000 40 43 16
7.053186e-001 -3.763419e-001 3.113093e+000 35 41 16
7.013240e-001 -3.788591e-001 3.109396e+000 124 122 47
7.086972e-001 -3.744192e-001 3.115536e+000 31 41 13
7.001600e-001 -3.824143e-001 3.111322e+000 39 42 20
6.953722e-001 -3.878426e-001 3.109285e+000 39 40 9
6.955751e-001 -3.921440e-001 3.110075e+000 92 94 45
7.025753e-001 -3.897567e-001 3.115613e+000 35 38 21
6.933133e-001 -3.983757e-001 3.110659e+000 40 42 19
7.037462e-001 -3.931717e-001 3.121811e+000 37 40 19
7.185599e-001 -3.932853e-001 3.127653e+000 76 93 52
7.185599e-001 -3.932853e-001 3.127653e+000 76 93 52
8.003808e-001 -4.391692e-001 3.118186e+000 28 58 31
8.103011e-001 -4.472230e-001 3.107692e+000 167 167 154
7.899435e-001 -4.516807e-001 3.129275e+000 167 163 176
7.872904e-001 -4.660681e-001 3.134625e+000 158 163 174
6.932562e-001 -4.904684e-001 3.154793e+000 91 20 21
7.013878e-001 -4.853168e-001 3.160283e+000 125 66 36
6.856183e-001 -5.127547e-001 3.159870e+000 136 83 51
6.857658e-001 -5.397704e-001 3.175959e+000 124 81 56
6.923220e-001 -5.406152e-001 3.177777e+000 89 61 43
6.923435e-001 -5.416693e-001 3.181216e+000 120 84 58
6.923435e-001 -5.416693e-001 3.181216e+000 120 84 58
6.936000e-001 -5.535444e-001 3.190637e+000 122 81 59
6.664867e-001 -5.893185e-001 3.181861e+000 33 39 14
7.031086e-001 -5.677919e-001 3.200135e+000 113 68 49
6.955923e-001 -3.782060e-001 3.064132e+000 145 79 50
5.581581e-001 -5.405408e-001 2.813005e+000 244 195 100
6.999880e-001 -3.695171e-001 3.099807e+000 95 96 58
6.999880e-001 -3.695171e-001 3.099807e+000 95 96 58
7.099762e-001 -3.631319e-001 3.112677e+000 20 56 78
6.935119e-001 -3.843188e-001 3.102046e+000 42 45 14
6.935119e-001 -3.843188e-001 3.102046e+000 42 45 14
6.960020e-001 -3.845364e-001 3.107487e+000 108 107 51
6.960020e-001 -3.845364e-001 3.107487e+000 108 107 51
7.022922e-001 -3.823451e-001 3.117915e+000 110 109 51
7.022922e-001 -3.823451e-001 3.117915e+000 110 109 51
7.767332e-001 -3.912778e-001 3.120505e+000 140 182 111
7.767332e-001 -3.912778e-001 3.120505e+000 140 182 111
7.898283e-001 -3.959811e-001 3.111456e+000 148 180 92
7.898283e-001 -3.959811e-001 3.111456e+000 148 180 92
7.134907e-001 -3.866788e-001 3.122057e+000 78 92 55
7.134907e-001 -3.866788e-001 3.122057e+000 78 92 55
7.166175e-001 -3.921135e-001 3.124111e+000 28 40 16
7.008619e-001 -4.114723e-001 3.103029e+000 112 113 55
7.021897e-001 -4.011135e-001 3.123417e+000 38 43 19
7.021897e-001 -4.011135e-001 3.123417e+000 38 43 19
7.831651e-001 -4.195274e-001 3.124040e+000 143 186 101
7.792688e-001 -4.476052e-001 3.133804e+000 186 36 36
7.771701e-001 -4.493554e-001 3.136579e+000 160 166 172
7.101097e-001 -4.817755e-001 3.159758e+000 139 85 70
7.632911e-001 -4.918371e-001 3.162718e+000 19 89 145
6.878606e-001 -5.001323e-001 3.163389e+000 131 96 65
7.812007e-001 -5.926032e-001 3.171530e+000 42 21 13
7.812007e-001 -5.926032e-001 3.171530e+000 42 21 13
6.612548e-001 -5.975987e-001 3.175129e+000 133 88 44
6.689292e-001 -5.974759e-001 3.188300e+000 90 60 39
7.168770e-001 -6.161111e-001 3.221222e+000 169 107 42
7.073817e-001 -3.627646e-001 3.111152e+000 28 58 66
7.791158e-001 -3.924561e-001 3.112522e+000 28 64 37
7.089316e-001 -3.774760e-001 3.117681e+000 66 78 53
7.075047e-001 -3.860424e-001 3.120888e+000 69 81 61
7.644661e-001 -4.074041e-001 3.130427e+000 165 172 166
7.644661e-001 -4.074041e-001 3.130427e+000 165 172 166
7.931494e-001 -4.144651e-001 3.114730e+000 165 166 164
7.964041e-001 -4.222875e-001 3.111336e+000 24 67 32
8.037621e-001 -4.229104e-001 3.110070e+000 29 64 33
6.955884e-001 -4.209393e-001 3.121997e+000 100 73 48
7.068367e-001 -4.367547e-001 3.139717e+000 100 24 26
6.857425e-001 -4.768429e-001 3.143350e+000 149 90 59
6.857425e-001 -4.768429e-001 3.143350e+000 149 90 59
6.808994e-001 -4.828246e-001 3.141280e+000 110 47 30
6.984333e-001 -4.765857e-001 3.148942e+000 90 26 24
6.971434e-001 -4.878657e-001 3.158878e+000 90 20 20
6.945379e-001 -4.885493e-001 3.163282e+000 123 107 84
7.876087e-001 -5.752373e-001 3.157759e+000 179 147 109
7.793566e-001 -3.702027e-001 3.109945e+000 121 54 50
7.871786e-001 -4.084837e-001 3.118580e+000 23 67 40
7.871786e-001 -4.084837e-001 3.118580e+000 23 67 40
7.815067e-001 -4.091495e-001 3.123082e+000 173 169 169
7.937381e-001 -4.730192e-001 3.131765e+000 164 167 170
6.969841e-001 -4.872279e-001 3.159194e+000 94 20 21
7.170554e-001 -4.914769e-001 3.170729e+000 76 21 19
