ply
format ascii 1.0
element face 0
property list uchar int vertex_indices
element vertex 894
property float x
property float y
property float z
property uchar diffuse_red
property uchar diffuse_green
property uchar diffuse_blue
end_header
7.326142e-001 -6.667828e-001 2.931024e+000 120 68 41
7.326353e-001 -6.666926e-001 2.930913e+000 120 68 41
7.303987e-001 -6.701918e-001 2.930100e+000 193 124 83
7.329671e-001 -6.729519e-001 2.933412e+000 128 87 59
7.329458e-001 -6.733312e-001 2.933413e+000 128 87 59
7.520175e-001 -6.781796e-001 2.957652e+000 191 121 81
7.386565e-001 -7.331021e-001 2.979611e+000 191 119 86
7.140180e-001 -7.426622e-001 2.956426e+000 192 126 91
7.446406e-001 -7.807786e-001 3.021732e+000 151 118 72
7.531814e-001 -4.916407e-001 2.852253e+000 36 47 17
6.504912e-001 -5.017251e-001 2.884365e+000 30 60 31
6.062353e-001 -5.150000e-001 2.937119e+000 158 158 162
7.282370e-001 -5.789267e-001 2.878919e+000 11 52 77
7.342439e-001 -6.393042e-001 2.918008e+000 191 122 85
7.107914e-001 -6.520888e-001 2.907186e+000 189 124 94
7.236762e-001 -6.570334e-001 2.918710e+000 187 124 85
7.453690e-001 -6.844609e-001 2.952797e+000 191 122 76
7.203508e-001 -7.392894e-001 2.959139e+000 198 122 85
6.414152e-001 -7.346943e-001 2.953760e+000 179 136 111
7.346323e-001 -7.742564e-001 2.999952e+000 147 84 38
6.597084e-001 -8.091478e-001 2.966359e+000 179 138 108
7.045363e-001 -8.200775e-001 3.001778e+000 158 122 87
7.679148e-001 -4.412956e-001 2.834543e+000 113 134 68
7.679148e-001 -4.412956e-001 2.834543e+000 113 134 68
7.878959e-001 -4.395624e-001 2.851780e+000 29 56 12
7.815447e-001 -4.698485e-001 2.868215e+000 123 121 20
7.910220e-001 -4.905223e-001 2.889372e+000 158 161 73
7.993041e-001 -4.850614e-001 2.898513e+000 131 139 59
7.789819e-001 -5.537263e-001 2.915213e+000 155 25 31
7.769243e-001 -5.594474e-001 2.911769e+000 226 127 85
7.682900e-001 -5.786485e-001 2.913565e+000 12 50 69
7.118979e-001 -6.777542e-001 2.918187e+000 89 57 42
6.986212e-001 -7.859490e-001 2.971830e+000 179 137 89
8.063914e-001 -4.276157e-001 2.876498e+000 25 81 105
6.674068e-001 -5.182578e-001 2.869507e+000 27 63 37
7.572204e-001 -5.634123e-001 2.894110e+000 232 124 86
7.534379e-001 -6.321839e-001 2.930910e+000 190 121 80
7.696249e-001 -4.856050e-001 2.863191e+000 129 132 110
6.402843e-001 -4.772157e-001 2.890746e+000 135 172 120
7.293220e-001 -7.468675e-001 2.975920e+000 188 128 80
7.061915e-001 -7.688489e-001 2.963806e+000 178 137 91
6.597192e-001 -4.789895e-001 2.869416e+000 27 60 41
6.596257e-001 -4.789506e-001 2.868345e+000 27 60 41
6.121568e-001 -4.868332e-001 2.925696e+000 168 162 166
6.732432e-001 -8.312716e-001 2.977607e+000 193 162 132
7.009053e-001 -6.669181e-001 2.913066e+000 168 32 33
6.576277e-001 -1.460826e-001 3.546283e+000 210 176 115
6.854600e-001 -7.088482e-001 2.933079e+000 176 143 108
6.963699e-001 -6.309149e-001 2.895386e+000 167 37 37
7.740457e-001 -4.094606e-001 2.823627e+000 229 147 105
7.741624e-001 -4.090580e-001 2.823415e+000 229 147 105
7.995590e-001 -4.180425e-001 2.853570e+000 151 43 41
8.102001e-001 -4.202109e-001 2.872272e+000 150 48 34
7.872321e-001 -4.739495e-001 2.876032e+000 147 159 40
7.732741e-001 -5.241248e-001 2.888780e+000 77 43 29
7.857259e-001 -5.356341e-001 2.907228e+000 173 151 114
7.367739e-001 -5.653307e-001 2.876653e+000 238 147 103
7.368329e-001 -5.650836e-001 2.876589e+000 238 147 103
6.874739e-001 -6.515462e-001 2.901430e+000 190 89 73
7.489413e-001 -6.791197e-001 2.955380e+000 191 123 80
7.502563e-001 -6.818132e-001 2.957058e+000 128 80 58
7.518037e-001 -6.917960e-001 2.964783e+000 152 39 32
7.494610e-001 -6.922915e-001 2.962465e+000 145 36 32
7.128063e-001 -7.029424e-001 2.933569e+000 145 25 32
7.142905e-001 -7.008595e-001 2.935222e+000 216 94 73
7.143669e-001 -7.007514e-001 2.935458e+000 216 94 73
7.117265e-001 -7.066375e-001 2.935190e+000 215 68 64
7.102761e-001 -7.118659e-001 2.939210e+000 205 62 63
7.174487e-001 -7.070170e-001 2.941446e+000 143 33 36
7.246690e-001 -7.237865e-001 2.956554e+000 192 65 48
7.246746e-001 -7.237704e-001 2.956612e+000 192 65 48
7.178616e-001 -7.254909e-001 2.950631e+000 192 60 53
7.372272e-001 -7.365862e-001 2.977643e+000 129 79 46
7.410292e-001 -7.352752e-001 2.981012e+000 107 55 26
7.089649e-001 -7.386020e-001 2.950789e+000 55 29 10
7.369551e-001 -7.771429e-001 3.008993e+000 194 149 87
7.035365e-001 -7.831691e-001 2.973043e+000 172 134 87
7.214100e-001 -7.770705e-001 2.986107e+000 174 132 81
7.620008e-001 -7.913353e-001 3.063909e+000 183 104 56
7.723569e-001 -4.068240e-001 2.819623e+000 171 43 34
6.702896e-001 -4.130695e-001 2.841571e+000 25 52 28
6.702896e-001 -4.130695e-001 2.841571e+000 25 52 28
7.847045e-001 -4.733086e-001 2.871850e+000 34 50 15
7.896581e-001 -5.337186e-001 2.912406e+000 175 153 115
7.310528e-001 -6.078755e-001 2.897183e+000 189 116 89
7.628596e-001 -6.091264e-001 2.929132e+000 189 118 81
7.416081e-001 -6.949596e-001 2.955111e+000 137 32 26
7.104113e-001 -7.012349e-001 2.932037e+000 216 96 79
6.537565e-001 -6.942470e-001 2.932289e+000 65 130 198
7.084850e-001 -7.256720e-001 2.943574e+000 141 31 29
7.055428e-001 -7.293810e-001 2.946113e+000 209 68 60
7.111667e-001 -7.220179e-001 2.944831e+000 197 59 55
7.490281e-001 -7.702676e-001 3.021942e+000 193 110 38
7.398158e-001 -8.055699e-001 3.037856e+000 141 75 20
6.236577e-001 -3.881332e-001 2.884245e+000 168 43 50
6.299227e-001 -4.620736e-001 2.896930e+000 25 58 36
6.647454e-001 -4.871618e-001 2.864381e+000 29 58 30
6.452762e-001 -4.982692e-001 2.889026e+000 25 54 34
6.452762e-001 -4.982692e-001 2.889026e+000 25 54 34
7.417176e-001 -5.716507e-001 2.882406e+000 150 20 20
7.742044e-001 -5.709187e-001 2.915942e+000 12 52 67
6.967311e-001 -6.560790e-001 2.903239e+000 185 98 70
7.407568e-001 -6.897174e-001 2.954325e+000 143 23 27
7.344740e-001 -7.313314e-001 2.970823e+000 134 82 61
7.337980e-001 -7.349265e-001 2.974386e+000 188 123 86
7.205175e-001 -7.860689e-001 2.993430e+000 182 149 99
7.702587e-001 -4.282026e-001 2.834035e+000 130 126 63
7.636212e-001 -4.608523e-001 2.844675e+000 122 142 50
7.636212e-001 -4.608523e-001 2.844675e+000 122 142 50
6.551913e-001 -5.664283e-001 2.892907e+000 165 160 163
7.225664e-001 -6.257257e-001 2.900258e+000 186 126 89
7.225664e-001 -6.257257e-001 2.900258e+000 186 126 89
7.135394e-001 -6.818653e-001 2.924780e+000 194 122 79
7.136192e-001 -6.818455e-001 2.924751e+000 194 122 79
6.451496e-001 -7.346824e-001 2.951736e+000 121 68 48
7.006604e-001 -7.778023e-001 2.965729e+000 181 136 91
7.983631e-001 -4.500721e-001 2.869348e+000 34 56 13
7.872971e-001 -4.862024e-001 2.881255e+000 33 55 14
7.714381e-001 -5.557411e-001 2.907928e+000 150 28 24
7.873765e-001 -5.850109e-001 2.954436e+000 189 120 81
5.988521e-001 -5.813812e-001 2.967334e+000 101 139 199
7.157958e-001 -6.263526e-001 2.895653e+000 193 121 96
7.016050e-001 -7.003580e-001 2.929440e+000 134 23 30
6.975218e-001 -7.322594e-001 2.940007e+000 157 30 25
7.909166e-001 -4.135438e-001 2.842314e+000 187 99 62
7.928902e-001 -4.654635e-001 2.875576e+000 79 106 96
6.776646e-001 -4.964734e-001 2.851222e+000 115 135 168
7.733903e-001 -4.675721e-001 2.855018e+000 110 127 110
7.286698e-001 -6.140499e-001 2.897180e+000 187 123 87
7.127373e-001 -7.481338e-001 2.956322e+000 188 124 86
6.937173e-001 -4.318883e-001 2.841711e+000 110 138 172
6.227039e-001 -3.854397e-001 2.905601e+000 247 154 154
6.340910e-001 -3.791138e-001 2.888937e+000 121 37 37
6.457453e-001 -3.811781e-001 2.876666e+000 227 154 149
6.430479e-001 -3.920375e-001 2.880908e+000 134 36 39
6.446041e-001 -3.900366e-001 2.875127e+000 224 159 151
6.614293e-001 -3.948538e-001 2.855238e+000 139 34 37
6.614293e-001 -3.948538e-001 2.855238e+000 139 34 37
6.008103e-001 -5.857394e-001 2.954329e+000 25 72 121
6.493866e-001 -6.339429e-001 2.912992e+000 146 41 45
7.084897e-001 -6.483513e-001 2.909585e+000 122 38 27
5.864422e-001 -6.873235e-001 3.003518e+000 49 29 35
6.307536e-001 -6.955263e-001 2.948627e+000 206 124 113
6.456107e-001 -7.541268e-001 2.943902e+000 177 129 80
6.187643e-001 -3.632917e-001 2.916725e+000 134 164 196
6.173014e-001 -3.633236e-001 2.911231e+000 134 164 196
6.381272e-001 -4.119796e-001 2.883639e+000 51 102 157
6.035018e-001 -4.663235e-001 2.943762e+000 41 55 20
6.061667e-001 -5.430693e-001 2.942639e+000 168 33 33
6.132616e-001 -5.440013e-001 2.933570e+000 159 160 173
6.348457e-001 -5.889957e-001 2.916402e+000 140 26 34
6.650116e-001 -6.789571e-001 2.918708e+000 16 79 145
7.142970e-001 -6.956941e-001 2.917060e+000 208 94 75
5.882650e-001 -6.874154e-001 2.998422e+000 159 134 123
6.483354e-001 -7.542787e-001 2.943421e+000 144 99 56
6.955061e-001 -2.886171e-001 2.920797e+000 32 27 24
6.270934e-001 -3.843707e-001 2.899851e+000 169 36 41
7.623191e-001 -4.638255e-001 2.836360e+000 123 143 52
6.030560e-001 -5.289114e-001 2.947933e+000 123 102 107
6.223233e-001 -5.757409e-001 2.928496e+000 142 25 34
5.870003e-001 -6.196342e-001 2.983196e+000 143 111 64
5.876788e-001 -6.812435e-001 3.000886e+000 124 46 46
5.892677e-001 -6.982924e-001 3.000466e+000 160 134 121
6.222113e-001 -3.697257e-001 2.906205e+000 171 35 43
6.272015e-001 -3.713622e-001 2.898805e+000 177 37 46
6.589074e-001 -3.838441e-001 2.856876e+000 173 33 42
6.589074e-001 -3.838441e-001 2.856876e+000 173 33 42
6.641565e-001 -3.994309e-001 2.850954e+000 167 32 41
6.641565e-001 -3.994309e-001 2.850954e+000 167 32 41
7.619645e-001 -4.739667e-001 2.842973e+000 136 133 39
6.236940e-001 -4.591979e-001 2.908387e+000 29 66 33
6.670582e-001 -5.679837e-001 2.881653e+000 171 160 168
6.121254e-001 -5.784026e-001 2.941140e+000 148 37 36
6.991385e-001 -6.575694e-001 2.906425e+000 182 86 62
6.395926e-001 -7.116748e-001 2.938667e+000 166 67 45
6.933917e-001 -7.294162e-001 2.920332e+000 148 27 28
6.192196e-001 -3.855696e-001 2.909698e+000 173 38 44
6.297547e-001 -4.635992e-001 2.901738e+000 25 69 35
7.908165e-001 -4.989646e-001 2.899268e+000 32 51 30
6.503405e-001 -5.065892e-001 2.883121e+000 26 58 42
6.503405e-001 -5.065892e-001 2.883121e+000 26 58 42
6.650772e-001 -5.730177e-001 2.884417e+000 149 106 113
7.095176e-001 -6.306730e-001 2.898403e+000 179 50 45
6.441752e-001 -7.339025e-001 2.946830e+000 123 68 47
6.141855e-001 -3.981364e-001 2.920883e+000 26 59 32
6.325682e-001 -4.492333e-001 2.895406e+000 25 64 43
6.126736e-001 -4.786382e-001 2.924027e+000 29 62 35
6.126736e-001 -4.786382e-001 2.924027e+000 29 62 35
6.069431e-001 -5.221980e-001 2.931500e+000 162 157 164
6.281533e-001 -5.279683e-001 2.912360e+000 157 158 173
6.477728e-001 -5.396660e-001 2.892489e+000 157 161 167
6.094965e-001 -5.439257e-001 2.937561e+000 171 34 37
6.302415e-001 -5.555508e-001 2.916488e+000 168 37 39
6.457718e-001 -5.613086e-001 2.901325e+000 157 158 168
6.346146e-001 -5.747324e-001 2.914470e+000 150 25 31
6.217923e-001 -3.770882e-001 2.908234e+000 209 152 154
6.347461e-001 -4.394447e-001 2.885233e+000 163 165 163
6.758616e-001 -4.999547e-001 2.849489e+000 113 137 166
6.758616e-001 -4.999547e-001 2.849489e+000 113 137 166
6.409530e-001 -5.022428e-001 2.892397e+000 25 61 32
6.043732e-001 -5.102157e-001 2.937734e+000 152 157 169
6.043732e-001 -5.102157e-001 2.937734e+000 152 157 169
6.284258e-001 -5.302338e-001 2.913054e+000 155 159 168
6.284258e-001 -5.302338e-001 2.913054e+000 155 159 168
6.329723e-001 -5.638540e-001 2.911684e+000 162 159 167
6.031070e-001 -5.964335e-001 2.955822e+000 94 50 81
7.532383e-001 -6.006786e-001 2.925156e+000 188 118 82
6.813722e-001 -6.559588e-001 2.905117e+000 184 89 77
6.813722e-001 -6.559588e-001 2.905117e+000 184 89 77
7.779499e-001 -4.082204e-001 2.824880e+000 125 44 28
7.899901e-001 -4.042866e-001 2.834927e+000 211 128 78
7.914384e-001 -4.080884e-001 2.839296e+000 214 133 87
7.924222e-001 -4.128076e-001 2.843461e+000 153 40 33
8.042935e-001 -4.033555e-001 2.853973e+000 146 35 34
8.161755e-001 -4.135365e-001 2.887486e+000 34 48 23
7.772697e-001 -4.151344e-001 2.825820e+000 210 127 85
7.772697e-001 -4.151344e-001 2.825820e+000 210 127 85
7.800986e-001 -4.166530e-001 2.829917e+000 223 128 91
7.800986e-001 -4.166530e-001 2.829917e+000 223 128 91
7.873231e-001 -4.140939e-001 2.837163e+000 157 31 30
7.879162e-001 -4.415106e-001 2.857190e+000 62 83 41
8.127830e-001 -4.500982e-001 2.902172e+000 65 85 41
7.677783e-001 -4.512790e-001 2.920488e+000 136 137 36
8.183213e-001 -4.600137e-001 2.923000e+000 33 49 11
7.680685e-001 -4.808659e-001 2.853842e+000 124 133 26
7.668267e-001 -4.889406e-001 2.857028e+000 140 143 26
8.173391e-001 -4.827946e-001 2.942621e+000 95 83 50
7.854339e-001 -5.211944e-001 2.899157e+000 76 29 19
7.938550e-001 -5.205316e-001 2.912802e+000 88 43 34
7.929338e-001 -5.247058e-001 2.914295e+000 76 31 20
7.780103e-001 -5.354139e-001 2.899251e+000 165 130 95
7.921413e-001 -5.328173e-001 2.917567e+000 170 141 101
7.457716e-001 -5.683365e-001 2.884395e+000 225 135 103
7.533587e-001 -5.659749e-001 2.891188e+000 121 29 24
7.533587e-001 -5.659749e-001 2.891188e+000 121 29 24
7.708513e-001 -5.603147e-001 2.906851e+000 241 141 100
7.994515e-001 -5.804605e-001 2.965793e+000 115 67 42
7.699080e-001 -5.962356e-001 2.926980e+000 170 108 70
7.458252e-001 -6.339219e-001 2.923616e+000 68 31 15
7.155968e-001 -6.540708e-001 2.909939e+000 191 110 71
7.038210e-001 -6.585887e-001 2.906181e+000 123 37 34
7.786658e-001 -6.655031e-001 2.997768e+000 191 114 77
7.208589e-001 -7.018922e-001 2.940497e+000 121 21 23
7.833570e-001 -4.138093e-001 2.836775e+000 147 27 25
8.113815e-001 -4.096514e-001 2.877944e+000 156 36 32
7.955242e-001 -4.459601e-001 2.866283e+000 149 143 29
8.083152e-001 -4.557349e-001 2.897686e+000 40 49 16
8.103138e-001 -4.596512e-001 2.905194e+000 68 94 66
7.824738e-001 -5.318980e-001 2.902362e+000 162 135 104
7.223123e-001 -5.752648e-001 2.871161e+000 59 31 41
7.340386e-001 -5.767744e-001 2.881523e+000 21 70 88
7.496860e-001 -5.742459e-001 2.890764e+000 21 67 85
7.272797e-001 -5.815013e-001 2.876567e+000 22 63 88
6.385073e-001 -5.895474e-001 2.917306e+000 247 96 103
7.739130e-001 -5.970347e-001 2.931053e+000 122 69 48
7.832514e-001 -6.296918e-001 2.977199e+000 96 51 22
7.320738e-001 -6.369717e-001 2.912789e+000 65 36 26
7.320738e-001 -6.369717e-001 2.912789e+000 65 36 26
7.420858e-001 -6.569528e-001 2.933917e+000 94 48 25
7.805175e-001 -6.571558e-001 2.992405e+000 87 52 20
7.491234e-001 -6.794065e-001 2.955140e+000 182 109 71
7.545055e-001 -6.785260e-001 2.961156e+000 183 113 76
7.462880e-001 -6.941250e-001 2.961639e+000 132 26 20
7.463843e-001 -6.940471e-001 2.961335e+000 132 26 20
8.024179e-001 -3.993499e-001 2.850026e+000 169 31 34
7.818654e-001 -4.191336e-001 2.831719e+000 166 28 26
7.942238e-001 -4.557663e-001 2.870383e+000 136 132 35
7.803847e-001 -4.733104e-001 2.863906e+000 27 48 11
7.922587e-001 -4.798543e-001 2.880703e+000 146 142 42
7.966064e-001 -5.535347e-001 2.942495e+000 134 29 25
7.932990e-001 -5.935068e-001 2.964618e+000 185 114 66
7.714528e-001 -6.007451e-001 2.933533e+000 182 112 70
7.714528e-001 -6.007451e-001 2.933533e+000 182 112 70
7.654668e-001 -6.019498e-001 2.925439e+000 187 104 68
7.861823e-001 -6.184077e-001 2.972979e+000 190 119 66
7.742854e-001 -6.692978e-001 2.987646e+000 184 121 68
7.235321e-001 -6.870663e-001 2.932694e+000 179 112 76
7.235321e-001 -6.870663e-001 2.932694e+000 179 112 76
7.705500e-001 -5.376703e-001 2.891507e+000 119 95 71
7.471534e-001 -5.710659e-001 2.886442e+000 138 19 26
7.673288e-001 -5.848274e-001 2.920230e+000 23 71 91
7.695421e-001 -5.845949e-001 2.914197e+000 23 71 91
7.342098e-001 -6.246029e-001 2.908049e+000 179 109 69
7.221976e-001 -6.345088e-001 2.904915e+000 183 109 76
7.209649e-001 -6.504932e-001 2.911120e+000 179 104 78
7.001382e-001 -6.593430e-001 2.906249e+000 158 64 54
7.174038e-001 -6.656722e-001 2.918072e+000 185 107 76
7.174038e-001 -6.656722e-001 2.918072e+000 185 107 76
7.325434e-001 -6.635441e-001 2.927097e+000 175 111 68
7.325434e-001 -6.635441e-001 2.927097e+000 175 111 68
7.022794e-001 -6.838789e-001 2.916325e+000 108 21 21
7.449249e-001 -6.853452e-001 2.952937e+000 183 109 77
7.759902e-001 -3.882272e-001 2.811241e+000 47 87 97
7.628149e-001 -4.742991e-001 2.845302e+000 121 125 36
7.916578e-001 -4.898113e-001 2.888788e+000 147 145 60
6.660211e-001 -5.705947e-001 2.880549e+000 108 74 74
7.669410e-001 -4.782904e-001 2.851395e+000 29 48 18
7.673320e-001 -4.784336e-001 2.851102e+000 29 48 18
7.897008e-001 -5.147545e-001 2.906043e+000 156 142 107
7.478937e-001 -5.739359e-001 2.887556e+000 14 57 73
7.143925e-001 -6.350567e-001 2.899568e+000 178 109 84
8.082247e-001 -4.854336e-001 2.910335e+000 142 150 50
7.656823e-001 -6.665586e-001 2.974591e+000 184 121 77
6.236465e-001 -3.443622e-001 2.913762e+000 42 117 196
6.236465e-001 -3.443622e-001 2.913762e+000 42 117 196
7.709766e-001 -4.088079e-001 2.801319e+000 159 47 28
6.223529e-001 -3.720459e-001 2.907502e+000 123 61 66
6.223529e-001 -3.720459e-001 2.907502e+000 123 61 66
6.191803e-001 -3.827602e-001 2.917373e+000 202 106 112
6.388514e-001 -3.771769e-001 2.880351e+000 195 129 131
6.681321e-001 -3.922609e-001 2.836728e+000 13 80 147
6.681966e-001 -4.434241e-001 2.839920e+000 66 98 112
6.681966e-001 -4.434241e-001 2.839920e+000 66 98 112
6.745715e-001 -4.474409e-001 2.837450e+000 117 154 94
7.693841e-001 -4.772849e-001 2.851336e+000 49 56 15
6.059173e-001 -5.428552e-001 2.949697e+000 147 136 144
7.388759e-001 -6.162205e-001 2.921020e+000 137 80 54
7.388759e-001 -6.162205e-001 2.921020e+000 137 80 54
7.509327e-001 -6.268262e-001 2.941545e+000 143 89 61
6.205270e-001 -5.979758e-001 2.937509e+000 94 137 190
7.395077e-001 -6.374960e-001 2.934858e+000 140 86 58
6.313447e-001 -6.092237e-001 2.929210e+000 104 149 209
6.313447e-001 -6.092237e-001 2.929210e+000 104 149 209
6.473457e-001 -6.150190e-001 2.909548e+000 99 142 189
6.484892e-001 -6.290747e-001 2.916120e+000 123 30 34
6.859725e-001 -6.629747e-001 2.914225e+000 151 35 35
6.486328e-001 -6.979631e-001 2.937006e+000 62 9 6
6.316529e-001 -6.975833e-001 2.954215e+000 131 44 51
6.316529e-001 -6.975833e-001 2.954215e+000 131 44 51
6.239099e-001 -3.850404e-001 2.907380e+000 202 134 131
6.270849e-001 -3.801659e-001 2.900970e+000 196 136 133
6.405958e-001 -3.790315e-001 2.878792e+000 149 35 43
6.490006e-001 -3.840702e-001 2.864415e+000 138 47 49
6.457289e-001 -3.926154e-001 2.869917e+000 152 39 47
6.660355e-001 -4.050449e-001 2.839808e+000 47 84 115
6.696941e-001 -4.558210e-001 2.843898e+000 38 48 24
6.696941e-001 -4.558210e-001 2.843898e+000 38 48 24
6.408033e-001 -4.825455e-001 2.889066e+000 33 54 41
6.041053e-001 -5.161617e-001 2.945570e+000 157 144 156
6.087833e-001 -5.164257e-001 2.941281e+000 147 145 151
6.164012e-001 -5.668499e-001 2.935763e+000 173 126 118
6.176174e-001 -5.718063e-001 2.937882e+000 183 121 122
7.252309e-001 -6.186973e-001 2.908805e+000 124 75 53
7.252309e-001 -6.186973e-001 2.908805e+000 124 75 53
7.390713e-001 -6.233736e-001 2.925187e+000 134 82 57
5.962213e-001 -5.807219e-001 2.970303e+000 27 73 133
6.072525e-001 -5.879694e-001 2.952632e+000 92 129 191
6.159065e-001 -5.967284e-001 2.941590e+000 27 67 119
6.174935e-001 -5.999697e-001 2.943174e+000 102 144 191
7.112142e-001 -6.354579e-001 2.907810e+000 164 63 52
7.187555e-001 -6.721126e-001 2.936734e+000 131 80 56
6.559702e-001 -6.936742e-001 2.934955e+000 58 114 164
5.864975e-001 -6.728513e-001 3.031153e+000 47 36 38
6.246504e-001 -3.719643e-001 2.903421e+000 190 151 145
7.838102e-001 -4.423068e-001 2.837690e+000 42 52 18
6.079352e-001 -5.437660e-001 2.946853e+000 157 32 37
7.224572e-001 -5.860839e-001 2.881927e+000 19 76 111
7.250433e-001 -6.046017e-001 2.896083e+000 131 82 56
6.179341e-001 -5.774527e-001 2.936416e+000 127 25 36
6.167082e-001 -5.811661e-001 2.936128e+000 183 65 73
6.058725e-001 -5.899044e-001 2.957652e+000 26 68 123
6.600797e-001 -6.837772e-001 2.928555e+000 72 123 165
6.636860e-001 -3.854460e-001 2.839524e+000 157 34 42
7.672413e-001 -4.293574e-001 2.815948e+000 141 140 86
7.656037e-001 -4.790989e-001 2.847713e+000 49 58 12
6.104513e-001 -5.163775e-001 2.936603e+000 157 36 42
6.632720e-001 -5.778584e-001 2.884828e+000 160 144 144
6.263681e-001 -5.870270e-001 2.930397e+000 171 67 71
6.323820e-001 -6.080703e-001 2.926610e+000 100 126 168
6.683869e-001 -4.133122e-001 2.838162e+000 29 54 33
6.683869e-001 -4.133122e-001 2.838162e+000 29 54 33
6.744625e-001 -4.601573e-001 2.845213e+000 101 126 131
6.107202e-001 -4.476405e-001 2.935209e+000 144 160 95
6.455889e-001 -5.081879e-001 2.889446e+000 152 156 96
6.455889e-001 -5.081879e-001 2.889446e+000 152 156 96
6.589459e-001 -5.705120e-001 2.890066e+000 135 104 109
6.215219e-001 -5.717284e-001 2.931550e+000 109 60 58
6.041765e-001 -5.785545e-001 2.964952e+000 19 69 129
6.142494e-001 -5.951444e-001 2.946062e+000 93 130 182
6.264640e-001 -6.034438e-001 2.932782e+000 97 127 170
6.529895e-001 -3.872950e-001 2.860018e+000 179 129 128
6.130154e-001 -4.307466e-001 2.929473e+000 154 154 142
6.161042e-001 -4.579485e-001 2.917593e+000 26 57 41
6.396297e-001 -4.774152e-001 2.890205e+000 136 163 96
6.097661e-001 -5.915132e-001 2.955357e+000 81 116 167
6.097661e-001 -5.915132e-001 2.955357e+000 81 116 167
7.182768e-001 -6.366815e-001 2.914770e+000 191 119 86
5.881540e-001 -6.558499e-001 3.024433e+000 143 115 93
6.229211e-001 -3.767165e-001 2.909986e+000 183 139 141
6.471366e-001 -4.942897e-001 2.880677e+000 156 150 150
6.133840e-001 -5.158588e-001 2.930901e+000 160 34 45
6.274435e-001 -5.476016e-001 2.920699e+000 152 148 158
6.072268e-001 -5.792391e-001 2.950981e+000 134 21 35
6.514758e-001 -3.398518e-001 2.852818e+000 16 81 147
6.963232e-001 -4.640822e-001 2.814174e+000 66 109 144
6.426947e-001 -6.974650e-001 2.946051e+000 69 13 19
6.944639e-001 -5.722008e-001 2.903508e+000 151 151 151
7.934317e-001 -4.035939e-001 2.837287e+000 216 134 99
7.964222e-001 -4.025486e-001 2.839667e+000 214 132 88
7.921575e-001 -4.051449e-001 2.835790e+000 132 53 36
7.921575e-001 -4.051449e-001 2.835790e+000 132 53 36
7.940296e-001 -4.077678e-001 2.839828e+000 137 59 42
7.940296e-001 -4.077678e-001 2.839828e+000 137 59 42
8.012968e-001 -4.089283e-001 2.849668e+000 218 137 91
8.133468e-001 -3.984606e-001 2.860819e+000 215 129 79
8.123409e-001 -4.055324e-001 2.863195e+000 230 128 87
8.125142e-001 -4.092139e-001 2.869455e+000 248 111 87
8.193016e-001 -3.983952e-001 2.872157e+000 27 78 94
8.177204e-001 -4.092907e-001 2.875263e+000 46 72 66
7.743457e-001 -4.179896e-001 2.823200e+000 231 111 84
7.743457e-001 -4.179896e-001 2.823200e+000 231 111 84
7.870139e-001 -4.117958e-001 2.834249e+000 212 134 96
8.039324e-001 -4.124307e-001 2.854841e+000 225 123 84
8.056682e-001 -4.302478e-001 2.870040e+000 30 52 27
8.159799e-001 -4.406726e-001 2.900266e+000 37 47 11
8.159799e-001 -4.406726e-001 2.900266e+000 37 47 11
7.924886e-001 -4.540884e-001 2.867284e+000 150 145 24
8.181086e-001 -4.551535e-001 2.914407e+000 61 93 77
8.062363e-001 -4.715236e-001 2.902737e+000 77 105 59
7.670675e-001 -4.817338e-001 2.856018e+000 137 140 52
7.786035e-001 -5.228537e-001 2.893435e+000 108 30 28
7.798090e-001 -5.244459e-001 2.895616e+000 172 138 105
7.849024e-001 -5.213539e-001 2.899827e+000 96 37 27
7.934208e-001 -5.171828e-001 2.912426e+000 102 58 43
7.859165e-001 -5.227981e-001 2.901847e+000 186 131 99
7.941704e-001 -5.182624e-001 2.914416e+000 171 145 107
7.941704e-001 -5.182624e-001 2.914416e+000 171 145 107
7.933809e-001 -5.225188e-001 2.915984e+000 175 141 107
7.933836e-001 -5.225385e-001 2.916002e+000 175 141 107
7.557330e-001 -5.257172e-001 2.945099e+000 167 141 110
7.891816e-001 -5.333729e-001 2.916085e+000 173 143 107
8.024951e-001 -5.421916e-001 2.958692e+000 252 122 97
7.679910e-001 -5.610461e-001 2.904609e+000 218 140 94
7.751846e-001 -5.575174e-001 2.910265e+000 240 134 98
7.770592e-001 -5.589481e-001 2.913774e+000 228 140 107
7.799269e-001 -5.562928e-001 2.917184e+000 142 34 32
7.813965e-001 -5.564642e-001 2.919023e+000 232 139 101
7.789909e-001 -5.580430e-001 2.916196e+000 231 132 95
7.350546e-001 -5.706889e-001 2.879000e+000 224 139 97
7.350546e-001 -5.706889e-001 2.879000e+000 224 139 97
7.424445e-001 -5.666294e-001 2.882566e+000 237 135 102
7.494697e-001 -5.667483e-001 2.888977e+000 133 31 27
7.494697e-001 -5.667483e-001 2.888977e+000 133 31 27
7.420177e-001 -5.691440e-001 2.884325e+000 233 148 108
7.452828e-001 -5.687283e-001 2.885079e+000 229 150 112
7.517559e-001 -5.650746e-001 2.889398e+000 227 144 107
7.542071e-001 -5.669412e-001 2.893832e+000 235 142 104
7.587366e-001 -5.646954e-001 2.896908e+000 117 36 28
7.588771e-001 -5.645662e-001 2.896604e+000 117 36 28
7.908741e-001 -5.720026e-001 2.824598e+000 236 146 104
7.511385e-001 -5.674880e-001 2.890389e+000 234 137 104
7.701073e-001 -5.631832e-001 2.908319e+000 240 131 106
7.740212e-001 -5.622058e-001 2.912424e+000 233 131 101
7.258831e-001 -5.791494e-001 2.877567e+000 12 58 84
7.705060e-001 -5.805213e-001 2.920245e+000 5 50 71
7.705060e-001 -5.805213e-001 2.920245e+000 5 50 71
7.199183e-001 -5.872408e-001 2.877809e+000 24 85 118
7.711863e-001 -5.878775e-001 2.925894e+000 10 51 68
7.056909e-001 -6.411610e-001 2.900676e+000 151 48 39
7.082642e-001 -6.548386e-001 2.907938e+000 197 116 89
7.251555e-001 -6.682846e-001 2.924171e+000 178 114 92
7.251555e-001 -6.682846e-001 2.924171e+000 178 114 92
6.691812e-001 -6.768534e-001 2.912499e+000 125 189 251
6.691812e-001 -6.768534e-001 2.912499e+000 125 189 251
6.651826e-001 -6.855318e-001 2.917307e+000 79 139 205
7.489820e-001 -6.906752e-001 2.963460e+000 204 50 47
7.203037e-001 -6.988939e-001 2.938866e+000 208 87 64
7.203037e-001 -6.988939e-001 2.938866e+000 208 87 64
7.314375e-001 -6.954924e-001 2.946489e+000 240 72 70
6.539685e-001 -4.028343e-001 2.842341e+000 158 47 53
8.054948e-001 -4.057750e-001 2.853226e+000 149 38 36
8.054948e-001 -4.057750e-001 2.853226e+000 149 38 36
8.074912e-001 -4.374051e-001 2.877868e+000 131 142 36
8.161222e-001 -4.403530e-001 2.900745e+000 36 48 14
8.067331e-001 -4.602734e-001 2.893038e+000 68 96 75
8.160812e-001 -4.820906e-001 2.943985e+000 107 96 61
6.784677e-001 -4.964820e-001 2.846143e+000 136 175 83
6.784677e-001 -4.964820e-001 2.846143e+000 136 175 83
7.757000e-001 -5.280849e-001 2.893677e+000 165 146 113
7.757000e-001 -5.280849e-001 2.893677e+000 165 146 113
7.387932e-001 -5.699414e-001 2.881697e+000 230 159 110
7.484294e-001 -5.649139e-001 2.886731e+000 224 151 108
7.576448e-001 -5.628591e-001 2.894835e+000 224 149 106
7.766895e-001 -5.785769e-001 2.840511e+000 24 78 103
7.220304e-001 -6.385159e-001 2.906308e+000 48 23 12
7.342551e-001 -6.440337e-001 2.919465e+000 73 32 18
7.342551e-001 -6.440337e-001 2.919465e+000 73 32 18
7.458057e-001 -6.340320e-001 2.923489e+000 67 30 7
7.793496e-001 -6.371240e-001 2.980893e+000 84 44 15
6.734280e-001 -6.540574e-001 2.904450e+000 174 52 55
6.963268e-001 -6.551677e-001 2.903605e+000 196 105 79
7.571423e-001 -6.521010e-001 2.947369e+000 181 115 85
7.057119e-001 -6.666449e-001 2.910159e+000 157 35 35
7.378089e-001 -6.582090e-001 2.930743e+000 46 26 12
6.560746e-001 -6.736394e-001 2.917884e+000 35 86 150
6.613371e-001 -6.757852e-001 2.916829e+000 109 167 235
7.368834e-001 -6.725785e-001 2.939327e+000 123 73 47
8.165193e-001 -3.516055e-001 2.837914e+000 31 86 107
6.588234e-001 -4.296981e-001 2.847400e+000 43 61 37
6.588234e-001 -4.296981e-001 2.847400e+000 43 61 37
7.847321e-001 -4.449484e-001 2.852982e+000 142 138 34
8.163740e-001 -4.478151e-001 2.907686e+000 34 48 14
8.165272e-001 -4.481830e-001 2.907624e+000 34 48 14
7.209485e-001 -4.523300e-001 2.996458e+000 79 107 82
8.064153e-001 -4.523812e-001 2.888520e+000 36 51 9
8.156928e-001 -4.575013e-001 2.915271e+000 140 150 47
8.156928e-001 -4.575013e-001 2.915271e+000 140 150 47
6.571391e-001 -4.668910e-001 2.860149e+000 47 61 37
6.535179e-001 -4.900967e-001 2.866749e+000 43 64 32
6.461103e-001 -4.911581e-001 2.874762e+000 157 175 100
6.485064e-001 -5.059567e-001 2.877987e+000 45 63 45
7.906800e-001 -5.229651e-001 2.911147e+000 179 146 105
7.721996e-001 -5.320937e-001 2.890972e+000 165 141 117
7.894842e-001 -5.277174e-001 2.916590e+000 178 133 97
7.897719e-001 -5.278165e-001 2.916076e+000 178 133 97
7.841451e-001 -5.366592e-001 2.910750e+000 167 143 107
7.394310e-001 -5.763623e-001 2.885732e+000 21 83 111
7.883676e-001 -5.947088e-001 2.968111e+000 196 116 72
6.762442e-001 -6.050325e-001 2.887355e+000 175 167 174
7.878410e-001 -5.988576e-001 2.965759e+000 137 81 55
7.859167e-001 -6.068948e-001 2.969410e+000 129 73 45
6.810735e-001 -6.100067e-001 2.884575e+000 188 50 50
7.837875e-001 -6.180060e-001 2.976301e+000 197 120 75
7.645129e-001 -6.214042e-001 2.938893e+000 72 42 28
7.834059e-001 -6.258963e-001 2.977915e+000 195 129 82
7.825244e-001 -6.316306e-001 2.984249e+000 195 132 87
7.577713e-001 -6.382083e-001 2.941083e+000 139 80 45
7.577738e-001 -6.382709e-001 2.941107e+000 139 80 45
7.765440e-001 -6.522771e-001 2.986005e+000 129 82 48
6.923535e-001 -6.579671e-001 2.902291e+000 198 93 80
7.496449e-001 -6.688596e-001 2.949708e+000 152 99 61
7.785132e-001 -6.572852e-001 2.996032e+000 119 72 36
6.407719e-001 -6.700928e-001 2.928125e+000 102 46 35
7.484417e-001 -6.763473e-001 2.952470e+000 66 28 12
7.109012e-001 -6.879376e-001 2.923918e+000 194 112 88
7.109012e-001 -6.879376e-001 2.923918e+000 194 112 88
8.164693e-001 -3.956145e-001 2.866706e+000 179 26 28
8.084754e-001 -4.029673e-001 2.855859e+000 174 93 67
7.972661e-001 -4.411338e-001 2.864465e+000 155 148 30
7.972661e-001 -4.411338e-001 2.864465e+000 155 148 30
7.907891e-001 -4.584908e-001 2.867232e+000 34 53 25
7.676968e-001 -4.825770e-001 2.856871e+000 126 132 65
7.676968e-001 -4.825770e-001 2.856871e+000 126 132 65
7.921273e-001 -4.796913e-001 2.881696e+000 136 134 33
7.666708e-001 -4.896891e-001 2.859407e+000 139 136 37
7.857339e-001 -5.331159e-001 2.909939e+000 112 80 54
7.938088e-001 -5.505263e-001 2.940984e+000 211 129 82
7.796842e-001 -5.641387e-001 2.916624e+000 149 15 33
7.954986e-001 -5.656932e-001 2.954095e+000 13 50 68
6.512313e-001 -5.767056e-001 2.893431e+000 159 35 38
7.641362e-001 -5.741342e-001 2.907718e+000 4 46 66
7.673621e-001 -5.804547e-001 2.914097e+000 7 49 63
6.368162e-001 -5.949613e-001 2.911090e+000 107 139 190
7.878238e-001 -6.007098e-001 2.974292e+000 191 117 74
6.531971e-001 -6.099322e-001 2.900225e+000 97 138 194
7.622846e-001 -6.107701e-001 2.929231e+000 201 122 87
7.654068e-001 -6.093025e-001 2.932907e+000 193 121 83
7.638613e-001 -6.173986e-001 2.935585e+000 197 123 74
7.296797e-001 -6.249564e-001 2.906341e+000 194 128 91
7.589915e-001 -6.304123e-001 2.938443e+000 165 98 58
7.824771e-001 -6.215167e-001 2.978646e+000 99 53 23
7.575955e-001 -6.343183e-001 2.937481e+000 200 123 82
7.566959e-001 -6.422050e-001 2.940031e+000 200 119 77
7.800805e-001 -6.383000e-001 2.987772e+000 193 131 86
7.550948e-001 -6.459290e-001 2.940481e+000 94 56 37
7.779898e-001 -6.536807e-001 2.990712e+000 193 128 75
7.515639e-001 -6.648582e-001 2.950752e+000 180 115 77
7.511480e-001 -6.713904e-001 2.958697e+000 188 115 74
7.493931e-001 -6.867902e-001 2.965131e+000 141 22 28
8.191420e-001 -3.936923e-001 2.870775e+000 168 94 65
8.190934e-001 -3.937852e-001 2.870753e+000 168 94 65
8.068919e-001 -4.374820e-001 2.874417e+000 71 83 14
8.068919e-001 -4.374820e-001 2.874417e+000 71 83 14
7.841029e-001 -4.554767e-001 2.856772e+000 99 116 55
7.841029e-001 -4.554767e-001 2.856772e+000 99 116 55
8.063011e-001 -4.655326e-001 2.906275e+000 31 53 13
8.059481e-001 -4.716223e-001 2.902225e+000 76 102 58
8.059481e-001 -4.716223e-001 2.902225e+000 76 102 58
8.152211e-001 -4.665902e-001 2.921547e+000 111 120 61
8.152211e-001 -4.665902e-001 2.921547e+000 111 120 61
7.956353e-001 -4.769790e-001 2.882485e+000 97 112 41
7.657400e-001 -5.582753e-001 2.896410e+000 160 25 26
7.920476e-001 -5.771669e-001 2.970818e+000 183 114 82
7.398777e-001 -6.900967e-001 2.955712e+000 146 19 31
6.594730e-001 -6.962826e-001 2.925219e+000 190 153 127
6.965669e-001 -7.006709e-001 2.926966e+000 176 135 104
6.934048e-001 -6.512466e-001 2.900973e+000 193 102 81
6.986716e-001 -6.557634e-001 2.906049e+000 188 88 74
8.221116e-001 -3.533444e-001 2.850502e+000 28 88 112
7.658478e-001 -4.587737e-001 2.840341e+000 121 132 102
7.658478e-001 -4.587737e-001 2.840341e+000 121 132 102
6.050891e-001 -6.115152e-001 2.949904e+000 30 19 18
6.050891e-001 -6.115152e-001 2.949904e+000 30 19 18
6.605703e-001 -3.983013e-001 2.834253e+000 206 130 124
7.018430e-001 -6.656255e-001 2.908518e+000 169 36 39
7.707275e-001 -5.865060e-001 2.917201e+000 25 80 102
6.745932e-001 -5.386209e-001 2.865051e+000 173 172 179
8.012275e-001 -5.448268e-001 2.968169e+000 164 25 24
7.956743e-001 -5.338583e-001 2.933055e+000 170 153 110
7.471017e-001 -6.098714e-001 2.914636e+000 198 122 86
8.043064e-001 -4.753166e-001 2.921507e+000 138 142 44
7.329103e-001 -5.818480e-001 2.890685e+000 27 76 99
7.329103e-001 -5.818480e-001 2.890685e+000 27 76 99
7.265002e-001 -4.248880e-001 2.819677e+000 157 153 144
5.864897e-001 -6.879217e-001 3.005435e+000 49 29 35
5.875457e-001 -7.003574e-001 3.007292e+000 40 66 110
5.742524e-001 -7.440220e-001 3.025463e+000 127 88 77
6.425880e-001 -7.874668e-001 2.958379e+000 179 131 99
6.260498e-001 -4.011291e-001 3.351910e+000 99 83 59
6.471525e-001 -4.508766e-001 3.334680e+000 130 112 76
6.471525e-001 -4.508766e-001 3.334680e+000 130 112 76
6.357312e-001 -4.003623e-001 3.350942e+000 24 19 14
6.311638e-001 -4.260257e-001 3.347732e+000 59 47 31
6.430741e-001 -4.196794e-001 3.346133e+000 103 87 56
6.430741e-001 -4.196794e-001 3.346133e+000 103 87 56
6.479689e-001 -4.271175e-001 3.341841e+000 19 14 11
6.421865e-001 -4.963889e-001 3.329588e+000 30 21 16
6.421865e-001 -4.963889e-001 3.329588e+000 30 21 16
6.731825e-001 -8.411123e-001 2.978389e+000 32 17 22
6.372281e-001 -4.061675e-001 3.350680e+000 27 21 21
6.828857e-001 -7.872713e-001 2.946801e+000 173 136 91
6.340846e-001 -4.583233e-001 3.331931e+000 173 150 96
6.374636e-001 -3.960279e-001 2.863175e+000 149 42 44
7.511452e-001 -5.625475e-001 2.886863e+000 129 24 20
6.888894e-001 -6.559165e-001 2.901928e+000 115 45 35
7.813194e-001 -6.733067e-001 3.002196e+000 202 58 52
7.557389e-001 -6.884893e-001 2.968684e+000 210 51 53
7.556480e-001 -6.881885e-001 2.968489e+000 210 51 53
7.562310e-001 -6.901507e-001 2.972267e+000 126 31 23
7.122001e-001 -6.948421e-001 2.927723e+000 185 109 80
7.238399e-001 -7.006777e-001 2.942694e+000 136 20 31
7.256438e-001 -7.002537e-001 2.945038e+000 138 25 25
7.645991e-001 -6.998959e-001 2.993682e+000 243 62 59
7.645991e-001 -6.998959e-001 2.993682e+000 243 62 59
7.622642e-001 -7.021606e-001 2.991925e+000 233 65 69
7.622642e-001 -7.021606e-001 2.991925e+000 233 65 69
7.150143e-001 -7.143950e-001 2.941830e+000 233 75 71
7.306586e-001 -7.083488e-001 2.951168e+000 142 19 22
7.372898e-001 -7.128725e-001 2.963395e+000 149 20 25
7.415278e-001 -7.156693e-001 2.968492e+000 130 20 25
7.398016e-001 -7.187426e-001 2.969194e+000 208 49 56
7.481038e-001 -7.129556e-001 2.976087e+000 136 24 26
7.560072e-001 -7.108117e-001 2.981758e+000 223 76 69
7.253526e-001 -7.398818e-001 2.968777e+000 185 106 79
7.434012e-001 -7.490276e-001 2.997194e+000 171 55 27
7.407358e-001 -7.546718e-001 2.997435e+000 168 61 27
7.209026e-001 -7.596188e-001 2.975966e+000 167 118 71
7.308247e-001 -7.627370e-001 2.995030e+000 175 115 69
7.343885e-001 -7.697717e-001 3.003840e+000 181 94 39
7.126559e-001 -7.745280e-001 2.982062e+000 171 124 65
7.136342e-001 -7.792065e-001 2.981163e+000 170 122 73
7.379947e-001 -7.770390e-001 3.013626e+000 102 70 28
6.908548e-001 -8.304028e-001 2.999020e+000 111 48 44
7.733376e-001 -5.607686e-001 2.908909e+000 137 22 25
7.027619e-001 -6.180535e-001 2.887104e+000 157 54 42
7.173639e-001 -6.991790e-001 2.935925e+000 224 103 90
7.533277e-001 -7.077861e-001 2.979897e+000 206 61 53
7.574119e-001 -7.090876e-001 2.988085e+000 202 59 52
7.109413e-001 -7.127650e-001 2.938936e+000 141 26 26
7.438639e-001 -7.145651e-001 2.972235e+000 137 23 30
7.477620e-001 -7.153577e-001 2.974378e+000 215 74 65
7.247874e-001 -7.238813e-001 2.955969e+000 211 66 60
7.365217e-001 -7.336268e-001 2.976030e+000 188 115 68
6.961079e-001 -7.329505e-001 2.939846e+000 126 16 24
7.308235e-001 -7.356829e-001 2.973191e+000 187 112 79
7.367041e-001 -7.368905e-001 2.978658e+000 107 47 23
7.405374e-001 -7.357081e-001 2.981770e+000 83 38 21
6.631111e-001 -8.385035e-001 2.975427e+000 132 32 34
7.250426e-001 -7.382994e-001 2.968744e+000 191 112 74
7.250426e-001 -7.382994e-001 2.968744e+000 191 112 74
6.423445e-001 -3.838724e-001 2.856018e+000 174 34 48
7.678508e-001 -6.764427e-001 2.986254e+000 149 25 21
7.476408e-001 -7.253366e-001 2.982205e+000 76 38 17
7.476408e-001 -7.253366e-001 2.982205e+000 76 38 17
7.331939e-001 -7.819048e-001 3.009421e+000 56 35 14
7.552274e-001 -7.014891e-001 2.978690e+000 148 21 24
7.552274e-001 -7.014891e-001 2.978690e+000 148 21 24
7.825287e-001 -4.271259e-001 2.843217e+000 45 87 95
6.486253e-001 -7.571988e-001 2.947697e+000 100 50 24
6.431962e-001 -4.932897e-001 2.891009e+000 160 155 149
7.064253e-001 -7.221259e-001 2.951708e+000 198 67 62
6.472838e-001 -7.272755e-001 2.953461e+000 156 81 66
5.818222e-001 -7.377415e-001 3.056572e+000 143 102 88
6.922304e-001 -7.922543e-001 2.978468e+000 108 85 62
6.673317e-001 -8.420274e-001 2.989139e+000 121 32 28
7.164684e-001 -7.467634e-001 2.975965e+000 143 104 63
5.826576e-001 -7.452046e-001 3.049546e+000 139 95 84
5.808478e-001 -7.478210e-001 3.057450e+000 152 97 87
7.622947e-001 -9.147137e-001 2.938927e+000 52 38 30
7.035676e-001 -7.188937e-001 2.948331e+000 147 37 40
6.692853e-001 -8.366140e-001 2.985629e+000 114 39 34
7.240613e-001 -4.092846e-001 3.365219e+000 80 64 56
7.326958e-001 -4.130504e-001 3.352101e+000 98 82 66
5.865712e-001 -6.882786e-001 3.034511e+000 25 61 119
7.030004e-001 -4.640958e-001 3.368458e+000 163 139 93
7.227073e-001 -4.831452e-001 3.345941e+000 32 23 16
7.227073e-001 -4.831452e-001 3.345941e+000 32 23 16
5.843751e-001 -7.324226e-001 3.032311e+000 168 100 39
6.790069e-001 -8.250448e-001 2.986912e+000 192 156 131
7.167790e-001 -4.797979e-001 3.350187e+000 161 136 96
7.181679e-001 -4.981136e-001 3.346098e+000 141 119 78
7.139803e-001 -5.104307e-001 3.346280e+000 139 117 76
6.956922e-001 -8.265110e-001 3.002878e+000 33 21 25
7.207884e-001 -5.094608e-001 3.336571e+000 168 144 100
6.499383e-001 -7.793214e-001 2.970459e+000 44 12 16
7.190692e-001 -4.561875e-001 3.355820e+000 165 138 95
7.190692e-001 -4.561875e-001 3.355820e+000 165 138 95
5.854148e-001 -7.058758e-001 3.038799e+000 151 121 111
6.868508e-001 -7.985740e-001 2.987541e+000 191 163 126
6.724389e-001 -7.399948e-001 3.065674e+000 157 126 108
7.844559e-001 -4.107945e-001 2.829989e+000 204 129 86
8.040680e-001 -4.079533e-001 2.852589e+000 226 134 97
8.122925e-001 -4.055253e-001 2.863157e+000 230 128 87
8.146764e-001 -4.158415e-001 2.877393e+000 29 67 51
8.188939e-001 -4.350004e-001 2.904208e+000 47 54 13
7.694365e-001 -5.324383e-001 2.888868e+000 88 57 41
7.694365e-001 -5.324383e-001 2.888868e+000 88 57 41
7.467069e-001 -5.642459e-001 2.885174e+000 162 35 35
7.405793e-001 -5.811644e-001 2.887557e+000 9 50 73
7.718396e-001 -5.734916e-001 2.916811e+000 16 63 83
7.044626e-001 -6.431606e-001 2.900837e+000 198 87 69
7.295106e-001 -6.441973e-001 2.915860e+000 200 122 89
6.898384e-001 -6.556290e-001 2.900983e+000 136 51 42
7.065559e-001 -6.591700e-001 2.908250e+000 132 40 30
7.797193e-001 -6.619649e-001 3.003483e+000 196 124 83
7.677833e-001 -6.791095e-001 2.992073e+000 143 32 30
7.739697e-001 -6.768008e-001 3.002857e+000 205 60 52
7.764639e-001 -6.699572e-001 3.003655e+000 206 59 55
7.766197e-001 -6.763843e-001 3.009110e+000 141 30 25
7.525238e-001 -6.921464e-001 2.967961e+000 141 24 26
7.577859e-001 -6.865960e-001 2.970888e+000 208 61 55
7.534812e-001 -6.910927e-001 2.969994e+000 134 32 28
7.662958e-001 -6.861179e-001 2.990596e+000 150 29 32
7.670401e-001 -6.867958e-001 2.989670e+000 150 29 32
7.697655e-001 -6.826154e-001 2.994589e+000 150 26 24
7.726743e-001 -6.918664e-001 3.010237e+000 161 26 34
7.344141e-001 -7.026517e-001 2.952196e+000 135 22 24
7.558559e-001 -6.964216e-001 2.977542e+000 204 52 51
7.142560e-001 -7.078610e-001 2.937412e+000 135 27 30
7.155388e-001 -7.151706e-001 2.941050e+000 232 70 68
7.396681e-001 -7.185218e-001 2.969487e+000 232 70 74
7.515313e-001 -7.105602e-001 2.982557e+000 144 28 30
7.536880e-001 -7.074972e-001 2.981773e+000 223 60 66
7.544752e-001 -7.080743e-001 2.980693e+000 223 60 66
7.575007e-001 -7.060474e-001 2.988927e+000 139 23 29
7.178816e-001 -7.219598e-001 2.948286e+000 153 22 29
7.175236e-001 -7.212144e-001 2.948687e+000 153 22 29
7.201207e-001 -7.222668e-001 2.951333e+000 131 23 29
7.199795e-001 -7.219139e-001 2.951491e+000 131 23 29
7.692962e-001 -7.270177e-001 3.048416e+000 187 111 54
7.451535e-001 -7.470783e-001 2.995579e+000 118 32 4
7.606579e-001 -7.496039e-001 3.028963e+000 120 44 6
7.120553e-001 -7.629002e-001 2.966617e+000 183 128 76
7.166279e-001 -7.676401e-001 2.976180e+000 114 80 46
7.420188e-001 -7.606924e-001 3.002260e+000 132 43 7
7.456379e-001 -7.583790e-001 3.004037e+000 137 54 18
7.137372e-001 -7.705452e-001 2.971137e+000 174 125 80
7.486657e-001 -7.844372e-001 3.031897e+000 188 145 100
7.575641e-001 -7.870860e-001 3.056080e+000 49 19 12
7.434713e-001 -7.947652e-001 3.029497e+000 174 86 29
8.130056e-001 -4.495775e-001 2.901858e+000 65 91 64
7.899007e-001 -5.637072e-001 2.942116e+000 26 59 79
7.233753e-001 -6.107507e-001 2.890477e+000 196 127 99
7.609976e-001 -6.518818e-001 2.953100e+000 67 31 7
7.769724e-001 -6.671689e-001 3.002898e+000 151 26 29
7.764386e-001 -6.749616e-001 2.999369e+000 140 30 27
7.726121e-001 -6.754191e-001 2.995062e+000 207 63 54
7.775300e-001 -6.724399e-001 3.010164e+000 211 55 55
7.804694e-001 -6.676973e-001 3.024900e+000 43 21 5
7.217672e-001 -6.894322e-001 2.934754e+000 135 84 61
7.433555e-001 -6.923886e-001 2.957439e+000 185 47 46
7.627199e-001 -6.831032e-001 2.978462e+000 175 33 32
7.626609e-001 -6.847574e-001 2.981418e+000 139 29 28
7.746506e-001 -6.876835e-001 3.015328e+000 230 62 57
7.746506e-001 -6.876835e-001 3.015328e+000 230 62 57
7.078290e-001 -7.026139e-001 2.931663e+000 125 30 32
7.305078e-001 -7.064178e-001 2.949422e+000 231 74 78
7.305078e-001 -7.064178e-001 2.949422e+000 231 74 78
7.451828e-001 -6.968118e-001 2.961593e+000 202 66 62
7.451828e-001 -6.968118e-001 2.961593e+000 202 66 62
7.433688e-001 -6.997715e-001 2.961776e+000 132 27 26
7.461380e-001 -6.992303e-001 2.963341e+000 134 28 27
7.460593e-001 -6.991424e-001 2.963438e+000 134 28 27
7.510022e-001 -6.972918e-001 2.969825e+000 141 28 27
7.510022e-001 -6.972918e-001 2.969825e+000 141 28 27
7.494798e-001 -6.981371e-001 2.964959e+000 137 24 28
7.494798e-001 -6.981371e-001 2.964959e+000 137 24 28
7.459435e-001 -7.041274e-001 2.963998e+000 146 23 29
7.099619e-001 -7.089117e-001 2.934656e+000 130 27 31
7.250434e-001 -7.182876e-001 2.954253e+000 192 55 54
7.074895e-001 -7.220458e-001 2.940480e+000 224 61 67
7.078756e-001 -7.231597e-001 2.940149e+000 224 61 67
7.053331e-001 -7.244287e-001 2.941872e+000 131 22 38
7.130937e-001 -7.242831e-001 2.947277e+000 135 28 33
7.298543e-001 -7.191398e-001 2.959004e+000 135 30 35
7.604117e-001 -7.244883e-001 3.008351e+000 190 130 77
7.166311e-001 -7.407261e-001 2.957942e+000 197 114 89
7.261972e-001 -7.626227e-001 2.979108e+000 175 128 76
7.091613e-001 -7.724482e-001 2.970961e+000 170 130 80
6.444920e-001 -4.041107e-001 2.849917e+000 190 38 52
3.951380e-001 -4.718743e-001 3.182164e+000 118 104 91
7.559885e-001 -5.764531e-001 2.900680e+000 15 52 70
7.873839e-001 -5.991868e-001 2.966869e+000 137 81 55
7.647134e-001 -6.215627e-001 2.938609e+000 72 42 28
7.764848e-001 -6.522491e-001 2.986207e+000 129 82 48
7.273016e-001 -6.596921e-001 2.921567e+000 135 79 60
7.278682e-001 -6.991566e-001 2.946949e+000 133 31 24
7.183833e-001 -7.125638e-001 2.940967e+000 131 28 22
7.183833e-001 -7.125638e-001 2.940967e+000 131 28 22
7.204258e-001 -7.133960e-001 2.945932e+000 228 58 67
7.211014e-001 -7.168532e-001 2.948673e+000 145 25 29
7.050784e-001 -7.289195e-001 2.940527e+000 213 83 76
7.579750e-001 -7.220056e-001 3.000622e+000 191 130 83
7.365331e-001 -7.368930e-001 2.978889e+000 165 96 72
6.892299e-001 -8.323537e-001 2.988814e+000 75 16 16
8.044547e-001 -2.728306e-001 2.883650e+000 199 42 42
8.189645e-001 -4.304166e-001 2.901273e+000 107 107 19
4.327839e-001 -4.412731e-001 3.173458e+000 112 87 70
4.021013e-001 -4.434125e-001 3.184533e+000 102 69 59
7.951338e-001 -4.925574e-001 2.896275e+000 35 52 21
7.758571e-001 -5.650289e-001 2.914289e+000 155 22 32
7.829426e-001 -5.620477e-001 2.922841e+000 145 23 30
7.336380e-001 -5.809335e-001 3.163435e+000 21 12 15
7.355196e-001 -6.283370e-001 2.911280e+000 159 95 65
7.328571e-001 -6.397105e-001 2.919439e+000 198 123 84
7.528215e-001 -6.611097e-001 2.946800e+000 82 40 16
7.734768e-001 -6.686899e-001 3.000546e+000 147 26 26
7.792669e-001 -6.702657e-001 3.013131e+000 151 24 33
7.356638e-001 -7.504651e-001 2.987323e+000 139 44 25
4.291631e-001 -4.343627e-001 3.173282e+000 87 69 59
7.928815e-001 -4.439911e-001 2.861462e+000 27 53 21
7.438150e-001 -5.684519e-001 2.884126e+000 164 71 49
7.839020e-001 -4.558482e-001 2.858885e+000 82 112 80
7.124595e-001 -6.493638e-001 2.906234e+000 189 117 93
7.729577e-001 -6.863740e-001 3.005911e+000 166 22 31
6.985252e-001 -7.297652e-001 2.938260e+000 155 21 35
4.241194e-001 -4.395814e-001 3.177138e+000 42 29 47
4.222816e-001 -4.592145e-001 3.177396e+000 131 110 89
7.204908e-001 -7.498316e-001 2.967449e+000 180 123 78
7.666002e-001 -7.326654e-001 3.046322e+000 198 103 24
8.163184e-001 -3.901271e-001 2.875387e+000 12 86 116
7.845797e-001 -4.165580e-001 2.831881e+000 229 130 95
7.845797e-001 -4.165580e-001 2.831881e+000 229 130 95
7.898632e-001 -4.112410e-001 2.836302e+000 220 140 102
7.925579e-001 -4.105782e-001 2.839670e+000 220 140 105
7.936340e-001 -4.143846e-001 2.844214e+000 246 121 95
8.079954e-001 -4.068686e-001 2.860162e+000 216 134 88
8.079954e-001 -4.068686e-001 2.860162e+000 216 134 88
8.112760e-001 -4.037563e-001 2.867658e+000 157 51 33
8.112760e-001 -4.037563e-001 2.867658e+000 157 51 33
8.110366e-001 -4.401724e-001 2.882531e+000 40 53 11
8.136417e-001 -4.462831e-001 2.901090e+000 145 149 37
7.858734e-001 -4.554906e-001 2.856662e+000 87 114 102
7.858734e-001 -4.554906e-001 2.856662e+000 87 114 102
7.949155e-001 -4.591991e-001 2.871033e+000 94 116 53
7.957505e-001 -4.646696e-001 2.880860e+000 95 111 38
7.957505e-001 -4.646696e-001 2.880860e+000 95 111 38
8.084161e-001 -4.596865e-001 2.909839e+000 74 107 67
8.084161e-001 -4.596865e-001 2.909839e+000 74 107 67
8.143131e-001 -4.547148e-001 2.919228e+000 67 100 86
7.843776e-001 -4.668634e-001 2.875988e+000 90 116 106
7.905179e-001 -4.701131e-001 2.873164e+000 96 119 74
8.019956e-001 -4.686313e-001 2.891477e+000 80 105 68
8.047099e-001 -4.737945e-001 2.915501e+000 83 116 73
8.114620e-001 -4.796245e-001 2.948387e+000 161 156 116
7.740094e-001 -5.312824e-001 2.894116e+000 92 41 36
7.740094e-001 -5.312824e-001 2.894116e+000 92 41 36
7.771241e-001 -5.305651e-001 2.896313e+000 88 43 35
7.832687e-001 -5.290942e-001 2.902541e+000 94 40 34
7.832687e-001 -5.290942e-001 2.902541e+000 94 40 34
7.894754e-001 -5.249710e-001 2.910472e+000 178 145 110
7.894754e-001 -5.249710e-001 2.910472e+000 178 145 110
7.917280e-001 -5.266350e-001 2.917859e+000 182 149 118
7.914922e-001 -5.298057e-001 2.919033e+000 111 79 59
8.025641e-001 -5.420853e-001 2.958607e+000 249 138 107
7.748680e-001 -5.576850e-001 2.910777e+000 228 153 114
7.848036e-001 -5.548331e-001 2.924374e+000 239 143 97
7.868950e-001 -5.538530e-001 2.927281e+000 226 142 100
7.871652e-001 -5.549052e-001 2.929950e+000 133 29 17
7.871652e-001 -5.549052e-001 2.929950e+000 133 29 17
7.899391e-001 -5.516222e-001 2.933696e+000 244 147 96
7.421652e-001 -5.654463e-001 2.876794e+000 242 141 110
7.421652e-001 -5.654463e-001 2.876794e+000 242 141 110
7.451958e-001 -5.663138e-001 2.885004e+000 222 154 108
7.572936e-001 -5.665919e-001 2.896464e+000 222 145 106
7.615029e-001 -5.657536e-001 2.896707e+000 228 146 109
7.687612e-001 -5.640022e-001 2.903865e+000 232 145 112
7.763568e-001 -5.617336e-001 2.914949e+000 222 148 111
7.676578e-001 -5.828523e-001 2.915614e+000 19 80 103
7.676992e-001 -5.988361e-001 2.927573e+000 52 26 13
7.870248e-001 -5.973033e-001 2.971288e+000 202 126 82
7.307478e-001 -6.289987e-001 2.905624e+000 205 130 95
7.051085e-001 -6.393292e-001 2.899004e+000 248 101 96
7.405660e-001 -6.342479e-001 2.920702e+000 199 126 95
