ply
format ascii 1.0
element face 0
property list uchar int vertex_indices
element vertex 894
property float x
property float y
property float z
property uchar diffuse_red
property uchar diffuse_green
property uchar diffuse_blue
end_header
7.830712e-001 -3.819466e-001 3.009934e+000 156 38 44
8.287071e-001 -4.706410e-001 3.030114e+000 159 21 26
8.295730e-001 -4.935200e-001 3.046663e+000 167 112 89
7.963748e-001 -5.227670e-001 3.047709e+000 195 75 74
7.800342e-001 -3.837096e-001 3.011747e+000 175 38 44
8.317950e-001 -4.718919e-001 3.032835e+000 213 134 88
7.710109e-001 -5.366653e-001 3.069177e+000 176 137 119
7.836303e-001 -5.781198e-001 3.077638e+000 146 104 59
7.674641e-001 -4.811683e-001 3.054688e+000 189 140 132
8.576086e-001 -3.832124e-001 3.001055e+000 165 32 30
7.891389e-001 -4.194927e-001 3.014365e+000 29 64 34
7.692469e-001 -4.907496e-001 3.056758e+000 92 23 45
7.659595e-001 -4.192217e-001 3.038227e+000 28 63 40
8.382522e-001 -4.677201e-001 3.038501e+000 155 24 21
7.696043e-001 -4.819528e-001 3.053472e+000 142 27 30
7.818010e-001 -5.815617e-001 3.080113e+000 161 102 58
7.713959e-001 -4.189920e-001 3.032166e+000 166 172 61
7.983831e-001 -5.471631e-001 3.060344e+000 176 143 108
7.810663e-001 -5.402392e-001 3.063660e+000 51 122 191
7.847263e-001 -4.057554e-001 3.012770e+000 26 61 37
7.915961e-001 -4.540894e-001 3.021613e+000 163 162 168
7.776904e-001 -5.472712e-001 3.069036e+000 71 13 20
8.082327e-001 -4.889212e-001 3.035593e+000 165 164 160
7.646947e-001 -4.158137e-001 3.037757e+000 31 60 30
8.415623e-001 -4.666720e-001 3.042164e+000 147 24 25
8.372004e-001 -4.706471e-001 3.037765e+000 175 97 66
7.670453e-001 -4.688795e-001 3.051441e+000 172 34 40
8.169056e-001 -5.235097e-001 3.052113e+000 192 124 87
8.234938e-001 -5.536560e-001 3.081508e+000 157 23 27
8.494030e-001 -3.799348e-001 2.988507e+000 137 143 123
8.080036e-001 -5.217493e-001 3.044839e+000 188 94 74
7.659613e-001 -4.191732e-001 3.038391e+000 28 63 40
8.272531e-001 -4.759566e-001 3.026832e+000 103 28 41
8.199524e-001 -4.811690e-001 3.028960e+000 157 155 143
7.787697e-001 -5.599873e-001 3.073097e+000 146 63 41
8.084168e-001 -3.685690e-001 2.977693e+000 135 150 173
7.861618e-001 -4.922622e-001 3.035038e+000 158 22 32
8.699985e-001 -3.807373e-001 3.022830e+000 174 43 41
8.523540e-001 -3.945210e-001 2.998072e+000 70 100 105
8.561455e-001 -4.222412e-001 3.028065e+000 144 153 40
8.561455e-001 -4.222412e-001 3.028065e+000 144 153 40
8.352266e-001 -5.080347e-001 3.063156e+000 125 78 51
8.352559e-001 -5.080758e-001 3.063285e+000 125 78 51
7.998586e-001 -5.258224e-001 3.047087e+000 150 51 46
8.165219e-001 -5.440947e-001 3.062740e+000 192 120 91
8.242849e-001 -5.417053e-001 3.071469e+000 198 115 76
8.229061e-001 -5.454389e-001 3.072810e+000 223 85 76
8.279755e-001 -5.434672e-001 3.082510e+000 204 68 54
8.151482e-001 -5.493094e-001 3.066894e+000 131 29 31
8.227390e-001 -5.504512e-001 3.080060e+000 208 57 59
8.273605e-001 -5.545017e-001 3.091163e+000 196 65 51
8.260425e-001 -5.576877e-001 3.088475e+000 202 66 51
8.259964e-001 -5.579121e-001 3.088558e+000 202 66 51
8.172156e-001 -5.893011e-001 3.103637e+000 172 130 72
8.555195e-001 -3.835319e-001 2.997906e+000 175 33 32
7.658105e-001 -4.824544e-001 3.056874e+000 121 26 31
8.306820e-001 -5.061452e-001 3.052078e+000 108 65 42
8.297289e-001 -5.143020e-001 3.059472e+000 101 63 37
8.242937e-001 -5.203118e-001 3.055527e+000 95 50 24
8.277163e-001 -5.279481e-001 3.067485e+000 120 68 41
8.277127e-001 -5.278597e-001 3.067472e+000 120 68 41
8.267750e-001 -5.299938e-001 3.066107e+000 193 124 83
8.276196e-001 -5.315310e-001 3.069447e+000 128 87 59
8.361533e-001 -5.335481e-001 3.088591e+000 191 121 81
8.289088e-001 -5.639891e-001 3.101513e+000 191 119 86
8.174535e-001 -5.701883e-001 3.084866e+000 192 126 91
8.407933e-001 -4.301069e-001 3.011300e+000 36 47 17
7.819933e-001 -4.386494e-001 3.027207e+000 30 60 31
7.543101e-001 -4.472399e-001 3.058939e+000 158 158 162
8.269175e-001 -4.792622e-001 3.030901e+000 11 52 77
8.294968e-001 -5.125770e-001 3.057486e+000 191 122 85
8.172025e-001 -5.203054e-001 3.048784e+000 189 124 94
8.241612e-001 -5.226593e-001 3.057089e+000 187 124 85
8.334795e-001 -5.370068e-001 3.083010e+000 191 122 76
8.206150e-001 -5.682998e-001 3.086948e+000 198 122 85
7.776349e-001 -5.678129e-001 3.078141e+000 179 136 111
8.261715e-001 -5.867349e-001 3.116219e+000 147 84 38
7.886405e-001 -6.084755e-001 3.089059e+000 179 138 108
8.585680e-001 -4.002099e-001 3.012303e+000 29 56 12
8.549449e-001 -4.163489e-001 3.022955e+000 123 121 20
8.511592e-001 -4.636325e-001 3.058766e+000 155 25 31
8.495447e-001 -4.670275e-001 3.057317e+000 226 127 85
8.464488e-001 -4.779208e-001 3.055691e+000 12 50 69
8.176402e-001 -5.344793e-001 3.057350e+000 89 57 42
8.664199e-001 -3.929934e-001 3.030254e+000 25 81 105
7.927297e-001 -4.473627e-001 3.019137e+000 27 63 37
8.411212e-001 -4.697398e-001 3.042369e+000 232 124 86
8.383941e-001 -5.079983e-001 3.067278e+000 190 121 80
8.488578e-001 -4.257419e-001 3.019105e+000 129 132 110
7.753322e-001 -4.253465e-001 3.030235e+000 135 172 120
8.239495e-001 -5.719869e-001 3.100784e+000 188 128 80
8.133932e-001 -5.848005e-001 3.089282e+000 178 137 91
7.875479e-001 -4.258362e-001 3.017597e+000 27 60 41
7.875732e-001 -4.257671e-001 3.016744e+000 27 60 41
7.576558e-001 -4.314596e-001 3.051807e+000 168 162 166
7.957681e-001 -6.202678e-001 3.097900e+000 193 162 132
8.117079e-001 -5.287742e-001 3.053025e+000 168 32 33
7.252996e-001 -2.443989e-001 3.465562e+000 210 176 115
8.028789e-001 -5.523515e-001 3.065790e+000 176 143 108
8.095760e-001 -5.089303e-001 3.040529e+000 167 37 37
8.571370e-001 -4.186478e-001 3.029111e+000 147 159 40
8.494048e-001 -4.471707e-001 3.038620e+000 77 43 29
8.554010e-001 -4.535113e-001 3.051724e+000 173 151 114
8.047705e-001 -5.207978e-001 3.044106e+000 190 89 73
8.341157e-001 -5.343017e-001 3.087474e+000 191 123 80
8.351405e-001 -5.411732e-001 3.089832e+000 145 36 32
8.189960e-001 -5.485500e-001 3.066124e+000 145 25 32
8.182454e-001 -5.470704e-001 3.069335e+000 216 94 73
8.182603e-001 -5.470062e-001 3.069459e+000 216 94 73
8.169915e-001 -5.503473e-001 3.069248e+000 215 68 64
8.160051e-001 -5.532643e-001 3.071959e+000 205 62 63
8.202767e-001 -5.506247e-001 3.073083e+000 143 33 36
8.228332e-001 -5.593608e-001 3.084848e+000 192 65 48
8.227943e-001 -5.594063e-001 3.085271e+000 192 65 48
8.196144e-001 -5.605336e-001 3.080435e+000 192 60 53
8.283716e-001 -5.659697e-001 3.100165e+000 129 79 46
8.299337e-001 -5.652347e-001 3.104325e+000 107 55 26
8.154543e-001 -5.682990e-001 3.079663e+000 55 29 10
8.266137e-001 -5.880158e-001 3.123894e+000 194 149 87
8.115174e-001 -5.924615e-001 3.096039e+000 172 134 87
8.192855e-001 -5.885954e-001 3.107427e+000 174 132 81
7.939561e-001 -3.889415e-001 2.997672e+000 25 52 28
7.939561e-001 -3.889415e-001 2.997672e+000 25 52 28
8.559342e-001 -4.186204e-001 3.026179e+000 34 50 15
8.571027e-001 -4.522986e-001 3.055602e+000 175 153 115
8.280606e-001 -4.951689e-001 3.042747e+000 189 116 89
8.430074e-001 -4.948261e-001 3.066664e+000 189 118 81
8.307051e-001 -5.433435e-001 3.086394e+000 137 32 26
7.850450e-001 -5.451641e-001 3.063563e+000 65 130 198
8.163018e-001 -5.610422e-001 3.072764e+000 141 31 29
8.132838e-001 -5.631354e-001 3.076999e+000 209 68 60
8.176002e-001 -5.591179e-001 3.074346e+000 197 59 55
8.312606e-001 -5.838508e-001 3.136139e+000 193 110 38
8.260416e-001 -6.028666e-001 3.146266e+000 141 75 20
7.642405e-001 -3.764721e-001 3.023946e+000 168 43 50
7.685910e-001 -4.171994e-001 3.034333e+000 25 58 36
7.910316e-001 -4.301500e-001 3.013991e+000 29 58 30
7.786357e-001 -4.368579e-001 3.030207e+000 25 54 34
7.786357e-001 -4.368579e-001 3.030207e+000 25 54 34
8.342225e-001 -4.746681e-001 3.032272e+000 150 20 20
8.491501e-001 -4.730688e-001 3.058574e+000 12 52 67
8.309633e-001 -5.400458e-001 3.083849e+000 143 23 27
8.262348e-001 -5.634939e-001 3.097538e+000 134 82 61
8.266240e-001 -5.652706e-001 3.098521e+000 188 123 86
8.188811e-001 -5.933392e-001 3.112366e+000 182 149 99
8.500055e-001 -3.944222e-001 2.998828e+000 130 126 63
8.463419e-001 -4.127103e-001 3.006223e+000 122 142 50
8.463419e-001 -4.127103e-001 3.006223e+000 122 142 50
7.855923e-001 -4.744119e-001 3.034609e+000 165 160 163
8.181473e-001 -5.366588e-001 3.061946e+000 194 122 79
8.181917e-001 -5.366653e-001 3.061925e+000 194 122 79
7.798429e-001 -5.677278e-001 3.076965e+000 121 68 48
8.109600e-001 -5.896838e-001 3.089498e+000 181 136 91
8.631743e-001 -4.056913e-001 3.025232e+000 34 56 13
8.474338e-001 -4.648349e-001 3.053310e+000 150 28 24
8.532791e-001 -4.803265e-001 3.088891e+000 189 120 81
7.491507e-001 -4.841225e-001 3.082551e+000 101 139 199
8.212807e-001 -5.059604e-001 3.038728e+000 193 121 96
8.117191e-001 -5.471864e-001 3.064587e+000 134 23 30
8.094392e-001 -5.650034e-001 3.072364e+000 157 30 25
8.603151e-001 -3.856355e-001 3.005521e+000 187 99 62
7.994600e-001 -4.349688e-001 3.005659e+000 115 135 168
8.516680e-001 -4.157311e-001 3.011813e+000 110 127 110
8.269613e-001 -4.986288e-001 3.042409e+000 187 123 87
8.169900e-001 -5.734263e-001 3.084280e+000 188 124 86
8.073329e-001 -3.986820e-001 2.999327e+000 110 138 172
7.615094e-001 -3.742031e-001 3.025341e+000 247 154 154
7.693137e-001 -3.711120e-001 3.017582e+000 121 37 37
7.767700e-001 -3.726200e-001 3.011810e+000 227 154 149
7.751322e-001 -3.785171e-001 3.016090e+000 134 36 39
7.765206e-001 -3.777108e-001 3.013769e+000 224 159 151
7.872738e-001 -3.805347e-001 3.005914e+000 139 34 37
7.872738e-001 -3.805347e-001 3.005914e+000 139 34 37
7.520041e-001 -4.865694e-001 3.069865e+000 25 72 121
7.827499e-001 -5.113459e-001 3.049462e+000 146 41 45
8.156138e-001 -5.186586e-001 3.050968e+000 122 38 27
7.425125e-001 -5.441937e-001 3.101077e+000 49 29 35
7.721395e-001 -5.470412e-001 3.073180e+000 206 124 113
7.821450e-001 -5.774176e-001 3.077435e+000 177 129 80
7.584543e-001 -3.630624e-001 3.033813e+000 134 164 196
7.580401e-001 -3.631714e-001 3.029180e+000 134 164 196
7.729710e-001 -3.896018e-001 3.020743e+000 51 102 157
7.516568e-001 -4.193285e-001 3.058265e+000 41 55 20
7.545863e-001 -4.628827e-001 3.062281e+000 168 33 33
7.592208e-001 -4.629288e-001 3.055488e+000 159 160 173
7.733368e-001 -4.872645e-001 3.047723e+000 140 26 34
7.925509e-001 -5.358127e-001 3.056857e+000 16 79 145
8.207407e-001 -5.446720e-001 3.073432e+000 208 94 75
7.441073e-001 -5.437060e-001 3.097829e+000 159 134 123
7.833976e-001 -5.778349e-001 3.076779e+000 144 99 56
7.974645e-001 -3.204562e-001 3.034267e+000 32 27 24
7.643970e-001 -3.740400e-001 3.022344e+000 169 36 41
8.455416e-001 -4.157818e-001 3.011782e+000 123 143 52
7.516559e-001 -4.548759e-001 3.062681e+000 123 102 107
7.652839e-001 -4.803349e-001 3.053847e+000 142 25 34
7.433343e-001 -5.060210e-001 3.090231e+000 143 111 64
7.432132e-001 -5.406987e-001 3.098510e+000 124 46 46
7.445942e-001 -5.500799e-001 3.099768e+000 160 134 121
7.612895e-001 -3.666009e-001 3.027345e+000 171 35 43
7.640452e-001 -3.666562e-001 3.021002e+000 177 37 46
7.853082e-001 -3.743724e-001 3.005340e+000 173 33 42
7.854157e-001 -3.747733e-001 3.005811e+000 173 33 42
7.894740e-001 -3.832935e-001 3.005125e+000 167 32 41
7.894740e-001 -3.832935e-001 3.005125e+000 167 32 41
8.451655e-001 -4.211792e-001 3.015808e+000 136 133 39
7.644219e-001 -4.154432e-001 3.036201e+000 29 66 33
7.931279e-001 -4.745197e-001 3.029984e+000 171 160 168
7.592154e-001 -4.826731e-001 3.063797e+000 148 37 36
8.111762e-001 -5.237560e-001 3.051273e+000 182 86 62
7.780010e-001 -5.550347e-001 3.070165e+000 166 67 45
8.098765e-001 -5.633320e-001 3.074955e+000 148 27 28
7.592313e-001 -3.744290e-001 3.027192e+000 173 38 44
7.684159e-001 -4.178516e-001 3.033062e+000 25 69 35
8.575901e-001 -4.341505e-001 3.046081e+000 32 51 30
7.822784e-001 -4.414189e-001 3.027116e+000 26 58 42
7.826617e-001 -4.416179e-001 3.027703e+000 26 58 42
7.919423e-001 -4.773304e-001 3.031199e+000 149 106 113
8.168259e-001 -5.086874e-001 3.048700e+000 179 50 45
7.799210e-001 -5.666751e-001 3.072966e+000 123 68 47
7.568283e-001 -3.823049e-001 3.039603e+000 26 59 32
7.701776e-001 -4.096892e-001 3.027902e+000 25 64 43
7.578338e-001 -4.263521e-001 3.046423e+000 29 62 35
7.578338e-001 -4.263521e-001 3.046423e+000 29 62 35
7.553480e-001 -4.509982e-001 3.052462e+000 162 157 164
7.684828e-001 -4.535944e-001 3.042610e+000 157 158 173
7.808865e-001 -4.595281e-001 3.032348e+000 157 161 167
7.568601e-001 -4.630205e-001 3.057714e+000 171 34 37
7.700605e-001 -4.687759e-001 3.046512e+000 168 37 39
7.797583e-001 -4.711536e-001 3.039009e+000 157 158 168
7.733280e-001 -4.795181e-001 3.048481e+000 150 25 31
7.602861e-001 -3.695658e-001 3.025259e+000 209 152 154
7.724431e-001 -4.047716e-001 3.024891e+000 163 165 163
7.982668e-001 -4.373296e-001 3.011301e+000 113 137 166
7.982718e-001 -4.373294e-001 3.011244e+000 113 137 166
7.766573e-001 -4.390001e-001 3.031482e+000 25 61 32
7.532802e-001 -4.443844e-001 3.056418e+000 152 157 169
7.532802e-001 -4.443844e-001 3.056418e+000 152 157 169
7.689584e-001 -4.554375e-001 3.044770e+000 155 159 168
7.690053e-001 -4.547751e-001 3.044330e+000 155 159 168
7.728474e-001 -4.736444e-001 3.046303e+000 162 159 167
7.534550e-001 -4.924815e-001 3.071709e+000 94 50 81
8.381776e-001 -4.916393e-001 3.065230e+000 188 118 82
8.016066e-001 -5.230067e-001 3.049329e+000 184 89 77
8.016066e-001 -5.230067e-001 3.049329e+000 184 89 77
8.546459e-001 -3.832226e-001 2.990956e+000 125 44 28
8.613714e-001 -3.802851e-001 2.997187e+000 211 128 78
8.614178e-001 -3.822284e-001 3.001033e+000 214 133 87
8.604032e-001 -3.847570e-001 3.006316e+000 153 40 33
8.675357e-001 -3.789832e-001 3.011934e+000 146 35 34
8.721614e-001 -3.842115e-001 3.034000e+000 34 48 23
8.552080e-001 -3.866425e-001 2.990201e+000 210 127 85
8.552080e-001 -3.866425e-001 2.990201e+000 210 127 85
8.558394e-001 -3.874825e-001 2.994091e+000 223 128 91
8.562346e-001 -3.873641e-001 2.993717e+000 223 128 91
8.593756e-001 -3.856648e-001 2.999351e+000 157 31 30
8.587938e-001 -4.008603e-001 3.013788e+000 62 83 41
8.694912e-001 -4.092382e-001 3.066452e+000 33 49 11
8.484926e-001 -4.232710e-001 3.012579e+000 124 133 26
8.476474e-001 -4.277591e-001 3.015173e+000 140 143 26
8.550514e-001 -4.447807e-001 3.047074e+000 76 29 19
8.565533e-001 -4.464038e-001 3.060944e+000 76 31 20
8.503170e-001 -4.532741e-001 3.048067e+000 165 130 95
8.562495e-001 -4.512401e-001 3.062771e+000 170 141 101
8.360588e-001 -4.724713e-001 3.033953e+000 225 135 103
8.394294e-001 -4.710183e-001 3.039603e+000 121 29 24
8.394294e-001 -4.710183e-001 3.039603e+000 121 29 24
8.472166e-001 -4.671343e-001 3.052684e+000 241 141 100
8.556351e-001 -4.767190e-001 3.106186e+000 115 67 42
8.453068e-001 -4.874935e-001 3.068309e+000 170 108 70
8.342114e-001 -5.093958e-001 3.063298e+000 68 31 15
8.207152e-001 -5.215627e-001 3.049615e+000 191 110 71
8.134435e-001 -5.243234e-001 3.048365e+000 123 37 34
8.474344e-001 -5.248262e-001 3.120453e+000 191 114 77
8.218344e-001 -5.477475e-001 3.072220e+000 121 21 23
8.575635e-001 -3.860059e-001 2.997756e+000 147 27 25
8.710133e-001 -3.824036e-001 3.024712e+000 156 36 32
8.619275e-001 -4.029195e-001 3.021865e+000 149 143 29
8.676601e-001 -4.094391e-001 3.050315e+000 68 94 66
8.521316e-001 -4.510618e-001 3.051112e+000 162 135 104
8.243242e-001 -4.770589e-001 3.023506e+000 59 31 41
8.298929e-001 -4.775384e-001 3.031511e+000 21 70 88
8.374574e-001 -4.758010e-001 3.039591e+000 21 67 85
8.273886e-001 -4.805961e-001 3.026042e+000 22 63 88
7.758196e-001 -4.873830e-001 3.049092e+000 247 96 103
8.481105e-001 -4.875131e-001 3.070436e+000 122 69 48
8.501838e-001 -5.049398e-001 3.106084e+000 96 51 22
8.284150e-001 -5.115366e-001 3.053498e+000 65 36 26
8.284416e-001 -5.115338e-001 3.053452e+000 65 36 26
8.319591e-001 -5.223289e-001 3.070431e+000 94 48 25
8.463399e-001 -5.203601e-001 3.120992e+000 87 52 20
8.339884e-001 -5.344788e-001 3.087490e+000 182 109 71
8.368286e-001 -5.336871e-001 3.092193e+000 183 113 76
8.328757e-001 -5.425505e-001 3.091425e+000 132 26 20
8.326400e-001 -5.423675e-001 3.092282e+000 132 26 20
8.603114e-001 -4.084508e-001 3.026187e+000 136 132 35
8.597161e-001 -4.217297e-001 3.032795e+000 146 142 42
8.571588e-001 -4.620371e-001 3.082529e+000 134 29 25
8.545669e-001 -4.839223e-001 3.101649e+000 185 114 66
8.465131e-001 -4.896327e-001 3.072563e+000 182 112 70
8.465131e-001 -4.896327e-001 3.072563e+000 182 112 70
8.435972e-001 -4.904758e-001 3.067297e+000 187 104 68
8.513292e-001 -4.985852e-001 3.104218e+000 190 119 66
8.444353e-001 -5.275993e-001 3.114896e+000 184 121 68
8.235931e-001 -5.394753e-001 3.066584e+000 179 112 76
8.235931e-001 -5.394753e-001 3.066584e+000 179 112 76
8.472475e-001 -4.546630e-001 3.041689e+000 119 95 71
8.367413e-001 -4.739967e-001 3.035496e+000 138 19 26
8.444891e-001 -4.811466e-001 3.062481e+000 23 71 91
8.465970e-001 -4.807198e-001 3.058403e+000 23 71 91
8.293067e-001 -5.042818e-001 3.051032e+000 179 109 69
8.237750e-001 -5.103254e-001 3.046223e+000 183 109 76
8.245116e-001 -5.191567e-001 3.050735e+000 179 104 78
8.207067e-001 -5.280540e-001 3.056677e+000 185 107 76
8.207067e-001 -5.280540e-001 3.056677e+000 185 107 76
8.281220e-001 -5.261020e-001 3.063710e+000 175 111 68
8.281220e-001 -5.261020e-001 3.063710e+000 175 111 68
8.136004e-001 -5.384596e-001 3.052399e+000 108 21 21
8.327945e-001 -5.380019e-001 3.084630e+000 183 109 77
8.453421e-001 -4.195317e-001 3.006860e+000 121 125 36
8.576790e-001 -4.272481e-001 3.040491e+000 147 145 60
7.905512e-001 -4.750948e-001 3.032854e+000 108 74 74
8.479310e-001 -4.216497e-001 3.010442e+000 29 48 18
8.563782e-001 -4.409260e-001 3.053600e+000 156 142 107
8.372840e-001 -4.756437e-001 3.035982e+000 14 57 73
8.199446e-001 -5.108314e-001 3.042843e+000 178 109 84
8.663403e-001 -4.238597e-001 3.055024e+000 142 150 50
8.406606e-001 -5.263512e-001 3.105088e+000 184 121 77
7.606773e-001 -3.531091e-001 3.031193e+000 42 117 196
7.606773e-001 -3.531091e-001 3.031193e+000 42 117 196
8.506702e-001 -3.871840e-001 2.994266e+000 159 47 28
7.601216e-001 -3.674321e-001 3.024293e+000 123 61 66
7.601216e-001 -3.674321e-001 3.024293e+000 123 61 66
7.595001e-001 -3.738690e-001 3.037703e+000 202 106 112
7.725827e-001 -3.709896e-001 3.015211e+000 195 129 131
7.931844e-001 -3.805129e-001 3.001458e+000 13 80 147
7.935729e-001 -4.065647e-001 3.001138e+000 66 98 112
7.935729e-001 -4.065647e-001 3.001138e+000 66 98 112
7.979898e-001 -4.094734e-001 3.004655e+000 117 154 94
8.488077e-001 -4.230587e-001 3.020640e+000 49 56 15
7.539859e-001 -4.627027e-001 3.065684e+000 147 136 144
8.296884e-001 -5.009029e-001 3.054438e+000 137 80 54
8.296884e-001 -5.009029e-001 3.054438e+000 137 80 54
8.348816e-001 -5.071398e-001 3.065698e+000 143 89 61
7.641070e-001 -4.929183e-001 3.060027e+000 94 137 190
8.294227e-001 -5.131309e-001 3.062597e+000 140 86 58
7.709150e-001 -4.988159e-001 3.056031e+000 104 149 209
7.709150e-001 -4.988159e-001 3.056031e+000 104 149 209
7.813303e-001 -5.013234e-001 3.045729e+000 99 142 189
7.817785e-001 -5.089748e-001 3.049642e+000 123 30 34
8.029699e-001 -5.272519e-001 3.052528e+000 151 35 35
7.818228e-001 -5.471434e-001 3.064480e+000 62 9 6
7.710879e-001 -5.476597e-001 3.072773e+000 131 44 51
7.710879e-001 -5.476597e-001 3.072773e+000 131 44 51
7.628568e-001 -3.751289e-001 3.032054e+000 202 134 131
7.649528e-001 -3.725494e-001 3.028300e+000 196 136 133
7.737206e-001 -3.719534e-001 3.015696e+000 149 35 43
7.800007e-001 -3.751496e-001 3.010360e+000 138 47 49
7.778098e-001 -3.794301e-001 3.013245e+000 152 39 47
7.911905e-001 -3.860215e-001 2.998405e+000 47 84 115
7.949572e-001 -4.138167e-001 3.007942e+000 38 48 24
7.951475e-001 -4.136807e-001 3.008019e+000 38 48 24
7.767307e-001 -4.283415e-001 3.031252e+000 33 54 41
7.527506e-001 -4.477790e-001 3.062210e+000 157 144 156
7.556406e-001 -4.478077e-001 3.059885e+000 147 145 151
7.615928e-001 -4.759228e-001 3.059031e+000 173 126 118
7.616107e-001 -4.785365e-001 3.058481e+000 183 121 122
8.227261e-001 -5.020425e-001 3.044868e+000 124 75 53
8.233075e-001 -5.022171e-001 3.047882e+000 124 75 53
8.296537e-001 -5.050032e-001 3.057036e+000 134 82 57
7.476540e-001 -4.842765e-001 3.077933e+000 27 73 133
7.553882e-001 -4.878436e-001 3.068079e+000 92 129 191
7.612119e-001 -4.923603e-001 3.062047e+000 27 67 119
7.620290e-001 -4.941861e-001 3.063298e+000 102 144 191
8.162536e-001 -5.116666e-001 3.047929e+000 164 63 52
8.188435e-001 -5.326451e-001 3.065138e+000 131 80 56
7.858579e-001 -5.447702e-001 3.063747e+000 58 114 164
7.386424e-001 -5.371442e-001 3.114563e+000 47 36 38
7.620476e-001 -3.673857e-001 3.022974e+000 190 151 145
8.568731e-001 -4.042031e-001 3.016651e+000 42 52 18
7.545263e-001 -4.629853e-001 3.062219e+000 157 32 37
8.231564e-001 -4.836748e-001 3.032595e+000 19 76 111
8.239202e-001 -4.941399e-001 3.040902e+000 131 82 56
7.628198e-001 -4.819366e-001 3.059599e+000 127 25 36
7.625071e-001 -4.841716e-001 3.061002e+000 183 65 73
7.541934e-001 -4.890276e-001 3.070878e+000 26 68 123
7.884068e-001 -5.392101e-001 3.060235e+000 72 123 165
7.905840e-001 -3.770818e-001 3.002431e+000 157 34 42
8.485968e-001 -3.978382e-001 3.002216e+000 141 140 86
8.469935e-001 -4.241326e-001 3.018267e+000 49 58 12
7.561422e-001 -4.474555e-001 3.055289e+000 157 36 42
7.909630e-001 -4.801836e-001 3.031187e+000 160 144 144
7.676103e-001 -4.866445e-001 3.055907e+000 171 67 71
7.716876e-001 -4.981101e-001 3.054620e+000 100 126 168
7.939263e-001 -3.916325e-001 3.003546e+000 29 54 33
7.939263e-001 -3.916325e-001 3.003546e+000 29 54 33
7.971110e-001 -4.158790e-001 3.007053e+000 101 126 131
7.547690e-001 -4.088757e-001 3.049048e+000 144 160 95
7.793975e-001 -4.418812e-001 3.030068e+000 152 156 96
7.793975e-001 -4.418812e-001 3.030068e+000 152 156 96
7.878113e-001 -4.757641e-001 3.032713e+000 135 104 109
7.644466e-001 -4.783696e-001 3.055730e+000 109 60 58
7.603543e-001 -4.921900e-001 3.066139e+000 93 130 182
7.679039e-001 -4.959165e-001 3.058287e+000 97 127 170
7.820724e-001 -3.764453e-001 3.006880e+000 179 129 128
7.556918e-001 -3.991163e-001 3.042828e+000 154 154 142
7.595307e-001 -4.145325e-001 3.040788e+000 26 57 41
7.753085e-001 -4.252354e-001 3.029152e+000 136 163 96
7.564412e-001 -4.901337e-001 3.069972e+000 81 116 167
7.564412e-001 -4.901337e-001 3.069972e+000 81 116 167
8.195758e-001 -5.124546e-001 3.052035e+000 191 119 86
7.397900e-001 -5.275630e-001 3.110765e+000 143 115 93
7.602415e-001 -3.693603e-001 3.025245e+000 183 139 141
7.810394e-001 -4.345839e-001 3.026623e+000 156 150 150
7.587456e-001 -4.471767e-001 3.052484e+000 160 34 45
7.679678e-001 -4.640981e-001 3.048472e+000 152 148 158
7.552116e-001 -4.829224e-001 3.066406e+000 134 21 35
7.814728e-001 -3.526922e-001 3.001289e+000 16 81 147
8.110207e-001 -4.173414e-001 2.990884e+000 66 109 144
7.777556e-001 -5.476367e-001 3.068597e+000 69 13 19
8.063552e-001 -4.769575e-001 3.043929e+000 151 151 151
8.614907e-001 -3.799983e-001 3.001073e+000 216 134 99
8.629285e-001 -3.793468e-001 3.002879e+000 214 132 88
8.613899e-001 -3.809137e-001 2.999378e+000 132 53 36
8.613509e-001 -3.808452e-001 2.999496e+000 132 53 36
8.618979e-001 -3.821788e-001 3.002757e+000 137 59 42
8.618979e-001 -3.821788e-001 3.002757e+000 137 59 42
8.647201e-001 -3.825455e-001 3.010812e+000 218 137 91
8.693324e-001 -3.803681e-001 3.021494e+000 230 128 87
8.688144e-001 -3.821031e-001 3.026692e+000 248 111 87
8.713672e-001 -3.758935e-001 3.030046e+000 27 78 94
8.699219e-001 -3.815889e-001 3.033165e+000 46 72 66
8.537193e-001 -3.884316e-001 2.988304e+000 231 111 84
8.537193e-001 -3.884316e-001 2.988304e+000 231 111 84
8.589745e-001 -3.847091e-001 2.997898e+000 212 134 96
8.670183e-001 -3.846257e-001 3.012196e+000 225 123 84
8.672861e-001 -3.939983e-001 3.023575e+000 30 52 27
8.597061e-001 -4.074100e-001 3.023709e+000 150 145 24
8.683724e-001 -4.059379e-001 3.062853e+000 61 93 77
8.638613e-001 -4.160051e-001 3.052403e+000 77 105 59
8.479347e-001 -4.235336e-001 3.013632e+000 137 140 52
8.512539e-001 -4.459835e-001 3.043008e+000 108 30 28
8.512804e-001 -4.467158e-001 3.045800e+000 172 138 105
8.536572e-001 -4.451542e-001 3.048236e+000 96 37 27
8.539424e-001 -4.454382e-001 3.051011e+000 186 131 99
8.570686e-001 -4.424691e-001 3.061096e+000 171 145 107
8.577579e-001 -4.428193e-001 3.060033e+000 171 145 107
8.575035e-001 -4.452172e-001 3.060989e+000 175 141 107
8.567992e-001 -4.449346e-001 3.062021e+000 175 141 107
8.334257e-001 -4.459313e-001 3.086344e+000 167 141 110
8.575816e-001 -4.510671e-001 3.057429e+000 173 143 107
8.469246e-001 -4.675189e-001 3.049067e+000 218 140 94
8.506252e-001 -4.652993e-001 3.053041e+000 240 134 98
8.490004e-001 -4.662038e-001 3.059040e+000 228 140 107
8.504673e-001 -4.645456e-001 3.061448e+000 142 34 32
8.503131e-001 -4.654841e-001 3.060697e+000 231 132 95
8.303152e-001 -4.739370e-001 3.029994e+000 224 139 97
8.303152e-001 -4.739370e-001 3.029994e+000 224 139 97
8.337308e-001 -4.714876e-001 3.033278e+000 237 135 102
8.371503e-001 -4.713918e-001 3.038220e+000 133 31 27
8.374970e-001 -4.714203e-001 3.037791e+000 133 31 27
8.335196e-001 -4.728578e-001 3.034766e+000 233 148 108
8.355346e-001 -4.725783e-001 3.034816e+000 229 150 112
8.387757e-001 -4.703173e-001 3.038062e+000 227 144 107
8.393321e-001 -4.713813e-001 3.042117e+000 235 142 104
8.410671e-001 -4.699555e-001 3.045222e+000 117 36 28
8.423395e-001 -4.698045e-001 3.043278e+000 117 36 28
8.690277e-001 -4.751678e-001 2.982109e+000 236 146 104
8.384262e-001 -4.716927e-001 3.038764e+000 234 137 104
8.459577e-001 -4.687895e-001 3.054585e+000 240 131 106
8.480402e-001 -4.680606e-001 3.057596e+000 233 131 101
8.249640e-001 -4.789340e-001 3.030037e+000 12 58 84
8.475963e-001 -4.782746e-001 3.060814e+000 5 50 71
8.475963e-001 -4.782746e-001 3.060814e+000 5 50 71
8.238565e-001 -4.836423e-001 3.026588e+000 24 85 118
8.477615e-001 -4.823800e-001 3.064970e+000 10 51 68
8.175092e-001 -5.145504e-001 3.039944e+000 151 48 39
8.171433e-001 -5.223585e-001 3.047375e+000 197 116 89
8.247968e-001 -5.292155e-001 3.061082e+000 178 114 92
8.247968e-001 -5.292155e-001 3.061082e+000 178 114 92
7.907290e-001 -5.351190e-001 3.058600e+000 125 189 251
7.907290e-001 -5.351190e-001 3.058600e+000 125 189 251
7.880726e-001 -5.400576e-001 3.062542e+000 79 139 205
8.338056e-001 -5.407956e-001 3.092951e+000 204 50 47
8.222381e-001 -5.462108e-001 3.070957e+000 208 87 64
8.222381e-001 -5.462108e-001 3.070957e+000 208 87 64
8.266563e-001 -5.442231e-001 3.078412e+000 240 72 70
7.772981e-001 -3.789155e-001 3.016732e+000 158 47 53
8.663922e-001 -3.806968e-001 3.013828e+000 149 38 36
8.661845e-001 -3.808914e-001 3.014135e+000 149 38 36
8.663405e-001 -3.975897e-001 3.032444e+000 131 142 36
8.712563e-001 -3.984549e-001 3.046288e+000 36 48 14
8.673215e-001 -4.100037e-001 3.040073e+000 68 96 75
7.964760e-001 -4.325818e-001 3.011643e+000 136 175 83
7.964760e-001 -4.325818e-001 3.011643e+000 136 175 83
8.501093e-001 -4.487851e-001 3.043021e+000 165 146 113
8.501093e-001 -4.487851e-001 3.043021e+000 165 146 113
8.331420e-001 -4.735244e-001 3.030806e+000 230 159 110
8.366229e-001 -4.703315e-001 3.036688e+000 224 151 108
8.413532e-001 -4.690687e-001 3.042491e+000 224 149 106
8.593715e-001 -4.786896e-001 2.995607e+000 24 78 103
8.234462e-001 -5.127365e-001 3.048347e+000 48 23 12
8.294405e-001 -5.155192e-001 3.058293e+000 73 32 18
8.294405e-001 -5.155192e-001 3.058293e+000 73 32 18
8.343103e-001 -5.093533e-001 3.063236e+000 67 30 7
8.494677e-001 -5.096913e-001 3.106419e+000 84 44 15
7.932204e-001 -5.222115e-001 3.052755e+000 174 52 55
8.111244e-001 -5.227076e-001 3.043604e+000 196 105 79
8.380454e-001 -5.191171e-001 3.082352e+000 181 115 85
8.126402e-001 -5.285738e-001 3.054522e+000 157 35 35
8.304964e-001 -5.233320e-001 3.067242e+000 46 26 12
7.818771e-001 -5.335967e-001 3.064283e+000 35 86 150
7.845823e-001 -5.345541e-001 3.064559e+000 109 167 235
8.296551e-001 -5.313315e-001 3.073345e+000 123 73 47
7.809780e-001 -3.940308e-001 3.018540e+000 43 61 37
7.809780e-001 -3.940308e-001 3.018540e+000 43 61 37
8.573321e-001 -4.027518e-001 3.010944e+000 142 138 34
8.652938e-001 -4.056570e-001 3.040787e+000 36 51 9
7.798223e-001 -4.149042e-001 3.027342e+000 47 61 37
7.759650e-001 -4.273927e-001 3.035502e+000 43 64 32
7.725140e-001 -4.285483e-001 3.038429e+000 157 175 100
7.740875e-001 -4.370785e-001 3.040468e+000 45 63 45
8.585874e-001 -4.452208e-001 3.053634e+000 179 146 105
8.478275e-001 -4.512683e-001 3.041759e+000 165 141 117
8.553775e-001 -4.479757e-001 3.060797e+000 178 133 97
8.577495e-001 -4.478689e-001 3.057550e+000 178 133 97
8.551692e-001 -4.531437e-001 3.053488e+000 167 143 107
8.323135e-001 -4.770681e-001 3.035094e+000 21 83 111
8.538962e-001 -4.850836e-001 3.098492e+000 196 116 72
7.941859e-001 -4.941167e-001 3.042005e+000 175 167 174
8.548416e-001 -4.877204e-001 3.094663e+000 137 81 55
8.525852e-001 -4.919805e-001 3.099426e+000 129 73 45
7.983792e-001 -4.971523e-001 3.037656e+000 188 50 50
8.516811e-001 -4.985531e-001 3.103836e+000 197 120 75
8.436772e-001 -5.014748e-001 3.074719e+000 72 42 28
8.512518e-001 -5.028593e-001 3.105212e+000 195 129 82
8.505923e-001 -5.060612e-001 3.109711e+000 195 132 87
8.399697e-001 -5.112509e-001 3.076393e+000 139 80 45
8.395249e-001 -5.113810e-001 3.076897e+000 139 80 45
8.477693e-001 -5.183120e-001 3.110167e+000 129 82 48
8.050402e-001 -5.240199e-001 3.049579e+000 198 93 80
8.352985e-001 -5.286635e-001 3.082713e+000 152 99 61
8.486906e-001 -5.203624e-001 3.117748e+000 119 72 36
7.709251e-001 -5.319079e-001 3.074335e+000 102 46 35
8.345704e-001 -5.328683e-001 3.084690e+000 66 28 12
8.186833e-001 -5.408720e-001 3.058437e+000 194 112 88
8.178139e-001 -5.408524e-001 3.059665e+000 194 112 88
8.671947e-001 -3.790694e-001 3.016781e+000 174 93 67
8.607452e-001 -4.001510e-001 3.023632e+000 155 148 30
8.607452e-001 -4.001510e-001 3.023632e+000 155 148 30
8.577088e-001 -4.100212e-001 3.025022e+000 34 53 25
8.482768e-001 -4.239830e-001 3.014188e+000 126 132 65
8.482768e-001 -4.239830e-001 3.014188e+000 126 132 65
8.589880e-001 -4.214897e-001 3.034449e+000 136 134 33
8.468360e-001 -4.277392e-001 3.017223e+000 139 136 37
8.538099e-001 -4.512621e-001 3.056542e+000 112 80 54
8.570376e-001 -4.604789e-001 3.079714e+000 211 129 82
8.509305e-001 -4.691801e-001 3.060516e+000 149 15 33
7.772401e-001 -4.781323e-001 3.049227e+000 159 35 38
8.433491e-001 -4.751699e-001 3.053415e+000 4 46 66
8.456819e-001 -4.786015e-001 3.057032e+000 7 49 63
7.669339e-001 -4.887047e-001 3.064132e+000 107 139 190
8.535041e-001 -4.880811e-001 3.103546e+000 191 117 74
7.779181e-001 -4.969689e-001 3.055755e+000 97 138 194
8.418776e-001 -4.957764e-001 3.068847e+000 201 122 87
8.428904e-001 -4.948147e-001 3.072157e+000 193 121 83
8.434446e-001 -4.993465e-001 3.072289e+000 197 123 74
8.284573e-001 -5.049312e-001 3.047235e+000 194 128 91
8.401319e-001 -5.067618e-001 3.075305e+000 165 98 58
8.509586e-001 -5.007148e-001 3.105200e+000 99 53 23
8.401164e-001 -5.090909e-001 3.073575e+000 200 123 82
8.395986e-001 -5.135569e-001 3.075371e+000 200 119 77
8.494191e-001 -5.101886e-001 3.111725e+000 193 131 86
8.376255e-001 -5.158249e-001 3.076894e+000 94 56 37
8.483910e-001 -5.189644e-001 3.113547e+000 193 128 75
8.363571e-001 -5.264155e-001 3.083250e+000 180 115 77
8.352732e-001 -5.299659e-001 3.090075e+000 188 115 74
8.341485e-001 -5.385094e-001 3.094653e+000 141 22 28
8.709512e-001 -3.731018e-001 3.029607e+000 168 94 65
8.713242e-001 -3.731317e-001 3.029290e+000 168 94 65
8.681637e-001 -3.978533e-001 3.026122e+000 71 83 14
8.681637e-001 -3.978533e-001 3.026122e+000 71 83 14
8.569433e-001 -4.086581e-001 3.013802e+000 99 116 55
8.569433e-001 -4.086581e-001 3.013802e+000 99 116 55
8.637143e-001 -4.122969e-001 3.055093e+000 31 53 13
8.642839e-001 -4.166256e-001 3.050935e+000 76 102 58
8.624489e-001 -4.198637e-001 3.031880e+000 97 112 41
8.435749e-001 -4.659446e-001 3.047422e+000 160 25 26
8.562235e-001 -4.750278e-001 3.099262e+000 183 114 82
8.293736e-001 -5.406447e-001 3.087816e+000 146 19 31
7.834774e-001 -5.460921e-001 3.070509e+000 190 153 127
8.120984e-001 -5.229827e-001 3.045948e+000 188 88 74
8.509127e-001 -4.112951e-001 2.998248e+000 121 132 102
7.418965e-001 -4.983344e-001 3.100205e+000 30 19 18
7.418965e-001 -4.983344e-001 3.100205e+000 30 19 18
7.821476e-001 -3.768189e-001 3.009937e+000 206 130 124
8.134069e-001 -5.285038e-001 3.048376e+000 169 36 39
7.923641e-001 -4.559227e-001 3.027897e+000 173 172 179
8.595597e-001 -4.558949e-001 3.100205e+000 164 25 24
8.584963e-001 -4.507931e-001 3.073308e+000 170 153 110
8.364042e-001 -4.958212e-001 3.055096e+000 198 122 86
8.296447e-001 -4.800615e-001 3.037224e+000 27 76 99
8.296447e-001 -4.800615e-001 3.037224e+000 27 76 99
8.250708e-001 -3.928636e-001 2.990888e+000 157 153 144
7.423808e-001 -5.444029e-001 3.101217e+000 49 29 35
7.433491e-001 -5.507768e-001 3.102620e+000 40 66 110
7.363679e-001 -5.752619e-001 3.118527e+000 127 88 77
7.798770e-001 -5.957731e-001 3.084229e+000 179 131 99
7.377607e-001 -3.836488e-001 3.412679e+000 99 83 59
7.512354e-001 -4.120224e-001 3.395019e+000 130 112 76
7.512354e-001 -4.120224e-001 3.395019e+000 130 112 76
7.431790e-001 -3.828123e-001 3.411426e+000 24 19 14
7.412945e-001 -3.980471e-001 3.409479e+000 59 47 31
7.478438e-001 -3.938358e-001 3.406738e+000 103 87 56
7.478438e-001 -3.938358e-001 3.406738e+000 103 87 56
7.508920e-001 -3.980003e-001 3.401957e+000 19 14 11
7.498075e-001 -4.392254e-001 3.392184e+000 30 21 16
7.498075e-001 -4.392254e-001 3.392184e+000 30 21 16
7.441322e-001 -3.861529e-001 3.411374e+000 27 21 21
8.035968e-001 -5.951370e-001 3.091684e+000 173 136 91
7.443935e-001 -4.169118e-001 3.394327e+000 173 150 96
7.705743e-001 -3.778577e-001 3.020961e+000 149 42 44
8.386169e-001 -4.691322e-001 3.036097e+000 129 24 20
8.051396e-001 -5.231996e-001 3.046244e+000 115 45 35
8.438753e-001 -5.290295e-001 3.135110e+000 202 58 52
8.358474e-001 -5.390170e-001 3.098553e+000 210 51 53
8.370924e-001 -5.389787e-001 3.097620e+000 210 51 53
8.363633e-001 -5.399724e-001 3.100956e+000 126 31 23
8.174025e-001 -5.442459e-001 3.064331e+000 185 109 80
8.223712e-001 -5.470707e-001 3.076418e+000 136 20 31
8.243035e-001 -5.468101e-001 3.076144e+000 138 25 25
8.396310e-001 -5.449382e-001 3.118077e+000 243 62 59
8.396310e-001 -5.449382e-001 3.118077e+000 243 62 59
8.390000e-001 -5.461329e-001 3.115357e+000 233 65 69
8.390364e-001 -5.461022e-001 3.115478e+000 233 65 69
8.192490e-001 -5.551344e-001 3.072943e+000 233 75 71
8.260813e-001 -5.512853e-001 3.081852e+000 142 19 22
8.284161e-001 -5.533284e-001 3.091866e+000 149 20 25
8.303215e-001 -5.544922e-001 3.096157e+000 130 20 25
8.291233e-001 -5.564739e-001 3.096661e+000 208 49 56
8.330780e-001 -5.528347e-001 3.102305e+000 136 24 26
8.360834e-001 -5.511664e-001 3.109222e+000 223 76 69
8.228467e-001 -5.684168e-001 3.093294e+000 185 106 79
8.294530e-001 -5.725992e-001 3.118108e+000 171 55 27
8.285267e-001 -5.758147e-001 3.117012e+000 168 61 27
8.199748e-001 -5.792631e-001 3.099298e+000 167 118 71
8.237684e-001 -5.805880e-001 3.113992e+000 175 115 69
8.251361e-001 -5.842508e-001 3.120651e+000 181 94 39
8.166050e-001 -5.877673e-001 3.099745e+000 171 124 65
8.164290e-001 -5.900433e-001 3.101778e+000 170 122 73
8.266078e-001 -5.880470e-001 3.127610e+000 102 70 28
8.044851e-001 -6.181329e-001 3.112551e+000 111 48 44
8.477614e-001 -4.676992e-001 3.054879e+000 137 22 25
8.139869e-001 -5.013671e-001 3.033719e+000 157 54 42
8.214432e-001 -5.467412e-001 3.067983e+000 224 103 90
8.351417e-001 -5.496659e-001 3.106293e+000 206 61 53
8.366577e-001 -5.503288e-001 3.112815e+000 202 59 52
8.166908e-001 -5.543435e-001 3.071602e+000 141 26 26
8.310975e-001 -5.539360e-001 3.099414e+000 137 23 30
8.329759e-001 -5.540583e-001 3.101516e+000 215 74 65
8.234227e-001 -5.597164e-001 3.083314e+000 211 66 60
8.276975e-001 -5.645435e-001 3.100584e+000 188 115 68
8.096556e-001 -5.656772e-001 3.068960e+000 126 16 24
8.249325e-001 -5.658819e-001 3.098015e+000 187 112 79
8.273950e-001 -5.663698e-001 3.103231e+000 107 47 23
8.288930e-001 -5.654996e-001 3.106036e+000 83 38 21
8.225305e-001 -5.675543e-001 3.093559e+000 191 112 74
8.225305e-001 -5.675543e-001 3.093559e+000 191 112 74
7.728934e-001 -3.710926e-001 3.017990e+000 174 34 48
8.423263e-001 -5.314112e-001 3.111372e+000 149 25 21
8.324314e-001 -5.595215e-001 3.107434e+000 76 38 17
8.324314e-001 -5.595215e-001 3.107434e+000 76 38 17
8.245471e-001 -5.907200e-001 3.124189e+000 56 35 14
8.352574e-001 -5.460166e-001 3.108114e+000 148 21 24
8.352574e-001 -5.460166e-001 3.108114e+000 148 21 24
8.559382e-001 -3.927486e-001 3.005050e+000 45 87 95
7.809865e-001 -5.800884e-001 3.079131e+000 100 50 24
7.775455e-001 -4.325530e-001 3.031406e+000 160 155 149
8.125641e-001 -5.605514e-001 3.077584e+000 198 67 62
7.806059e-001 -5.634206e-001 3.075497e+000 156 81 66
7.346165e-001 -5.728282e-001 3.125109e+000 143 102 88
8.050986e-001 -5.984873e-001 3.098607e+000 108 85 62
7.916021e-001 -6.228282e-001 3.102176e+000 121 32 28
8.168224e-001 -5.748783e-001 3.093532e+000 143 104 63
7.360123e-001 -5.764050e-001 3.120757e+000 139 95 84
7.341245e-001 -5.780614e-001 3.124400e+000 152 97 87
8.101127e-001 -5.582826e-001 3.069518e+000 147 37 40
7.915639e-001 -6.197404e-001 3.093641e+000 114 39 34
8.042032e-001 -3.851197e-001 3.477435e+000 80 64 56
8.102259e-001 -3.870588e-001 3.464781e+000 98 82 66
7.384584e-001 -5.456093e-001 3.115111e+000 25 61 119
7.906982e-001 -4.213217e-001 3.477616e+000 163 139 93
8.038374e-001 -4.323400e-001 3.454046e+000 32 23 16
8.038374e-001 -4.323400e-001 3.454046e+000 32 23 16
7.382934e-001 -5.689278e-001 3.110810e+000 168 100 39
7.979347e-001 -6.149093e-001 3.102969e+000 192 156 131
7.998665e-001 -4.306564e-001 3.457939e+000 161 136 96
8.007864e-001 -4.426108e-001 3.452595e+000 141 119 78
7.974897e-001 -4.505315e-001 3.448384e+000 139 117 76
8.060572e-001 -6.169869e-001 3.115287e+000 33 21 25
8.023259e-001 -4.498490e-001 3.439728e+000 168 144 100
7.803748e-001 -5.903225e-001 3.081907e+000 44 12 16
8.014748e-001 -4.153941e-001 3.466821e+000 165 138 95
8.014748e-001 -4.153941e-001 3.466821e+000 165 138 95
7.373514e-001 -5.557716e-001 3.116542e+000 151 121 111
8.010887e-001 -6.020567e-001 3.101132e+000 191 163 126
7.859517e-001 -5.766883e-001 3.149968e+000 157 126 108
8.579869e-001 -3.841212e-001 2.994610e+000 204 129 86
8.661407e-001 -3.821725e-001 3.013150e+000 226 134 97
8.691654e-001 -3.850822e-001 3.033342e+000 29 67 51
8.722932e-001 -3.953349e-001 3.049091e+000 47 54 13
8.471870e-001 -4.515743e-001 3.039120e+000 88 57 41
8.471870e-001 -4.515743e-001 3.039120e+000 88 57 41
8.359681e-001 -4.700727e-001 3.035006e+000 162 35 35
8.329831e-001 -4.797125e-001 3.036572e+000 9 50 73
8.475667e-001 -4.745156e-001 3.059680e+000 16 63 83
8.146378e-001 -5.155235e-001 3.043178e+000 198 87 69
8.272870e-001 -5.157451e-001 3.055148e+000 200 122 89
8.035470e-001 -5.227333e-001 3.048942e+000 136 51 42
8.131373e-001 -5.243991e-001 3.053134e+000 132 40 30
8.483126e-001 -5.235718e-001 3.123837e+000 196 124 83
8.426921e-001 -5.335679e-001 3.114798e+000 143 32 30
8.454026e-001 -5.320418e-001 3.123001e+000 205 60 52
8.465767e-001 -5.281728e-001 3.123896e+000 206 59 55
8.481097e-001 -5.309120e-001 3.126834e+000 141 30 25
8.360871e-001 -5.414796e-001 3.096074e+000 141 24 26
8.387635e-001 -5.381341e-001 3.098327e+000 208 61 55
8.364544e-001 -5.408456e-001 3.097663e+000 134 32 28
8.421649e-001 -5.375810e-001 3.113301e+000 150 29 32
8.418576e-001 -5.374715e-001 3.113915e+000 150 29 32
8.439658e-001 -5.354753e-001 3.116071e+000 150 26 24
8.453464e-001 -5.393754e-001 3.128044e+000 161 26 34
8.274095e-001 -5.480147e-001 3.083595e+000 135 22 24
8.362848e-001 -5.434874e-001 3.104157e+000 204 52 51
8.165742e-001 -5.512673e-001 3.074006e+000 135 27 30
8.170747e-001 -5.551324e-001 3.076799e+000 232 70 68
8.290738e-001 -5.563459e-001 3.097154e+000 232 70 74
8.347034e-001 -5.516109e-001 3.107065e+000 144 28 30
8.346184e-001 -5.497615e-001 3.107305e+000 223 60 66
8.350398e-001 -5.498938e-001 3.107145e+000 223 60 66
8.375907e-001 -5.488700e-001 3.111873e+000 139 23 29
8.179723e-001 -5.587787e-001 3.082177e+000 153 22 29
8.198686e-001 -5.588907e-001 3.078650e+000 153 22 29
8.191715e-001 -5.589722e-001 3.084164e+000 131 23 29
8.211616e-001 -5.591406e-001 3.080714e+000 131 23 29
8.406160e-001 -5.599285e-001 3.156527e+000 187 111 54
8.307223e-001 -5.715513e-001 3.116348e+000 118 32 4
8.375174e-001 -5.724245e-001 3.140645e+000 120 44 6
8.141075e-001 -5.809512e-001 3.095384e+000 183 128 76
8.160445e-001 -5.833554e-001 3.102454e+000 114 80 46
8.286945e-001 -5.789301e-001 3.121126e+000 132 43 7
8.306998e-001 -5.775785e-001 3.122193e+000 137 54 18
8.149200e-001 -5.849220e-001 3.098487e+000 174 125 80
8.310359e-001 -5.912154e-001 3.141953e+000 188 145 100
8.347201e-001 -5.923237e-001 3.159279e+000 49 19 12
8.284605e-001 -5.967212e-001 3.139833e+000 174 86 29
8.556798e-001 -4.679429e-001 3.079252e+000 26 59 79
8.234361e-001 -4.968177e-001 3.039120e+000 196 127 99
8.409215e-001 -5.188249e-001 3.085617e+000 67 31 7
8.467151e-001 -5.257110e-001 3.123612e+000 151 26 29
8.466019e-001 -5.300647e-001 3.121245e+000 140 30 27
8.447119e-001 -5.307073e-001 3.117711e+000 207 63 54
8.469358e-001 -5.294364e-001 3.128532e+000 211 55 55
8.474694e-001 -5.265446e-001 3.140222e+000 43 21 5
8.222919e-001 -5.412449e-001 3.069019e+000 135 84 61
8.315539e-001 -5.419083e-001 3.088442e+000 185 47 46
8.402281e-001 -5.355744e-001 3.105125e+000 175 33 32
8.407546e-001 -5.369920e-001 3.106307e+000 139 29 28
8.453994e-001 -5.380621e-001 3.131827e+000 230 62 57
8.453994e-001 -5.380621e-001 3.131827e+000 230 62 57
8.170441e-001 -5.490429e-001 3.063678e+000 125 30 32
8.250041e-001 -5.500099e-001 3.082546e+000 231 74 78
8.250041e-001 -5.500099e-001 3.082546e+000 231 74 78
8.324310e-001 -5.442917e-001 3.091360e+000 202 66 62
8.324310e-001 -5.442917e-001 3.091360e+000 202 66 62
8.313944e-001 -5.459699e-001 3.091582e+000 132 27 26
8.324795e-001 -5.456342e-001 3.092875e+000 134 28 27
8.329128e-001 -5.455474e-001 3.092558e+000 134 28 27
8.339571e-001 -5.442667e-001 3.098216e+000 141 28 27
8.341934e-001 -5.443188e-001 3.098105e+000 141 28 27
8.346368e-001 -5.447876e-001 3.093838e+000 137 24 28
8.346368e-001 -5.447876e-001 3.093838e+000 137 24 28
8.328157e-001 -5.483158e-001 3.092769e+000 146 23 29
8.140873e-001 -5.518499e-001 3.072482e+000 130 27 31
8.236243e-001 -5.570059e-001 3.082987e+000 192 55 54
8.165908e-001 -5.597780e-001 3.070150e+000 224 61 67
8.166031e-001 -5.598672e-001 3.070091e+000 224 61 67
8.142697e-001 -5.610603e-001 3.072612e+000 131 22 38
8.152050e-001 -5.601732e-001 3.081797e+000 135 28 33
8.247122e-001 -5.570587e-001 3.088132e+000 135 30 35
8.382999e-001 -5.588634e-001 3.125950e+000 190 130 77
8.170913e-001 -5.690463e-001 3.088838e+000 197 114 89
8.213374e-001 -5.803898e-001 3.104173e+000 175 128 76
8.122912e-001 -5.860864e-001 3.098601e+000 170 130 80
7.705512e-001 -3.791893e-001 3.023633e+000 190 38 52
8.401752e-001 -4.767463e-001 3.046879e+000 15 52 70
8.535134e-001 -4.874990e-001 3.097585e+000 137 81 55
8.431796e-001 -5.016839e-001 3.075403e+000 72 42 28
8.477937e-001 -5.181863e-001 3.110539e+000 129 82 48
8.253882e-001 -5.245151e-001 3.059931e+000 135 79 60
8.249426e-001 -5.463659e-001 3.078469e+000 133 31 24
8.186193e-001 -5.536139e-001 3.076770e+000 131 28 22
8.186193e-001 -5.536139e-001 3.076770e+000 131 28 22
8.215045e-001 -5.542929e-001 3.077041e+000 228 58 67
8.199008e-001 -5.560039e-001 3.082071e+000 145 25 29
8.113737e-001 -5.628977e-001 3.076541e+000 213 83 76
8.373831e-001 -5.575784e-001 3.120174e+000 191 130 83
8.268882e-001 -5.663880e-001 3.104087e+000 165 96 72
8.012805e-001 -6.172396e-001 3.110325e+000 75 16 16
8.557385e-001 -3.074395e-001 3.045169e+000 199 42 42
8.614411e-001 -4.282854e-001 3.042447e+000 35 52 21
8.480055e-001 -4.700143e-001 3.059311e+000 155 22 32
8.514633e-001 -4.679929e-001 3.066067e+000 145 23 30
8.308415e-001 -5.067562e-001 3.051836e+000 159 95 65
8.293719e-001 -5.129984e-001 3.057497e+000 198 123 84
8.371452e-001 -5.243928e-001 3.080352e+000 82 40 16
8.453258e-001 -5.275194e-001 3.121142e+000 147 26 26
8.481944e-001 -5.275105e-001 3.130072e+000 151 24 33
8.258851e-001 -5.736820e-001 3.110473e+000 139 44 25
8.595384e-001 -4.019662e-001 3.020103e+000 27 53 21
8.346382e-001 -4.723192e-001 3.034695e+000 164 71 49
8.568002e-001 -4.086784e-001 3.015051e+000 82 112 80
8.190346e-001 -5.188517e-001 3.047116e+000 189 117 93
8.450511e-001 -5.374187e-001 3.124635e+000 166 22 31
8.077859e-001 -5.636094e-001 3.075085e+000 155 21 35
8.202512e-001 -5.741000e-001 3.093061e+000 180 123 78
8.391341e-001 -5.630924e-001 3.155123e+000 198 103 24
8.703846e-001 -3.712163e-001 3.030006e+000 12 86 116
8.585777e-001 -3.875681e-001 2.994667e+000 229 130 95
8.585777e-001 -3.875681e-001 2.994667e+000 229 130 95
8.596657e-001 -3.840886e-001 3.000402e+000 220 140 102
8.602445e-001 -3.835937e-001 3.003855e+000 220 140 105
8.623329e-001 -3.859060e-001 3.004204e+000 246 121 95
8.668311e-001 -3.808515e-001 3.019447e+000 216 134 88
8.687620e-001 -3.812079e-001 3.016135e+000 216 134 88
8.694952e-001 -3.791486e-001 3.022514e+000 157 51 33
8.652992e-001 -3.791954e-001 3.028861e+000 157 51 33
8.706668e-001 -3.991056e-001 3.030963e+000 40 53 11
8.655310e-001 -4.014411e-001 3.054216e+000 145 149 37
8.556698e-001 -4.085336e-001 3.017127e+000 87 114 102
8.556698e-001 -4.085336e-001 3.017127e+000 87 114 102
8.627182e-001 -4.101511e-001 3.022975e+000 94 116 53
8.624107e-001 -4.128862e-001 3.030736e+000 95 111 38
8.624107e-001 -4.128862e-001 3.030736e+000 95 111 38
8.665610e-001 -4.089996e-001 3.053874e+000 74 107 67
8.665610e-001 -4.089996e-001 3.053874e+000 74 107 67
8.689517e-001 -4.058517e-001 3.061132e+000 67 100 86
8.554682e-001 -4.141357e-001 3.029060e+000 90 116 106
8.560173e-001 -4.161262e-001 3.031394e+000 96 119 74
8.605809e-001 -4.146227e-001 3.046021e+000 80 105 68
8.643547e-001 -4.168393e-001 3.058365e+000 83 116 73
8.653177e-001 -4.190212e-001 3.084716e+000 161 156 116
8.476831e-001 -4.504548e-001 3.045493e+000 92 41 36
8.476831e-001 -4.504548e-001 3.045493e+000 92 41 36
8.492333e-001 -4.500864e-001 3.046928e+000 88 43 35
8.517524e-001 -4.491179e-001 3.052226e+000 94 40 34
8.517524e-001 -4.491179e-001 3.052226e+000 94 40 34
8.546064e-001 -4.465583e-001 3.058006e+000 178 145 110
8.546064e-001 -4.465583e-001 3.058006e+000 178 145 110
8.555565e-001 -4.469969e-001 3.063998e+000 182 149 118
8.593950e-001 -4.491321e-001 3.058383e+000 111 79 59
8.479363e-001 -4.655460e-001 3.056768e+000 228 153 114
8.560340e-001 -4.635117e-001 3.061954e+000 239 143 97
8.569897e-001 -4.628601e-001 3.064144e+000 226 142 100
8.538601e-001 -4.634651e-001 3.070914e+000 133 29 17
8.538601e-001 -4.634651e-001 3.070914e+000 133 29 17
8.553091e-001 -4.614248e-001 3.073965e+000 244 147 96
8.350449e-001 -4.709693e-001 3.027353e+000 242 141 110
8.350449e-001 -4.709693e-001 3.027353e+000 242 141 110
8.349275e-001 -4.711951e-001 3.035352e+000 222 154 108
8.402618e-001 -4.710432e-001 3.044834e+000 222 145 106
8.449882e-001 -4.706169e-001 3.041324e+000 228 146 109
8.443923e-001 -4.691645e-001 3.053110e+000 232 145 112
8.484837e-001 -4.676929e-001 3.060237e+000 222 148 111
8.477939e-001 -4.800500e-001 3.054883e+000 19 80 103
8.445161e-001 -4.888304e-001 3.068192e+000 52 26 13
8.544267e-001 -4.869662e-001 3.098430e+000 202 126 82
8.273798e-001 -5.070580e-001 3.049443e+000 205 130 95
8.185794e-001 -5.137333e-001 3.037320e+000 248 101 96
8.326359e-001 -5.099224e-001 3.059509e+000 199 126 95
8.326604e-001 -5.098790e-001 3.059506e+000 199 126 95
7.905135e-001 -5.197742e-001 3.058198e+000 202 82 85
7.919299e-001 -5.228239e-001 3.061136e+000 169 57 58
8.364667e-001 -5.282653e-001 3.083738e+000 196 125 94
7.770175e-001 -5.364067e-001 3.078599e+000 77 133 209
8.429512e-001 -5.364389e-001 3.106246e+000 135 33 29
8.477927e-001 -5.316289e-001 3.125342e+000 142 30 29
8.205651e-001 -5.472517e-001 3.065972e+000 226 104 88
8.305045e-001 -5.454604e-001 3.088381e+000 252 82 74
8.300362e-001 -5.452852e-001 3.089551e+000 252 82 74
8.345715e-001 -5.408647e-001 3.092330e+000 228 63 67
8.414396e-001 -5.393106e-001 3.116380e+000 154 24 30
8.115771e-001 -5.527383e-001 3.077866e+000 241 92 90
8.296163e-001 -5.538793e-001 3.095123e+000 214 57 54
8.047038e-001 -5.616738e-001 3.084055e+000 234 77 79
