ply
format ascii 1.0
element face 0
property list uchar int vertex_indices
element vertex 898
property float x
property float y
property float z
property uchar diffuse_red
property uchar diffuse_green
property uchar diffuse_blue
end_header
8.596020e-001 -4.022660e-001 3.040159e+000 142 138 34
8.673811e-001 -4.053139e-001 3.070101e+000 36 51 9
7.821242e-001 -4.141195e-001 3.056699e+000 47 61 37
7.781857e-001 -4.265745e-001 3.064845e+000 43 64 32
7.747355e-001 -4.277286e-001 3.067758e+000 157 175 100
7.762711e-001 -4.362440e-001 3.069749e+000 45 63 45
8.605271e-001 -4.447592e-001 3.082731e+000 179 146 105
8.498106e-001 -4.506955e-001 3.070827e+000 165 141 117
8.572692e-001 -4.475181e-001 3.089930e+000 178 133 97
8.596642e-001 -4.474097e-001 3.086646e+000 178 133 97
8.570918e-001 -4.526404e-001 3.082545e+000 167 143 107
8.342893e-001 -4.763149e-001 3.064002e+000 21 83 111
8.555551e-001 -4.846409e-001 3.127433e+000 196 116 72
7.961557e-001 -4.931751e-001 3.070899e+000 175 167 174
8.564684e-001 -4.872536e-001 3.123645e+000 137 81 55
8.542196e-001 -4.915100e-001 3.128330e+000 129 73 45
8.003572e-001 -4.962046e-001 3.066498e+000 188 50 50
8.532878e-001 -4.980751e-001 3.132705e+000 197 120 75
8.453746e-001 -5.008393e-001 3.103581e+000 72 42 28
8.528447e-001 -5.023692e-001 3.134052e+000 195 129 82
8.521554e-001 -5.055756e-001 3.138545e+000 195 132 87
8.416354e-001 -5.105737e-001 3.105212e+000 139 80 45
8.412132e-001 -5.107024e-001 3.105676e+000 139 80 45
8.492426e-001 -5.177709e-001 3.139035e+000 129 82 48
8.068658e-001 -5.230532e-001 3.078290e+000 198 93 80
8.368911e-001 -5.279313e-001 3.111457e+000 152 99 61
8.502152e-001 -5.198520e-001 3.146474e+000 119 72 36
7.726840e-001 -5.308662e-001 3.103136e+000 102 46 35
8.361424e-001 -5.321262e-001 3.113417e+000 66 28 12
8.203923e-001 -5.399365e-001 3.087050e+000 194 112 88
8.195331e-001 -5.399205e-001 3.088257e+000 194 112 88
8.694912e-001 -3.787260e-001 3.046138e+000 174 93 67
8.629248e-001 -3.997368e-001 3.052943e+000 155 148 30
8.629248e-001 -3.997368e-001 3.052943e+000 155 148 30
8.598646e-001 -4.095674e-001 3.054280e+000 34 53 25
8.504890e-001 -4.234015e-001 3.043296e+000 126 132 65
8.504890e-001 -4.234015e-001 3.043296e+000 126 132 65
8.610743e-001 -4.210401e-001 3.063650e+000 136 134 33
8.490035e-001 -4.271478e-001 3.046361e+000 139 136 37
8.557240e-001 -4.507722e-001 3.085625e+000 112 80 54
8.588131e-001 -4.600650e-001 3.108802e+000 211 129 82
8.527808e-001 -4.686317e-001 3.089503e+000 149 15 33
7.792581e-001 -4.772045e-001 3.078272e+000 159 35 38
8.452116e-001 -4.745401e-001 3.082388e+000 4 46 66
8.475365e-001 -4.779857e-001 3.085953e+000 7 49 63
7.688710e-001 -4.877543e-001 3.093182e+000 107 139 190
8.551525e-001 -4.876454e-001 3.132459e+000 191 117 74
7.798421e-001 -4.960002e-001 3.084719e+000 97 138 194
8.436294e-001 -4.951289e-001 3.097716e+000 201 122 87
8.446408e-001 -4.941895e-001 3.101027e+000 193 121 83
8.451586e-001 -4.987088e-001 3.101159e+000 197 123 74
8.302713e-001 -5.041103e-001 3.076066e+000 194 128 91
8.418387e-001 -5.060941e-001 3.104104e+000 165 98 58
8.525025e-001 -5.002285e-001 3.134149e+000 99 53 23
8.418016e-001 -5.084110e-001 3.102397e+000 200 123 82
8.412628e-001 -5.128665e-001 3.104173e+000 200 119 77
8.509093e-001 -5.096869e-001 3.140637e+000 193 131 86
8.393076e-001 -5.151228e-001 3.105648e+000 94 56 37
8.498476e-001 -5.184352e-001 3.142416e+000 193 128 75
8.379840e-001 -5.256982e-001 3.111951e+000 180 115 77
8.368272e-001 -5.292568e-001 3.118836e+000 188 115 74
8.356590e-001 -5.377832e-001 3.123377e+000 141 22 28
8.732108e-001 -3.728451e-001 3.059022e+000 168 94 65
8.735851e-001 -3.728756e-001 3.058703e+000 168 94 65
8.703544e-001 -3.974876e-001 3.055400e+000 71 83 14
8.703544e-001 -3.974876e-001 3.055400e+000 71 83 14
8.591864e-001 -4.081630e-001 3.042984e+000 99 116 55
8.591864e-001 -4.081630e-001 3.042984e+000 99 116 55
8.657176e-001 -4.119785e-001 3.084418e+000 31 53 13
8.663283e-001 -4.162903e-001 3.080166e+000 76 102 58
8.645580e-001 -4.194217e-001 3.061054e+000 97 112 41
8.454752e-001 -4.653254e-001 3.076461e+000 160 25 26
8.578663e-001 -4.746277e-001 3.128330e+000 183 114 82
8.309191e-001 -5.398657e-001 3.116514e+000 146 19 31
7.851839e-001 -5.450370e-001 3.099195e+000 190 153 127
8.139604e-001 -5.220360e-001 3.074594e+000 188 88 74
8.530837e-001 -4.106934e-001 3.027586e+000 121 132 102
7.436791e-001 -4.973820e-001 3.129377e+000 30 19 18
7.436791e-001 -4.973820e-001 3.129377e+000 30 19 18
7.846431e-001 -3.761078e-001 3.039458e+000 206 130 124
8.152281e-001 -5.275520e-001 3.077011e+000 169 36 39
7.945127e-001 -4.550486e-001 3.056989e+000 173 172 179
8.612764e-001 -4.555841e-001 3.129335e+000 164 25 24
8.603424e-001 -4.503900e-001 3.102410e+000 170 153 110
8.382040e-001 -4.950961e-001 3.083975e+000 198 122 86
8.315899e-001 -4.792949e-001 3.066154e+000 27 76 99
8.315899e-001 -4.792949e-001 3.066154e+000 27 76 99
8.275358e-001 -3.922037e-001 3.020140e+000 157 153 144
7.442140e-001 -5.433417e-001 3.129519e+000 49 29 35
7.451493e-001 -5.497030e-001 3.130893e+000 40 66 110
7.380535e-001 -5.741435e-001 3.146680e+000 127 88 77
7.814304e-001 -5.946026e-001 3.112508e+000 179 131 99
7.393138e-001 -3.844011e-001 3.441369e+000 99 83 59
7.526868e-001 -4.126676e-001 3.423620e+000 130 112 76
7.526868e-001 -4.126676e-001 3.423620e+000 130 112 76
7.447217e-001 -3.835828e-001 3.440130e+000 24 19 14
7.427898e-001 -3.987560e-001 3.438117e+000 59 47 31
7.493426e-001 -3.945714e-001 3.435406e+000 103 87 56
7.493426e-001 -3.945714e-001 3.435406e+000 103 87 56
7.523787e-001 -3.987154e-001 3.430614e+000 19 14 11
7.511665e-001 -4.397700e-001 3.420672e+000 30 21 16
7.511665e-001 -4.397700e-001 3.420672e+000 30 21 16
7.456591e-001 -3.869166e-001 3.440067e+000 27 21 21
8.050483e-001 -5.940943e-001 3.120049e+000 173 136 91
7.458500e-001 -4.175130e-001 3.422895e+000 173 150 96
7.731648e-001 -3.771655e-001 3.050240e+000 149 42 44
8.405967e-001 -4.684399e-001 3.065047e+000 129 24 20
8.069922e-001 -5.222248e-001 3.074934e+000 115 45 35
8.452621e-001 -5.285361e-001 3.163881e+000 202 58 52
8.374080e-001 -5.383153e-001 3.127172e+000 210 51 53
8.385934e-001 -5.382765e-001 3.126325e+000 210 51 53
8.378935e-001 -5.392659e-001 3.129597e+000 126 31 23
8.190769e-001 -5.433184e-001 3.092942e+000 185 109 80
8.239737e-001 -5.461996e-001 3.105037e+000 136 20 31
8.259200e-001 -5.459448e-001 3.104739e+000 138 25 25
8.410211e-001 -5.443039e-001 3.146794e+000 243 62 59
8.410211e-001 -5.443039e-001 3.146794e+000 243 62 59
8.404651e-001 -5.454842e-001 3.143953e+000 233 65 69
8.404496e-001 -5.454503e-001 3.144155e+000 233 65 69
8.208548e-001 -5.542086e-001 3.101501e+000 233 75 71
8.276423e-001 -5.504342e-001 3.110448e+000 142 19 22
8.299377e-001 -5.525173e-001 3.120446e+000 149 20 25
8.318052e-001 -5.537031e-001 3.124752e+000 130 20 25
8.306245e-001 -5.556746e-001 3.125219e+000 208 49 56
8.345324e-001 -5.520850e-001 3.130932e+000 136 24 26
8.375116e-001 -5.504624e-001 3.137854e+000 223 76 69
8.243155e-001 -5.675382e-001 3.121812e+000 185 106 79
8.307929e-001 -5.718278e-001 3.146642e+000 171 55 27
8.298623e-001 -5.750239e-001 3.145529e+000 168 61 27
8.213842e-001 -5.783580e-001 3.127790e+000 167 118 71
8.251142e-001 -5.797502e-001 3.142476e+000 175 115 69
8.264392e-001 -5.834310e-001 3.149128e+000 181 94 39
8.180013e-001 -5.868210e-001 3.128171e+000 171 124 65
8.178024e-001 -5.890960e-001 3.130217e+000 170 122 73
8.278660e-001 -5.872462e-001 3.156080e+000 102 70 28
8.057563e-001 -6.170791e-001 3.140867e+000 111 48 44
8.496410e-001 -4.671222e-001 3.083877e+000 137 22 25
8.159420e-001 -5.004497e-001 3.062497e+000 157 54 42
8.230914e-001 -5.458320e-001 3.096583e+000 224 103 90
8.365805e-001 -5.489522e-001 3.134955e+000 206 61 53
8.380589e-001 -5.496433e-001 3.141495e+000 202 59 52
8.183087e-001 -5.534058e-001 3.100165e+000 141 26 26
8.325582e-001 -5.531643e-001 3.128044e+000 137 23 30
8.344325e-001 -5.533019e-001 3.130122e+000 215 74 65
8.249568e-001 -5.588319e-001 3.111865e+000 211 66 60
8.291374e-001 -5.637258e-001 3.129133e+000 188 115 68
8.112644e-001 -5.646622e-001 3.097456e+000 126 16 24
8.263863e-001 -5.650388e-001 3.126552e+000 187 112 79
8.288089e-001 -5.655544e-001 3.131803e+000 107 47 23
8.303126e-001 -5.647031e-001 3.134586e+000 83 38 21
8.240025e-001 -5.666786e-001 3.122081e+000 191 112 74
8.240025e-001 -5.666786e-001 3.122081e+000 191 112 74
7.755091e-001 -3.704210e-001 3.047306e+000 174 34 48
8.438577e-001 -5.307902e-001 3.140005e+000 149 25 21
8.338482e-001 -5.587666e-001 3.136021e+000 76 38 17
8.338482e-001 -5.587666e-001 3.136021e+000 76 38 17
8.258038e-001 -5.898880e-001 3.152671e+000 56 35 14
8.367116e-001 -5.453235e-001 3.136766e+000 148 21 24
8.367116e-001 -5.453235e-001 3.136766e+000 148 21 24
8.582512e-001 -3.922662e-001 3.034339e+000 45 87 95
7.826022e-001 -5.789515e-001 3.107535e+000 100 50 24
7.798778e-001 -4.317366e-001 3.060448e+000 160 155 149
8.141519e-001 -5.596083e-001 3.106102e+000 198 67 62
7.823040e-001 -5.623315e-001 3.103907e+000 156 81 66
7.362884e-001 -5.717409e-001 3.153205e+000 143 102 88
8.065039e-001 -5.974734e-001 3.126901e+000 108 85 62
7.929503e-001 -6.216910e-001 3.130323e+000 121 32 28
8.182923e-001 -5.739714e-001 3.121968e+000 143 104 63
7.376793e-001 -5.752916e-001 3.148856e+000 139 95 84
7.357802e-001 -5.769508e-001 3.152477e+000 152 97 87
8.117472e-001 -5.573043e-001 3.098085e+000 147 37 40
7.929593e-001 -6.185769e-001 3.121864e+000 114 39 34
8.053186e-001 -3.863701e-001 3.506016e+000 80 64 56
8.113544e-001 -3.882766e-001 3.493381e+000 98 82 66
7.402528e-001 -5.445888e-001 3.143346e+000 25 61 119
7.917104e-001 -4.224224e-001 3.506015e+000 163 139 93
8.048408e-001 -4.333659e-001 3.482462e+000 32 23 16
8.048408e-001 -4.333659e-001 3.482462e+000 32 23 16
7.400122e-001 -5.678059e-001 3.138967e+000 168 100 39
7.992887e-001 -6.138287e-001 3.131165e+000 192 156 131
8.008756e-001 -4.316867e-001 3.486343e+000 161 136 96
8.017625e-001 -4.435892e-001 3.480959e+000 141 119 78
7.984563e-001 -4.514582e-001 3.476708e+000 139 117 76
8.073376e-001 -6.159869e-001 3.143470e+000 33 21 25
8.033108e-001 -4.507606e-001 3.468094e+000 168 144 100
7.819526e-001 -5.891633e-001 3.110207e+000 44 12 16
8.025124e-001 -4.165088e-001 3.495285e+000 165 138 95
8.025124e-001 -4.165088e-001 3.495285e+000 165 138 95
7.391123e-001 -5.547175e-001 3.144756e+000 151 121 111
8.024866e-001 -6.010254e-001 3.129392e+000 191 163 126
7.873544e-001 -5.759017e-001 3.178169e+000 157 126 108
8.603813e-001 -3.836452e-001 3.023893e+000 204 129 86
8.684230e-001 -3.818057e-001 3.042525e+000 226 134 97
8.713732e-001 -3.847898e-001 3.062701e+000 29 67 51
8.743733e-001 -3.950829e-001 3.078457e+000 47 54 13
8.491872e-001 -4.509875e-001 3.068173e+000 88 57 41
8.491872e-001 -4.509875e-001 3.068173e+000 88 57 41
8.379569e-001 -4.693573e-001 3.063952e+000 162 35 35
8.349465e-001 -4.789625e-001 3.065458e+000 9 50 73
8.494134e-001 -4.739292e-001 3.088634e+000 16 63 83
8.165206e-001 -5.145978e-001 3.071875e+000 198 87 69
8.290631e-001 -5.149154e-001 3.083896e+000 200 122 89
8.053815e-001 -5.217610e-001 3.077664e+000 136 51 42
8.149279e-001 -5.234773e-001 3.081843e+000 132 40 30
8.497056e-001 -5.230663e-001 3.152714e+000 196 124 83
8.441086e-001 -5.329698e-001 3.143596e+000 143 32 30
8.467797e-001 -5.314921e-001 3.151830e+000 205 60 52
8.479592e-001 -5.276446e-001 3.152749e+000 206 59 55
8.495825e-001 -5.303808e-001 3.155493e+000 141 30 25
8.375765e-001 -5.407572e-001 3.124784e+000 141 24 26
8.402486e-001 -5.374421e-001 3.127057e+000 208 61 55
8.379383e-001 -5.401331e-001 3.126380e+000 134 32 28
8.435754e-001 -5.369623e-001 3.142075e+000 150 29 32
8.433553e-001 -5.368595e-001 3.142552e+000 150 29 32
8.453692e-001 -5.348809e-001 3.144858e+000 150 26 24
8.467831e-001 -5.388058e-001 3.156683e+000 161 26 34
8.289942e-001 -5.471880e-001 3.112180e+000 135 22 24
8.378144e-001 -5.427948e-001 3.132756e+000 204 52 51
8.181788e-001 -5.503473e-001 3.102617e+000 135 27 30
8.186531e-001 -5.542120e-001 3.105394e+000 232 70 68
8.305281e-001 -5.555476e-001 3.125789e+000 232 70 74
8.361148e-001 -5.508895e-001 3.135750e+000 144 28 30
8.361038e-001 -5.490363e-001 3.135897e+000 223 60 66
8.365367e-001 -5.491861e-001 3.135717e+000 223 60 66
8.389839e-001 -5.481875e-001 3.140581e+000 139 23 29
8.195128e-001 -5.578698e-001 3.110767e+000 153 22 29
8.214340e-001 -5.579779e-001 3.107202e+000 153 22 29
8.207001e-001 -5.580751e-001 3.112756e+000 131 23 29
8.227320e-001 -5.582401e-001 3.109248e+000 131 23 29
8.417717e-001 -5.593893e-001 3.185287e+000 187 111 54
8.320390e-001 -5.707797e-001 3.144949e+000 118 32 4
8.387100e-001 -5.717696e-001 3.169296e+000 120 44 6
8.155281e-001 -5.800005e-001 3.123889e+000 183 128 76
8.174210e-001 -5.824310e-001 3.130964e+000 114 80 46
8.299719e-001 -5.781429e-001 3.149700e+000 132 43 7
8.319725e-001 -5.768083e-001 3.150774e+000 137 54 18
8.163119e-001 -5.839727e-001 3.126978e+000 174 125 80
8.321790e-001 -5.904745e-001 3.170507e+000 188 145 100
8.357770e-001 -5.916596e-001 3.187864e+000 49 19 12
8.296022e-001 -5.959429e-001 3.168351e+000 174 86 29
8.574542e-001 -4.674920e-001 3.108268e+000 26 59 79
8.253547e-001 -4.959796e-001 3.067930e+000 196 127 99
8.425512e-001 -5.181600e-001 3.114361e+000 67 31 7
8.481651e-001 -5.251919e-001 3.152372e+000 151 26 29
8.481033e-001 -5.294988e-001 3.149886e+000 140 30 27
8.461685e-001 -5.301396e-001 3.146443e+000 207 63 54
8.482940e-001 -5.289230e-001 3.157388e+000 211 55 55
8.487853e-001 -5.260877e-001 3.169123e+000 43 21 5
8.239567e-001 -5.403623e-001 3.097632e+000 135 84 61
8.330873e-001 -5.411368e-001 3.117133e+000 185 47 46
8.417165e-001 -5.349181e-001 3.133830e+000 175 33 32
8.422016e-001 -5.363430e-001 3.135066e+000 139 29 28
8.467217e-001 -5.375243e-001 3.160640e+000 230 62 57
8.467217e-001 -5.375243e-001 3.160640e+000 230 62 57
8.187116e-001 -5.480928e-001 3.092256e+000 125 30 32
8.265538e-001 -5.491614e-001 3.111180e+000 231 74 78
8.265538e-001 -5.491614e-001 3.111180e+000 231 74 78
8.339416e-001 -5.435268e-001 3.120044e+000 202 66 62
8.339416e-001 -5.435268e-001 3.120044e+000 202 66 62
8.329014e-001 -5.451959e-001 3.120257e+000 132 27 26
8.340319e-001 -5.448740e-001 3.121470e+000 134 28 27
8.344133e-001 -5.447848e-001 3.121237e+000 134 28 27
8.355071e-001 -5.435386e-001 3.126811e+000 141 28 27
8.357416e-001 -5.435908e-001 3.126699e+000 141 28 27
8.361303e-001 -5.440389e-001 3.122522e+000 137 24 28
8.361303e-001 -5.440389e-001 3.122522e+000 137 24 28
8.343266e-001 -5.475432e-001 3.121395e+000 146 23 29
8.157017e-001 -5.509121e-001 3.101089e+000 130 27 31
8.251893e-001 -5.561316e-001 3.111529e+000 192 55 54
8.182012e-001 -5.588155e-001 3.098680e+000 224 61 67
8.182122e-001 -5.589016e-001 3.098624e+000 224 61 67
8.158673e-001 -5.600947e-001 3.101144e+000 131 22 38
8.167483e-001 -5.592466e-001 3.110383e+000 135 28 33
8.262496e-001 -5.561979e-001 3.116695e+000 135 30 35
8.395979e-001 -5.582027e-001 3.154639e+000 190 130 77
8.185722e-001 -5.681238e-001 3.117388e+000 197 114 89
8.227027e-001 -5.795037e-001 3.132699e+000 175 128 76
8.136857e-001 -5.851228e-001 3.127088e+000 170 130 80
7.729906e-001 -3.784739e-001 3.053223e+000 190 38 52
8.420847e-001 -4.760712e-001 3.075804e+000 15 52 70
8.551599e-001 -4.870380e-001 3.126518e+000 137 81 55
8.448915e-001 -5.010438e-001 3.104231e+000 72 42 28
8.493282e-001 -5.176489e-001 3.139300e+000 129 82 48
8.271368e-001 -5.236656e-001 3.088614e+000 135 79 60
8.265465e-001 -5.455156e-001 3.107071e+000 133 31 24
8.201980e-001 -5.527048e-001 3.105375e+000 131 28 22
8.201980e-001 -5.527048e-001 3.105375e+000 131 28 22
8.230937e-001 -5.533825e-001 3.105618e+000 228 58 67
8.214467e-001 -5.551120e-001 3.110673e+000 145 25 29
8.129424e-001 -5.619265e-001 3.105097e+000 213 83 76
8.387106e-001 -5.568971e-001 3.148859e+000 191 130 83
8.282854e-001 -5.655725e-001 3.132687e+000 165 96 72
8.025571e-001 -6.161696e-001 3.138665e+000 75 16 16
8.581248e-001 -3.074046e-001 3.075101e+000 199 42 42
8.634761e-001 -4.278509e-001 3.071610e+000 35 52 21
8.498448e-001 -4.694423e-001 3.088325e+000 155 22 32
8.532836e-001 -4.674689e-001 3.095086e+000 145 23 30
8.326291e-001 -5.059556e-001 3.080661e+000 159 95 65
8.311267e-001 -5.121889e-001 3.086290e+000 198 123 84
8.387854e-001 -5.236730e-001 3.109061e+000 82 40 16
8.467291e-001 -5.269771e-001 3.149986e+000 147 26 26
8.496179e-001 -5.270194e-001 3.158822e+000 151 24 33
8.272332e-001 -5.728611e-001 3.139050e+000 139 44 25
8.617501e-001 -4.015297e-001 3.049374e+000 27 53 21
8.365876e-001 -4.715932e-001 3.063688e+000 164 71 49
8.590332e-001 -4.081863e-001 3.044247e+000 82 112 80
8.208426e-001 -5.179433e-001 3.075858e+000 189 117 93
8.464075e-001 -5.368544e-001 3.153434e+000 166 22 31
8.093670e-001 -5.626149e-001 3.103638e+000 155 21 35
8.217106e-001 -5.731930e-001 3.121558e+000 180 123 78
8.402878e-001 -5.625306e-001 3.183866e+000 198 103 24
8.725989e-001 -3.709617e-001 3.059510e+000 12 86 116
8.609435e-001 -3.870719e-001 3.023955e+000 229 130 95
8.609435e-001 -3.870719e-001 3.023955e+000 229 130 95
8.620182e-001 -3.836355e-001 3.029718e+000 220 140 102
8.625736e-001 -3.831565e-001 3.033200e+000 220 140 105
8.646499e-001 -3.854682e-001 3.033531e+000 246 121 95
8.691077e-001 -3.805135e-001 3.048807e+000 216 134 88
8.710223e-001 -3.808594e-001 3.045523e+000 216 134 88
8.717283e-001 -3.788348e-001 3.051937e+000 157 51 33
8.675009e-001 -3.788693e-001 3.058307e+000 157 51 33
8.728094e-001 -3.987634e-001 3.060273e+000 40 53 11
8.675314e-001 -4.011636e-001 3.083653e+000 145 149 37
8.578686e-001 -4.080456e-001 3.046374e+000 87 114 102
8.578686e-001 -4.080456e-001 3.046374e+000 87 114 102
8.648830e-001 -4.097073e-001 3.052202e+000 94 116 53
8.645313e-001 -4.124619e-001 3.059973e+000 95 111 38
8.645313e-001 -4.124619e-001 3.059973e+000 95 111 38
8.685750e-001 -4.086952e-001 3.083206e+000 74 107 67
8.685750e-001 -4.086952e-001 3.083206e+000 74 107 67
8.709366e-001 -4.055963e-001 3.090502e+000 67 100 86
8.576030e-001 -4.136709e-001 3.058303e+000 90 116 106
8.581325e-001 -4.156682e-001 3.060633e+000 96 119 74
8.626382e-001 -4.142480e-001 3.075286e+000 80 105 68
8.663301e-001 -4.165165e-001 3.087665e+000 83 116 73
8.671634e-001 -4.187969e-001 3.114084e+000 161 156 116
8.496422e-001 -4.498968e-001 3.074593e+000 92 41 36
8.496422e-001 -4.498968e-001 3.074593e+000 92 41 36
8.511810e-001 -4.495423e-001 3.076033e+000 88 43 35
8.536903e-001 -4.486096e-001 3.081324e+000 94 40 34
8.536903e-001 -4.486096e-001 3.081324e+000 94 40 34
8.565193e-001 -4.460921e-001 3.087131e+000 178 145 110
8.565193e-001 -4.460921e-001 3.087131e+000 178 145 110
8.574393e-001 -4.465590e-001 3.093135e+000 182 149 118
8.612919e-001 -4.486800e-001 3.087483e+000 111 79 59
8.497997e-001 -4.649807e-001 3.085802e+000 228 153 114
8.578796e-001 -4.630106e-001 3.090982e+000 239 143 97
8.588255e-001 -4.623737e-001 3.093181e+000 226 142 100
8.556952e-001 -4.629984e-001 3.099941e+000 133 29 17
8.556952e-001 -4.629984e-001 3.099941e+000 133 29 17
8.571425e-001 -4.609817e-001 3.102995e+000 244 147 96
8.370673e-001 -4.702215e-001 3.056267e+000 242 141 110
8.370673e-001 -4.702215e-001 3.056267e+000 242 141 110
8.369093e-001 -4.704732e-001 3.064299e+000 222 154 108
8.421905e-001 -4.703795e-001 3.073799e+000 222 145 106
8.469299e-001 -4.699662e-001 3.070264e+000 228 146 109
8.462773e-001 -4.685602e-001 3.082109e+000 232 145 112
8.503420e-001 -4.671378e-001 3.089243e+000 222 148 111
8.496389e-001 -4.794312e-001 3.083804e+000 19 80 103
8.463132e-001 -4.882196e-001 3.097055e+000 52 26 13
8.560355e-001 -4.865173e-001 3.127436e+000 202 126 82
8.292074e-001 -5.062405e-001 3.078224e+000 205 130 95
8.204323e-001 -5.128071e-001 3.066085e+000 248 101 96
8.344044e-001 -5.091524e-001 3.088286e+000 199 126 95
8.344268e-001 -5.091125e-001 3.088287e+000 199 126 95
7.923055e-001 -5.187849e-001 3.087053e+000 202 82 85
7.936981e-001 -5.218416e-001 3.089976e+000 169 57 58
8.381029e-001 -5.275454e-001 3.112405e+000 196 125 94
7.786763e-001 -5.353773e-001 3.107473e+000 77 133 209
8.443992e-001 -5.358026e-001 3.134998e+000 135 33 29
8.491538e-001 -5.311006e-001 3.154178e+000 142 30 29
8.222234e-001 -5.463302e-001 3.094562e+000 226 104 88
8.320845e-001 -5.446760e-001 3.116971e+000 252 82 74
8.315587e-001 -5.445009e-001 3.118225e+000 252 82 74
8.361309e-001 -5.401266e-001 3.120957e+000 228 63 67
8.429403e-001 -5.387051e-001 3.144996e+000 154 24 30
8.131602e-001 -5.518050e-001 3.106505e+000 241 92 90
8.310915e-001 -5.530854e-001 3.123757e+000 214 57 54
8.062421e-001 -5.607033e-001 3.112678e+000 234 77 79
7.782380e-001 -3.703512e-001 3.046626e+000 163 49 58
8.691202e-001 -3.781489e-001 3.042342e+000 167 38 38
7.666656e-001 -3.938350e-001 3.068388e+000 159 180 93
8.694644e-001 -4.051994e-001 3.056189e+000 52 100 95
7.728539e-001 -4.193368e-001 3.070039e+000 146 162 99
8.525903e-001 -4.191356e-001 3.027264e+000 153 146 26
8.462929e-001 -4.182346e-001 3.035537e+000 153 146 26
7.746786e-001 -4.323782e-001 3.072262e+000 49 62 36
8.509427e-001 -4.510586e-001 3.075177e+000 179 147 124
7.545467e-001 -4.673840e-001 3.109617e+000 167 89 83
8.394747e-001 -4.700083e-001 3.064495e+000 210 158 113
8.494987e-001 -4.708429e-001 3.090462e+000 25 75 104
8.302317e-001 -4.772748e-001 3.058977e+000 22 84 115
8.607963e-001 -4.764558e-001 3.128114e+000 89 44 21
8.607963e-001 -4.764558e-001 3.128114e+000 89 44 21
7.563184e-001 -4.574115e-001 3.350394e+000 22 15 13
8.320773e-001 -4.949421e-001 3.064671e+000 116 57 44
8.320773e-001 -4.949421e-001 3.064671e+000 116 57 44
8.264166e-001 -5.069627e-001 3.078631e+000 71 38 25
8.316670e-001 -5.062368e-001 3.080716e+000 72 37 29
8.464791e-001 -5.015700e-001 3.094950e+000 195 123 98
8.000494e-001 -5.163852e-001 3.081618e+000 169 52 52
8.276399e-001 -5.202661e-001 3.083462e+000 126 70 54
8.302333e-001 -5.192643e-001 3.088414e+000 133 72 38
8.302333e-001 -5.192643e-001 3.088414e+000 133 72 38
8.494830e-001 -5.131319e-001 3.138124e+000 84 49 26
8.109668e-001 -5.251990e-001 3.066877e+000 172 48 50
8.498192e-001 -5.221256e-001 3.139035e+000 117 74 47
8.502872e-001 -5.217126e-001 3.147724e+000 196 129 84
8.473905e-001 -5.260936e-001 3.144772e+000 200 120 82
8.502711e-001 -5.280526e-001 3.148807e+000 206 57 53
8.484538e-001 -5.291509e-001 3.157098e+000 208 62 57
8.422421e-001 -5.381862e-001 3.133923e+000 213 64 62
8.481849e-001 -5.332743e-001 3.149662e+000 145 32 35
8.477784e-001 -5.330707e-001 3.150643e+000 145 32 35
8.458928e-001 -5.344260e-001 3.151409e+000 222 64 68
8.222854e-001 -5.475371e-001 3.096250e+000 142 30 29
8.183790e-001 -5.460739e-001 3.110589e+000 155 23 31
8.324150e-001 -5.432017e-001 3.125702e+000 214 65 60
8.324150e-001 -5.432017e-001 3.125702e+000 214 65 60
8.384150e-001 -5.410047e-001 3.133079e+000 142 30 29
8.243800e-001 -5.497726e-001 3.103896e+000 152 30 33
8.243800e-001 -5.497726e-001 3.103896e+000 152 30 33
8.183755e-001 -5.572007e-001 3.121039e+000 150 29 30
8.257901e-001 -5.579147e-001 3.118005e+000 235 78 72
8.622895e-001 -3.774086e-001 3.010946e+000 33 92 113
8.597176e-001 -4.002387e-001 3.047553e+000 150 156 36
8.597176e-001 -4.002387e-001 3.047553e+000 150 156 36
7.657923e-001 -4.073724e-001 3.074759e+000 45 59 36
8.669353e-001 -4.073899e-001 3.084581e+000 61 102 109
8.645888e-001 -4.183906e-001 3.092265e+000 167 156 27
8.645552e-001 -4.183381e-001 3.092344e+000 167 156 27
8.491071e-001 -4.507264e-001 3.071532e+000 174 145 125
8.610709e-001 -4.595487e-001 3.130809e+000 20 55 74
7.487014e-001 -4.685184e-001 3.118110e+000 146 50 53
7.589793e-001 -4.694272e-001 3.104163e+000 196 121 123
7.627228e-001 -4.721455e-001 3.100221e+000 198 116 118
8.591545e-001 -4.694602e-001 3.123403e+000 23 81 111
8.592927e-001 -4.780327e-001 3.132030e+000 200 123 81
7.742051e-001 -4.903385e-001 3.092466e+000 70 60 109
8.531928e-001 -4.875670e-001 3.093834e+000 85 46 20
8.176057e-001 -5.007478e-001 3.058064e+000 177 57 58
8.546692e-001 -4.901760e-001 3.135298e+000 126 71 42
8.562340e-001 -4.898635e-001 3.133615e+000 126 71 42
8.473910e-001 -5.013743e-001 3.100207e+000 52 23 12
8.534724e-001 -5.032288e-001 3.139027e+000 118 73 46
8.518516e-001 -5.045110e-001 3.134966e+000 130 91 62
8.529503e-001 -5.078928e-001 3.139576e+000 127 88 62
8.488310e-001 -5.174955e-001 3.139714e+000 145 98 66
8.385459e-001 -5.282700e-001 3.108727e+000 165 101 81
8.375064e-001 -5.324398e-001 3.111161e+000 85 51 37
8.396609e-001 -5.273426e-001 3.116422e+000 82 47 28
8.264557e-001 -5.366658e-001 3.095076e+000 149 102 75
8.264557e-001 -5.366658e-001 3.095076e+000 149 102 75
8.400243e-001 -5.402395e-001 3.138050e+000 165 32 28
8.300913e-001 -5.477228e-001 3.116926e+000 162 34 20
8.649378e-001 -3.800924e-001 3.015391e+000 180 35 42
8.605116e-001 -3.796951e-001 3.021310e+000 180 35 42
8.633329e-001 -3.789391e-001 3.023898e+000 177 38 35
8.679701e-001 -3.804761e-001 3.036254e+000 180 38 29
8.590456e-001 -3.898465e-001 3.011529e+000 178 32 36
8.595655e-001 -3.899744e-001 3.010988e+000 178 32 36
8.680488e-001 -3.939866e-001 3.070493e+000 166 153 32
8.680488e-001 -3.939866e-001 3.070493e+000 166 153 32
8.624636e-001 -4.023568e-001 3.035509e+000 149 139 22
8.638055e-001 -4.142797e-001 3.051368e+000 85 111 116
8.638055e-001 -4.142797e-001 3.051368e+000 85 111 116
8.648653e-001 -4.125682e-001 3.070719e+000 64 106 111
8.594336e-001 -4.550822e-001 3.111678e+000 164 23 30
8.384085e-001 -4.734173e-001 3.069097e+000 149 24 34
8.548158e-001 -4.679819e-001 3.106006e+000 11 53 75
8.598515e-001 -4.683981e-001 3.137644e+000 20 82 115
8.395920e-001 -4.773373e-001 3.069482e+000 19 55 80
8.435285e-001 -4.754602e-001 3.078346e+000 8 49 70
7.450030e-001 -4.535427e-001 3.364687e+000 36 29 21
7.823025e-001 -4.947425e-001 3.084391e+000 73 53 101
8.556498e-001 -4.848034e-001 3.127126e+000 204 126 79
8.544628e-001 -4.879120e-001 3.132769e+000 195 124 90
8.148768e-001 -4.989811e-001 3.053572e+000 180 57 59
8.450456e-001 -4.974547e-001 3.093133e+000 174 110 75
8.447905e-001 -4.942608e-001 3.100981e+000 202 121 93
8.542141e-001 -4.955344e-001 3.132433e+000 135 78 50
8.408640e-001 -5.064216e-001 3.101140e+000 96 53 28
8.406071e-001 -5.063518e-001 3.101337e+000 96 53 28
8.421787e-001 -5.063589e-001 3.103507e+000 82 38 25
8.520493e-001 -5.001147e-001 3.135203e+000 120 71 37
8.403428e-001 -5.108391e-001 3.103094e+000 121 78 57
8.403428e-001 -5.108391e-001 3.103094e+000 121 78 57
8.403599e-001 -5.152809e-001 3.104356e+000 84 43 26
8.256501e-001 -5.269675e-001 3.085775e+000 192 130 94
8.256501e-001 -5.269675e-001 3.085775e+000 192 130 94
8.384597e-001 -5.214291e-001 3.109590e+000 195 127 88
8.404396e-001 -5.204424e-001 3.115148e+000 196 124 91
8.391404e-001 -5.249789e-001 3.115322e+000 188 125 94
8.391404e-001 -5.249789e-001 3.115322e+000 188 125 94
8.376639e-001 -5.300063e-001 3.113607e+000 198 124 85
8.468092e-001 -5.294231e-001 3.142329e+000 151 27 32
7.880869e-001 -5.372017e-001 3.100931e+000 24 88 155
8.148281e-001 -5.351250e-001 3.099584e+000 201 127 100
8.148281e-001 -5.351250e-001 3.099584e+000 201 127 100
8.238151e-001 -5.376638e-001 3.089162e+000 144 96 76
5.276325e-001 -3.555570e-001 3.387528e+000 97 83 70
5.289707e-001 -3.575948e-001 3.392320e+000 130 111 96
5.314231e-001 -3.899848e-001 3.412980e+000 114 100 91
5.314231e-001 -3.899848e-001 3.412980e+000 114 100 91
7.809071e-001 -4.111409e-001 3.057669e+000 49 63 35
7.727763e-001 -4.126812e-001 3.067728e+000 160 171 131
7.727763e-001 -4.126812e-001 3.067728e+000 160 171 131
5.321233e-001 -3.958605e-001 3.399471e+000 91 80 74
5.321233e-001 -3.958605e-001 3.399471e+000 91 80 74
7.731077e-001 -4.170324e-001 3.069099e+000 101 117 74
7.851807e-001 -4.188292e-001 3.054876e+000 154 173 111
7.985604e-001 -4.291082e-001 3.040736e+000 38 64 39
8.610904e-001 -4.204766e-001 3.073280e+000 29 55 26
5.295545e-001 -4.188970e-001 3.384286e+000 58 46 30
8.430295e-001 -4.992755e-001 3.100076e+000 196 122 88
8.437338e-001 -4.993259e-001 3.099081e+000 196 122 88
8.283938e-001 -5.098905e-001 3.072857e+000 204 130 95
8.392596e-001 -5.208453e-001 3.112735e+000 194 126 90
7.995787e-001 -3.738718e-001 3.019605e+000 53 96 157
5.350729e-001 -3.602896e-001 3.394854e+000 135 112 94
8.716224e-001 -3.770815e-001 3.065034e+000 21 86 115
5.430105e-001 -3.827942e-001 3.399838e+000 150 124 101
7.798462e-001 -4.021392e-001 3.056778e+000 47 67 40
7.703040e-001 -4.242256e-001 3.075648e+000 101 127 81
8.634358e-001 -4.187531e-001 3.081112e+000 29 56 24
7.763250e-001 -4.430875e-001 3.073955e+000 168 165 176
8.450364e-001 -4.684962e-001 3.078704e+000 101 25 26
8.549829e-001 -4.762181e-001 3.113549e+000 11 56 80
7.737676e-001 -5.233929e-001 3.106997e+000 142 32 43
8.223025e-001 -5.237009e-001 3.075177e+000 204 131 107
8.184810e-001 -5.462323e-001 3.085787e+000 170 21 39
8.284377e-001 -5.514769e-001 3.116318e+000 165 23 31
8.284377e-001 -5.514769e-001 3.116318e+000 165 23 31
5.280177e-001 -3.617724e-001 3.413864e+000 107 90 70
7.661938e-001 -4.380736e-001 3.084762e+000 167 166 171
8.316675e-001 -5.503123e-001 3.119611e+000 169 24 31
8.316675e-001 -5.503123e-001 3.119611e+000 169 24 31
5.370069e-001 -3.727380e-001 3.398828e+000 68 55 48
5.349015e-001 -4.051998e-001 3.407056e+000 140 117 83
7.822370e-001 -4.466517e-001 3.068338e+000 169 167 180
5.191503e-001 -3.689479e-001 3.391747e+000 124 106 85
7.918595e-001 -4.547457e-001 3.061407e+000 166 168 180
7.815499e-001 -5.074832e-001 3.090778e+000 127 32 40
7.984646e-001 -5.198743e-001 3.087492e+000 178 86 78
8.366698e-001 -5.151151e-001 3.096448e+000 197 124 89
5.241155e-001 -3.454598e-001 3.385935e+000 141 118 87
5.148583e-001 -3.784290e-001 3.394202e+000 17 11 13
5.281624e-001 -3.833135e-001 3.401137e+000 118 97 74
7.739415e-001 -4.849306e-001 3.092995e+000 170 34 46
5.173618e-001 -3.583155e-001 3.383831e+000 29 19 20
8.634928e-001 -4.130148e-001 3.137606e+000 179 162 119
8.129640e-001 -4.894221e-001 3.059517e+000 173 168 165
8.214187e-001 -5.535615e-001 3.102060e+000 140 20 25
7.767887e-001 -5.571837e-001 3.124563e+000 186 151 132
8.849170e-001 -5.094995e-001 3.074445e+000 195 131 85
8.676692e-001 -3.759981e-001 3.049556e+000 230 120 90
8.706213e-001 -3.758561e-001 3.053675e+000 158 50 36
8.706213e-001 -3.758561e-001 3.053675e+000 158 50 36
8.652140e-001 -3.976928e-001 3.061278e+000 55 82 41
8.679434e-001 -4.009558e-001 3.083071e+000 155 145 31
8.645116e-001 -4.153926e-001 3.083278e+000 84 111 70
8.566794e-001 -4.429460e-001 3.084805e+000 102 59 49
8.433239e-001 -4.685623e-001 3.075370e+000 225 141 103
8.433239e-001 -4.685623e-001 3.075370e+000 225 141 103
8.470607e-001 -4.681433e-001 3.084682e+000 233 146 116
8.510868e-001 -4.657078e-001 3.087977e+000 217 150 113
8.511920e-001 -4.667117e-001 3.091260e+000 226 145 105
8.564130e-001 -4.617721e-001 3.100952e+000 226 140 105
8.574712e-001 -4.599649e-001 3.105396e+000 240 139 106
8.599212e-001 -4.583304e-001 3.112810e+000 146 49 38
8.599779e-001 -4.582552e-001 3.112936e+000 146 49 38
8.464052e-001 -4.916939e-001 3.102460e+000 63 31 14
8.519217e-001 -5.084937e-001 3.137090e+000 195 132 90
8.605211e-001 -3.836068e-001 3.023650e+000 205 129 93
8.608690e-001 -3.840576e-001 3.033695e+000 156 43 33
8.562941e-001 -4.483005e-001 3.087805e+000 187 141 113
8.139119e-001 -5.190502e-001 3.063446e+000 188 87 85
8.108172e-001 -5.238100e-001 3.065883e+000 205 90 90
8.259549e-001 -5.290792e-001 3.087066e+000 73 31 17
8.557842e-001 -3.915801e-001 3.027781e+000 61 95 105
8.273360e-001 -5.027443e-001 3.072098e+000 172 109 79
8.273360e-001 -5.027443e-001 3.072098e+000 172 109 79
8.448543e-001 -5.013467e-001 3.104164e+000 70 37 20
8.430435e-001 -5.185414e-001 3.113588e+000 55 27 16
8.426454e-001 -4.720712e-001 3.075895e+000 137 24 28
8.597470e-001 -4.706285e-001 3.119364e+000 20 80 107
8.589475e-001 -4.702405e-001 3.121031e+000 20 80 107
8.226118e-001 -5.035509e-001 3.063432e+000 165 49 46
8.548727e-001 -4.940645e-001 3.129310e+000 209 115 83
8.547419e-001 -4.960370e-001 3.131036e+000 148 86 59
8.399721e-001 -5.131836e-001 3.104782e+000 197 125 93
8.321236e-001 -5.206621e-001 3.093539e+000 187 125 89
8.396945e-001 -5.172062e-001 3.106986e+000 195 125 92
8.283163e-001 -5.261754e-001 3.088093e+000 194 122 96
8.387478e-001 -5.215338e-001 3.109252e+000 210 121 90
8.180227e-001 -5.369542e-001 3.079222e+000 130 23 35
8.552081e-001 -4.160094e-001 3.047480e+000 118 124 64
8.630970e-001 -4.269170e-001 3.083360e+000 30 54 17
8.386984e-001 -5.090449e-001 3.098179e+000 195 125 91
8.568889e-001 -4.143744e-001 3.060716e+000 84 110 114
8.568889e-001 -4.143744e-001 3.060716e+000 84 110 114
8.425603e-001 -5.145700e-001 3.104101e+000 138 83 55
8.425603e-001 -5.145700e-001 3.104101e+000 138 83 55
8.733086e-001 -3.509612e-001 3.053373e+000 22 89 116
7.478259e-001 -3.456706e-001 3.439574e+000 42 35 26
7.519883e-001 -3.463498e-001 3.435756e+000 135 125 90
7.511230e-001 -3.533970e-001 3.427369e+000 47 45 32
8.188300e-001 -5.611591e-001 3.102972e+000 227 81 81
8.170407e-001 -5.634540e-001 3.100182e+000 106 13 17
8.269281e-001 -5.702308e-001 3.133897e+000 155 75 24
8.228550e-001 -5.775051e-001 3.131085e+000 179 127 77
8.299522e-001 -5.727768e-001 3.144800e+000 166 55 26
8.341591e-001 -5.741498e-001 3.162956e+000 208 117 43
8.201061e-001 -5.828208e-001 3.132265e+000 170 121 70
8.250731e-001 -5.796852e-001 3.142612e+000 175 115 69
8.318029e-001 -5.861252e-001 3.170581e+000 190 144 104
8.196436e-001 -6.044734e-001 3.157592e+000 162 125 80
8.117768e-001 -6.077777e-001 3.142056e+000 18 11 5
8.167968e-001 -5.539415e-001 3.097814e+000 109 28 19
8.166713e-001 -5.569846e-001 3.096678e+000 129 21 25
8.304611e-001 -5.610038e-001 3.131480e+000 61 28 16
8.309901e-001 -5.609474e-001 3.130969e+000 61 28 16
8.158639e-001 -5.636025e-001 3.098079e+000 129 21 27
8.294147e-001 -5.742750e-001 3.144047e+000 121 33 27
8.308212e-001 -5.928284e-001 3.176992e+000 161 86 25
8.228357e-001 -5.605950e-001 3.113748e+000 131 23 26
8.360305e-001 -5.580852e-001 3.146851e+000 182 126 74
8.199346e-001 -5.786889e-001 3.123319e+000 169 124 75
8.312674e-001 -5.348899e-001 3.107062e+000 179 111 74
8.332478e-001 -5.544654e-001 3.129394e+000 229 78 74
8.425560e-001 -5.503966e-001 3.158146e+000 206 134 81
8.142858e-001 -5.617690e-001 3.098572e+000 211 64 65
8.398777e-001 -5.651177e-001 3.165301e+000 189 57 37
8.398955e-001 -5.640692e-001 3.170576e+000 196 71 27
8.348020e-001 -5.733247e-001 3.155852e+000 174 65 34
8.385091e-001 -5.715918e-001 3.172846e+000 191 81 25
8.394910e-001 -5.716524e-001 3.172097e+000 191 81 25
8.288084e-001 -5.795764e-001 3.149802e+000 179 70 27
8.369348e-001 -5.757838e-001 3.164724e+000 186 85 24
8.142889e-001 -5.869520e-001 3.129476e+000 176 127 79
8.229730e-001 -5.847405e-001 3.140416e+000 50 27 7
8.229205e-001 -5.847190e-001 3.140497e+000 50 27 7
8.228592e-001 -5.878663e-001 3.141964e+000 168 125 75
8.338689e-001 -5.834185e-001 3.177304e+000 220 153 101
8.122691e-001 -5.933781e-001 3.123253e+000 172 127 87
8.145464e-001 -5.948150e-001 3.136047e+000 23 16 9
8.209044e-001 -5.917236e-001 3.144419e+000 27 17 12
8.298324e-001 -5.902063e-001 3.174803e+000 188 145 100
8.323331e-001 -5.938055e-001 3.182381e+000 182 94 30
8.103806e-001 -5.964396e-001 3.131346e+000 14 5 4
8.118414e-001 -5.966011e-001 3.128673e+000 14 5 4
8.239126e-001 -6.008454e-001 3.162724e+000 90 68 37
8.274592e-001 -5.967085e-001 3.177260e+000 175 87 27
8.283818e-001 -6.000174e-001 3.176172e+000 34 10 2
8.308265e-001 -5.946432e-001 3.186628e+000 34 9 2
8.324731e-001 -5.971425e-001 3.183274e+000 56 15 1
8.299235e-001 -5.968255e-001 3.187947e+000 56 15 1
8.080552e-001 -6.093840e-001 3.137084e+000 21 11 2
8.068418e-001 -6.092513e-001 3.139290e+000 21 11 2
8.076844e-001 -6.134183e-001 3.149783e+000 120 62 39
8.398911e-001 -5.565716e-001 3.156284e+000 94 54 24
8.265761e-001 -5.751893e-001 3.137418e+000 181 118 66
8.184922e-001 -5.796804e-001 3.122319e+000 178 131 81
8.221732e-001 -5.814704e-001 3.137557e+000 174 126 80
8.389613e-001 -5.762135e-001 3.187676e+000 42 19 16
8.389613e-001 -5.762135e-001 3.187676e+000 42 19 16
8.139443e-001 -5.882401e-001 3.121535e+000 175 131 85
8.238654e-001 -5.830903e-001 3.140135e+000 173 127 82
8.096200e-001 -5.910645e-001 3.127375e+000 180 127 83
8.139463e-001 -6.068262e-001 3.150022e+000 173 126 91
8.186839e-001 -6.060270e-001 3.161890e+000 106 50 23
8.399769e-001 -5.523349e-001 3.153185e+000 90 54 26
8.191742e-001 -5.569116e-001 3.098247e+000 141 26 34
8.186867e-001 -5.568191e-001 3.098188e+000 141 26 34
8.383764e-001 -5.568490e-001 3.149491e+000 191 130 83
8.213922e-001 -5.654650e-001 3.113810e+000 173 102 73
8.230412e-001 -5.650697e-001 3.117041e+000 69 32 7
8.346648e-001 -5.658489e-001 3.147265e+000 190 128 69
8.083426e-001 -5.898899e-001 3.123559e+000 178 128 93
8.171602e-001 -6.053344e-001 3.157058e+000 172 127 97
8.337907e-001 -5.590476e-001 3.142621e+000 196 129 77
8.220536e-001 -5.672861e-001 3.115438e+000 195 116 78
8.290917e-001 -5.675067e-001 3.134220e+000 196 114 69
8.339926e-001 -5.678951e-001 3.150304e+000 162 84 29
8.172745e-001 -5.778539e-001 3.116437e+000 97 65 37
8.475575e-001 -5.342203e-001 3.161611e+000 163 24 29
8.334963e-001 -5.897222e-001 3.187340e+000 187 94 26
8.727400e-001 -3.726190e-001 3.059704e+000 166 100 74
8.671891e-001 -3.804187e-001 3.040336e+000 163 53 34
8.684958e-001 -4.011169e-001 3.082417e+000 145 149 37
8.384766e-001 -4.761757e-001 3.072648e+000 8 50 72
8.237622e-001 -5.077257e-001 3.064232e+000 162 53 42
8.337749e-001 -5.231977e-001 3.098236e+000 195 124 92
8.468739e-001 -5.337321e-001 3.152978e+000 210 57 62
8.329034e-001 -5.521745e-001 3.126295e+000 155 27 33
8.379026e-001 -5.505187e-001 3.135149e+000 127 31 27
8.379026e-001 -5.505187e-001 3.135149e+000 127 31 27
8.363590e-001 -5.519262e-001 3.136856e+000 218 68 63
8.320994e-001 -5.543490e-001 3.123953e+000 135 30 30
8.312117e-001 -5.542316e-001 3.125058e+000 135 30 30
8.430534e-001 -5.506502e-001 3.157418e+000 192 126 81
8.188637e-001 -5.647656e-001 3.121648e+000 198 127 98
8.292822e-001 -5.653209e-001 3.133348e+000 198 125 91
8.355596e-001 -5.612984e-001 3.144150e+000 197 129 84
8.207035e-001 -5.671986e-001 3.128392e+000 190 122 94
8.238273e-001 -5.673683e-001 3.128349e+000 215 134 102
8.341105e-001 -5.684009e-001 3.152350e+000 112 50 13
7.794203e-001 -5.794613e-001 3.131241e+000 139 75 50
8.224092e-001 -5.777501e-001 3.129257e+000 182 136 89
8.245355e-001 -5.793213e-001 3.136896e+000 129 90 50
8.206398e-001 -5.787684e-001 3.143441e+000 129 90 50
8.285933e-001 -5.778339e-001 3.147131e+000 181 70 33
8.333018e-001 -5.730456e-001 3.150123e+000 174 65 32
8.286426e-001 -5.739101e-001 3.156927e+000 149 48 19
8.325421e-001 -5.749520e-001 3.152555e+000 176 66 31
8.331307e-001 -5.736797e-001 3.155200e+000 177 68 32
8.183633e-001 -5.807714e-001 3.136214e+000 128 91 61
8.183633e-001 -5.807714e-001 3.136214e+000 128 91 61
8.201952e-001 -5.826842e-001 3.132079e+000 178 134 95
8.205859e-001 -5.800882e-001 3.141858e+000 183 135 86
8.233347e-001 -5.848432e-001 3.139887e+000 56 27 9
8.258128e-001 -5.797594e-001 3.141336e+000 183 130 80
8.233580e-001 -5.807298e-001 3.145195e+000 131 87 51
8.233580e-001 -5.807298e-001 3.145195e+000 131 87 51
8.308314e-001 -5.794191e-001 3.143501e+000 130 50 19
8.244352e-001 -5.890566e-001 3.152534e+000 34 20 19
8.325097e-001 -5.839617e-001 3.173089e+000 23 14 7
8.330581e-001 -5.843702e-001 3.176813e+000 18 10 5
8.285914e-001 -5.833863e-001 3.196691e+000 193 148 119
8.004328e-001 -5.956459e-001 3.141717e+000 18 9 2
8.141756e-001 -5.925588e-001 3.146344e+000 32 15 24
8.292988e-001 -5.907819e-001 3.171078e+000 196 152 109
8.312210e-001 -5.940773e-001 3.191674e+000 42 10 1
8.332830e-001 -5.928205e-001 3.196583e+000 57 16 1
8.345060e-001 -5.930702e-001 3.195410e+000 57 16 1
8.270539e-001 -5.977161e-001 3.178810e+000 51 19 7
8.237997e-001 -6.014804e-001 3.174824e+000 37 11 2
8.231738e-001 -6.014276e-001 3.175631e+000 37 11 2
8.299652e-001 -5.984417e-001 3.181288e+000 39 16 6
8.335175e-001 -5.970319e-001 3.197013e+000 31 19 31
8.029458e-001 -6.141843e-001 3.129579e+000 170 128 107
8.029458e-001 -6.141843e-001 3.129579e+000 170 128 107
8.354266e-001 -4.760018e-001 3.065435e+000 19 80 110
8.428330e-001 -5.376630e-001 3.141204e+000 145 29 32
8.454489e-001 -5.398242e-001 3.155329e+000 251 75 77
8.458943e-001 -5.402785e-001 3.154704e+000 251 75 77
8.385984e-001 -5.483635e-001 3.143843e+000 222 74 72
8.455124e-001 -5.422940e-001 3.176591e+000 74 30 18
8.297310e-001 -5.536403e-001 3.121993e+000 211 65 61
8.295697e-001 -5.535792e-001 3.122076e+000 211 65 61
8.320232e-001 -5.550625e-001 3.127117e+000 213 65 58
8.320853e-001 -5.549855e-001 3.127055e+000 213 65 58
8.170983e-001 -5.847066e-001 3.129357e+000 113 81 50
8.178177e-001 -5.861321e-001 3.129140e+000 179 135 95
8.223726e-001 -5.801870e-001 3.142038e+000 185 135 89
8.289570e-001 -5.811222e-001 3.149099e+000 104 31 13
8.330317e-001 -5.777769e-001 3.160938e+000 202 111 37
8.330317e-001 -5.777769e-001 3.160938e+000 202 111 37
8.134547e-001 -5.907253e-001 3.124121e+000 181 125 91
8.166942e-001 -5.883267e-001 3.127382e+000 54 33 14
8.166942e-001 -5.883267e-001 3.127382e+000 54 33 14
8.312634e-001 -5.884260e-001 3.167783e+000 183 150 112
8.249752e-001 -5.939204e-001 3.175476e+000 173 97 35
8.295870e-001 -5.941948e-001 3.183830e+000 175 93 33
8.179864e-001 -6.040700e-001 3.160211e+000 176 132 105
8.090802e-001 -6.129661e-001 3.143542e+000 99 41 35
8.795097e-001 -2.856134e-001 2.970711e+000 190 45 44
8.474741e-001 -4.275304e-001 3.048181e+000 145 148 38
8.448557e-001 -5.333992e-001 3.140604e+000 136 24 33
8.384378e-001 -5.417180e-001 3.130663e+000 137 29 29
8.377241e-001 -5.570858e-001 3.140914e+000 84 46 16
8.362096e-001 -5.568833e-001 3.143166e+000 84 46 16
8.273804e-001 -5.635953e-001 3.122090e+000 84 51 28
8.260894e-001 -5.632580e-001 3.123661e+000 84 51 28
8.257848e-001 -5.669655e-001 3.127435e+000 112 71 49
8.142516e-001 -5.891294e-001 3.123305e+000 145 107 73
8.348574e-001 -5.856398e-001 3.191150e+000 196 106 45
8.267161e-001 -5.943463e-001 3.169893e+000 176 95 27
7.742254e-001 -6.185146e-001 3.156602e+000 133 30 41
5.297086e-001 -3.146219e-001 3.381446e+000 85 70 54
8.346926e-001 -4.782981e-001 3.065934e+000 4 47 68
8.422443e-001 -4.761036e-001 3.075562e+000 15 53 76
8.499330e-001 -5.299405e-001 3.159014e+000 153 23 29
8.247647e-001 -5.521006e-001 3.106487e+000 158 26 32
8.368570e-001 -5.568127e-001 3.142466e+000 77 39 15
8.220897e-001 -5.673945e-001 3.115295e+000 203 126 99
8.290444e-001 -5.633247e-001 3.133009e+000 200 125 90
8.399621e-001 -5.632701e-001 3.166653e+000 113 23 22
5.203088e-001 -3.159027e-001 3.378487e+000 94 81 64
5.250942e-001 -3.149806e-001 3.381064e+000 94 78 62
5.345725e-001 -3.120976e-001 3.387366e+000 107 87 77
5.325091e-001 -3.195999e-001 3.382629e+000 104 86 75
8.413605e-001 -4.731463e-001 3.068688e+000 162 23 31
5.079489e-001 -3.540401e-001 3.395360e+000 39 29 30
8.349573e-001 -5.851140e-001 3.197002e+000 198 95 36
5.317546e-001 -3.103991e-001 3.378391e+000 132 111 84
5.315216e-001 -3.297269e-001 3.387444e+000 126 104 81
5.410842e-001 -3.236504e-001 3.383682e+000 69 58 52
5.271812e-001 -3.360150e-001 3.385665e+000 84 65 58
5.189091e-001 -3.006390e-001 3.384042e+000 69 52 36
8.275661e-001 -5.159976e-001 3.217634e+000 40 30 29
8.535254e-001 -5.516536e-001 3.146578e+000 195 128 83
8.486827e-001 -4.482725e-001 3.071491e+000 193 109 94
8.501477e-001 -4.672377e-001 3.089301e+000 226 146 112
8.485326e-001 -4.722687e-001 3.088173e+000 9 48 71
8.526701e-001 -4.777116e-001 3.106315e+000 6 54 76
8.596078e-001 -4.752604e-001 3.129186e+000 187 119 84
8.207960e-001 -5.125814e-001 3.066111e+000 217 88 86
8.284230e-001 -5.128154e-001 3.077575e+000 191 120 94
8.535229e-001 -5.221851e-001 3.154424e+000 127 27 26
8.535229e-001 -5.221851e-001 3.154424e+000 127 27 26
8.512617e-001 -5.284499e-001 3.151683e+000 139 26 33
8.512617e-001 -5.284499e-001 3.151683e+000 139 26 33
8.228839e-001 -5.415264e-001 3.091522e+000 67 38 24
8.229144e-001 -5.415133e-001 3.091566e+000 67 38 24
8.251503e-001 -5.479624e-001 3.102929e+000 222 75 75
8.299572e-001 -5.446363e-001 3.109337e+000 148 26 33
8.368050e-001 -5.450890e-001 3.127652e+000 245 82 82
8.355132e-001 -5.510666e-001 3.131303e+000 254 81 78
8.205858e-001 -5.590592e-001 3.104791e+000 125 26 31
8.224888e-001 -5.572044e-001 3.105861e+000 126 25 32
8.296206e-001 -5.553086e-001 3.119938e+000 153 31 42
8.325480e-001 -5.541997e-001 3.124980e+000 158 31 38
8.299014e-001 -5.653307e-001 3.132855e+000 195 120 88
8.235685e-001 -5.686836e-001 3.121900e+000 62 28 13
8.267955e-001 -5.780981e-001 3.141736e+000 111 35 10
8.267955e-001 -5.780981e-001 3.141736e+000 111 35 10
8.326836e-001 -5.717881e-001 3.151271e+000 122 43 23
8.349566e-001 -5.764529e-001 3.164689e+000 188 85 38
8.217635e-001 -5.815907e-001 3.134530e+000 164 116 82
8.179670e-001 -5.866955e-001 3.132707e+000 175 123 85
8.179670e-001 -5.866955e-001 3.132707e+000 175 123 85
8.317538e-001 -5.806149e-001 3.162048e+000 218 114 42
8.173158e-001 -5.899717e-001 3.135267e+000 168 120 82
8.146337e-001 -6.043584e-001 3.150526e+000 159 124 103
8.199436e-001 -6.011671e-001 3.160304e+000 16 9 4
8.352612e-001 -5.926521e-001 3.202886e+000 220 104 51
8.050804e-001 -6.106741e-001 3.140387e+000 162 119 98
8.080289e-001 -6.081913e-001 3.144547e+000 169 123 103
8.063473e-001 -6.131308e-001 3.147944e+000 110 47 41
8.151105e-001 -6.077888e-001 3.161700e+000 125 56 38
8.492100e-001 -5.298073e-001 3.145822e+000 212 54 61
8.478105e-001 -5.288925e-001 3.148434e+000 212 54 61
8.514174e-001 -5.270168e-001 3.151246e+000 217 59 63
8.514174e-001 -5.270168e-001 3.151246e+000 217 59 63
8.439559e-001 -5.358052e-001 3.144304e+000 141 31 36
8.498227e-001 -5.316592e-001 3.156895e+000 240 77 84
8.477436e-001 -5.343656e-001 3.151955e+000 221 66 68
8.251744e-001 -5.450118e-001 3.100788e+000 205 90 77
8.329260e-001 -5.429424e-001 3.117497e+000 143 28 28
8.336143e-001 -5.459364e-001 3.124121e+000 213 67 60
8.446171e-001 -5.380718e-001 3.143197e+000 224 72 69
8.484989e-001 -5.379070e-001 3.159827e+000 243 68 77
8.187464e-001 -5.552852e-001 3.096354e+000 209 67 71
8.201937e-001 -5.548031e-001 3.098709e+000 201 51 60
8.272449e-001 -5.547746e-001 3.114116e+000 207 47 51
8.292700e-001 -5.547125e-001 3.116429e+000 238 66 75
8.292700e-001 -5.547125e-001 3.116429e+000 238 66 75
8.273949e-001 -5.557803e-001 3.119391e+000 144 24 29
8.275226e-001 -5.570007e-001 3.120516e+000 238 83 83
8.287747e-001 -5.571557e-001 3.119431e+000 238 83 83
8.342577e-001 -5.535209e-001 3.132999e+000 193 42 44
8.347648e-001 -5.536412e-001 3.132775e+000 193 42 44
8.284924e-001 -5.772443e-001 3.143914e+000 124 39 17
8.379171e-001 -5.718626e-001 3.167524e+000 192 70 26
8.203158e-001 -6.020836e-001 3.167355e+000 166 124 99
8.640321e-001 -4.058017e-001 3.077528e+000 161 154 35
8.194582e-001 -5.258506e-001 3.069488e+000 165 35 45
8.517629e-001 -5.161159e-001 3.143669e+000 90 49 23
8.501791e-001 -5.221853e-001 3.139109e+000 104 58 28
8.388201e-001 -5.316485e-001 3.118816e+000 96 56 35
8.457108e-001 -5.336889e-001 3.139532e+000 163 23 36
8.275856e-001 -5.455771e-001 3.105702e+000 154 28 39
8.264348e-001 -5.481794e-001 3.107511e+000 147 28 36
8.397879e-001 -5.420550e-001 3.134563e+000 240 69 80
8.175390e-001 -5.567845e-001 3.096101e+000 129 24 34
8.327259e-001 -5.515025e-001 3.128845e+000 217 60 61
8.233594e-001 -5.649626e-001 3.116615e+000 111 60 39
8.389688e-001 -5.759464e-001 3.184981e+000 78 44 29
8.118087e-001 -6.090917e-001 3.152495e+000 91 44 30
8.573819e-001 -3.821889e-001 3.015176e+000 200 145 104
8.634188e-001 -4.053041e-001 3.074339e+000 30 57 8
8.455005e-001 -4.806459e-001 3.091994e+000 21 82 111
8.306189e-001 -5.668513e-001 3.136825e+000 205 118 82
8.207126e-001 -5.763259e-001 3.125060e+000 130 89 59
8.729418e-001 -3.495060e-001 3.043144e+000 30 90 124
8.600354e-001 -4.567873e-001 3.108284e+000 159 27 28
8.268191e-001 -5.307030e-001 3.089277e+000 197 120 98
8.226690e-001 -5.356695e-001 3.087298e+000 194 120 99
8.490120e-001 -4.129986e-001 3.038923e+000 25 51 22
8.331676e-001 -5.365500e-001 3.112716e+000 197 124 91
8.349521e-001 -5.482151e-001 3.130018e+000 171 21 33
8.354880e-001 -5.483845e-001 3.128986e+000 171 21 33
8.431150e-001 -5.247281e-001 3.131900e+000 199 136 93
8.584812e-001 -3.802769e-001 3.008551e+000 158 27 33
8.704431e-001 -3.802931e-001 3.047562e+000 209 134 94
8.712991e-001 -3.819650e-001 3.060349e+000 160 38 36
8.721694e-001 -3.927751e-001 3.083706e+000 33 42 4
