ply
format ascii 1.0
element face 0
property list uchar int vertex_indices
element vertex 895
property float x
property float y
property float z
property uchar diffuse_red
property uchar diffuse_green
property uchar diffuse_blue
end_header
7.636301e-001 -3.525057e-001 3.062292e+000 42 117 196
7.636301e-001 -3.525057e-001 3.062292e+000 42 117 196
8.532172e-001 -3.866613e-001 3.025702e+000 159 47 28
7.630425e-001 -3.667360e-001 3.055378e+000 123 61 66
7.630425e-001 -3.667360e-001 3.055378e+000 123 61 66
7.623523e-001 -3.732002e-001 3.068701e+000 202 106 112
7.754622e-001 -3.702913e-001 3.046348e+000 195 129 131
7.959791e-001 -3.798017e-001 3.032668e+000 13 80 147
7.962610e-001 -4.057445e-001 3.032266e+000 66 98 112
7.962610e-001 -4.057445e-001 3.032266e+000 66 98 112
8.006334e-001 -4.086732e-001 3.035758e+000 117 154 94
8.511354e-001 -4.224890e-001 3.051834e+000 49 56 15
7.564061e-001 -4.617604e-001 3.096240e+000 147 136 144
8.316697e-001 -5.000759e-001 3.085139e+000 137 80 54
8.316697e-001 -5.000759e-001 3.085139e+000 137 80 54
8.367816e-001 -5.063609e-001 3.096355e+000 143 89 61
7.663775e-001 -4.918682e-001 3.090519e+000 94 137 190
8.313294e-001 -5.122895e-001 3.093221e+000 140 86 58
7.731451e-001 -4.977523e-001 3.086536e+000 104 149 209
7.731451e-001 -4.977523e-001 3.086536e+000 104 149 209
7.835386e-001 -5.002470e-001 3.076294e+000 99 142 189
7.839399e-001 -5.078867e-001 3.080164e+000 123 30 34
8.049581e-001 -5.261917e-001 3.083039e+000 151 35 35
7.837788e-001 -5.459652e-001 3.094801e+000 62 9 6
7.730604e-001 -5.464718e-001 3.103029e+000 131 44 51
7.730604e-001 -5.464718e-001 3.103029e+000 131 44 51
7.657077e-001 -3.744450e-001 3.063079e+000 202 134 131
7.678172e-001 -3.718694e-001 3.059355e+000 196 136 133
7.765903e-001 -3.712596e-001 3.046829e+000 149 35 43
7.828458e-001 -3.744445e-001 3.041519e+000 138 47 49
7.806384e-001 -3.787097e-001 3.044373e+000 152 39 47
7.939820e-001 -3.852679e-001 3.029612e+000 47 84 115
7.975859e-001 -4.129998e-001 3.039008e+000 38 48 24
7.977759e-001 -4.128657e-001 3.039086e+000 38 48 24
7.793061e-001 -4.274880e-001 3.062130e+000 33 54 41
7.552488e-001 -4.468780e-001 3.092829e+000 157 144 156
7.581340e-001 -4.469086e-001 3.090522e+000 147 145 151
7.639502e-001 -4.749298e-001 3.089592e+000 173 126 118
7.639580e-001 -4.775300e-001 3.089032e+000 183 121 122
8.247630e-001 -5.011382e-001 3.075586e+000 124 75 53
8.253297e-001 -5.013272e-001 3.078578e+000 124 75 53
8.316103e-001 -5.041709e-001 3.087712e+000 134 82 57
7.499716e-001 -4.832728e-001 3.108343e+000 27 73 133
7.576906e-001 -4.868137e-001 3.098535e+000 92 129 191
7.634904e-001 -4.913093e-001 3.092524e+000 27 67 119
7.642925e-001 -4.931367e-001 3.093768e+000 102 144 191
8.182656e-001 -5.107072e-001 3.078563e+000 164 63 52
8.207044e-001 -5.316895e-001 3.095638e+000 131 80 56
7.878093e-001 -5.436158e-001 3.094093e+000 58 114 164
7.406587e-001 -5.360544e-001 3.144622e+000 47 36 38
7.649635e-001 -3.666915e-001 3.054068e+000 190 151 145
8.592573e-001 -4.037306e-001 3.047964e+000 42 52 18
7.569589e-001 -4.620304e-001 3.092801e+000 157 32 37
8.253030e-001 -4.827923e-001 3.063416e+000 19 76 111
8.259948e-001 -4.932546e-001 3.071656e+000 131 82 56
7.651450e-001 -4.809265e-001 3.090138e+000 127 25 36
7.648204e-001 -4.831570e-001 3.091528e+000 183 65 73
7.564868e-001 -4.880004e-001 3.101315e+000 26 68 123
7.903819e-001 -5.380733e-001 3.090624e+000 72 123 165
7.934009e-001 -3.763785e-001 3.033642e+000 157 34 42
8.510848e-001 -3.972951e-001 3.033574e+000 141 140 86
8.493313e-001 -4.235402e-001 3.049459e+000 49 58 12
7.586539e-001 -4.465412e-001 3.085957e+000 157 36 42
7.932639e-001 -4.791714e-001 3.061917e+000 160 144 144
7.699053e-001 -4.856168e-001 3.086449e+000 171 67 71
7.739219e-001 -4.970463e-001 3.085136e+000 100 126 168
7.966650e-001 -3.908862e-001 3.034708e+000 29 54 33
7.966650e-001 -3.908862e-001 3.034708e+000 29 54 33
7.997242e-001 -4.150584e-001 3.038120e+000 101 126 131
7.574648e-001 -4.080894e-001 3.079881e+000 144 160 95
7.819085e-001 -4.409770e-001 3.060907e+000 152 156 96
7.819085e-001 -4.409770e-001 3.060907e+000 152 156 96
7.901365e-001 -4.747648e-001 3.063436e+000 135 104 109
7.667899e-001 -4.773628e-001 3.086296e+000 109 60 58
7.626276e-001 -4.911562e-001 3.096611e+000 93 130 182
7.701518e-001 -4.948629e-001 3.088788e+000 97 127 170
7.849158e-001 -3.757304e-001 3.038059e+000 179 129 128
7.584434e-001 -3.983478e-001 3.073720e+000 154 154 142
7.622085e-001 -4.137064e-001 3.071639e+000 26 57 41
7.779095e-001 -4.243802e-001 3.060046e+000 136 163 96
7.587256e-001 -4.891083e-001 3.100426e+000 81 116 167
7.587256e-001 -4.891083e-001 3.100426e+000 81 116 167
8.215582e-001 -5.115251e-001 3.082663e+000 191 119 86
7.418538e-001 -5.264991e-001 3.140877e+000 143 115 93
7.631499e-001 -3.686599e-001 3.056319e+000 183 139 141
7.835844e-001 -4.337024e-001 3.057506e+000 156 150 150
7.612554e-001 -4.462621e-001 3.083170e+000 160 34 45
7.703795e-001 -4.631342e-001 3.079131e+000 152 148 158
7.575403e-001 -4.819045e-001 3.096885e+000 134 21 35
7.844310e-001 -3.520496e-001 3.032566e+000 16 81 147
8.136212e-001 -4.165046e-001 3.022069e+000 66 109 144
7.797149e-001 -5.464583e-001 3.098894e+000 69 13 19
8.085659e-001 -4.760826e-001 3.074684e+000 151 151 151
8.640417e-001 -3.795617e-001 3.032326e+000 216 134 99
8.654715e-001 -3.789274e-001 3.034134e+000 214 132 88
8.639494e-001 -3.804665e-001 3.030602e+000 132 53 36
8.639067e-001 -3.803985e-001 3.030727e+000 132 53 36
8.644421e-001 -3.817448e-001 3.033981e+000 137 59 42
8.644421e-001 -3.817448e-001 3.033981e+000 137 59 42
8.672197e-001 -3.821563e-001 3.042049e+000 218 137 91
8.717515e-001 -3.800515e-001 3.052811e+000 230 128 87
8.712010e-001 -3.817994e-001 3.058018e+000 248 111 87
8.737744e-001 -3.756407e-001 3.061380e+000 27 78 94
8.723133e-001 -3.813181e-001 3.064446e+000 46 72 66
8.563136e-001 -3.878756e-001 3.019487e+000 231 111 84
8.563136e-001 -3.878756e-001 3.019487e+000 231 111 84
8.615385e-001 -3.842332e-001 3.029100e+000 212 134 96
8.694984e-001 -3.842415e-001 3.043418e+000 225 123 84
8.696833e-001 -3.936270e-001 3.054761e+000 30 52 27
8.620576e-001 -4.069541e-001 3.054859e+000 150 145 24
8.705527e-001 -4.056867e-001 3.094048e+000 61 93 77
8.660564e-001 -4.156540e-001 3.083536e+000 77 105 59
8.503305e-001 -4.229185e-001 3.044632e+000 137 140 52
8.534047e-001 -4.454314e-001 3.073976e+000 108 30 28
8.534213e-001 -4.461565e-001 3.076762e+000 172 138 105
8.557889e-001 -4.446395e-001 3.079207e+000 96 37 27
8.560536e-001 -4.449172e-001 3.081996e+000 186 131 99
8.591407e-001 -4.420166e-001 3.092109e+000 171 145 107
8.598503e-001 -4.423777e-001 3.091017e+000 171 145 107
8.595890e-001 -4.447668e-001 3.091953e+000 175 141 107
8.588587e-001 -4.444746e-001 3.093022e+000 175 141 107
8.354312e-001 -4.454617e-001 3.117437e+000 167 141 110
8.596475e-001 -4.505669e-001 3.088366e+000 173 143 107
8.489992e-001 -4.668720e-001 3.079901e+000 218 140 94
8.526790e-001 -4.646943e-001 3.083893e+000 240 134 98
8.510127e-001 -4.656106e-001 3.089924e+000 228 140 107
8.524754e-001 -4.639761e-001 3.092339e+000 142 34 32
8.523265e-001 -4.649078e-001 3.091574e+000 231 132 95
8.324748e-001 -4.731067e-001 3.060808e+000 224 139 97
8.324748e-001 -4.731067e-001 3.060808e+000 224 139 97
8.358773e-001 -4.706964e-001 3.064106e+000 237 135 102
8.392546e-001 -4.706367e-001 3.069069e+000 133 31 27
8.395862e-001 -4.706631e-001 3.068662e+000 133 31 27
8.356809e-001 -4.720707e-001 3.065544e+000 233 148 108
8.376900e-001 -4.718012e-001 3.065596e+000 229 150 112
8.409141e-001 -4.695771e-001 3.068861e+000 227 144 107
8.414050e-001 -4.706508e-001 3.072984e+000 235 142 104
8.431532e-001 -4.692540e-001 3.076062e+000 117 36 28
8.444457e-001 -4.691040e-001 3.074088e+000 117 36 28
8.713460e-001 -4.743157e-001 3.012658e+000 236 146 104
8.405579e-001 -4.709485e-001 3.069556e+000 234 137 104
8.479846e-001 -4.681534e-001 3.085455e+000 240 131 106
8.500681e-001 -4.674509e-001 3.088448e+000 233 131 101
8.271499e-001 -4.780654e-001 3.060777e+000 12 58 84
8.495779e-001 -4.776362e-001 3.091608e+000 5 50 71
8.495779e-001 -4.776362e-001 3.091608e+000 5 50 71
8.260140e-001 -4.827304e-001 3.057346e+000 24 85 118
8.497089e-001 -4.817432e-001 3.095750e+000 10 51 68
8.195280e-001 -5.135441e-001 3.070535e+000 151 48 39
8.191431e-001 -5.213555e-001 3.077864e+000 197 116 89
8.266659e-001 -5.282749e-001 3.091591e+000 178 114 92
8.266659e-001 -5.282749e-001 3.091591e+000 178 114 92
7.926784e-001 -5.339927e-001 3.089117e+000 125 189 251
7.926784e-001 -5.339927e-001 3.089117e+000 125 189 251
7.899937e-001 -5.389161e-001 3.093043e+000 79 139 205
8.355156e-001 -5.399818e-001 3.123374e+000 204 50 47
8.240156e-001 -5.452254e-001 3.101387e+000 208 87 64
8.240156e-001 -5.452254e-001 3.101387e+000 208 87 64
8.284037e-001 -5.433032e-001 3.108839e+000 240 72 70
7.799934e-001 -3.781705e-001 3.048177e+000 158 47 53
8.688819e-001 -3.803314e-001 3.045071e+000 149 38 36
8.686454e-001 -3.805160e-001 3.045409e+000 149 38 36
8.686637e-001 -3.972391e-001 3.063674e+000 131 142 36
8.735156e-001 -3.981780e-001 3.077511e+000 36 48 14
8.695823e-001 -4.096378e-001 3.071211e+000 68 96 75
7.989788e-001 -4.316915e-001 3.042673e+000 136 175 83
7.989788e-001 -4.316915e-001 3.042673e+000 136 175 83
8.522615e-001 -4.482010e-001 3.073962e+000 165 146 113
8.522615e-001 -4.482010e-001 3.073962e+000 165 146 113
8.352566e-001 -4.727083e-001 3.061672e+000 230 159 110
8.387677e-001 -4.695731e-001 3.067498e+000 224 151 108
8.434198e-001 -4.683579e-001 3.073379e+000 224 149 106
8.616367e-001 -4.778356e-001 3.026190e+000 24 78 103
8.254472e-001 -5.118019e-001 3.078906e+000 48 23 12
8.313473e-001 -5.146385e-001 3.088889e+000 73 32 18
8.313473e-001 -5.146385e-001 3.088889e+000 73 32 18
8.362068e-001 -5.085429e-001 3.093869e+000 67 30 7
8.511219e-001 -5.091258e-001 3.137134e+000 84 44 15
7.952334e-001 -5.211231e-001 3.083336e+000 174 52 55
8.131629e-001 -5.216615e-001 3.074082e+000 196 105 79
8.398509e-001 -5.183639e-001 3.112904e+000 181 115 85
8.145714e-001 -5.275549e-001 3.085039e+000 157 35 35
8.323512e-001 -5.224642e-001 3.097778e+000 46 26 12
7.838277e-001 -5.324597e-001 3.094840e+000 35 86 150
7.865172e-001 -5.334233e-001 3.095116e+000 109 167 235
8.314691e-001 -5.304529e-001 3.103840e+000 123 73 47
7.836069e-001 -3.932503e-001 3.049883e+000 43 61 37
7.836069e-001 -3.932503e-001 3.049883e+000 43 61 37
8.597833e-001 -4.022478e-001 3.042060e+000 142 138 34
8.675545e-001 -4.053066e-001 3.071986e+000 36 51 9
7.823414e-001 -4.140724e-001 3.058579e+000 47 61 37
7.783999e-001 -4.265219e-001 3.066716e+000 43 64 32
7.749509e-001 -4.276752e-001 3.069627e+000 157 175 100
7.764826e-001 -4.361873e-001 3.071614e+000 45 63 45
8.606891e-001 -4.447326e-001 3.084595e+000 179 146 105
8.499773e-001 -4.506581e-001 3.072694e+000 165 141 117
8.574315e-001 -4.474912e-001 3.091788e+000 178 133 97
8.598255e-001 -4.473827e-001 3.088507e+000 178 133 97
8.572529e-001 -4.526083e-001 3.084406e+000 167 143 107
8.344560e-001 -4.762561e-001 3.065862e+000 21 83 111
8.557023e-001 -4.846061e-001 3.129258e+000 196 116 72
7.963369e-001 -4.930959e-001 3.072745e+000 175 167 174
8.566142e-001 -4.872165e-001 3.125472e+000 137 81 55
8.543650e-001 -4.914714e-001 3.130152e+000 129 73 45
8.005352e-001 -4.961238e-001 3.068346e+000 188 50 50
8.534312e-001 -4.980341e-001 3.134522e+000 197 120 75
8.455233e-001 -5.007844e-001 3.105412e+000 72 42 28
8.529867e-001 -5.023261e-001 3.135867e+000 195 129 82
8.522962e-001 -5.055321e-001 3.140357e+000 195 132 87
8.417826e-001 -5.105128e-001 3.107039e+000 139 80 45
8.413606e-001 -5.106415e-001 3.107502e+000 139 80 45
8.493802e-001 -5.177200e-001 3.140842e+000 129 82 48
8.070298e-001 -5.229645e-001 3.080123e+000 198 93 80
8.370343e-001 -5.278616e-001 3.113274e+000 152 99 61
8.503517e-001 -5.198029e-001 3.148276e+000 119 72 36
7.728618e-001 -5.307691e-001 3.104949e+000 102 46 35
8.362842e-001 -5.320547e-001 3.115231e+000 66 28 12
8.205422e-001 -5.398466e-001 3.088874e+000 194 112 88
8.196834e-001 -5.398307e-001 3.090081e+000 194 112 88
8.696746e-001 -3.787258e-001 3.048045e+000 174 93 67
8.631039e-001 -3.997253e-001 3.054839e+000 155 148 30
8.631039e-001 -3.997253e-001 3.054839e+000 155 148 30
8.600419e-001 -4.095499e-001 3.056171e+000 34 53 25
8.506675e-001 -4.233699e-001 3.045187e+000 126 132 65
8.506675e-001 -4.233699e-001 3.045187e+000 126 132 65
8.612461e-001 -4.210202e-001 3.065532e+000 136 134 33
8.491811e-001 -4.271146e-001 3.048249e+000 139 136 37
8.558862e-001 -4.507417e-001 3.087485e+000 112 80 54
8.589689e-001 -4.600385e-001 3.110646e+000 211 129 82
8.529380e-001 -4.685920e-001 3.091355e+000 149 15 33
7.794530e-001 -4.771300e-001 3.080119e+000 159 35 38
8.453715e-001 -4.744922e-001 3.084240e+000 4 46 66
8.476936e-001 -4.779379e-001 3.087802e+000 7 49 63
7.690666e-001 -4.876754e-001 3.095016e+000 107 139 190
8.552987e-001 -4.876105e-001 3.134280e+000 191 117 74
7.800297e-001 -4.959180e-001 3.086555e+000 97 138 194
8.437817e-001 -4.950745e-001 3.099553e+000 201 122 87
8.447926e-001 -4.941371e-001 3.102862e+000 193 121 83
8.453084e-001 -4.986542e-001 3.102993e+000 197 123 74
8.304294e-001 -5.040392e-001 3.077910e+000 194 128 91
8.419875e-001 -5.060354e-001 3.105934e+000 165 98 58
8.526449e-001 -5.001865e-001 3.135966e+000 99 53 23
8.419497e-001 -5.083505e-001 3.104227e+000 200 123 82
8.414095e-001 -5.128039e-001 3.106000e+000 200 119 77
8.510488e-001 -5.096414e-001 3.142446e+000 193 131 86
8.394544e-001 -5.150588e-001 3.107473e+000 94 56 37
8.499845e-001 -5.183853e-001 3.144221e+000 193 128 75
8.381274e-001 -5.256302e-001 3.113769e+000 180 115 77
8.369692e-001 -5.291888e-001 3.120649e+000 188 115 74
8.357984e-001 -5.377117e-001 3.125184e+000 141 22 28
8.733931e-001 -3.728536e-001 3.060925e+000 168 94 65
8.737672e-001 -3.728841e-001 3.060607e+000 168 94 65
8.705301e-001 -3.974807e-001 3.057296e+000 71 83 14
8.705301e-001 -3.974807e-001 3.057296e+000 71 83 14
8.593656e-001 -4.081425e-001 3.044882e+000 99 116 55
8.593656e-001 -4.081425e-001 3.044882e+000 99 116 55
8.658883e-001 -4.119717e-001 3.086292e+000 31 53 13
8.664978e-001 -4.162802e-001 3.082041e+000 76 102 58
8.647287e-001 -4.194030e-001 3.062939e+000 97 112 41
8.456388e-001 -4.652805e-001 3.078319e+000 160 25 26
8.580154e-001 -4.745992e-001 3.130159e+000 183 114 82
8.310608e-001 -5.397892e-001 3.118323e+000 146 19 31
7.853506e-001 -5.449356e-001 3.101006e+000 190 153 127
8.141214e-001 -5.219491e-001 3.076430e+000 188 88 74
8.532672e-001 -4.106643e-001 3.029489e+000 121 132 102
7.438815e-001 -4.973006e-001 3.131186e+000 30 19 18
7.438815e-001 -4.973006e-001 3.131186e+000 30 19 18
7.848738e-001 -3.760762e-001 3.041361e+000 206 130 124
8.153861e-001 -5.274635e-001 3.078844e+000 169 36 39
7.947090e-001 -4.549844e-001 3.058856e+000 173 172 179
8.614307e-001 -4.555673e-001 3.131169e+000 164 25 24
8.605010e-001 -4.503669e-001 3.104261e+000 170 153 110
8.383603e-001 -4.950353e-001 3.085818e+000 198 122 86
8.317570e-001 -4.792342e-001 3.068012e+000 27 76 99
8.317570e-001 -4.792342e-001 3.068012e+000 27 76 99
8.277398e-001 -3.921728e-001 3.022052e+000 157 153 144
7.443991e-001 -5.432372e-001 3.131315e+000 49 29 35
7.453314e-001 -5.495960e-001 3.132685e+000 40 66 110
7.382293e-001 -5.740266e-001 3.148457e+000 127 88 77
7.815790e-001 -5.944786e-001 3.114300e+000 179 131 99
7.395318e-001 -3.844804e-001 3.443081e+000 99 83 59
7.528893e-001 -4.127319e-001 3.425328e+000 130 112 76
7.528893e-001 -4.127319e-001 3.425328e+000 130 112 76
7.449374e-001 -3.836640e-001 3.441843e+000 24 19 14
7.430011e-001 -3.988284e-001 3.439824e+000 59 47 31
7.495523e-001 -3.946473e-001 3.437116e+000 103 87 56
7.495523e-001 -3.946473e-001 3.437116e+000 103 87 56
7.525859e-001 -3.987887e-001 3.432324e+000 19 14 11
7.513604e-001 -4.398195e-001 3.422372e+000 30 21 16
7.513604e-001 -4.398195e-001 3.422372e+000 30 21 16
7.458731e-001 -3.869965e-001 3.441778e+000 27 21 21
8.051843e-001 -5.939818e-001 3.121841e+000 173 136 91
7.460544e-001 -4.175723e-001 3.424602e+000 173 150 96
7.734010e-001 -3.771330e-001 3.052134e+000 149 42 44
8.407627e-001 -4.683879e-001 3.066910e+000 129 24 20
8.071565e-001 -5.221355e-001 3.076770e+000 115 45 35
8.453966e-001 -5.284863e-001 3.165670e+000 202 58 52
8.375461e-001 -5.382454e-001 3.128977e+000 210 51 53
8.387308e-001 -5.382068e-001 3.128131e+000 210 51 53
8.380308e-001 -5.391964e-001 3.131400e+000 126 31 23
8.192257e-001 -5.432280e-001 3.094762e+000 185 109 80
8.241180e-001 -5.461134e-001 3.106850e+000 136 20 31
8.260633e-001 -5.458594e-001 3.106553e+000 138 25 25
8.411534e-001 -5.442385e-001 3.148587e+000 243 62 59
8.411534e-001 -5.442385e-001 3.148587e+000 243 62 59
8.405978e-001 -5.454171e-001 3.145746e+000 233 65 69
8.405821e-001 -5.453833e-001 3.145949e+000 233 65 69
8.209981e-001 -5.541160e-001 3.103313e+000 233 75 71
8.277826e-001 -5.503489e-001 3.112257e+000 142 19 22
8.300753e-001 -5.524350e-001 3.122249e+000 149 20 25
8.319410e-001 -5.536222e-001 3.126552e+000 130 20 25
8.307601e-001 -5.555925e-001 3.127019e+000 208 49 56
8.346667e-001 -5.520080e-001 3.132730e+000 136 24 26
8.376445e-001 -5.503896e-001 3.139649e+000 223 76 69
8.244506e-001 -5.674463e-001 3.123609e+000 185 106 79
8.309211e-001 -5.717441e-001 3.148425e+000 171 55 27
8.299899e-001 -5.749378e-001 3.147311e+000 168 61 27
8.215167e-001 -5.782613e-001 3.129579e+000 167 118 71
8.252429e-001 -5.796589e-001 3.144257e+000 175 115 69
8.265653e-001 -5.833404e-001 3.150905e+000 181 94 39
8.181324e-001 -5.867187e-001 3.129958e+000 171 124 65
8.179328e-001 -5.889931e-001 3.132001e+000 170 122 73
8.279895e-001 -5.871564e-001 3.157852e+000 102 70 28
8.058823e-001 -6.169605e-001 3.142634e+000 111 48 44
8.498010e-001 -4.670803e-001 3.085732e+000 137 22 25
8.161101e-001 -5.003710e-001 3.064348e+000 157 54 42
8.232367e-001 -5.457430e-001 3.098401e+000 224 103 90
8.367146e-001 -5.488789e-001 3.136752e+000 206 61 53
8.381913e-001 -5.495723e-001 3.143288e+000 202 59 52
8.184538e-001 -5.533122e-001 3.101978e+000 141 26 26
8.326934e-001 -5.530851e-001 3.129843e+000 137 23 30
8.345666e-001 -5.532240e-001 3.131920e+000 215 74 65
8.250955e-001 -5.587416e-001 3.113670e+000 211 66 60
8.292707e-001 -5.636401e-001 3.130928e+000 188 115 68
8.114094e-001 -5.645592e-001 3.099266e+000 126 16 24
8.265209e-001 -5.649506e-001 3.128347e+000 187 112 79
8.289416e-001 -5.654685e-001 3.133596e+000 107 47 23
8.304445e-001 -5.646191e-001 3.136377e+000 83 38 21
8.241380e-001 -5.665872e-001 3.123877e+000 191 112 74
8.241380e-001 -5.665872e-001 3.123877e+000 191 112 74
7.757466e-001 -3.703918e-001 3.049205e+000 174 34 48
8.439942e-001 -5.307309e-001 3.141805e+000 149 25 21
8.339802e-001 -5.586875e-001 3.137814e+000 76 38 17
8.339802e-001 -5.586875e-001 3.137814e+000 76 38 17
8.259277e-001 -5.897949e-001 3.154443e+000 56 35 14
8.368468e-001 -5.452528e-001 3.138563e+000 148 21 24
8.368468e-001 -5.452528e-001 3.138563e+000 148 21 24
8.584371e-001 -3.922507e-001 3.036246e+000 45 87 95
7.827566e-001 -5.788339e-001 3.109332e+000 100 50 24
7.800901e-001 -4.316808e-001 3.062319e+000 160 155 149
8.142960e-001 -5.595124e-001 3.107910e+000 198 67 62
7.824642e-001 -5.622219e-001 3.105713e+000 156 81 66
7.364650e-001 -5.716270e-001 3.154977e+000 143 102 88
8.066367e-001 -5.973621e-001 3.128684e+000 108 85 62
7.930812e-001 -6.215635e-001 3.132094e+000 121 32 28
8.184277e-001 -5.738750e-001 3.123762e+000 143 104 63
7.378543e-001 -5.751748e-001 3.150629e+000 139 95 84
7.359552e-001 -5.768337e-001 3.154247e+000 152 97 87
8.118943e-001 -5.572060e-001 3.099898e+000 147 37 40
7.930926e-001 -6.184480e-001 3.123644e+000 114 39 34
8.054952e-001 -3.864919e-001 3.507685e+000 80 64 56
8.115286e-001 -3.883955e-001 3.495055e+000 98 82 66
7.404379e-001 -5.444870e-001 3.145132e+000 25 61 119
7.918805e-001 -4.225225e-001 3.507672e+000 163 139 93
8.050028e-001 -4.334578e-001 3.484125e+000 32 23 16
8.050028e-001 -4.334578e-001 3.484125e+000 32 23 16
7.401896e-001 -5.676903e-001 3.140749e+000 168 100 39
7.994191e-001 -6.137079e-001 3.132939e+000 192 156 131
8.010398e-001 -4.317792e-001 3.488006e+000 161 136 96
8.019224e-001 -4.436746e-001 3.482620e+000 141 119 78
7.986153e-001 -4.515373e-001 3.478368e+000 139 117 76
8.074619e-001 -6.158723e-001 3.145238e+000 33 21 25
8.034687e-001 -4.508389e-001 3.469759e+000 168 144 100
7.821031e-001 -5.890416e-001 3.112001e+000 44 12 16
8.026805e-001 -4.166120e-001 3.496948e+000 165 138 95
8.026805e-001 -4.166120e-001 3.496948e+000 165 138 95
7.392948e-001 -5.546106e-001 3.146541e+000 151 121 111
8.026200e-001 -6.009118e-001 3.131171e+000 191 163 126
7.875005e-001 -5.758129e-001 3.179930e+000 157 126 108
8.605702e-001 -3.836317e-001 3.025809e+000 204 129 86
8.686065e-001 -3.818023e-001 3.044433e+000 226 134 97
8.715520e-001 -3.847925e-001 3.064597e+000 29 67 51
8.745455e-001 -3.950862e-001 3.080343e+000 47 54 13
8.493544e-001 -4.509488e-001 3.070041e+000 88 57 41
8.493544e-001 -4.509488e-001 3.070041e+000 88 57 41
8.381241e-001 -4.693035e-001 3.065815e+000 162 35 35
8.351120e-001 -4.789030e-001 3.067316e+000 9 50 73
8.495707e-001 -4.738851e-001 3.090484e+000 16 63 83
8.166830e-001 -5.145149e-001 3.073715e+000 198 87 69
8.292174e-001 -5.148408e-001 3.085732e+000 200 122 89
8.055471e-001 -5.216722e-001 3.079498e+000 136 51 42
8.150873e-001 -5.233924e-001 3.083675e+000 132 40 30
8.498399e-001 -5.230172e-001 3.154513e+000 196 124 83
8.442433e-001 -5.329105e-001 3.145396e+000 143 32 30
8.469127e-001 -5.314372e-001 3.153626e+000 205 60 52
8.480928e-001 -5.275924e-001 3.154546e+000 206 59 55
8.497149e-001 -5.303287e-001 3.157286e+000 141 30 25
8.377135e-001 -5.406853e-001 3.126590e+000 141 24 26
8.403852e-001 -5.373736e-001 3.128863e+000 208 61 55
8.380752e-001 -5.400621e-001 3.128185e+000 134 32 28
8.437090e-001 -5.369002e-001 3.143874e+000 150 29 32
8.434897e-001 -5.367976e-001 3.144349e+000 150 29 32
8.455025e-001 -5.348214e-001 3.146655e+000 150 26 24
8.469140e-001 -5.387486e-001 3.158472e+000 161 26 34
8.291348e-001 -5.471054e-001 3.113990e+000 135 22 24
8.379503e-001 -5.427245e-001 3.134557e+000 204 52 51
8.183251e-001 -5.502562e-001 3.104428e+000 135 27 30
8.187975e-001 -5.541199e-001 3.107204e+000 232 70 68
8.306637e-001 -5.554657e-001 3.127589e+000 232 70 74
8.362482e-001 -5.508153e-001 3.137546e+000 144 28 30
8.362382e-001 -5.489631e-001 3.137693e+000 223 60 66
8.366708e-001 -5.491129e-001 3.137513e+000 223 60 66
8.391163e-001 -5.481173e-001 3.142376e+000 139 23 29
8.196549e-001 -5.577778e-001 3.112573e+000 153 22 29
8.215753e-001 -5.578853e-001 3.109009e+000 153 22 29
8.208414e-001 -5.579840e-001 3.114561e+000 131 23 29
8.228722e-001 -5.581485e-001 3.111055e+000 131 23 29
8.418952e-001 -5.593288e-001 3.187053e+000 187 111 54
8.321668e-001 -5.706965e-001 3.146733e+000 118 32 4
8.388320e-001 -5.716962e-001 3.171067e+000 120 44 6
8.156636e-001 -5.798996e-001 3.125679e+000 183 128 76
8.175540e-001 -5.823318e-001 3.132749e+000 114 80 46
8.300980e-001 -5.780566e-001 3.151478e+000 132 43 7
8.320979e-001 -5.767238e-001 3.152552e+000 137 54 18
8.164452e-001 -5.838710e-001 3.128765e+000 174 125 80
8.322979e-001 -5.903893e-001 3.172270e+000 188 145 100
8.358922e-001 -5.915807e-001 3.189617e+000 49 19 12
8.297208e-001 -5.958532e-001 3.170113e+000 174 86 29
8.576080e-001 -4.674607e-001 3.110110e+000 26 59 79
8.255193e-001 -4.959084e-001 3.069780e+000 196 127 99
8.426946e-001 -5.180984e-001 3.116180e+000 67 31 7
8.483000e-001 -5.251410e-001 3.154169e+000 151 26 29
8.482372e-001 -5.294448e-001 3.151682e+000 140 30 27
8.463032e-001 -5.300835e-001 3.148241e+000 207 63 54
8.484266e-001 -5.288719e-001 3.159181e+000 211 55 55
8.489179e-001 -5.260420e-001 3.170911e+000 43 21 5
8.241037e-001 -5.402768e-001 3.099451e+000 135 84 61
8.332273e-001 -5.410606e-001 3.118942e+000 185 47 46
8.418528e-001 -5.348537e-001 3.135633e+000 175 33 32
8.423368e-001 -5.362784e-001 3.136869e+000 139 29 28
8.468521e-001 -5.374691e-001 3.162428e+000 230 62 57
8.468521e-001 -5.374691e-001 3.162428e+000 230 62 57
8.188591e-001 -5.479997e-001 3.094075e+000 125 30 32
8.266951e-001 -5.490767e-001 3.112989e+000 231 74 78
8.266951e-001 -5.490767e-001 3.112989e+000 231 74 78
8.340801e-001 -5.434505e-001 3.121851e+000 202 66 62
8.340801e-001 -5.434505e-001 3.121851e+000 202 66 62
8.330399e-001 -5.451185e-001 3.122064e+000 132 27 26
8.341698e-001 -5.447975e-001 3.123275e+000 134 28 27
8.345510e-001 -5.447085e-001 3.123043e+000 134 28 27
8.356444e-001 -5.434651e-001 3.128614e+000 141 28 27
8.358788e-001 -5.435174e-001 3.128502e+000 141 28 27
8.362673e-001 -5.439640e-001 3.124327e+000 137 24 28
8.362673e-001 -5.439640e-001 3.124327e+000 137 24 28
8.344634e-001 -5.474655e-001 3.123200e+000 146 23 29
8.158491e-001 -5.508192e-001 3.102902e+000 130 27 31
8.253288e-001 -5.560428e-001 3.113335e+000 192 55 54
8.183444e-001 -5.587186e-001 3.100492e+000 224 61 67
8.183555e-001 -5.588046e-001 3.100435e+000 224 61 67
8.160115e-001 -5.599970e-001 3.102953e+000 131 22 38
8.168915e-001 -5.591527e-001 3.112188e+000 135 28 33
8.263881e-001 -5.561111e-001 3.118499e+000 135 30 35
8.397253e-001 -5.581320e-001 3.156423e+000 190 130 77
8.187108e-001 -5.680282e-001 3.119186e+000 197 114 89
8.228337e-001 -5.794085e-001 3.134486e+000 175 128 76
8.138202e-001 -5.850196e-001 3.128874e+000 170 130 80
7.732253e-001 -3.784412e-001 3.055117e+000 190 38 52
8.422463e-001 -4.760191e-001 3.077659e+000 15 52 70
8.553065e-001 -4.870014e-001 3.128342e+000 137 81 55
8.450404e-001 -5.009888e-001 3.106062e+000 72 42 28
8.494664e-001 -5.175982e-001 3.141106e+000 129 82 48
8.272887e-001 -5.235872e-001 3.090444e+000 135 79 60
8.266895e-001 -5.454314e-001 3.108883e+000 133 31 24
8.203420e-001 -5.526139e-001 3.107185e+000 131 28 22
8.203420e-001 -5.526139e-001 3.107185e+000 131 28 22
8.232357e-001 -5.532924e-001 3.107429e+000 228 58 67
8.215889e-001 -5.550221e-001 3.112480e+000 145 25 29
8.130873e-001 -5.618281e-001 3.106903e+000 213 83 76
8.388393e-001 -5.568249e-001 3.150647e+000 191 130 83
8.284182e-001 -5.654867e-001 3.134479e+000 165 96 72
8.026860e-001 -6.160498e-001 3.140433e+000 75 16 16
8.583364e-001 -3.074475e-001 3.077017e+000 199 42 42
8.636434e-001 -4.278308e-001 3.073486e+000 35 52 21
8.500035e-001 -4.694006e-001 3.090176e+000 155 22 32
8.534406e-001 -4.674317e-001 3.096934e+000 145 23 30
8.327848e-001 -5.058859e-001 3.082502e+000 159 95 65
8.312806e-001 -5.121172e-001 3.088126e+000 198 123 84
8.389292e-001 -5.236054e-001 3.110881e+000 82 40 16
8.468641e-001 -5.269240e-001 3.151784e+000 147 26 26
8.497510e-001 -5.269703e-001 3.160614e+000 151 24 33
8.273635e-001 -5.727732e-001 3.140836e+000 139 44 25
8.619296e-001 -4.015156e-001 3.051271e+000 27 53 21
8.367549e-001 -4.715376e-001 3.065550e+000 164 71 49
8.592124e-001 -4.081660e-001 3.046144e+000 82 112 80
8.210010e-001 -5.178615e-001 3.077696e+000 189 117 93
8.465389e-001 -5.367971e-001 3.155226e+000 166 22 31
8.095138e-001 -5.625143e-001 3.105444e+000 155 21 35
8.218451e-001 -5.730972e-001 3.123352e+000 180 123 78
8.404111e-001 -5.624675e-001 3.185632e+000 198 103 24
8.727812e-001 -3.709709e-001 3.061415e+000 12 86 116
8.611307e-001 -3.870569e-001 3.025870e+000 229 130 95
8.611307e-001 -3.870569e-001 3.025870e+000 229 130 95
8.622055e-001 -3.836246e-001 3.031632e+000 220 140 102
8.627605e-001 -3.831471e-001 3.035112e+000 220 140 105
8.648345e-001 -3.854585e-001 3.035442e+000 246 121 95
8.692906e-001 -3.805130e-001 3.050712e+000 216 134 88
8.712037e-001 -3.808583e-001 3.047431e+000 216 134 88
8.719093e-001 -3.788371e-001 3.053843e+000 157 51 33
8.676848e-001 -3.788725e-001 3.060207e+000 157 51 33
8.729824e-001 -3.987583e-001 3.062167e+000 40 53 11
8.677052e-001 -4.011630e-001 3.085531e+000 145 149 37
8.580482e-001 -4.080257e-001 3.048270e+000 87 114 102
8.580482e-001 -4.080257e-001 3.048270e+000 87 114 102
8.650576e-001 -4.096910e-001 3.054095e+000 94 116 53
8.647042e-001 -4.124465e-001 3.061861e+000 95 111 38
8.647042e-001 -4.124465e-001 3.061861e+000 95 111 38
8.687445e-001 -4.086908e-001 3.085085e+000 74 107 67
8.687445e-001 -4.086908e-001 3.085085e+000 74 107 67
8.711052e-001 -4.055967e-001 3.092378e+000 67 100 86
8.577794e-001 -4.136518e-001 3.060191e+000 90 116 106
8.583079e-001 -4.156489e-001 3.062519e+000 96 119 74
8.628104e-001 -4.142360e-001 3.077165e+000 80 105 68
8.664978e-001 -4.165086e-001 3.089538e+000 83 116 73
8.673272e-001 -4.187966e-001 3.115943e+000 161 156 116
8.498091e-001 -4.498609e-001 3.076458e+000 92 41 36
8.498091e-001 -4.498609e-001 3.076458e+000 92 41 36
8.513470e-001 -4.495077e-001 3.077898e+000 88 43 35
8.538548e-001 -4.485781e-001 3.083186e+000 94 40 34
8.538548e-001 -4.485781e-001 3.083186e+000 94 40 34
8.566827e-001 -4.460648e-001 3.088992e+000 178 145 110
8.566827e-001 -4.460648e-001 3.088992e+000 178 145 110
8.576017e-001 -4.465338e-001 3.094992e+000 182 149 118
8.614515e-001 -4.486532e-001 3.089344e+000 111 79 59
8.499602e-001 -4.649406e-001 3.087656e+000 228 153 114
8.580358e-001 -4.629761e-001 3.092835e+000 239 143 97
8.589811e-001 -4.623406e-001 3.095034e+000 226 142 100
8.558523e-001 -4.629661e-001 3.101788e+000 133 29 17
8.558523e-001 -4.629661e-001 3.101788e+000 133 29 17
8.572993e-001 -4.609521e-001 3.104842e+000 244 147 96
8.372361e-001 -4.701645e-001 3.058133e+000 242 141 110
8.372361e-001 -4.701645e-001 3.058133e+000 242 141 110
8.370766e-001 -4.704185e-001 3.066161e+000 222 154 108
8.423542e-001 -4.703299e-001 3.075657e+000 222 145 106
8.470919e-001 -4.699175e-001 3.072123e+000 228 146 109
8.464387e-001 -4.685158e-001 3.083964e+000 232 145 112
8.505012e-001 -4.670978e-001 3.091094e+000 222 148 111
8.497946e-001 -4.793828e-001 3.085654e+000 19 80 103
8.464666e-001 -4.881696e-001 3.098894e+000 52 26 13
8.561807e-001 -4.864816e-001 3.129262e+000 202 126 82
8.293659e-001 -5.061688e-001 3.080064e+000 205 130 95
8.205935e-001 -5.127248e-001 3.067930e+000 248 101 96
8.345574e-001 -5.090842e-001 3.090122e+000 199 126 95
8.345798e-001 -5.090443e-001 3.090123e+000 199 126 95
7.924786e-001 -5.186960e-001 3.088881e+000 202 82 85
7.938691e-001 -5.217525e-001 3.091801e+000 169 57 58
8.382455e-001 -5.274767e-001 3.114222e+000 196 125 94
7.788487e-001 -5.352812e-001 3.109284e+000 77 133 209
8.445330e-001 -5.357391e-001 3.136801e+000 135 33 29
8.492844e-001 -5.310475e-001 3.155975e+000 142 30 29
8.223692e-001 -5.462400e-001 3.096380e+000 226 104 88
8.322240e-001 -5.445976e-001 3.118778e+000 252 82 74
8.316985e-001 -5.444228e-001 3.120032e+000 252 82 74
8.362694e-001 -5.400532e-001 3.122765e+000 228 63 67
8.430741e-001 -5.386429e-001 3.146791e+000 154 24 30
8.133089e-001 -5.517126e-001 3.108313e+000 241 92 90
8.312283e-001 -5.530044e-001 3.125558e+000 214 57 54
8.063910e-001 -5.606057e-001 3.114479e+000 234 77 79
7.784729e-001 -3.703223e-001 3.048528e+000 163 49 58
8.693042e-001 -3.781475e-001 3.044252e+000 167 38 38
7.668961e-001 -3.937965e-001 3.070269e+000 159 180 93
8.696374e-001 -4.051884e-001 3.058082e+000 52 100 95
7.730724e-001 -4.192877e-001 3.071911e+000 146 162 99
8.527710e-001 -4.191017e-001 3.029165e+000 153 146 26
8.464760e-001 -4.182015e-001 3.037434e+000 153 146 26
7.748915e-001 -4.323236e-001 3.074128e+000 49 62 36
8.511085e-001 -4.510228e-001 3.077042e+000 179 147 124
7.547541e-001 -4.673156e-001 3.111450e+000 167 89 83
8.396409e-001 -4.699549e-001 3.066357e+000 210 158 113
8.496570e-001 -4.708011e-001 3.092312e+000 25 75 104
8.304007e-001 -4.772124e-001 3.060840e+000 22 84 115
8.609423e-001 -4.764273e-001 3.129944e+000 89 44 21
8.609423e-001 -4.764273e-001 3.129944e+000 89 44 21
7.565074e-001 -4.574272e-001 3.352103e+000 22 15 13
8.322386e-001 -4.948729e-001 3.066524e+000 116 57 44
8.322386e-001 -4.948729e-001 3.066524e+000 116 57 44
8.265763e-001 -5.068897e-001 3.080470e+000 71 38 25
8.318232e-001 -5.061667e-001 3.082556e+000 72 37 29
8.466280e-001 -5.015123e-001 3.096785e+000 195 123 98
8.002198e-001 -5.162986e-001 3.083450e+000 169 52 52
8.277930e-001 -5.201880e-001 3.085296e+000 126 70 54
8.303850e-001 -5.191893e-001 3.090246e+000 133 72 38
8.303850e-001 -5.191893e-001 3.090246e+000 133 72 38
8.496228e-001 -5.130833e-001 3.139933e+000 84 49 26
8.111289e-001 -5.251069e-001 3.068716e+000 172 48 50
8.499542e-001 -5.220726e-001 3.140843e+000 117 74 47
8.504229e-001 -5.216630e-001 3.149524e+000 196 129 84
8.475264e-001 -5.260396e-001 3.146572e+000 200 120 82
8.504028e-001 -5.279997e-001 3.150607e+000 206 57 53
8.485852e-001 -5.290994e-001 3.158894e+000 208 62 57
8.423764e-001 -5.381203e-001 3.135726e+000 213 64 62
8.483158e-001 -5.332181e-001 3.151460e+000 145 32 35
8.479113e-001 -5.330150e-001 3.152438e+000 145 32 35
8.460262e-001 -5.343692e-001 3.153202e+000 222 64 68
8.224306e-001 -5.474468e-001 3.098068e+000 142 30 29
8.185263e-001 -5.459877e-001 3.112398e+000 155 23 31
8.325540e-001 -5.431269e-001 3.127506e+000 214 65 60
8.325540e-001 -5.431269e-001 3.127506e+000 214 65 60
8.385513e-001 -5.409357e-001 3.134880e+000 142 30 29
8.245227e-001 -5.496843e-001 3.105709e+000 152 30 33
8.245227e-001 -5.496843e-001 3.105709e+000 152 30 33
8.185179e-001 -5.571120e-001 3.122839e+000 150 29 30
8.259286e-001 -5.578273e-001 3.119806e+000 235 78 72
8.624806e-001 -3.773950e-001 3.012872e+000 33 92 113
8.598987e-001 -4.002240e-001 3.049451e+000 150 156 36
8.598987e-001 -4.002240e-001 3.049451e+000 150 156 36
7.660180e-001 -4.073286e-001 3.076632e+000 45 59 36
8.671064e-001 -4.073862e-001 3.086458e+000 61 102 109
8.647570e-001 -4.183826e-001 3.094133e+000 167 156 27
8.647233e-001 -4.183302e-001 3.094213e+000 167 156 27
8.492741e-001 -4.506890e-001 3.073399e+000 174 145 125
8.612240e-001 -4.595303e-001 3.132641e+000 20 55 74
7.489105e-001 -4.684500e-001 3.119939e+000 146 50 53
7.591843e-001 -4.693576e-001 3.105998e+000 196 121 123
7.629254e-001 -4.720745e-001 3.102058e+000 198 116 118
8.593055e-001 -4.694335e-001 3.125236e+000 23 81 111
8.594402e-001 -4.780043e-001 3.133855e+000 200 123 81
7.743966e-001 -4.902597e-001 3.094300e+000 70 60 109
8.533428e-001 -4.875189e-001 3.095677e+000 85 46 20
8.177735e-001 -5.006682e-001 3.059917e+000 177 57 58
8.548129e-001 -4.901403e-001 3.137119e+000 126 71 42
8.563788e-001 -4.898282e-001 3.135435e+000 126 71 42
8.475388e-001 -5.013188e-001 3.102041e+000 52 23 12
8.536136e-001 -5.031872e-001 3.140839e+000 118 73 46
8.519935e-001 -5.044668e-001 3.136779e+000 130 91 62
8.530884e-001 -5.078486e-001 3.141389e+000 127 88 62
8.489694e-001 -5.174449e-001 3.141520e+000 145 98 66
8.386885e-001 -5.281999e-001 3.110545e+000 165 101 81
8.376478e-001 -5.323679e-001 3.112976e+000 85 51 37
8.398025e-001 -5.272759e-001 3.118237e+000 82 47 28
8.266027e-001 -5.365824e-001 3.096898e+000 149 102 75
8.266027e-001 -5.365824e-001 3.096898e+000 149 102 75
8.401597e-001 -5.401731e-001 3.139848e+000 165 32 28
8.302307e-001 -5.476419e-001 3.118733e+000 162 34 20
8.651267e-001 -3.800797e-001 3.017312e+000 180 35 42
8.607019e-001 -3.796830e-001 3.023229e+000 180 35 42
8.635217e-001 -3.789292e-001 3.025817e+000 177 38 35
8.681543e-001 -3.804711e-001 3.038167e+000 180 38 29
8.592347e-001 -3.898252e-001 3.013449e+000 178 32 36
8.597541e-001 -3.899531e-001 3.012908e+000 178 32 36
8.682259e-001 -3.939857e-001 3.072381e+000 166 153 32
8.682259e-001 -3.939857e-001 3.072381e+000 166 153 32
8.626436e-001 -4.023381e-001 3.037413e+000 149 139 22
8.639792e-001 -4.142603e-001 3.053259e+000 85 111 116
8.639792e-001 -4.142603e-001 3.053259e+000 85 111 116
8.650369e-001 -4.125563e-001 3.072602e+000 64 106 111
8.595904e-001 -4.550593e-001 3.113522e+000 164 23 30
8.385735e-001 -4.733631e-001 3.070956e+000 149 24 34
8.549710e-001 -4.679486e-001 3.107849e+000 11 53 75
8.600017e-001 -4.683768e-001 3.139469e+000 20 82 115
8.397552e-001 -4.772817e-001 3.071340e+000 19 55 80
8.436894e-001 -4.754098e-001 3.080200e+000 8 49 70
7.451979e-001 -4.535610e-001 3.366388e+000 36 29 21
7.824890e-001 -4.946617e-001 3.086228e+000 73 53 101
8.557958e-001 -4.847683e-001 3.128953e+000 204 126 79
8.546093e-001 -4.878768e-001 3.134589e+000 195 124 90
8.150473e-001 -4.988999e-001 3.055427e+000 180 57 59
8.451968e-001 -4.973982e-001 3.094971e+000 174 110 75
8.449423e-001 -4.942084e-001 3.102816e+000 202 121 93
8.543577e-001 -4.954949e-001 3.134251e+000 135 78 50
8.410135e-001 -5.063614e-001 3.102971e+000 96 53 28
8.407567e-001 -5.062915e-001 3.103168e+000 96 53 28
8.423273e-001 -5.062999e-001 3.105336e+000 82 38 25
8.521926e-001 -5.000730e-001 3.137018e+000 120 71 37
8.404909e-001 -5.107770e-001 3.104922e+000 121 78 57
8.404909e-001 -5.107770e-001 3.104922e+000 121 78 57
8.405064e-001 -5.152168e-001 3.106182e+000 84 43 26
8.258018e-001 -5.268859e-001 3.087605e+000 192 130 94
8.258018e-001 -5.268859e-001 3.087605e+000 192 130 94
8.386045e-001 -5.213628e-001 3.111410e+000 195 127 88
8.405834e-001 -5.203792e-001 3.116966e+000 196 124 91
8.392832e-001 -5.249129e-001 3.117138e+000 188 125 94
8.392832e-001 -5.249129e-001 3.117138e+000 188 125 94
8.378058e-001 -5.299365e-001 3.115422e+000 198 124 85
8.469443e-001 -5.293663e-001 3.144129e+000 151 27 32
7.882544e-001 -5.371061e-001 3.102745e+000 24 88 155
8.149822e-001 -5.350398e-001 3.101402e+000 201 127 100
8.149822e-001 -5.350398e-001 3.101402e+000 201 127 100
8.239636e-001 -5.375769e-001 3.090987e+000 144 96 76
5.279654e-001 -3.555549e-001 3.389250e+000 97 83 70
5.293019e-001 -3.575936e-001 3.394039e+000 130 111 96
5.317396e-001 -3.899739e-001 3.414677e+000 114 100 91
5.317396e-001 -3.899739e-001 3.414677e+000 114 100 91
7.811255e-001 -4.110951e-001 3.059551e+000 49 63 35
7.729973e-001 -4.126348e-001 3.069603e+000 160 171 131
7.729973e-001 -4.126348e-001 3.069603e+000 160 171 131
5.324383e-001 -3.958423e-001 3.401173e+000 91 80 74
5.324383e-001 -3.958423e-001 3.401173e+000 91 80 74
7.733269e-001 -4.169843e-001 3.070972e+000 101 117 74
7.853945e-001 -4.187800e-001 3.056757e+000 154 173 111
7.987653e-001 -4.290538e-001 3.042620e+000 38 64 39
8.612614e-001 -4.204600e-001 3.075157e+000 29 55 26
5.298634e-001 -4.188605e-001 3.385990e+000 58 46 30
8.431804e-001 -4.992195e-001 3.101910e+000 196 122 88
8.438845e-001 -4.992698e-001 3.100916e+000 196 122 88
8.285511e-001 -5.098147e-001 3.074700e+000 204 130 95
8.394040e-001 -5.207807e-001 3.114554e+000 194 126 90
7.998040e-001 -3.738400e-001 3.021521e+000 53 96 157
5.354001e-001 -3.602902e-001 3.396570e+000 135 112 94
8.718041e-001 -3.770891e-001 3.066931e+000 21 86 115
5.433252e-001 -3.827871e-001 3.401545e+000 150 124 101
7.800683e-001 -4.020974e-001 3.058663e+000 47 67 40
7.705216e-001 -4.241747e-001 3.077515e+000 101 127 81
8.636055e-001 -4.187409e-001 3.082986e+000 29 56 24
7.765332e-001 -4.430284e-001 3.075816e+000 168 165 176
8.451989e-001 -4.684502e-001 3.080560e+000 101 25 26
8.551346e-001 -4.761830e-001 3.115384e+000 11 56 80
7.739464e-001 -5.233012e-001 3.108812e+000 142 32 43
8.224579e-001 -5.236164e-001 3.077014e+000 204 131 107
8.186295e-001 -5.461380e-001 3.087610e+000 170 21 39
8.285767e-001 -5.513932e-001 3.118123e+000 165 23 31
8.285767e-001 -5.513932e-001 3.118123e+000 165 23 31
5.283462e-001 -3.617757e-001 3.415570e+000 107 90 70
7.664079e-001 -4.380169e-001 3.086619e+000 167 166 171
8.318050e-001 -5.502315e-001 3.121416e+000 169 24 31
8.318050e-001 -5.502315e-001 3.121416e+000 169 24 31
5.373282e-001 -3.727339e-001 3.400539e+000 68 55 48
5.352113e-001 -4.051800e-001 3.408752e+000 140 117 83
7.824414e-001 -4.465910e-001 3.070202e+000 169 167 180
5.194818e-001 -3.689368e-001 3.393463e+000 124 106 85
7.920570e-001 -4.546820e-001 3.063271e+000 166 168 180
7.817318e-001 -5.073975e-001 3.092607e+000 127 32 40
7.986339e-001 -5.197872e-001 3.089320e+000 178 86 78
8.368188e-001 -5.150472e-001 3.098278e+000 197 124 89
5.244538e-001 -3.454614e-001 3.387662e+000 141 118 87
5.151881e-001 -3.784120e-001 3.395914e+000 17 11 13
5.284837e-001 -3.833011e-001 3.402843e+000 118 97 74
7.741347e-001 -4.848547e-001 3.094831e+000 170 34 46
5.176987e-001 -3.583070e-001 3.385555e+000 29 19 20
8.636582e-001 -4.130239e-001 3.139455e+000 179 162 119
8.131390e-001 -4.893472e-001 3.061372e+000 173 168 165
8.215620e-001 -5.534696e-001 3.103872e+000 140 20 25
7.769534e-001 -5.570810e-001 3.126356e+000 186 151 132
8.850436e-001 -5.094450e-001 3.076294e+000 195 131 85
8.678540e-001 -3.759998e-001 3.051463e+000 230 120 90
8.708045e-001 -3.758603e-001 3.055580e+000 158 50 36
8.708045e-001 -3.758603e-001 3.055580e+000 158 50 36
8.653918e-001 -3.976859e-001 3.063170e+000 55 82 41
8.681169e-001 -4.009553e-001 3.084950e+000 155 145 31
8.646815e-001 -4.153832e-001 3.085152e+000 84 111 70
8.568444e-001 -4.429198e-001 3.086667e+000 102 59 49
8.434875e-001 -4.685146e-001 3.077228e+000 225 141 103
8.434875e-001 -4.685146e-001 3.077228e+000 225 141 103
8.472220e-001 -4.681003e-001 3.086535e+000 233 146 116
8.512465e-001 -4.656685e-001 3.089830e+000 217 150 113
8.513508e-001 -4.666730e-001 3.093111e+000 226 145 105
8.565701e-001 -4.617411e-001 3.102799e+000 226 140 105
8.576279e-001 -4.599367e-001 3.107241e+000 240 139 106
8.600767e-001 -4.583064e-001 3.114652e+000 146 49 38
8.601332e-001 -4.582312e-001 3.114778e+000 146 49 38
8.465568e-001 -4.916439e-001 3.104295e+000 63 31 14
8.520619e-001 -5.084481e-001 3.138901e+000 195 132 90
8.607100e-001 -3.835933e-001 3.025566e+000 205 129 93
8.610563e-001 -3.840473e-001 3.035606e+000 156 43 33
8.564569e-001 -4.482722e-001 3.089664e+000 187 141 113
8.140747e-001 -5.189613e-001 3.065289e+000 188 87 85
8.109798e-001 -5.237183e-001 3.067723e+000 205 90 90
8.261054e-001 -5.289970e-001 3.088895e+000 73 31 17
8.559719e-001 -3.915620e-001 3.029692e+000 61 95 105
8.274966e-001 -5.026716e-001 3.073943e+000 172 109 79
8.274966e-001 -5.026716e-001 3.073943e+000 172 109 79
8.450035e-001 -5.012916e-001 3.105994e+000 70 37 20
8.431868e-001 -5.184796e-001 3.115407e+000 55 27 16
8.428080e-001 -4.720216e-001 3.077751e+000 137 24 28
8.598980e-001 -4.706001e-001 3.121198e+000 20 80 107
8.590985e-001 -4.702125e-001 3.122865e+000 20 80 107
8.227753e-001 -5.034733e-001 3.065282e+000 165 49 46
8.550172e-001 -4.940251e-001 3.131130e+000 209 115 83
8.548856e-001 -4.959971e-001 3.132855e+000 148 86 59
8.401194e-001 -5.131206e-001 3.106608e+000 197 125 93
8.322734e-001 -5.205887e-001 3.095368e+000 187 125 89
8.398405e-001 -5.171417e-001 3.108810e+000 195 125 92
8.284665e-001 -5.260959e-001 3.089923e+000 194 122 96
8.388925e-001 -5.214674e-001 3.111072e+000 210 121 90
8.181756e-001 -5.368624e-001 3.081052e+000 130 23 35
8.553862e-001 -4.159846e-001 3.049372e+000 118 124 64
8.632644e-001 -4.269011e-001 3.085230e+000 30 54 17
8.388484e-001 -5.089815e-001 3.100010e+000 195 125 91
8.570656e-001 -4.143554e-001 3.062601e+000 84 110 114
8.570656e-001 -4.143554e-001 3.062601e+000 84 110 114
8.427059e-001 -5.145071e-001 3.105927e+000 138 83 55
8.427059e-001 -5.145071e-001 3.105927e+000 138 83 55
8.734997e-001 -3.509794e-001 3.055286e+000 22 89 116
7.480537e-001 -3.457713e-001 3.441299e+000 42 35 26
7.522140e-001 -3.464504e-001 3.437483e+000 135 125 90
7.513473e-001 -3.534911e-001 3.429096e+000 47 45 32
8.189717e-001 -5.610626e-001 3.104780e+000 227 81 81
8.171828e-001 -5.633546e-001 3.101992e+000 106 13 17
8.270600e-001 -5.701424e-001 3.135687e+000 155 75 24
8.229867e-001 -5.774105e-001 3.132873e+000 179 127 77
8.300806e-001 -5.726917e-001 3.146583e+000 166 55 26
8.342832e-001 -5.740714e-001 3.164730e+000 208 117 43
8.202373e-001 -5.827228e-001 3.134050e+000 170 121 70
8.252019e-001 -5.795940e-001 3.144393e+000 175 115 69
8.319234e-001 -5.860421e-001 3.172346e+000 190 144 104
8.197653e-001 -6.043719e-001 3.159356e+000 162 125 80
8.119030e-001 -6.076667e-001 3.143827e+000 18 11 5
8.169428e-001 -5.538463e-001 3.099627e+000 109 28 19
8.168163e-001 -5.568875e-001 3.098492e+000 129 21 25
8.305945e-001 -5.609208e-001 3.133274e+000 61 28 16
8.311232e-001 -5.608644e-001 3.132763e+000 61 28 16
8.160067e-001 -5.635020e-001 3.099889e+000 129 21 27
8.295429e-001 -5.741887e-001 3.145830e+000 121 33 27
8.309393e-001 -5.927435e-001 3.178751e+000 161 86 25
8.229747e-001 -5.605037e-001 3.115551e+000 131 23 26
8.361609e-001 -5.580107e-001 3.148638e+000 182 126 74
8.200681e-001 -5.785900e-001 3.125110e+000 169 124 75
8.314116e-001 -5.348131e-001 3.108879e+000 179 111 74
8.333822e-001 -5.543862e-001 3.131192e+000 229 78 74
8.426846e-001 -5.503323e-001 3.159930e+000 206 134 81
8.144304e-001 -5.616690e-001 3.100382e+000 211 64 65
8.400019e-001 -5.650470e-001 3.167077e+000 189 57 37
8.400201e-001 -5.640008e-001 3.172348e+000 196 71 27
8.349265e-001 -5.732447e-001 3.157630e+000 174 65 34
8.386308e-001 -5.715196e-001 3.174616e+000 191 81 25
8.396131e-001 -5.715804e-001 3.173866e+000 191 81 25
8.289347e-001 -5.794889e-001 3.151580e+000 179 70 27
8.370565e-001 -5.757061e-001 3.166496e+000 186 85 24
8.144223e-001 -5.868488e-001 3.131260e+000 176 127 79
8.231012e-001 -5.846451e-001 3.142196e+000 50 27 7
8.230488e-001 -5.846237e-001 3.142278e+000 50 27 7
8.229863e-001 -5.877698e-001 3.143743e+000 168 125 75
8.339891e-001 -5.833399e-001 3.179065e+000 220 153 101
8.124013e-001 -5.932687e-001 3.125039e+000 172 127 87
8.146764e-001 -5.947099e-001 3.137825e+000 23 16 9
8.210310e-001 -5.916251e-001 3.146195e+000 27 17 12
8.299525e-001 -5.901217e-001 3.176563e+000 188 145 100
8.324496e-001 -5.937224e-001 3.184137e+000 182 94 30
8.105128e-001 -5.963306e-001 3.133126e+000 14 5 4
8.119725e-001 -5.964916e-001 3.130455e+000 14 5 4
8.240330e-001 -6.007492e-001 3.164487e+000 90 68 37
8.275779e-001 -5.966205e-001 3.179017e+000 175 87 27
8.284990e-001 -5.999276e-001 3.177928e+000 34 10 2
8.309434e-001 -5.945605e-001 3.188380e+000 34 9 2
8.325884e-001 -5.970580e-001 3.185028e+000 56 15 1
8.300400e-001 -5.967418e-001 3.189698e+000 56 15 1
8.081832e-001 -6.092691e-001 3.138856e+000 21 11 2
8.069710e-001 -6.091369e-001 3.141060e+000 21 11 2
8.078108e-001 -6.133054e-001 3.151546e+000 120 62 39
8.400190e-001 -5.565024e-001 3.158068e+000 94 54 24
8.267061e-001 -5.750993e-001 3.139203e+000 181 118 66
8.186262e-001 -5.795803e-001 3.124110e+000 178 131 81
8.223034e-001 -5.813756e-001 3.139340e+000 174 126 80
8.390800e-001 -5.761438e-001 3.189436e+000 42 19 16
8.390800e-001 -5.761438e-001 3.189436e+000 42 19 16
8.140775e-001 -5.881335e-001 3.123324e+000 175 131 85
8.239939e-001 -5.829961e-001 3.141916e+000 173 127 82
8.097549e-001 -5.909568e-001 3.129158e+000 180 127 83
8.140714e-001 -6.067191e-001 3.151787e+000 173 126 91
8.188052e-001 -6.059258e-001 3.163651e+000 106 50 23
8.401065e-001 -5.522670e-001 3.154972e+000 90 54 26
8.193175e-001 -5.568159e-001 3.100059e+000 141 26 34
8.188304e-001 -5.567232e-001 3.100000e+000 141 26 34
8.385056e-001 -5.567769e-001 3.151277e+000 191 130 83
8.215302e-001 -5.653706e-001 3.115612e+000 173 102 73
8.231784e-001 -5.649772e-001 3.118840e+000 69 32 7
8.347928e-001 -5.657700e-001 3.149049e+000 190 128 69
8.084788e-001 -5.897811e-001 3.125344e+000 178 128 93
8.172830e-001 -6.052315e-001 3.158822e+000 172 127 97
8.339228e-001 -5.589710e-001 3.144410e+000 196 129 77
8.221904e-001 -5.671915e-001 3.117238e+000 195 116 78
8.292233e-001 -5.674206e-001 3.136010e+000 196 114 69
8.341199e-001 -5.678158e-001 3.152086e+000 162 84 29
8.174102e-001 -5.777524e-001 3.118233e+000 97 65 37
8.476889e-001 -5.341675e-001 3.163400e+000 163 24 29
8.336135e-001 -5.896433e-001 3.189094e+000 187 94 26
8.729226e-001 -3.726276e-001 3.061606e+000 166 100 74
8.673738e-001 -3.804149e-001 3.042246e+000 163 53 34
8.686689e-001 -4.011163e-001 3.084297e+000 145 149 37
8.386402e-001 -4.761212e-001 3.074505e+000 8 50 72
8.239236e-001 -5.076466e-001 3.066080e+000 162 53 42
8.339224e-001 -5.231251e-001 3.100062e+000 195 124 92
8.470069e-001 -5.336766e-001 3.154770e+000 210 57 62
8.330391e-001 -5.520953e-001 3.128096e+000 155 27 33
8.380355e-001 -5.504452e-001 3.136946e+000 127 31 27
8.380355e-001 -5.504452e-001 3.136946e+000 127 31 27
8.364922e-001 -5.518519e-001 3.138651e+000 218 68 63
8.322349e-001 -5.542677e-001 3.125754e+000 135 30 30
8.313476e-001 -5.541504e-001 3.126858e+000 135 30 30
8.431818e-001 -5.505857e-001 3.159202e+000 192 126 81
8.190033e-001 -5.646733e-001 3.123445e+000 198 127 98
8.294146e-001 -5.652358e-001 3.135139e+000 198 125 91
8.356891e-001 -5.612212e-001 3.145938e+000 197 129 84
8.208406e-001 -5.671079e-001 3.130184e+000 190 122 94
8.239627e-001 -5.672785e-001 3.130142e+000 215 134 102
8.342379e-001 -5.683222e-001 3.154131e+000 112 50 13
