ply
format ascii 1.0
element vertex 718
property float x
property float y
property float z
property float nx
property float ny
property float nz
property uchar red
property uchar green
property uchar blue
end_header
-2.99225 -1.41994 -8.89118 0.637568 -0.739905 -0.214586 125 58 41
-2.55697 -1.64684 -9.37159 -0.195891 -0.942362 -0.271258 191 95 53
-2.31165 -1.6321 -9.61184 0.46082 -0.885987 -0.0516971 112 47 33
-2.30903 -1.65453 -9.62856 0.405034 -0.913099 -0.0468783 111 46 32
-2.27728 -1.63809 -9.64944 0.451165 -0.876549 -0.167667 114 50 35
-2.03777 -1.64904 -9.86486 -0.228774 -0.511038 0.828554 98 29 29
-2.01817 -1.69211 -9.88922 -0.0561197 -0.283685 0.957274 105 45 39
-1.6879 -1.8778 -10.256 0.392271 -0.898471 0.197162 84 39 34
-0.323287 -1.47851 -11.575 0.448948 -0.655491 0.60727 178 170 159
-0.323287 -1.47851 -11.575 0.448948 -0.655491 0.60727 178 170 159
0.149469 -3.10907 -12.3326 -0.737244 -0.157599 0.656989 163 139 119
0.155476 -3.15204 -12.3126 -0.753665 -0.122695 0.645705 160 112 73
0.161386 -3.14068 -12.3415 -0.735923 -0.124381 0.665543 172 117 69
4.04386 -2.49832 -16.1165 0.240799 -0.718605 0.652398 217 208 202
-2.3102 -1.65025 -9.63411 0.458436 -0.885153 -0.0796353 112 47 33
-2.2428 -1.61067 -9.6989 0.388843 -0.91908 0.0639864 94 40 32
-2.04376 -1.74551 -9.94894 -0.513309 -0.640744 0.57093 177 91 55
-2.04956 -1.76299 -9.94669 0.0227988 -0.309526 0.950618 175 91 56
-2.02249 -1.73901 -9.93328 -0.138854 -0.237841 0.961328 175 90 55
-1.76541 -1.90675 -10.2469 0.219833 -0.969463 -0.108695 80 35 31
-1.73361 -1.84319 -10.2653 0.512444 -0.855722 -0.0716928 79 33 31
-1.7126 -1.85211 -10.2837 0.437911 -0.87111 -0.222266 81 35 31
-1.677 -1.84426 -10.2991 0.470439 -0.868649 -0.155359 86 39 33
-0.843456 -0.749285 -10.9777 -0.495916 -0.715867 -0.491531 86 33 36
-0.316038 -1.49769 -11.6171 0.426444 -0.595443 0.680876 185 179 168
-0.00114575 -1.38945 -11.9037 -0.357478 -0.25491 0.89846 226 223 213
0.124294 -3.08797 -12.3329 -0.531197 -0.638757 0.556614 171 161 151
0.116357 -3.16632 -12.3455 -0.847185 0.0283746 0.53054 174 115 60
0.486217 -3.44231 -12.7626 -0.0642824 -0.979942 -0.188633 153 138 129
3.98652 -2.51019 -16.1331 -0.699308 -0.652669 0.291533 218 209 203
-3.72499 -1.03183 -8.16385 -0.272754 -0.954976 0.116732 108 91 76
-3.70022 -1.03374 -8.18032 0.20555 -0.82622 -0.524509 117 100 90
-3.67819 -1.01883 -8.21168 0.487975 -0.677515 -0.550322 195 186 180
-3.65142 -1.0156 -8.21698 0.597771 -0.668325 -0.442733 191 174 165
-3.31748 -1.42171 -8.61732 0.356293 -0.733509 -0.578808 144 69 39
-2.33655 -1.70826 -9.68948 0.499733 -0.855847 0.13339 117 47 33
-2.21715 -1.6838 -9.77259 0.372837 -0.869792 -0.323196 81 32 27
-2.15864 -1.6465 -9.84457 -0.0771018 -0.839645 0.537635 95 37 32
-2.07699 -1.74808 -9.93987 0.133471 -0.366127 0.920943 162 79 49
-1.76665 -1.84827 -10.249 0.229763 -0.966566 -0.113842 79 34 31
-1.61755 -1.77185 -10.3871 0.463749 -0.871637 -0.158699 100 49 37
-1.61526 -1.76866 -10.428 0.438674 -0.87558 -0.202301 110 58 45
0.0962599 -3.12713 -12.3386 -0.761918 -0.431928 0.482617 172 132 93
0.0876082 -3.16596 -12.3349 -0.880927 -0.21323 0.422493 169 120 71
-3.72186 -1.02651 -8.19229 -0.0884881 -0.937961 -0.335261 185 177 169
-3.70078 -1.00489 -8.23171 0.279823 -0.775398 -0.566088 203 197 194
-3.67855 -1.02087 -8.2304 0.608353 -0.661102 -0.439147 202 195 191
-3.58201 -1.4202 -8.39699 -0.500238 -0.808955 0.308795 217 164 134
-2.26546 -1.65651 -9.76213 0.554046 -0.820894 -0.138438 115 51 37
-2.25755 -1.6865 -9.80174 0.359901 -0.863997 -0.352109 125 56 39
-2.18906 -1.65049 -9.8673 0.319254 -0.695812 0.643368 112 48 36
-2.15926 -1.66979 -9.87296 0.425493 -0.547526 0.720536 117 50 36
-2.15532 -1.76564 -9.91744 0.100048 -0.475806 0.873841 137 66 46
-2.15251 -1.76107 -9.9174 0.141807 -0.369791 0.918229 137 67 46
-2.12543 -1.77056 -9.92827 0.149976 -0.373666 0.915359 146 71 47
-2.13056 -1.75368 -9.93708 -0.0126903 -0.890981 0.453863 145 70 46
-1.87533 -1.92091 -10.1933 0.415146 -0.878174 -0.237621 98 45 35
0.0584794 -3.08962 -12.3685 -0.738531 -0.485035 0.46831 183 163 144
3.95213 -2.57911 -16.245 -0.628265 -0.443146 0.639456 201 195 192
-3.69507 -1.03761 -8.26716 0.451416 -0.734158 -0.507184 206 197 191
-3.32978 -1.35187 -8.6703 0.505381 -0.722642 -0.471571 153 74 42
-3.32701 -1.34491 -8.66709 0.508851 -0.721113 -0.470177 152 74 42
-3.33243 -1.35394 -8.66981 0.506958 -0.721326 -0.471893 153 75 42
-2.70134 -1.56032 -9.35302 -0.057896 -0.774681 0.629696 183 80 46
-2.59349 -1.69707 -9.48293 0.484828 -0.605004 0.631595 147 55 33
-2.5926 -1.69842 -9.48254 0.483724 -0.617822 0.619925 147 55 33
-2.29336 -1.69632 -9.78601 0.481629 -0.837309 -0.258741 126 54 37
-2.28897 -1.73736 -9.81387 0.382324 -0.840825 -0.3832 125 54 37
-2.18211 -1.72547 -9.8923 0.227224 -0.469541 0.853171 124 57 41
-2.15924 -1.78555 -9.94344 -0.0199807 -0.286115 0.957987 131 62 44
-2.15597 -1.79357 -9.9658 -0.130838 -0.94625 0.295791 125 58 41
-1.88208 -1.89456 -10.2334 0.451316 -0.865373 -0.217816 79 33 29
-1.65974 -1.784 -10.4514 0.305658 -0.90981 -0.280746 95 42 33
-1.54553 -1.71376 -10.5571 0.396581 -0.915241 0.0711204 123 63 47
-0.781056 -0.899076 -11.209 0.194386 -0.906895 -0.37384 102 41 39
0.0138214 -1.50144 -12.0921 -0.816134 0.117007 0.565893 241 238 229
0.0504273 -3.11856 -12.3921 -0.839352 -0.306293 0.449081 150 131 118
-3.03602 -1.34273 -9.01805 0.532616 -0.750512 -0.391218 123 58 42
-2.20837 -1.78051 -9.94495 0.105726 -0.350068 0.930739 109 45 33
-2.18331 -1.78511 -9.95936 -0.199632 -0.903198 0.379975 115 50 35
-1.8397 -1.82547 -10.3093 0.370639 -0.913903 -0.165551 79 35 31
-0.264757 -1.3137 -11.8356 0.324067 -0.783811 0.529737 195 189 178
-0.131064 -1.4159 -12.017 -0.891539 -0.175782 0.417443 230 228 218
0.00524386 -1.55052 -12.1368 -0.723899 0.114377 0.680359 238 236 226
-0.0854691 -2.23429 -12.1509 -0.388141 0.159686 0.90766 228 223 213
0.0288233 -3.14386 -12.407 -0.903502 -0.14494 0.403332 157 116 70
0.359963 -3.42467 -12.7838 -0.0353366 -0.985744 -0.164502 143 125 115
-3.8356 -0.924695 -8.19315 -0.693775 -0.677487 0.24431 199 195 192
-2.62017 -1.67143 -9.53264 0.457409 -0.557574 0.69274 145 56 34
-2.2104 -1.79037 -9.97859 0.137641 -0.896297 0.421553 108 44 31
-1.53742 -1.70847 -10.6577 0.219137 -0.590559 0.776672 155 85 60
-0.115725 -2.39905 -12.2094 -0.881772 -0.346592 0.319926 230 226 216
0.00791217 -3.13811 -12.4219 -0.908556 -0.126969 0.398002 179 135 55
0.436545 -3.34529 -12.9115 -0.00828916 -0.987119 -0.159771 151 135 126
3.89954 -2.15632 -16.2875 -0.775489 0.438799 0.453952 219 209 201
-3.45348 -1.47859 -8.6697 0.471823 -0.722707 -0.505052 170 85 49
-2.44137 -1.74926 -9.76403 -0.412689 -0.907776 0.0750335 159 71 39
-1.96974 -1.84735 -10.285 0.396045 -0.905359 -0.153212 85 38 34
-1.77799 -1.76769 -10.4644 0.233969 -0.884668 -0.403262 89 42 35
-1.76853 -1.74927 -10.4708 0.243993 -0.884711 -0.397183 89 41 34
-1.5346 -1.69224 -10.704 -0.141086 -0.977198 -0.15868 151 85 61
-0.288575 -1.27173 -11.9241 0.344687 -0.671763 0.655687 196 191 180
-0.130754 -2.35526 -12.2326 -0.810668 0.186732 0.554931 229 225 215
-0.136855 -2.74238 -12.3008 -0.510667 -0.719823 0.470184 235 231 222
-0.0561366 -2.91182 -12.4004 -0.755674 0.225129 0.61504 233 229 222
-0.0561946 -2.94241 -12.3936 -0.854793 -0.324066 0.405352 233 230 221
-2.88206 -1.36505 -9.31486 -0.679708 -0.355474 0.641588 141 69 55
-2.60953 -1.69375 -9.60841 0.386947 -0.839902 -0.380575 132 49 31
-2.62611 -1.72767 -9.61996 0.459891 -0.833587 -0.305995 133 51 34
-2.41628 -1.78138 -9.82966 -0.213454 -0.965631 0.148301 157 65 34
-1.90077 -1.82265 -10.395 0.489983 -0.858238 -0.15279 97 53 44
-1.83959 -1.79272 -10.4152 0.475556 -0.862826 -0.1714 97 52 44
-1.56966 -1.6936 -10.7116 -0.387799 -0.92173 0.00515461 161 112 96
-1.53169 -1.68958 -10.7558 0.354212 -0.830706 0.42949 134 75 58
-1.50087 -1.69168 -10.7752 0.460238 -0.811604 0.359832 138 92 79
-0.77412 -0.608429 -11.3675 -0.266671 -0.916688 0.297608 106 38 40
-0.281202 -1.24838 -11.9471 0.390805 -0.807945 0.441019 198 193 182
-0.271473 -1.30411 -12.0013 -0.731651 -0.61405 0.296023 201 197 186
-0.154062 -2.31859 -12.2663 -0.583695 -0.686954 0.43289 232 227 218
-3.12662 -1.2696 -9.08588 -0.276749 -0.848644 -0.450792 120 66 55
-3.0638 -1.16326 -9.13282 -0.149145 -0.982649 0.110261 113 57 45
-2.60305 -1.66277 -9.68638 -0.122596 -0.908786 -0.398847 139 55 36
-2.57185 -1.6535 -9.70358 0.186075 -0.967508 -0.171186 138 54 36
-2.57155 -1.65656 -9.70065 0.169274 -0.948619 -0.267337 139 55 36
-1.89945 -1.78014 -10.4238 0.439533 -0.871381 -0.217959 96 51 42
-1.7121 -1.64968 -10.6023 0.446027 -0.826445 0.343582 120 83 76
-1.59594 -1.68382 -10.6938 -0.444584 -0.890489 0.0968198 189 159 148
-1.56263 -1.68818 -10.7358 0.490025 -0.788276 0.372152 167 125 110
-1.56317 -1.70992 -10.7668 0.354236 -0.858612 0.370544 194 172 161
-0.791898 -0.619816 -11.4145 0.259156 -0.919629 -0.295162 107 36 39
-0.674297 -1.03741 -11.5868 0.333942 -0.930023 -0.153429 128 76 63
-0.621022 -1.05498 -11.6585 0.441939 -0.79486 0.415797 121 71 60
-0.0449647 -1.61878 -12.3107 -0.553187 -0.173393 0.814812 240 237 227
-0.175748 -2.31757 -12.2921 -0.589935 -0.678144 0.438289 236 231 222
-0.150676 -2.34077 -12.2955 -0.77963 -0.385367 0.49363 231 226 217
3.83905 -2.58616 -16.4578 -0.632584 0.408584 0.657949 217 214 216
-3.74019 -0.9004 -8.42323 0.385103 -0.91019 0.152478 218 212 209
-3.66675 -0.851796 -8.49211 0.695311 -0.689279 -0.20356 235 141 91
-3.6749 -0.84185 -8.4937 -0.781874 -0.455915 0.425222 231 146 103
-2.77281 -1.5431 -9.50518 -0.481959 -0.205032 0.851867 187 100 66
-2.75323 -1.85979 -9.55852 0.612941 -0.779337 0.130143 216 173 149
-2.5716 -1.64135 -9.73264 0.331105 -0.919002 -0.214019 138 53 36
-1.72368 -1.67279 -10.621 0.386876 -0.854342 0.347024 213 204 194
-1.69002 -1.64943 -10.6641 0.369438 -0.759782 0.535021 226 222 211
-1.62372 -1.67535 -10.7293 -0.468965 -0.876873 0.105667 227 222 212
-1.63024 -1.70857 -10.7418 0.0214789 -0.994274 -0.104675 226 221 210
-1.59475 -1.71324 -10.7441 0.516715 -0.765771 0.382883 225 218 208
-1.5633 -1.72627 -10.8018 0.225445 -0.903832 0.363678 225 220 210
-0.134211 -2.18278 -12.3462 -0.741976 -0.466379 0.481624 235 231 222
-0.127919 -2.14258 -12.3606 -0.826589 0.163108 0.538652 236 231 222
-0.177393 -2.28188 -12.299 -0.780332 -0.466274 0.416739 237 233 224
-0.169228 -2.326 -12.3488 -0.650224 -0.65405 0.386559 234 229 221
-0.132423 -2.34073 -12.367 -0.297261 -0.849609 0.43566 232 227 218
-0.136034 -2.36679 -12.3816 -0.687516 -0.700371 0.191839 233 227 219
-3.74142 -0.896519 -8.46051 0.462789 -0.864124 0.197779 217 212 209
-3.67853 -0.884656 -8.52169 0.663366 -0.732331 0.153741 227 148 106
-2.65054 -1.69642 -9.68876 0.656212 -0.738174 0.156475 152 68 44
-2.65706 -1.68242 -9.70978 0.336144 -0.828605 -0.447683 152 68 40
-1.90356 -1.73251 -10.4762 0.363854 -0.905845 -0.216923 98 53 45
-1.64626 -1.72918 -10.7423 0.168932 -0.93043 0.325211 231 226 216
-1.64623 -1.72947 -10.742 0.171614 -0.929714 0.325854 231 226 216
-0.169283 -2.34277 -12.3785 -0.458619 -0.780603 0.42465 234 229 221
-0.161675 -2.34028 -12.3891 -0.26467 -0.862375 0.431578 234 229 221
0.246817 -3.10643 -12.9138 0.338691 -0.902016 0.267687 190 110 46
-2.63824 -1.67347 -9.74448 0.0209349 -0.97336 -0.228326 183 97 59
-1.97157 -1.73976 -10.4516 0.525297 -0.833152 0.172977 98 53 44
-0.812643 -0.547859 -11.501 0.424232 -0.900777 -0.0928857 112 42 42
-0.156683 -2.17096 -12.3928 -0.678066 -0.525568 0.513814 237 233 224
-0.181942 -2.24697 -12.4032 -0.712608 0.241065 0.658846 239 234 225
-0.195779 -2.3222 -12.3705 -0.551045 -0.732302 0.400104 238 233 225
-0.191164 -2.341 -12.4084 -0.39701 -0.789973 0.467253 237 232 224
-0.16205 -2.35965 -12.4144 -0.430457 -0.778645 0.456529 233 228 220
-3.71238 -0.939318 -8.5545 0.750748 -0.639479 0.165662 217 203 196
-3.12044 -1.13899 -9.23605 -0.0266119 -0.999601 -0.00946048 222 219 216
-2.68627 -1.69271 -9.72982 0.657893 -0.713975 0.239617 154 69 38
-2.6857 -1.69107 -9.73022 0.64995 -0.694075 0.309555 155 69 38
-1.94604 -1.72223 -10.5232 -0.120504 -0.983364 -0.135922 164 136 129
-0.924985 -0.597092 -11.4559 0.00974421 -0.991803 -0.127407 215 209 199
-0.971779 -0.626845 -11.4447 0.139522 -0.924611 -0.354441 213 209 198
-0.978161 -0.650209 -11.4333 0.310989 -0.930538 -0.193349 218 213 202
-0.210553 -2.17607 -12.4055 -0.71206 -0.684585 -0.155928 242 238 229
-0.221489 -2.21607 -12.4036 -0.787259 -0.613055 -0.0662288 241 237 228
-0.188221 -2.32932 -12.4395 -0.514619 -0.733191 0.44452 237 233 224
-3.2549 -1.08654 -9.12798 -0.40528 -0.858542 -0.314092 222 217 214
-0.148032 -1.72843 -12.4945 -0.71507 0.106053 0.690961 244 240 231
-0.209455 -2.32289 -12.4832 -0.535349 -0.688371 0.489436 240 235 228
-0.156268 -2.34803 -12.5142 -0.419635 -0.752436 0.507688 233 228 219
-3.25546 -1.08974 -9.13026 -0.40372 -0.859104 -0.314565 223 218 215
-3.14417 -1.09767 -9.2493 0.291132 -0.765818 -0.57338 222 219 215
-2.64397 -1.64188 -9.85143 -0.646158 -0.762764 -0.0259064 192 98 58
-2.16249 -1.74144 -10.3977 0.401468 -0.91585 -0.00653133 110 55 43
-2.1311 -1.72522 -10.4283 0.0995406 -0.985196 -0.139574 109 56 46
-2.13064 -1.73981 -10.4117 0.366331 -0.930254 0.0207295 107 54 44
-2.09899 -1.7331 -10.4341 0.19913 -0.978698 -0.0499643 105 54 45
-0.635467 -0.412744 -11.8639 0.230013 -0.923007 -0.308467 110 38 41
-0.603106 -0.410852 -11.8816 0.265768 -0.929741 -0.254851 108 41 41
-0.543092 -0.394062 -11.9638 0.186426 -0.933288 -0.306952 123 72 59
-0.237381 -2.33349 -12.4817 -0.480519 -0.658001 0.579772 241 236 229
3.65368 -2.24756 -16.6055 -0.786515 0.412807 0.459331 228 220 215
-2.1952 -1.74935 -10.3837 0.375815 -0.911894 0.164962 114 56 43
-2.19803 -1.74849 -10.3814 -0.023143 -0.990985 -0.131962 114 56 44
-2.16186 -1.73678 -10.404 0.210119 -0.971563 0.109157 110 56 43
-2.16253 -1.74316 -10.44 0.398166 -0.916774 0.0314402 138 96 86
-2.12858 -1.72768 -10.4627 0.273929 -0.959986 0.0582276 141 101 91
-2.09535 -1.72564 -10.4958 0.382583 -0.904659 0.187674 183 154 146
-0.948451 -0.61854 -11.6142 0.38104 -0.919143 -0.0999216 228 223 212
-0.683405 -0.4879 -11.8843 0.309543 -0.928712 -0.20415 112 38 42
-0.593937 -0.410968 -11.9361 0.493668 -0.869198 0.0280373 110 47 44
0.204091 -2.99715 -13.0751 0.343474 -0.827408 0.444321 190 111 48
0.207275 -2.99085 -13.0854 0.203637 -0.96467 0.167166 191 111 48
3.54234 -2.39208 -16.5627 -0.790317 -0.451785 0.413872 227 219 214
3.56239 -2.49793 -16.5924 -0.0949153 -0.995353 0.0162083 193 187 185
3.57043 -2.48751 -16.6403 -0.683631 0.293957 0.66801 211 206 206
3.57043 -2.48751 -16.6403 -0.683631 0.293957 0.66801 211 206 206
-3.00815 -1.23729 -9.49657 0.383208 -0.810978 -0.442115 229 226 224
-2.99231 -1.20959 -9.5404 0.508759 -0.820027 -0.262144 228 227 224
-2.19438 -1.75041 -10.4212 0.297326 -0.953683 0.0456774 131 86 75
-2.19617 -1.75359 -10.4391 0.249491 -0.96623 0.0644436 186 161 152
-2.19823 -1.7792 -10.4428 0.436192 -0.809254 0.393502 218 206 200
-2.16727 -1.76363 -10.4476 0.296332 -0.951227 0.0857592 195 169 162
-2.17052 -1.75311 -10.4553 0.375297 -0.900353 0.220264 203 179 172
-2.13922 -1.73878 -10.481 0.338497 -0.905418 0.256201 223 205 197
-2.13723 -1.75029 -10.5122 0.302731 -0.947344 -0.104373 245 242 234
-0.983469 -0.62955 -11.6127 0.291278 -0.925497 -0.242098 231 226 215
-2.98069 -1.16013 -9.57934 0.181379 -0.820693 -0.541815 228 226 223
-2.98069 -1.16013 -9.57934 0.181379 -0.820693 -0.541815 229 226 223
-2.86803 -1.16996 -9.68761 0.646395 -0.762208 0.0348227 180 128 114
-2.68541 -1.54374 -9.91392 -0.723059 -0.135627 0.677341 219 121 74
-2.28617 -1.79713 -10.3667 0.0801416 -0.996753 -0.00779682 176 145 137
-2.19887 -1.76871 -10.4689 0.483081 -0.745643 0.458965 231 224 218
-2.16978 -1.76852 -10.4918 0.559537 -0.764145 0.320937 235 233 227
-0.880919 -0.589376 -11.7503 0.386876 -0.920715 -0.0510911 196 186 177
-0.735818 -0.515928 -11.9096 0.385097 -0.9221 -0.037844 113 38 42
-0.680044 -0.470017 -11.961 0.378605 -0.911775 -0.159139 112 38 42
-0.612011 -0.450969 -12.0416 0.248973 -0.932645 -0.261123 110 50 45
0.203717 -2.98104 -13.1567 -0.890335 0.152184 0.429119 200 124 63
3.52493 -2.51109 -16.6733 -0.732005 -0.452901 0.508969 222 218 220
-3.05743 -1.15955 -9.53676 -0.576609 -0.73422 -0.358389 229 226 224
-2.9421 -1.16762 -9.63927 -0.171808 -0.974621 -0.143514 227 225 223
-2.94203 -1.16453 -9.67075 -0.22814 -0.959933 -0.162728 226 225 221
-2.19341 -1.7613 -10.5125 0.410108 -0.760724 0.503101 242 240 233
-0.760819 -0.527996 -11.9519 0.400314 -0.916088 -0.0230622 112 36 39
-0.682937 -0.473948 -12.0407 0.311349 -0.930063 -0.195052 114 38 43
-0.682937 -0.473948 -12.0407 0.311349 -0.930063 -0.195052 114 38 43
-0.682937 -0.473948 -12.0407 0.311349 -0.930063 -0.195052 114 38 43
3.50783 -2.48377 -16.7505 -0.823958 -0.0624998 0.563194 222 218 220
-3.06637 -1.12895 -9.54415 -0.613245 -0.780547 -0.121152 229 226 224
-2.94479 -1.18413 -9.69362 0.218668 -0.950103 -0.22246 229 228 224
-2.92323 -1.21528 -9.70179 0.578971 -0.810478 -0.0889857 229 226 223
-2.84613 -1.11851 -9.79878 -0.0839705 -0.908865 -0.40855 226 224 220
-0.882245 -0.588002 -11.857 0.404981 -0.914325 0.000257581 206 199 190
-0.248772 -1.6342 -12.6681 -0.750153 -0.10835 0.652327 245 241 233
-0.271244 -1.75478 -12.6257 -0.87147 -0.449217 -0.196837 245 241 234
-0.101586 -2.69734 -12.9081 0.217398 -0.960423 0.174141 107 67 34
3.46815 -2.31236 -16.7294 -0.0152702 0.184105 0.982788 221 213 208
3.47268 -2.46343 -16.7779 -0.837504 -0.237374 0.49218 220 215 216
-3.08009 -1.11831 -9.57613 -0.644205 -0.74124 -0.188584 224 223 220
-2.94447 -1.18299 -9.72594 0.359358 -0.895152 -0.263751 226 225 221
-2.88453 -1.13461 -9.80474 0.107284 -0.895811 -0.431293 227 224 221
-2.76487 -1.19505 -9.9308 0.469637 -0.502618 0.725821 230 228 225
-2.69147 -1.48943 -10.0315 -0.665332 -0.726606 -0.171395 221 124 75
-0.93073 -0.615642 -11.8688 0.332353 -0.929513 -0.159837 208 201 191
-0.882182 -0.585391 -11.9132 0.396582 -0.917829 -0.0177038 211 203 195
-0.471441 -0.446924 -12.3778 0.105711 -0.942716 -0.316404 123 60 52
-0.263227 -1.60396 -12.6947 -0.595829 0.0356458 0.80232 245 241 232
3.40213 -2.38928 -16.7629 -0.935364 -0.0348418 0.351967 219 210 206
3.46146 -2.4057 -16.8254 -0.629111 -0.352289 0.692902 199 191 190
3.46146 -2.4057 -16.8254 -0.629111 -0.352289 0.692902 199 191 190
-2.76185 -1.4322 -10.006 0.13896 -0.855029 -0.499616 225 215 209
-0.935573 -0.627088 -11.926 0.329248 -0.93002 -0.163272 209 201 192
-0.667124 -0.514925 -12.2146 0.267142 -0.941648 -0.20478 100 39 39
-0.472807 -0.44118 -12.4313 -0.0389021 -0.9546 -0.29534 117 55 49
-0.259486 -0.350221 -12.6589 0.525254 -0.724294 0.446661 138 74 64
-0.298427 -1.95094 -12.7204 -0.673713 0.240761 0.698674 242 238 230
-0.309159 -1.93042 -12.7334 -0.269963 0.0935481 0.958315 243 239 231
3.39906 -2.24775 -16.8068 -0.924141 0.205395 0.322143 217 208 204
3.40997 -2.31611 -16.7999 -0.921049 -0.0455176 0.386777 219 210 206
3.35871 -2.38067 -16.7404 -0.929429 -0.144207 0.339657 219 210 206
3.43061 -2.36655 -16.8611 -0.864767 -0.0782266 0.496043 202 193 190
3.38497 -2.48025 -16.8121 -0.672043 -0.518789 0.528408 221 216 219
-2.76347 -1.4356 -10.0367 0.00865978 -0.994005 -0.10899 227 220 216
-2.76347 -1.4356 -10.0367 0.00865978 -0.994005 -0.10899 227 220 216
-2.71482 -1.46402 -10.0938 -0.870157 -0.490225 0.0500559 226 133 82
0.0610123 -3.1434 -13.2442 -0.448374 0.344904 0.824622 124 81 54
0.0643675 -3.12597 -13.2525 -0.44629 0.344474 0.825931 124 74 45
3.32897 -2.53402 -16.813 -0.547152 0.480362 0.685476 208 203 208
3.35455 -2.5141 -16.8382 -0.534803 0.469298 0.70267 212 207 212
-2.82104 -1.538 -10.017 0.398048 -0.836385 -0.376853 228 226 225
-2.78187 -1.49291 -10.0781 0.261973 -0.891714 -0.369075 229 224 221
-2.77077 -1.46183 -10.0608 0.168201 -0.946432 -0.275634 226 221 218
-2.73174 -1.46224 -10.1264 -0.182117 -0.974469 -0.131313 228 149 107
-2.42777 -1.54367 -10.4651 0.390857 -0.864415 -0.316256 110 52 43
-2.40913 -1.58209 -10.4621 0.404009 -0.842617 -0.356053 105 49 42
-0.32577 -1.47229 -12.7598 -0.481705 0.177309 0.858209 234 227 218
0.0254288 -3.04625 -13.2851 -0.811027 -0.535989 0.234416 173 106 59
3.36513 -2.23406 -16.8467 -0.796781 0.27912 0.535941 218 209 205
3.34152 -2.52329 -16.8444 -0.522764 0.508989 0.683848 206 202 206
-2.82708 -1.55368 -10.0431 0.345985 -0.84614 -0.405391 229 228 225
-2.7454 -1.4259 -10.1525 -0.205927 -0.952497 0.224374 230 203 189
-2.72037 -1.43821 -10.1645 -0.341929 -0.937803 -0.060077 225 142 95
-0.364107 -1.7762 -12.814 -0.598243 0.0772059 0.797587 246 242 236
-2.82396 -1.51714 -10.1033 0.473871 -0.833342 -0.284582 232 231 227
-2.78246 -1.44129 -10.1396 0.37079 -0.844364 -0.386734 227 225 221
-0.435195 -0.457541 -12.6554 0.238071 -0.946705 -0.216962 91 38 39
-0.346943 -1.42381 -12.8419 -0.568509 -0.736358 0.366844 234 225 216
-0.292726 -1.82815 -12.9353 -0.527552 0.210948 0.822915 245 240 233
0.0231624 -2.81365 -13.3371 -0.740423 0.277441 0.612209 195 116 54
0.0231624 -2.81365 -13.3371 -0.740423 0.277441 0.612209 195 116 54
3.26622 -2.48289 -16.9336 -0.657476 0.508116 0.556367 213 209 213
-3.52776 -0.584709 -9.31838 -0.89196 -0.317432 0.321937 222 219 215
-2.80718 -1.47159 -10.1643 0.514532 -0.817682 -0.258172 231 229 227
-2.78791 -1.44351 -10.1766 0.344988 -0.833845 -0.430912 231 230 227
-2.68375 -1.45738 -10.2867 0.580546 -0.81068 0.0759236 187 97 64
-2.65786 -1.44316 -10.3156 0.401554 -0.915724 0.014262 173 85 53
-0.392828 -1.41961 -12.8631 -0.259963 0.0709229 0.963011 226 187 180
3.32125 -2.33448 -17.0064 -0.814138 -0.0659298 0.576917 190 182 180
3.30169 -2.35612 -17.0198 -0.490552 0.425551 0.760437 200 193 193
3.30216 -2.35816 -17.0183 -0.486481 0.426943 0.76227 202 195 195
3.31107 -2.3475 -17.0423 -0.64664 0.405088 0.646344 203 196 196
-3.4407 -0.634986 -9.44381 -0.48547 -0.311656 0.816816 226 224 222
-2.74976 -1.46864 -10.2573 0.57733 -0.812208 0.0837155 227 217 211
-2.69155 -1.44679 -10.3089 0.421818 -0.90296 0.0820601 193 104 67
-2.69185 -1.46997 -10.3059 -0.068548 -0.99758 -0.0116082 191 106 70
-2.68978 -1.45621 -10.3389 0.388609 -0.920696 0.0360793 193 109 72
-0.657687 -0.522049 -12.5667 0.414559 -0.909285 -0.0366307 158 115 113
-0.442368 -1.39514 -12.8398 -0.180915 0.0161137 0.983367 179 59 62
-0.201748 -3.06156 -13.193 0.41293 -0.84576 0.337904 223 177 130
3.21685 -2.42054 -17.0024 -0.788906 0.0882587 0.608143 225 220 223
-2.76286 -1.48738 -10.2874 0.523163 -0.834555 0.172681 226 223 220
-2.72831 -1.46578 -10.3132 0.478884 -0.871237 0.107784 221 194 183
-2.6999 -1.43862 -10.3528 0.0612808 -0.985747 -0.156678 201 127 93
-2.62711 -1.43909 -10.4424 0.121319 -0.99216 -0.0300114 162 81 53
-0.0659918 -2.81729 -13.3826 -0.839 0.222686 0.496478 201 125 65
-2.79407 -1.52022 -10.3169 0.357987 -0.843788 -0.399834 226 222 219
-0.265982 -0.793697 -13.0915 -0.294455 0.0658744 0.953392 162 50 54
-0.492701 -1.45941 -12.9022 -0.269077 -0.721004 0.638553 185 69 72
3.12038 -1.70694 -17.0347 -0.654079 0.472505 0.590694 230 221 215
-0.37857 -0.5028 -13.1031 0.319112 -0.938603 0.131116 106 32 40
-0.442991 -0.95764 -13.0466 -0.52093 -0.0326083 0.852976 157 47 51
-0.413683 -0.991395 -13.0459 -0.49426 -0.0506166 0.867839 158 47 51
-0.529088 -1.53768 -12.9678 -0.0471145 -0.629171 0.775838 189 70 72
-0.491251 -1.65846 -13.0246 -0.718376 0.214063 0.661901 243 238 231
-0.506305 -1.7191 -12.981 -0.785784 0.142611 0.601836 245 240 233
-0.258861 -2.6585 -13.3038 -0.682334 0.0715533 0.727531 198 119 56
3.09929 -2.12949 -17.1179 -0.9173 0.187881 0.351086 209 199 194
3.14178 -2.15931 -17.1689 -0.751886 -0.206343 0.626171 210 200 196
-0.453292 -0.554352 -13.0253 0.477346 -0.875362 0.0766977 101 31 40
-0.424798 -0.916097 -13.0873 -0.83994 -0.149431 0.521701 156 46 51
-0.259422 -2.59325 -13.3528 -0.713158 0.0565163 0.698722 199 121 52
-0.258046 -2.59473 -13.3531 -0.753726 0.0290027 0.656549 199 121 53
3.11362 -2.20215 -17.1863 -0.716775 -0.562267 0.41242 211 201 197
-0.641261 -0.469276 -12.9009 -0.234385 -0.971833 0.0245947 237 231 218
-0.441326 -0.788183 -13.1123 -0.383006 0.114707 0.916596 154 46 51
-0.286155 -2.57056 -13.386 -0.781533 -0.0426776 0.622402 199 119 52
-0.287341 -2.56441 -13.3877 -0.792856 -0.0560305 0.606828 199 120 52
-0.260779 -2.53922 -13.3709 -0.742724 -0.0454637 0.668053 214 155 50
-0.285456 -2.62829 -13.3573 -0.73328 -0.0405766 0.678715 196 116 55
3.10332 -2.14444 -17.1978 -0.752781 -0.018447 0.658013 210 200 196
-3.63406 -0.432494 -9.52391 -0.458235 -0.275841 0.844945 224 220 217
-1.11322 0.394523 -12.3616 -0.265443 -0.19884 0.9434 228 223 212
-1.14734 0.357339 -12.3363 -0.327837 -0.713042 0.619753 231 227 216
-0.524591 -1.01173 -13.1004 -0.349755 0.130453 0.927714 177 51 56
3.04453 -2.15758 -17.2207 -0.793948 0.0389929 0.606733 212 201 197
3.07555 -2.21805 -17.2556 -0.621976 0.467913 0.627856 212 203 199
-0.317488 -2.48774 -13.4247 -0.744927 -0.0161497 0.66695 216 155 50
-0.314588 -2.54561 -13.4133 -0.720218 0.0354167 0.692843 199 118 50
-0.315502 -2.54154 -13.4152 -0.745755 -0.00349915 0.66621 198 118 50
3.03699 -2.20753 -17.2849 -0.538598 -0.124316 0.833342 207 197 193
-1.20096 0.0687031 -12.4004 -0.376664 0.0242283 0.926033 236 232 222
-0.697754 -0.449549 -13.0012 -0.572354 -0.35053 0.741309 240 233 217
-0.584705 -0.694653 -13.1472 -0.310999 0.107243 0.94434 183 59 63
-0.504705 -0.554161 -13.2367 -0.64125 -0.314894 0.699743 180 57 61
-0.587089 -1.04313 -13.1567 -0.123722 0.00545493 0.992302 183 53 57
-0.348286 -2.41577 -13.4614 -0.727714 0.0385704 0.684796 233 189 53
-0.346385 -2.4666 -13.4522 -0.741244 -0.0383776 0.670137 212 147 48
-0.343868 -2.52099 -13.4392 -0.695567 0.0318499 0.717755 199 118 50
-0.344621 -2.51817 -13.4407 -0.712175 0.0130095 0.701881 200 119 50
2.96756 -2.106 -17.2939 -0.678579 -0.0392072 0.73348 202 192 187
2.99919 -2.1717 -17.3266 -0.38875 -0.636721 0.665927 205 195 191
-0.906936 -0.209982 -12.7898 0.347132 -0.914098 -0.20958 214 205 195
-0.642148 -1.19769 -13.1375 -0.372987 0.136341 0.917764 184 53 57
-0.614759 -1.22459 -13.1449 -0.426299 0.178976 0.8867 184 53 57
-0.37524 -2.44622 -13.4809 -0.748057 -0.0667665 0.660267 209 139 49
-0.373344 -2.44566 -13.4798 -0.749023 -0.0181305 0.662296 210 141 48
-0.372561 -2.49981 -13.4624 -0.746772 -0.00274521 0.665074 200 119 51
-1.23133 0.154847 -12.4723 -0.379395 -0.203355 0.90261 235 232 223
-0.426863 -2.26256 -13.429 -0.898228 -0.0422454 0.437494 195 163 107
2.93824 -2.12171 -17.3535 -0.844294 -0.101405 0.526199 216 206 201
2.92321 -2.14887 -17.3386 -0.677612 0.433876 0.593796 216 207 202
-0.700191 -1.23344 -13.1426 -0.716672 0.164933 0.677628 189 54 58
-0.715878 -1.30058 -13.1615 -0.642232 0.207618 0.737857 188 53 57
-0.681727 -1.32023 -13.1735 -0.577122 0.209565 0.789312 187 53 57
-0.400723 -2.36808 -13.512 -0.705923 0.0224477 0.707933 233 188 54
-0.404403 -2.4257 -13.5077 -0.74296 -0.0524218 0.667279 207 132 50
2.89006 -2.10639 -17.3571 -0.64626 0.490201 0.584852 217 208 203
2.91706 -2.15155 -17.4033 -0.846465 -0.256634 0.466516 216 207 203
2.88429 -2.21207 -17.3629 -0.640867 -0.143309 0.754157 206 197 194
2.93682 -2.18945 -17.4273 -0.69508 -0.00599414 0.718908 203 194 191
-0.662793 -0.607883 -13.2359 -0.631613 -0.322897 0.704842 196 62 66
-0.7207 -1.3356 -13.2115 -0.648279 0.0988765 0.754955 189 54 57
-0.721773 -1.31487 -13.2055 -0.672472 0.199958 0.7126 189 54 57
-0.430336 -2.34703 -13.5364 -0.739712 -0.0204985 0.672611 232 185 54
-0.433053 -2.4045 -13.5316 -0.763278 -0.0199543 0.645761 207 131 50
2.85649 -2.0748 -17.4024 -0.68669 0.453209 0.568382 218 208 204
2.90393 -2.14818 -17.4584 -0.802398 0.139094 0.580354 214 205 201
2.92382 -2.22922 -17.4452 -0.697901 -0.465075 0.544646 209 202 202
-0.722297 -1.14006 -13.231 -0.532759 -0.21834 0.817616 195 58 61
-0.756039 -1.31737 -13.2144 -0.674613 0.0716455 0.734687 193 56 59
-0.462988 -2.38705 -13.5487 -0.737287 -0.0534424 0.673463 207 129 51
2.85169 -1.28821 -17.4248 -0.839141 0.294981 0.456978 219 209 201
2.87175 -2.11512 -17.4926 -0.841912 0.22038 0.492562 218 208 205
2.87423 -2.15161 -17.4873 -0.760098 0.056937 0.647309 212 203 199
2.89828 -2.19188 -17.5061 -0.6614 0.219412 0.717223 201 192 192
2.88285 -2.20998 -17.477 -0.631857 0.390521 0.669514 202 194 193
-0.756041 -1.33964 -13.2449 -0.702163 0.00417942 0.712004 194 56 59
-0.752798 -1.31682 -13.2881 -0.578162 -0.556996 0.596225 192 55 59
-0.727406 -1.36184 -13.2787 -0.658629 0.145879 0.738192 192 55 59
-0.822654 -1.29341 -13.2543 -0.472742 -0.698769 0.536877 212 70 74
-0.78747 -1.309 -13.2636 -0.189906 -0.793778 0.577799 200 60 64
-0.786266 -1.30572 -13.2643 -0.767996 -0.322111 0.553558 200 60 64
2.81373 -2.09065 -17.5512 -0.732356 -0.22472 0.642772 217 208 203
2.83644 -2.15196 -17.5429 -0.57052 0.477462 0.668234 202 193 190
2.85136 -2.213 -17.5674 -0.857868 0.131792 0.496683 223 218 220
-0.857726 -1.31095 -13.2637 0.116311 -0.82875 0.547399 219 75 80
-0.822792 -1.32039 -13.2909 0.0686117 -0.667148 0.741759 210 69 73
-0.823806 -1.36186 -13.2771 0.149193 -0.854726 0.497177 208 67 71
-0.785785 -1.32899 -13.3059 -0.226992 -0.511787 0.828582 201 61 64
-0.824089 -1.39851 -13.3092 0.478275 -0.738736 0.474892 206 65 70
2.77 -2.02248 -17.5829 0.335952 -0.119501 0.934268 216 207 202
2.79513 -2.03294 -17.5792 -0.72116 -0.197538 0.664009 216 208 202
2.76851 -2.09432 -17.5548 -0.739831 -0.434292 0.513849 215 206 202
2.80529 -2.12774 -17.5864 -0.703645 -0.190842 0.684444 205 197 193
2.78978 -2.17001 -17.6107 -0.657468 -0.085905 0.748569 207 200 199
-0.917998 -0.525775 -13.2619 -0.509828 -0.654108 0.558765 238 227 214
2.7066 -1.95801 -17.5672 0.172116 0.0061053 0.985058 217 208 202
2.7451 -1.94845 -17.5877 0.351369 -0.149981 0.924146 214 206 201
2.72843 -2.08416 -17.5867 -0.791913 -0.311862 0.524991 214 206 201
2.7673 -2.12178 -17.6136 -0.604929 -0.325526 0.726701 202 194 190
-0.838611 -1.49864 -13.386 -0.151612 0.0326058 0.987902 204 64 68
2.71824 -1.98019 -17.6192 -0.150914 0.395647 0.905919 217 207 202
2.6918 -2.07774 -17.6236 -0.665709 -0.462847 0.585324 216 207 202
2.7039 -2.0649 -17.6385 -0.730789 0.0245385 0.682162 216 207 202
2.72926 -2.11357 -17.6335 -0.530191 0.344306 0.774823 206 198 194
2.7475 -2.16322 -17.641 -0.7274 -0.0171762 0.685998 207 200 199
2.66204 -2.03439 -17.633 -0.354001 -0.730802 0.58362 218 209 204
2.7171 -2.09317 -17.691 -0.602238 0.273119 0.750144 206 198 193
-1.28954 0.684201 -13.0238 -0.55636 0.0513321 0.829354 244 240 233
2.67949 -2.05649 -17.6909 -0.582812 -0.595748 0.552642 216 208 203
2.6636 -2.09736 -17.7214 -0.649783 0.321317 0.688867 202 194 190
2.66693 -2.17619 -17.6658 -0.708573 0.344983 0.615558 215 209 208
2.63323 -2.05511 -17.7163 -0.681547 -0.390273 0.619016 220 212 207
-0.784052 -1.54322 -13.6848 0.341651 -0.938783 0.0442878 115 49 35
-0.779569 -1.53307 -13.6894 0.352483 -0.935786 0.00781086 114 48 35
-0.76688 -1.90135 -13.8745 -0.707634 -0.079846 0.702053 245 204 63
-1.10092 -0.641773 -13.5882 -0.395707 -0.917031 -0.0497051 245 241 229
-0.792798 -1.83054 -13.9068 -0.753238 0.0378566 0.656658 242 200 60
-0.795122 -1.93859 -13.8821 -0.62016 0.101806 0.777841 227 165 72
-0.800573 -1.87644 -13.9143 -0.684069 -0.0852266 0.724421 238 189 72
-0.95724 -0.940111 -13.862 -0.840723 -0.0941139 0.533224 223 71 76
-0.843614 -1.90978 -13.9415 -0.703565 0.207941 0.679527 205 125 59
-0.856031 -1.75437 -13.9783 -0.483776 0.107955 0.868509 238 192 54
-0.882211 -1.87337 -13.9455 -0.864244 -0.0311121 0.502109 205 125 54
-1.16092 -0.217023 -13.8087 -0.715046 0.0652663 0.696024 246 243 231
-1.0205 -0.956398 -13.9401 0.0571283 0.0409903 0.997525 222 69 73
-0.88393 -1.84751 -14.1343 -0.860839 -0.044602 0.506919 204 120 54
-0.918814 -2.16805 -14.0551 -0.722264 0.252918 0.643714 211 138 83
2.46244 -1.02396 -8.88549 -0.422591 -0.520092 0.74224 241 238 229
2.51173 -1.34437 -9.04909 -0.544119 -0.409656 0.7322 235 231 222
2.50276 -1.36824 -9.04812 -0.788831 -0.3314 0.51761 234 230 221
2.49263 -1.42858 -9.06854 -0.520443 -0.200462 0.830032 232 228 219
2.54019 -1.56298 -9.15652 -0.226333 -0.902325 0.366856 240 237 228
2.8707 -3.19745 -10.0418 0.111707 -0.885123 0.451751 132 116 104
2.54614 0.139092 -8.48827 -0.160506 -0.442065 0.882506 170 157 109
2.43943 -1.00165 -8.87932 -0.558895 -0.553667 0.617324 241 238 229
2.43671 -1.01728 -8.90658 -0.42689 -0.437643 0.791349 237 233 224
2.52988 -1.58542 -9.18069 -0.210217 -0.492626 0.844469 237 233 224
2.67763 -1.96696 -9.44244 -0.390622 -0.555175 0.734299 149 72 64
2.67757 -1.96673 -9.44267 -0.387619 -0.560981 0.731472 149 72 64
2.20825 -2.74692 -9.44482 -0.118725 -0.947157 -0.29799 140 113 84
2.95423 -2.18277 -9.70343 -0.858156 -0.276326 0.43268 212 175 109
2.75092 -3.2325 -10.0211 0.10226 -0.991438 0.0812008 97 56 35
2.88299 -3.20294 -10.0923 -0.409534 -0.775452 0.480579 131 113 101
2.52419 0.155772 -8.50573 -0.284721 -0.360884 0.888086 166 153 106
2.41419 -0.324045 -8.65976 -0.939443 -0.325964 0.1058 189 179 149
2.44727 -0.319421 -8.64758 -0.976655 -0.0189683 0.213975 224 219 202
2.39668 -0.962799 -8.90297 -0.584323 -0.495921 0.642362 239 236 227
2.4131 -1.06162 -8.94746 -0.308737 -0.28118 0.908636 231 227 217
2.44835 -1.39243 -9.09482 -0.593395 -0.466198 0.656157 234 231 222
2.4636 -1.45788 -9.14614 -0.734786 -0.600242 0.31591 225 221 211
2.578 -1.8257 -9.36301 -0.54899 -0.428645 0.717547 224 220 209
2.9641 -2.13283 -9.74171 -0.911169 0.0741841 0.405299 213 175 107
2.38534 -0.918744 -8.92395 -0.629352 -0.342892 0.697381 242 238 229
2.39143 -1.13934 -9.01835 0.0636708 -0.668843 0.740672 224 219 206
2.45526 -1.26804 -9.0998 -0.13066 -0.805565 0.577921 240 237 229
2.43584 -1.32528 -9.12866 -0.571012 -0.314283 0.758401 240 236 228
2.48462 -1.48014 -9.20332 -0.580422 -0.569448 0.582099 224 219 210
2.47056 -1.82199 -9.32886 -0.334858 -0.576703 0.745174 225 220 209
2.9573 -2.1627 -9.76848 -0.856742 -0.0471939 0.513581 206 167 104
2.91929 -2.31912 -9.83406 -0.773417 0.00347985 0.633888 214 185 129
2.89455 -2.37206 -9.83425 -0.713008 0.177896 0.678213 174 142 92
2.91235 -2.92458 -10.0609 -0.523057 -0.821739 0.226177 161 89 37
2.82233 -3.21198 -10.1221 0.15702 -0.978384 0.134572 133 111 92
2.82977 -3.22884 -10.1497 -0.121511 -0.974945 -0.186327 128 109 93
2.36011 -0.911732 -8.95534 -0.833324 0.0826095 0.546577 244 241 231
2.42328 -1.78799 -9.34513 -0.588979 -0.229681 0.774823 228 222 212
2.4422 -1.81591 -9.34812 -0.225229 -0.445835 0.866316 226 220 210
2.81679 -1.8912 -9.64239 -0.198574 -0.908412 0.367909 167 49 49
2.80124 -1.92792 -9.65108 -0.118321 -0.881923 0.456303 171 49 51
2.93539 -2.14228 -9.81964 -0.795821 -0.329776 0.507855 213 179 119
2.75656 -2.79842 -9.96169 -0.693391 -0.106996 0.712573 141 104 53
2.88416 -2.95337 -10.1037 -0.495914 -0.823877 0.274403 171 97 39
2.49725 0.351585 -8.58577 -0.561753 -0.54417 0.623147 172 160 113
2.49094 0.193885 -8.6222 -0.774688 -0.101967 0.624069 182 169 119
2.37032 -0.671613 -8.88139 -0.34991 -0.676436 0.648072 244 241 231
2.35057 -0.880523 -8.96731 -0.742885 -0.338005 0.577819 241 238 228
2.35078 -1.3496 -9.15845 -0.162761 -0.438845 0.883699 213 208 198
2.28011 -1.64583 -9.21758 -0.664976 -0.298586 0.684582 225 221 211
2.36127 -1.55908 -9.26431 -0.389191 -0.456175 0.800272 230 225 217
2.35969 -1.55894 -9.26208 -0.451779 -0.455186 0.767269 229 225 216
2.37181 -1.70998 -9.31616 -0.261795 -0.875198 0.406806 229 225 215
2.39997 -1.76397 -9.33062 -0.77483 -0.487103 0.402951 229 224 213
2.39249 -1.78006 -9.36689 -0.472462 -0.55968 0.680836 230 224 214
2.38909 -1.79077 -9.35029 -0.333318 -0.388534 0.859035 230 224 214
2.41915 -1.80551 -9.38247 -0.309075 -0.376151 0.873489 228 222 212
2.43901 -1.83247 -9.38775 -0.154662 -0.486426 0.859924 225 219 208
2.80131 -1.86561 -9.6708 -0.875988 0.240461 0.41812 158 46 47
2.90167 -2.17728 -9.84565 -0.805823 -0.393091 0.442864 212 181 123
2.72837 -2.78516 -9.98002 -0.950235 0.173904 0.258478 132 90 49
2.6571 -3.26884 -10.1349 0.084871 -0.994387 0.0631702 135 75 36
2.32555 -0.741058 -8.93608 -0.38456 -0.210959 0.898671 236 233 223
2.30313 -0.848443 -8.98668 -0.510055 -0.103728 0.853864 227 223 211
2.31565 -1.35055 -9.15918 -0.510088 -0.485443 0.710039 232 229 220
2.30485 -1.37368 -9.18814 -0.331951 -0.228349 0.915241 231 228 219
2.30476 -1.48658 -9.24113 -0.103657 -0.455891 0.883979 221 216 206
2.2689 -1.61129 -9.23202 -0.58821 -0.211061 0.780681 220 214 204
2.31108 -1.5326 -9.2638 -0.0696693 -0.456871 0.886801 219 214 204
2.25165 -1.63898 -9.24074 -0.731088 -0.269025 0.627006 216 209 199
2.27132 -1.6872 -9.27888 -0.448238 -0.471875 0.759221 224 219 209
2.28878 -1.65243 -9.29123 -0.470252 -0.274598 0.838725 223 218 208
2.31261 -1.6765 -9.30156 -0.349884 -0.537531 0.76723 227 223 213
2.32506 -1.6502 -9.29935 -0.3726 -0.152396 0.915393 228 223 214
2.34216 -1.62005 -9.3005 -0.306152 -0.643375 0.70167 228 223 213
2.30335 -1.70394 -9.31664 -0.513298 -0.547542 0.66085 227 222 211
2.28984 -1.73937 -9.29441 -0.665449 -0.0994176 0.739793 227 222 211
2.3451 -1.71173 -9.35564 -0.0201968 -0.853283 0.521056 228 224 213
2.37213 -1.83168 -9.4076 -0.577178 -0.571102 0.583703 226 221 209
2.38436 -1.80708 -9.38651 -0.486284 -0.393647 0.780109 228 223 212
2.40879 -1.82793 -9.40847 -0.194903 -0.457649 0.867508 226 220 208
2.37124 -1.87451 -9.43429 -0.102167 -0.951829 0.289107 217 212 198
2.65613 -2.05423 -9.67878 0.05854 -0.968666 0.241368 104 39 34
2.89235 -2.14115 -9.87881 -0.66033 -0.423925 0.61988 202 169 113
2.88623 -2.22659 -9.88599 -0.745315 -0.2566 0.615355 216 185 128
2.79609 -2.497 -9.9512 -0.794192 0.244254 0.556416 129 76 52
2.71631 -2.89799 -10.0621 -0.30993 -0.508331 0.803457 114 58 27
2.74694 -2.91551 -10.0745 -0.478041 -0.579641 0.659919 127 66 28
2.76289 -3.23836 -10.2181 -0.0123043 -0.985973 -0.16645 128 105 88
2.25284 -0.957438 -9.03863 -0.190182 -0.384829 0.903182 210 205 193
2.22484 -1.1994 -9.12051 -0.824702 0.000187576 0.565568 194 187 174
2.2566 -1.62488 -9.28107 -0.398241 -0.425537 0.812602 208 202 191
2.25591 -1.6552 -9.29826 -0.490342 -0.460574 0.739889 211 204 194
2.26051 -1.67492 -9.3282 -0.113117 -0.521363 0.845804 212 206 194
2.32589 -1.75439 -9.36854 -0.403736 -0.845859 0.348596 226 222 211
2.38405 -1.832 -9.43429 -0.268515 -0.520863 0.81031 224 218 206
2.83653 -2.16815 -9.86503 0.178162 -0.98208 -0.0614517 196 162 108
2.76871 -2.51458 -9.99033 -0.760438 0.281376 0.585287 125 74 49
2.76309 -2.5393 -9.9987 -0.812036 0.0558258 0.580931 145 105 65
2.69513 -2.8925 -10.0894 -0.501136 -0.663331 0.555747 115 61 30
2.66431 -2.99912 -10.1025 -0.857962 -0.281994 0.429395 161 86 33
2.66484 -2.99861 -10.101 -0.873638 -0.255121 0.414331 160 86 33
2.83223 -2.9193 -10.1927 -0.409415 -0.7503 0.519065 173 94 33
2.8159 -2.9582 -10.1925 -0.621653 -0.598808 0.504952 176 99 38
2.72478 -3.30331 -10.2538 -0.0987187 -0.954488 -0.281437 130 109 93
2.2324 -0.634871 -8.94941 -0.382846 -0.687624 0.61693 223 219 207
2.15822 -1.28842 -9.1427 -0.117579 -0.430259 0.895015 221 216 206
2.16467 -1.3404 -9.16799 -0.276085 -0.461317 0.843187 217 211 201
2.13896 -1.40304 -9.19281 -0.433871 -0.544528 0.717806 230 226 217
2.17723 -1.38767 -9.19728 -0.23028 -0.495333 0.837625 208 202 190
2.20245 -1.61369 -9.29918 -0.146953 -0.575172 0.804725 211 205 194
2.20193 -1.61451 -9.29705 -0.0920703 -0.530508 0.842665 211 204 193
2.20213 -1.6418 -9.31785 -0.158668 -0.580627 0.798559 216 211 200
2.20148 -1.64277 -9.31462 -0.131318 -0.520426 0.843749 216 210 199
2.201 -1.67169 -9.33306 -0.13514 -0.571674 0.809275 221 216 205
2.2385 -1.72348 -9.37056 -0.617964 -0.496222 0.609823 215 209 198
2.83792 -2.14525 -9.92904 0.0482655 -0.987388 -0.150785 193 160 108
2.80985 -2.23012 -9.94756 -0.749437 -0.0221013 0.661706 207 176 120
2.83646 -2.20431 -9.9236 -0.815713 -0.0235881 0.577976 209 178 121
2.83615 -2.19456 -9.93492 -0.783945 -0.0406851 0.619495 209 178 122
2.80715 -2.26936 -9.94242 -0.70894 0.020126 0.704982 195 163 110
2.7882 -2.41582 -9.98475 -0.921927 0.282845 0.264668 138 98 58
2.75182 -2.48147 -10.0123 -0.781617 0.0240329 0.623296 124 69 48
2.77703 -2.46114 -9.98539 -0.783548 0.197342 0.589159 132 84 52
2.73997 -2.56793 -10.0158 -0.826104 -0.0956559 0.55534 149 115 66
2.24972 -0.378549 -8.91294 -0.256731 -0.497423 0.82865 225 221 208
2.20189 -0.668034 -8.99472 -0.696311 -0.00467843 0.717725 236 233 223
2.10962 -1.24624 -9.12631 -0.369412 -0.460755 0.806994 240 237 229
2.13976 -1.3933 -9.19205 -0.0494639 -0.462172 0.88541 230 227 217
2.10435 -1.42312 -9.19514 -0.421685 -0.498047 0.757714 237 235 227
2.13481 -1.46534 -9.22137 -0.460842 -0.563009 0.686036 232 229 219
2.13249 -1.49472 -9.23478 -0.528333 -0.54656 0.64972 232 228 219
2.14966 -1.51548 -9.25156 -0.698235 -0.539824 0.470169 228 224 214
2.11241 -1.58669 -9.28544 -0.182888 -0.868415 0.460876 231 228 219
2.20183 -1.69786 -9.35468 -0.266904 -0.592574 0.760012 224 219 208
2.20004 -1.72633 -9.36946 -0.134089 -0.512836 0.84795 225 220 209
2.20812 -1.74536 -9.41005 -0.0669856 -0.48036 0.87451 226 220 209
2.80979 -2.18726 -9.95106 -0.788463 -0.059086 0.612238 204 172 117
2.8035 -2.14304 -9.95226 -0.606037 -0.111984 0.787515 194 162 113
2.73953 -2.52897 -10.0254 -0.800793 -0.0601934 0.595909 137 92 57
2.71763 -2.54965 -10.0486 -0.821103 0.00138711 0.570779 144 106 60
2.71759 -2.59383 -10.0487 -0.821269 0.0682121 0.566448 136 96 54
2.57918 -2.92112 -10.1107 -0.149362 -0.742113 0.653421 131 88 43
2.58805 -3.29377 -10.2227 -0.346208 -0.796982 0.494934 177 111 64
2.4893 0.696952 -8.69591 -0.370653 -0.420804 0.827974 130 120 88
2.11085 -1.14068 -9.12239 -0.615825 -0.0335436 0.787169 240 238 230
2.07656 -1.19199 -9.15078 -0.528733 -0.0821653 0.844802 239 236 228
2.08435 -1.49196 -9.27791 -0.413295 -0.241867 0.877888 238 236 227
2.17525 -1.7328 -9.39526 0.221402 -0.835718 0.502549 226 222 211
2.46811 -2.10994 -9.74223 -0.125168 -0.44104 0.888716 101 40 36
2.45256 -2.1349 -9.76206 -0.0297555 -0.460072 0.887383 84 35 33
2.45572 -2.13117 -9.76995 0.0761536 -0.639108 0.765338 79 29 30
2.73991 -2.39572 -10.0357 -0.593154 -0.726395 0.347158 126 86 51
2.71375 -2.47045 -10.0634 -0.788712 0.147649 0.596769 122 75 44
2.71516 -2.50833 -10.0511 -0.794595 -0.0921361 0.600109 121 67 45
2.69517 -2.57108 -10.0778 -0.836957 0.0815077 0.541165 140 99 57
2.69579 -2.53169 -10.08 -0.769412 0.0912291 0.632205 134 89 53
2.67422 -2.67528 -10.0985 -0.758127 -0.51942 -0.394266 166 133 88
2.61319 -2.85214 -10.1209 -0.43176 -0.142005 0.89074 113 74 37
2.5554 -3.34513 -10.2963 0.104675 -0.970778 0.215946 111 60 31
2.14241 -0.650619 -8.99719 -0.694236 0.00554201 0.719726 236 233 224
2.08564 -1.12238 -9.14307 -0.455179 -0.114804 0.882967 239 237 229
2.03965 -1.1942 -9.14661 -0.717155 0.0749117 0.692876 224 220 210
2.06264 -1.26563 -9.18078 -0.487893 -0.101688 0.86696 237 235 226
2.0979 -1.58709 -9.34494 -0.333701 -0.185184 0.924311 232 229 220
2.41596 -2.13759 -9.76414 -0.110583 -0.374498 0.92061 90 38 33
2.58574 -3.35066 -10.3562 -0.0712262 -0.985929 0.151228 105 70 50
2.37165 0.582464 -8.77845 -0.285328 -0.537517 0.793514 151 142 117
2.06077 -1.25271 -9.23234 -0.466233 -0.235817 0.852653 223 220 211
2.01393 -1.58805 -9.34823 -0.329782 -0.400248 0.855012 217 212 202
2.04755 -1.56882 -9.34174 -0.0334615 -0.470339 0.881851 231 228 219
2.06445 -1.72206 -9.40757 -0.522638 -0.762334 0.381701 227 224 213
2.07185 -1.71431 -9.43241 -0.480586 -0.780874 0.39909 227 223 213
2.38131 -1.88022 -9.67616 0.265942 -0.94277 0.201147 87 28 33
2.60358 -2.74635 -10.1831 -0.700226 0.11807 0.70409 103 69 32
2.60534 -2.98517 -10.2758 -0.100525 -0.928218 0.358198 168 89 28
2.56152 -3.38449 -10.3628 0.0314155 -0.98643 0.161149 108 84 69
2.32891 0.544693 -8.7804 0.0225897 -0.550326 0.834644 188 180 160
1.48689 -0.890858 -8.77809 -0.0635867 -0.991481 -0.113672 152 144 127
1.98797 -1.57801 -9.3694 -0.0781925 -0.634779 0.768728 190 184 173
2.0067 -1.6359 -9.39282 -0.0233956 -0.617497 0.786225 211 206 195
2.01233 -1.63547 -9.39493 0.0935913 -0.589189 0.802557 215 210 200
2.01329 -1.66352 -9.41834 0.106151 -0.631385 0.76817 217 213 202
2.04083 -1.69899 -9.42091 -0.139531 -0.685546 0.714533 226 222 212
2.01249 -1.70712 -9.4449 -0.120066 -0.705038 0.698931 219 214 204
2.04423 -1.72191 -9.45922 -0.104909 -0.697634 0.708732 225 220 209
2.04213 -1.74924 -9.47602 -0.230995 -0.691735 0.68421 223 218 207
2.07422 -1.73787 -9.46533 -0.336398 -0.790038 0.512519 226 222 211
2.0583 -1.78025 -9.50016 -0.294912 -0.600689 0.743101 222 218 206
2.31279 -2.14797 -9.78879 -0.327872 -0.259462 0.908394 159 50 49
2.30184 -2.17871 -9.80429 -0.546569 -0.377274 0.747614 109 44 35
2.61405 -2.68784 -10.175 -0.947527 0.165399 0.27356 113 80 39
2.54033 -2.99532 -10.2438 0.107306 -0.719511 0.686141 186 126 56
2.50689 -3.4418 -10.3909 0.0432231 -0.984497 0.169993 114 94 78
2.25512 0.541068 -8.807 -0.438852 -0.21293 0.872966 222 217 203
2.29515 0.553989 -8.82291 -0.390257 -0.243791 0.887843 220 215 200
1.87553 -1.4495 -9.2999 -0.264815 -0.445212 0.855371 170 161 148
2.01276 -1.69337 -9.44124 0.0255364 -0.75061 0.660252 217 213 202
2.67357 -2.26171 -10.1213 -0.770491 -0.0745648 0.633074 102 53 32
2.57119 -2.68886 -10.2068 -0.78406 0.114612 0.610012 108 76 37
2.4657 -3.45341 -10.4218 -0.192429 -0.97467 0.113976 109 79 61
2.52109 -3.41877 -10.4262 0.0914381 -0.991612 0.0913474 108 85 68
2.06726 -0.34994 -9.06219 -0.189975 -0.659373 0.727418 168 161 136
1.71569 -1.13639 -9.12289 -0.545014 -0.304333 0.781243 198 194 186
1.75194 -1.11058 -9.11884 -0.659957 -0.299684 0.688946 197 193 185
1.66273 -1.23394 -9.12218 -0.186754 -0.364634 0.912231 200 196 188
1.80329 -1.50747 -9.30954 -0.169024 -0.801665 0.573379 202 198 188
2.27616 -1.89615 -9.74259 -0.940568 -0.276806 0.196748 92 28 33
2.56244 1.61327 -8.74029 -0.964883 -0.0626437 0.255101 246 241 234
2.22734 0.463917 -8.88166 -0.761282 -0.493389 0.420734 222 216 201
2.21862 0.440842 -8.90372 -0.505721 -0.611078 0.608959 221 215 201
1.72909 -1.00268 -9.1039 -0.593661 -0.0873832 0.799957 181 177 169
1.64113 -1.13298 -9.10535 -0.025983 -0.488756 0.872034 188 183 175
1.67778 -1.12691 -9.10969 -0.229981 -0.405696 0.884601 193 189 181
1.63118 -1.24087 -9.112 -0.45549 -0.266767 0.849332 194 190 181
1.64007 -1.21287 -9.11011 -0.394159 -0.176711 0.901893 195 191 182
1.63753 -1.20499 -9.1056 -0.240798 -0.413084 0.878281 193 189 181
2.20838 -1.88217 -9.75005 0.260655 -0.811564 0.522899 86 28 32
2.21352 -1.87356 -9.75766 0.282649 -0.854427 0.435963 85 28 32
2.48756 -2.83312 -10.2853 -0.705372 -0.472329 0.528541 102 55 34
2.49163 -3.43256 -10.4944 0.171657 -0.967117 0.187669 117 96 80
2.42869 -3.44807 -10.4769 0.0919073 -0.995048 0.0378407 112 65 40
2.49163 -3.43256 -10.4944 0.171657 -0.967117 0.187669 117 96 80
1.25918 -1.01504 -8.84517 -0.3358 -0.664881 0.667212 173 167 157
1.6358 -1.32226 -9.20691 -0.178277 -0.344986 0.921521 192 187 178
1.6159 -1.35984 -9.21306 -0.271088 -0.316162 0.90915 190 185 176
1.73359 -1.45217 -9.31208 -0.30552 -0.883475 0.355148 200 196 187
1.74429 -1.51499 -9.34289 -0.334998 -0.930185 0.150105 202 199 189
1.83232 -1.91367 -9.55664 0.303425 -0.95099 0.059588 214 210 197
2.55522 -2.56699 -10.2761 -0.729963 -0.169691 0.662087 118 79 42
2.43457 -3.4594 -10.529 -0.0191517 -0.99936 0.0302051 108 77 59
1.29759 -1.03131 -8.91305 -0.0387228 -0.770799 0.6359 164 157 148
1.2936 -1.06417 -8.93122 -0.158894 -0.830592 0.533732 167 161 152
1.38879 -1.13214 -9.02877 -0.383242 -0.660865 0.645277 158 152 143
1.567 -1.32976 -9.20826 -0.165538 -0.662095 0.730908 183 178 169
1.60382 -1.3237 -9.21614 -0.0397993 -0.483119 0.874649 186 181 172
1.58675 -1.35096 -9.22848 -0.0462691 -0.810658 0.583689 184 179 170
1.62395 -1.3337 -9.25334 0.150486 -0.624426 0.766451 192 187 178
1.60501 -1.38311 -9.2373 -0.440694 -0.459164 0.771335 189 184 175
1.59542 -1.41241 -9.25395 -0.13261 -0.891981 0.432187 185 180 171
1.635 -1.4203 -9.28342 -0.0661895 -0.458247 0.886357 194 189 180
1.77833 -1.65907 -9.45347 -0.581118 -0.266724 0.768869 209 205 194
2.62007 -3.07335 -10.5442 -0.166923 -0.213586 0.962558 187 107 43
1.26807 -1.0416 -8.93219 -0.279211 -0.716263 0.639538 180 175 167
1.26364 -1.07329 -8.94305 -0.207876 -0.795808 0.56875 179 174 165
1.32861 -1.05901 -8.96769 -0.0063826 -0.736095 0.676849 160 154 145
1.33692 -1.07763 -8.99689 -0.404035 -0.240143 0.882659 161 155 147
1.28967 -1.13338 -9.00744 -0.00257975 -0.708585 0.705621 173 168 160
1.33396 -1.14789 -9.02781 -0.0426737 -0.748487 0.661775 166 161 152
1.34475 -1.21076 -9.04659 -0.241791 -0.59985 0.762704 178 173 165
1.36567 -1.22307 -9.0763 0.167109 -0.963832 -0.20761 182 178 170
