ply
format ascii 1.0
element face 0
property list uchar int vertex_indices
element vertex 866
property float x
property float y
property float z
property uchar diffuse_red
property uchar diffuse_green
property uchar diffuse_blue
end_header
-3.101920e+000 3.823415e-001 -9.242446e+000 143 111 86
-2.848927e+000 4.948222e-001 -9.486426e+000 122 94 74
-2.913634e+000 6.170578e-001 -9.432175e+000 68 42 21
-2.610405e-001 1.075548e+000 -1.046833e+001 118 115 132
-2.611967e-001 1.075504e+000 -1.046667e+001 118 115 132
4.757671e-001 2.983914e+000 -8.538100e+000 210 196 170
-7.402964e-001 1.647274e+000 -1.063342e+001 101 71 51
-7.402964e-001 1.647274e+000 -1.063342e+001 101 71 51
-1.581160e+000 -9.782884e-001 -9.349698e+000 179 173 185
-2.767812e+000 -7.423112e-001 -9.047296e+000 126 81 53
-2.998193e+000 -6.199371e-001 -8.927351e+000 177 125 86
-3.085124e+000 -4.459425e-001 -8.822107e+000 151 91 57
-2.628074e+000 -5.927294e-001 -9.298887e+000 67 39 35
-2.611098e+000 -6.699925e-001 -9.391684e+000 51 28 31
-3.250473e+000 -1.763090e-001 -8.866688e+000 184 134 106
-2.655491e+000 -3.414984e-001 -9.488085e+000 94 62 45
-3.041531e+000 3.715497e-002 -9.393235e+000 131 97 87
-2.465358e+000 2.325512e-002 -9.657760e+000 70 44 32
-2.958233e+000 2.787897e-001 -9.421662e+000 128 92 68
-2.036593e+000 -1.151252e+000 -8.997590e+000 187 156 139
-2.804188e+000 -8.501794e-001 -8.766258e+000 203 168 146
-2.804188e+000 -8.501794e-001 -8.766258e+000 203 168 146
-2.834369e+000 -8.345128e-001 -8.935198e+000 184 142 114
-3.039023e+000 -4.228939e-001 -9.172052e+000 113 65 43
-2.704551e+000 -2.170330e-001 -9.467810e+000 169 136 120
-2.746690e+000 -2.363841e-001 -9.486430e+000 169 136 120
-1.441732e+000 6.350323e-003 -1.001514e+001 25 19 24
-3.301080e+000 1.543659e-001 -9.023176e+000 142 113 86
-3.204987e+000 5.928843e-001 -9.223843e+000 173 145 123
-9.990547e-001 1.770882e+000 -1.039248e+001 142 107 78
-8.292196e-001 1.700898e+000 -1.060319e+001 160 127 96
-7.273150e-001 -1.332835e+000 -8.793236e+000 159 160 181
-3.130750e+000 -5.537754e-001 -8.411787e+000 189 158 128
-3.097859e+000 -7.392597e-001 -8.312179e+000 197 167 139
-1.559894e+000 2.941513e-001 -9.941061e+000 108 106 114
-2.829988e+000 -6.876909e-001 -9.083540e+000 134 85 62
-2.098483e+000 -3.544745e-001 -9.640542e+000 151 123 111
-1.762732e+000 -9.385866e-002 -9.315727e+000 141 114 101
-1.762732e+000 -9.385866e-002 -9.315727e+000 141 114 101
-2.900790e+000 -1.750856e-001 -9.367584e+000 133 92 68
-1.457586e+000 6.471272e-001 -9.814990e+000 32 23 16
-2.566304e+000 -4.069149e-001 -9.471342e+000 164 132 109
-2.884121e+000 -2.156226e-001 -9.383076e+000 140 98 72
-8.159639e-001 2.010805e+000 -9.807271e+000 154 113 71
-3.004920e+000 -8.550501e-001 -8.428170e+000 161 116 85
-2.725214e+000 -1.248468e+000 -8.243887e+000 85 45 32
-2.725214e+000 -1.248468e+000 -8.243887e+000 85 45 32
-2.768276e+000 -1.099718e+000 -8.265547e+000 149 112 96
-3.053722e+000 -7.721022e-001 -8.461917e+000 180 144 122
-1.313036e+000 -7.448165e-001 -9.555543e+000 75 51 47
-2.830261e+000 -2.839079e-001 -9.436276e+000 135 100 80
-3.008206e+000 -1.946819e-001 -9.271826e+000 100 58 35
-2.766171e+000 1.739352e-001 -9.618923e+000 119 86 69
4.013768e-001 2.704015e+000 -8.430090e+000 172 134 97
-6.830094e-001 2.498941e+000 -9.980943e+000 165 136 102
-2.708136e+000 -1.264938e+000 -8.248784e+000 126 88 70
-1.512371e+000 -9.782582e-001 -9.391926e+000 161 132 121
-2.860485e+000 -1.876996e-001 -9.439188e+000 107 66 46
-2.413946e+000 2.069522e-001 -9.766415e+000 138 115 107
-2.540515e+000 3.561841e-001 -9.715196e+000 27 12 15
-6.866166e-001 2.448128e+000 -1.017928e+001 205 185 150
-3.012570e+000 -3.761511e-001 -9.236545e+000 144 101 76
-3.135431e+000 1.724753e-001 -9.243165e+000 113 66 36
-3.230990e+000 5.988187e-001 -9.282796e+000 151 119 92
4.804281e-001 2.635683e+000 -8.911431e+000 114 86 63
-4.904577e-001 -1.389799e+000 -8.202380e+000 33 21 30
-2.926790e+000 -9.426978e-001 -8.143917e+000 117 70 40
-2.973449e+000 -7.308897e-001 -8.809909e+000 157 104 66
-1.986470e+000 -2.961385e-001 -9.793317e+000 155 133 120
-2.776715e+000 -2.359516e-001 -9.435316e+000 100 63 48
-9.721241e-001 1.690246e+000 -1.045623e+001 98 66 45
-2.250932e+000 7.933969e-002 -9.736574e+000 36 24 25
-1.159059e+000 -9.782333e-001 -9.376046e+000 20 16 24
4.768981e-001 2.678560e+000 -8.681008e+000 40 21 14
-1.078433e+000 -5.206545e-001 -9.942090e+000 119 123 143
-1.199900e+000 4.556710e-001 -9.992510e+000 98 97 113
4.558480e-001 2.937676e+000 -8.698893e+000 161 126 88
-3.008838e+000 -7.056989e-001 -8.082031e+000 115 70 44
-2.757720e+000 -1.196683e+000 -8.137652e+000 139 92 70
-2.847318e+000 -1.148032e+000 -8.249870e+000 135 98 80
-2.768516e+000 -1.110981e+000 -8.205623e+000 80 43 25
-2.223016e+000 -1.279313e+000 -8.537662e+000 141 97 69
-2.964229e+000 -9.498169e-001 -8.024994e+000 169 122 92
-2.814107e+000 -1.031214e+000 -8.229371e+000 89 50 37
-2.926918e+000 -9.699136e-001 -8.258902e+000 180 133 103
-2.860590e+000 -1.030764e+000 -8.340719e+000 177 140 114
-2.707746e+000 -1.085367e+000 -8.601963e+000 164 126 109
-2.446582e+000 -1.222796e+000 -8.717010e+000 173 133 108
-1.885467e+000 -1.252925e+000 -8.888855e+000 207 173 156
-2.782038e+000 -1.051053e+000 -8.515975e+000 170 130 109
-2.383357e+000 -1.096394e+000 -8.887997e+000 161 120 100
-2.905062e+000 -9.129745e-001 -8.637098e+000 206 171 151
-2.052166e+000 -1.090356e+000 -9.099910e+000 158 130 116
-2.083122e+000 -1.097341e+000 -9.232621e+000 133 110 104
-2.790952e+000 -8.838875e-001 -8.775126e+000 171 134 108
-2.759063e+000 -8.729548e-001 -8.863017e+000 171 134 108
-2.642367e+000 -9.241202e-001 -8.953558e+000 192 150 125
-1.399967e+000 -9.848811e-001 -9.474184e+000 133 114 110
-3.112597e+000 -6.850396e-001 -8.480693e+000 202 165 138
-2.763112e+000 -8.346903e-001 -8.895375e+000 197 160 133
-2.623809e+000 -8.892146e-001 -9.087920e+000 149 93 66
-1.560431e+000 -9.175170e-001 -9.494277e+000 85 61 50
-1.459523e+000 -8.883498e-001 -9.506079e+000 119 95 92
-2.765417e+000 -7.664882e-001 -9.023742e+000 131 81 58
-1.469432e+000 -7.798812e-001 -9.526570e+000 64 42 38
-1.074253e+000 -7.807748e-001 -9.750793e+000 144 148 175
-3.098883e+000 -4.138592e-001 -8.396567e+000 151 120 90
-2.909109e+000 -6.045308e-001 -8.996762e+000 120 70 48
-2.915220e+000 -6.071955e-001 -9.051717e+000 115 64 42
-2.689813e+000 -6.848562e-001 -9.362137e+000 139 118 114
-2.239679e+000 -7.015249e-001 -9.358632e+000 36 16 17
-2.123590e+000 -7.455357e-001 -9.475149e+000 149 126 120
-1.591749e+000 -7.112025e-001 -9.556416e+000 92 75 67
-1.263473e+000 -6.934076e-001 -9.659540e+000 54 36 37
-1.274238e+000 -6.782807e-001 -9.689431e+000 67 46 51
-2.903306e+000 8.732175e-004 -7.881521e+000 212 183 153
-2.426542e+000 -6.635257e-001 -9.426804e+000 50 26 28
-2.479356e+000 -5.803261e-001 -9.433660e+000 109 76 67
-3.096370e+000 -6.107376e-002 -8.317104e+000 37 25 25
-3.124202e+000 -1.164283e-001 -8.469318e+000 139 104 85
-3.094768e+000 -3.533119e-001 -8.896833e+000 136 85 56
-2.714775e+000 -4.756593e-001 -9.372807e+000 131 103 92
-2.714775e+000 -4.756593e-001 -9.372807e+000 131 103 92
-2.681975e+000 -4.643673e-001 -9.408989e+000 145 113 100
-3.171700e+000 -4.943394e-002 -8.560830e+000 128 95 76
-3.201441e+000 -2.054651e-001 -8.758844e+000 83 37 16
-3.164877e+000 -1.938859e-001 -8.756474e+000 156 107 69
-3.196857e+000 -1.592288e-001 -8.688338e+000 120 84 58
-3.179432e+000 -1.297610e-001 -8.739192e+000 159 122 96
-3.088676e+000 -3.207258e-001 -8.978517e+000 161 118 91
-2.364125e+000 -4.423730e-001 -9.528356e+000 102 73 67
-2.007997e+000 -3.873415e-001 -9.758924e+000 106 84 73
-2.007997e+000 -3.873415e-001 -9.758924e+000 106 84 73
-1.361170e+000 -4.067854e-001 -9.893613e+000 157 154 166
-1.334718e+000 -4.176790e-001 -9.904012e+000 109 106 117
-1.253009e+000 -3.408174e-001 -9.972468e+000 24 21 32
-2.916556e+000 2.566121e-001 -8.049850e+000 74 43 22
-3.123174e+000 1.368528e-001 -8.367275e+000 89 68 63
-3.161455e+000 -5.666045e-002 -8.706566e+000 104 64 40
-3.257878e+000 -1.972692e-001 -8.919908e+000 114 68 45
-3.244619e+000 -1.678822e-001 -8.926090e+000 168 124 102
-3.287507e+000 -1.491339e-001 -8.928918e+000 163 118 95
-3.271949e+000 -1.201729e-001 -8.930474e+000 94 53 39
-3.126997e+000 -2.259574e-001 -9.112777e+000 168 118 88
-2.962272e+000 -2.237829e-001 -9.179782e+000 81 38 21
-3.011758e+000 -2.389514e-001 -9.240378e+000 82 37 18
-3.072396e+000 -2.433361e-001 -9.259772e+000 84 42 20
-2.960395e+000 -2.405001e-001 -9.295870e+000 91 51 34
-2.738736e+000 -2.817224e-001 -9.364362e+000 148 107 87
-2.790429e+000 -3.000511e-001 -9.409858e+000 98 65 47
-2.719327e+000 -2.896376e-001 -9.462095e+000 158 127 109
-2.448337e+000 -3.401196e-001 -9.558551e+000 175 152 142
-1.754716e+000 -3.162671e-001 -9.806099e+000 99 77 66
-1.862223e+000 -2.628610e-001 -9.836012e+000 117 99 85
-1.862223e+000 -2.628610e-001 -9.836012e+000 117 99 85
-1.505119e+000 -2.472675e-001 -9.854639e+000 112 101 110
-3.155127e+000 2.126567e-001 -8.406960e+000 113 93 84
-3.155180e+000 2.772740e-001 -8.346026e+000 77 51 38
-3.220392e+000 -5.641218e-002 -8.904055e+000 109 67 51
-3.291694e+000 -4.104999e-002 -8.992236e+000 180 158 137
-3.143892e+000 -8.761344e-002 -9.074318e+000 86 53 43
-3.053012e+000 -1.305863e-001 -9.312608e+000 166 129 103
-2.804532e+000 -1.954060e-001 -9.392842e+000 101 63 42
-2.491272e+000 -2.199051e-001 -9.600217e+000 191 168 154
-2.205157e+000 -2.236706e-001 -9.779217e+000 126 108 101
-2.109055e+000 -1.771078e-001 -9.823636e+000 81 67 68
-1.428429e+000 -1.236932e-001 -9.999001e+000 152 141 150
-1.245043e+000 -1.639028e-001 -1.006486e+001 58 54 63
-1.239396e+000 -1.620222e-001 -1.006355e+001 58 54 63
-1.257943e+000 -1.410073e-001 -1.007402e+001 113 110 119
-1.257943e+000 -1.410073e-001 -1.007402e+001 113 110 119
-3.164184e+000 2.873389e-001 -8.469853e+000 99 78 71
-3.296883e+000 1.315011e-001 -8.842725e+000 92 49 32
-3.212724e+000 1.070267e-001 -8.939474e+000 73 35 16
-3.253621e+000 7.030559e-002 -8.988186e+000 123 88 69
-3.157275e+000 -7.908827e-002 -9.175609e+000 149 105 77
-3.125174e+000 -1.542443e-002 -9.192941e+000 142 101 73
-3.068981e+000 -4.196738e-002 -9.241828e+000 72 34 22
-2.961262e+000 -1.595935e-003 -9.272866e+000 67 28 13
-3.046595e+000 -2.704844e-002 -9.340991e+000 175 138 123
-2.952664e+000 -1.365750e-001 -9.462806e+000 143 107 85
-1.516960e+000 2.157806e-002 -1.005331e+001 109 104 110
-3.301976e+000 1.738397e-001 -8.832343e+000 107 63 36
-3.307338e+000 2.641989e-001 -8.866725e+000 134 102 77
-3.189952e+000 1.456213e-001 -9.064316e+000 69 32 23
-3.207733e+000 1.467400e-001 -9.153527e+000 162 126 92
-3.172956e+000 1.041768e-001 -9.167279e+000 103 58 38
-3.095700e+000 1.466955e-001 -9.122138e+000 103 58 38
-3.177559e+000 1.050151e-001 -9.193189e+000 168 121 94
-3.105166e+000 3.551119e-002 -9.301796e+000 166 128 102
-3.041696e+000 8.148647e-003 -9.356564e+000 158 126 107
-3.060200e+000 5.368524e-002 -9.358174e+000 155 121 108
-2.779147e+000 6.483449e-002 -9.513354e+000 154 121 104
-2.568987e+000 -2.084185e-002 -9.618700e+000 109 68 48
-2.723141e+000 1.836701e-002 -9.635224e+000 159 118 98
-2.569266e+000 8.755187e-002 -9.653046e+000 136 102 93
-2.064891e+000 6.281811e-002 -9.845303e+000 124 113 107
-2.064891e+000 6.281811e-002 -9.845303e+000 124 113 107
-3.288810e+000 3.331641e-001 -8.828634e+000 187 149 116
-3.143259e+000 4.803154e-001 -8.733198e+000 125 79 49
-3.275531e+000 3.190251e-001 -8.862524e+000 132 94 65
-3.125677e+000 2.247366e-001 -9.269146e+000 102 56 37
-2.996818e+000 1.322855e-001 -9.418358e+000 82 47 28
-2.542243e+000 1.622313e-001 -9.661167e+000 50 24 23
-2.529589e+000 1.977864e-001 -9.720600e+000 124 103 102
-2.482653e+000 1.815151e-001 -9.727596e+000 145 119 108
-2.438839e+000 1.914737e-001 -9.780204e+000 146 124 114
-2.090255e+000 2.049503e-001 -9.820387e+000 52 40 50
-3.152463e+000 4.988521e-001 -8.834702e+000 146 97 58
-3.152463e+000 4.988521e-001 -8.834702e+000 146 97 58
-3.238505e+000 3.575771e-001 -9.093594e+000 147 116 103
-3.201328e+000 3.318864e-001 -9.147616e+000 117 83 60
-3.173835e+000 2.946873e-001 -9.182308e+000 126 93 76
-2.984016e+000 4.034451e-001 -9.247058e+000 70 43 32
-2.984016e+000 4.034451e-001 -9.247058e+000 70 43 32
-2.954377e+000 3.782665e-001 -9.277570e+000 130 107 93
-2.890837e+000 4.026275e-001 -9.355621e+000 65 37 24
-2.971287e+000 2.959816e-001 -9.450932e+000 148 116 95
-2.898278e+000 3.592775e-001 -9.397327e+000 86 54 36
-2.469194e+000 2.960948e-001 -9.775957e+000 88 76 78
-2.379730e+000 2.192693e-001 -9.785191e+000 61 43 42
-3.150590e+000 4.778242e-001 -9.168935e+000 153 120 102
-3.121557e+000 4.989845e-001 -9.169642e+000 160 124 111
-3.090404e+000 5.517635e-001 -9.211829e+000 97 61 47
-3.088822e+000 5.233958e-001 -9.242995e+000 158 127 107
-2.925136e+000 4.005295e-001 -9.391797e+000 104 78 65
-2.805945e+000 5.737763e-001 -9.335112e+000 64 39 26
-1.488251e+000 6.801319e-001 -9.771235e+000 117 112 106
-3.255244e+000 6.925119e-001 -9.081422e+000 181 151 121
-3.233118e+000 6.648949e-001 -9.181660e+000 123 86 60
-3.171173e+000 6.142445e-001 -9.327033e+000 167 140 120
-3.171173e+000 6.142445e-001 -9.327033e+000 167 140 120
-3.098675e+000 6.586411e-001 -9.331202e+000 119 86 69
-3.079840e+000 6.637785e-001 -9.378606e+000 175 147 126
-2.260268e+000 8.173701e-001 -9.658076e+000 90 68 47
-3.165291e+000 7.354637e-001 -9.557129e+000 178 162 146
-7.789383e-001 1.156778e+000 -1.052546e+001 100 101 116
-1.013125e+000 1.270959e+000 -1.049959e+001 46 32 21
-8.228062e-001 1.305580e+000 -1.057764e+001 118 96 81
-7.983891e-001 1.451942e+000 -1.054960e+001 147 121 100
-9.736123e-001 1.725516e+000 -1.018342e+001 45 25 19
-9.669722e-001 1.869703e+000 -1.028152e+001 145 115 91
-2.321793e+000 -1.409387e+000 -8.073392e+000 124 101 87
-2.914977e+000 -1.140232e+000 -8.118628e+000 112 65 35
-2.720643e+000 -1.275672e+000 -8.290860e+000 65 37 33
-2.638862e+000 -1.274203e+000 -8.270335e+000 123 105 103
-2.862455e+000 -1.087462e+000 -8.213410e+000 135 98 71
-2.789359e+000 -1.130327e+000 -8.277616e+000 72 36 25
-2.765836e+000 -1.108327e+000 -8.318031e+000 146 107 95
-2.330734e+000 -1.237594e+000 -8.596022e+000 187 144 117
-2.245815e+000 -1.272447e+000 -8.776307e+000 197 160 141
-2.991544e+000 -9.758791e-001 -8.030918e+000 141 91 56
-2.950987e+000 -1.002840e+000 -8.229681e+000 93 51 27
-2.897492e+000 -1.012990e+000 -8.215773e+000 154 116 93
-2.744393e+000 -1.128436e+000 -8.455399e+000 149 107 83
-2.423353e+000 -1.223238e+000 -8.728348e+000 198 157 132
-2.403242e+000 -1.194439e+000 -8.728979e+000 190 150 125
-2.342159e+000 -1.209990e+000 -8.710906e+000 149 109 83
-2.397351e+000 -1.201723e+000 -8.849458e+000 139 97 75
-2.064134e+000 -1.236358e+000 -8.901148e+000 206 174 159
-1.933171e+000 -1.218186e+000 -8.967750e+000 205 168 149
-2.967342e+000 -7.485678e-001 -7.989195e+000 188 146 109
-2.655207e+000 -1.036724e+000 -8.722146e+000 207 173 154
-1.792873e+000 -1.196878e+000 -9.097472e+000 197 185 186
-2.965153e+000 -6.338926e-001 -7.979126e+000 152 116 92
-2.934711e+000 -6.543085e-001 -8.033333e+000 100 59 41
-3.009328e+000 -6.822086e-001 -8.145134e+000 164 128 108
-2.532622e+000 -1.014465e+000 -9.099763e+000 182 137 109
-2.645434e+000 -1.021433e+000 -9.133504e+000 158 109 79
-2.409319e+000 -9.922278e-001 -9.086481e+000 176 135 108
-2.528142e+000 -9.271991e-001 -9.132578e+000 166 119 91
-2.365000e+000 -1.000650e+000 -9.142624e+000 125 87 65
-2.457584e+000 -9.849635e-001 -9.197739e+000 112 74 54
-2.077586e+000 -9.594873e-001 -9.269190e+000 165 130 112
-2.058927e+000 -9.549169e-001 -9.260881e+000 165 130 112
-1.531348e+000 -1.022211e+000 -9.305545e+000 113 85 82
-1.361417e+000 -9.958407e-001 -9.343558e+000 96 59 43
-2.440928e+000 -8.412541e-001 -9.214749e+000 82 40 33
-2.423503e+000 -8.612855e-001 -9.258851e+000 121 78 60
-1.883357e+000 -9.194011e-001 -9.427782e+000 122 103 105
-1.888683e+000 -9.793888e-001 -9.463680e+000 102 91 97
-1.640581e+000 -9.029769e-001 -9.473947e+000 61 45 46
-1.640581e+000 -9.029769e-001 -9.473947e+000 61 45 46
-1.451692e+000 -9.253399e-001 -9.468929e+000 141 116 112
-2.864604e+000 -6.534170e-001 -8.810781e+000 193 143 106
-1.948405e+000 -7.715082e-001 -9.425467e+000 74 49 44
-1.941494e+000 -7.914000e-001 -9.441741e+000 119 97 99
-1.676691e+000 -7.569034e-001 -9.446806e+000 102 84 86
-1.676691e+000 -7.569034e-001 -9.446806e+000 102 84 86
-1.577290e+000 -7.573442e-001 -9.507276e+000 46 31 30
-1.598946e+000 -7.368030e-001 -9.534725e+000 151 138 132
-2.945521e+000 -5.219558e-001 -8.880877e+000 187 135 98
-2.903696e+000 -6.592811e-001 -9.000434e+000 140 89 60
-1.909173e+000 -7.139460e-001 -9.473551e+000 92 65 58
-2.112948e+000 -7.032811e-001 -9.498712e+000 64 40 38
-2.016221e+000 -7.142115e-001 -9.521416e+000 128 107 102
-2.089501e+000 -7.358637e-001 -9.598662e+000 60 44 44
-2.803473e+000 7.889282e-002 -7.874115e+000 116 74 50
-3.118414e+000 -4.329346e-001 -8.698900e+000 184 134 96
-3.044607e+000 -4.743424e-001 -8.876948e+000 167 113 80
-1.543182e+000 -5.505464e-001 -9.630255e+000 112 83 80
-3.078594e+000 -3.176012e-001 -8.671792e+000 146 97 59
-3.063587e+000 -3.704824e-001 -8.918197e+000 148 95 61
-3.026560e+000 -4.605758e-001 -9.105787e+000 88 39 24
-3.017757e+000 -4.239599e-001 -9.167727e+000 98 52 39
-3.017757e+000 -4.239599e-001 -9.167727e+000 98 52 39
-2.939978e+000 -4.560407e-001 -9.157858e+000 143 96 78
-2.804398e+000 -4.928958e-001 -9.253528e+000 79 40 26
-2.743138e+000 -4.495157e-001 -9.294136e+000 140 102 83
-3.141305e+000 -5.482892e-002 -8.331369e+000 133 116 109
-3.142869e+000 -4.482074e-002 -8.517353e+000 75 54 51
-3.200349e+000 -9.481933e-002 -8.656865e+000 98 58 39
-3.229705e+000 -1.435620e-001 -8.695121e+000 173 134 112
-3.202608e+000 -2.318229e-001 -8.807245e+000 113 67 44
-3.042058e+000 -2.558399e-001 -9.023594e+000 102 58 40
-3.069740e+000 -3.086045e-001 -9.101956e+000 72 30 28
-2.978845e+000 -4.051107e-001 -9.243339e+000 143 100 77
-2.978845e+000 -4.051107e-001 -9.243339e+000 143 100 77
-2.882398e+000 -3.682409e-001 -9.217255e+000 84 38 22
-2.390209e+000 -4.671758e-001 -9.588754e+000 108 80 74
-2.272350e+000 -4.251339e-001 -9.542453e+000 108 80 74
-2.133657e+000 -4.617528e-001 -9.667536e+000 131 102 93
-1.975343e+000 -4.333802e-001 -9.725628e+000 74 49 42
-2.143678e+000 -4.114543e-001 -9.710259e+000 187 169 151
-1.266804e+000 -3.009516e-001 -9.886729e+000 134 131 142
-3.098807e+000 1.799689e-001 -8.334386e+000 60 40 35
-3.253340e+000 -4.059625e-002 -8.730548e+000 162 122 97
-3.273409e+000 -6.984255e-002 -8.826078e+000 168 122 88
-3.170978e+000 -1.545763e-001 -8.926103e+000 168 126 104
-3.101124e+000 -3.959924e-002 -8.849169e+000 159 118 100
-2.745444e+000 -3.117780e-001 -9.449174e+000 91 58 42
-2.635903e+000 -2.151959e-001 -9.368988e+000 80 46 34
-2.605878e+000 -2.546868e-001 -9.487170e+000 70 40 30
-2.525934e+000 -3.371702e-001 -9.567731e+000 184 158 143
-2.372112e+000 -3.423698e-001 -9.654111e+000 171 144 124
-2.263777e+000 -2.437660e-001 -9.684844e+000 117 88 74
-2.218162e+000 -3.584707e-001 -9.711692e+000 129 106 98
-1.899809e+000 -2.488295e-001 -9.819074e+000 114 94 85
-1.504584e+000 -2.630361e-001 -9.883240e+000 159 158 172
-1.220913e+000 -2.865829e-001 -1.009673e+001 137 139 159
-3.079431e+000 2.731295e-001 -8.286728e+000 125 96 82
-3.082263e+000 2.587545e-001 -8.323376e+000 79 54 49
-3.268392e+000 9.659144e-002 -8.564734e+000 40 24 24
-3.259049e+000 9.159657e-002 -8.625058e+000 97 76 62
-3.199480e+000 1.457587e-001 -8.675630e+000 38 25 23
-3.281005e+000 -4.690727e-002 -8.877362e+000 173 126 90
-3.127987e+000 -8.628564e-002 -9.124366e+000 177 139 112
-3.119451e+000 -2.342499e-001 -9.351349e+000 150 106 83
-2.734379e+000 -1.875577e-001 -9.510046e+000 143 113 87
-1.995757e+000 -1.924646e-001 -9.791089e+000 58 37 32
-1.796160e+000 -2.138079e-001 -9.853874e+000 108 90 86
-1.428430e+000 -1.289659e-001 -9.949818e+000 97 87 98
-1.428430e+000 -1.289659e-001 -9.949818e+000 97 87 98
-3.219329e+000 2.165912e-001 -8.545065e+000 44 26 24
-3.282202e+000 8.295500e-002 -8.856421e+000 128 88 59
-3.224389e+000 1.296554e-001 -8.842744e+000 72 45 35
-3.190075e+000 1.342955e-001 -8.860398e+000 54 25 15
-3.231018e+000 1.664323e-002 -9.036367e+000 53 28 22
-3.109789e+000 5.333852e-002 -9.072918e+000 72 34 20
-3.066819e+000 3.456128e-002 -9.063766e+000 175 137 109
-2.658875e+000 -8.315210e-002 -9.560998e+000 159 118 96
-2.963714e+000 6.033094e-001 -8.302346e+000 184 163 134
-3.285365e+000 2.492390e-001 -8.869669e+000 157 125 104
-2.921739e+000 1.215752e-001 -9.337479e+000 166 142 121
-2.981187e+000 -2.601469e-003 -9.386828e+000 73 45 28
-2.926121e+000 8.712435e-003 -9.435677e+000 116 81 62
-2.845501e+000 2.244564e-002 -9.477009e+000 144 109 90
-2.565887e+000 1.697560e-003 -9.638626e+000 85 50 36
-4.183955e-001 2.019479e-001 -1.046404e+001 69 74 94
-3.161036e+000 5.265282e-001 -8.683835e+000 165 130 100
-3.245616e+000 2.765728e-001 -8.948125e+000 146 112 87
-3.198874e+000 4.103222e-001 -8.904293e+000 116 80 48
-3.181532e+000 2.906732e-001 -9.086186e+000 121 84 66
-3.035766e+000 2.018667e-001 -9.286656e+000 86 43 24
-3.002034e+000 1.613525e-001 -9.446235e+000 91 52 35
-3.002034e+000 1.613525e-001 -9.446235e+000 91 52 35
-3.019627e+000 1.704381e-001 -9.424070e+000 155 112 95
-2.941734e+000 8.002728e-002 -9.503809e+000 131 94 68
-2.492486e+000 1.338769e-001 -9.710467e+000 90 60 50
-2.364289e+000 1.979331e-001 -9.752367e+000 48 27 24
-2.327162e+000 1.866101e-001 -9.755002e+000 117 95 89
-2.291305e+000 2.125043e-001 -9.798431e+000 33 17 23
-2.103893e+000 1.774768e-001 -9.884623e+000 49 38 36
-3.208429e+000 4.334508e-001 -8.905060e+000 197 157 122
-3.243869e+000 3.515450e-001 -9.044667e+000 158 124 102
-2.970884e+000 3.141228e-001 -9.402717e+000 132 95 77
-2.757876e+000 1.703195e-001 -9.659955e+000 141 107 95
-2.630073e+000 3.100601e-001 -9.671753e+000 46 28 24
-2.622984e+000 2.858840e-001 -9.676074e+000 107 86 78
-3.239115e+000 4.943415e-001 -8.995953e+000 183 140 105
-3.244304e+000 5.912819e-001 -8.956670e+000 182 138 108
-3.046696e+000 4.664717e-001 -9.277618e+000 87 56 36
-3.046696e+000 4.664717e-001 -9.277618e+000 87 56 36
-2.912969e+000 4.510024e-001 -9.423851e+000 126 100 85
-1.413302e+000 7.972254e-001 -9.815664e+000 120 116 113
-1.306468e+000 7.615206e-001 -9.919452e+000 122 121 125
-3.420615e+000 5.276789e-001 -9.155305e+000 185 158 130
-3.390197e+000 5.045732e-001 -9.157010e+000 178 147 119
-3.231231e+000 6.148086e-001 -9.112182e+000 125 84 54
-3.266167e+000 6.509084e-001 -9.161681e+000 133 96 67
-2.838629e+000 5.166266e-001 -9.475300e+000 137 109 94
-2.630325e+000 5.257014e-001 -9.616428e+000 99 77 63
-2.425668e+000 6.218171e-001 -9.620114e+000 34 19 17
-2.425668e+000 6.218171e-001 -9.620114e+000 34 19 17
-3.330885e+000 6.432268e-001 -9.153833e+000 150 116 89
-3.255580e+000 6.433023e-001 -9.304770e+000 182 157 135
-3.169944e+000 6.322668e-001 -9.345196e+000 168 142 123
-2.797895e+000 7.513434e-001 -9.510371e+000 79 57 44
-6.459819e-001 1.166882e+000 -1.053550e+001 60 52 63
-9.621302e-001 1.605553e+000 -9.878958e+000 150 111 81
-1.117114e+000 1.719181e+000 -1.042883e+001 144 112 84
-7.299391e-001 1.704421e+000 -1.067202e+001 123 97 75
-2.179747e+000 -1.281338e+000 -8.090463e+000 206 188 166
-2.801130e+000 -1.192461e+000 -8.215064e+000 65 23 7
-2.709618e+000 -1.228437e+000 -8.273082e+000 64 28 16
-2.341870e+000 -1.310689e+000 -8.513162e+000 182 140 115
-2.272324e+000 -1.347269e+000 -8.503109e+000 154 112 88
-2.873691e+000 -1.080893e+000 -8.129312e+000 111 62 38
-2.474316e+000 -1.172923e+000 -8.470478e+000 158 112 78
-2.543660e+000 -1.232751e+000 -8.690330e+000 182 140 109
-2.319675e+000 -1.240678e+000 -8.627469e+000 152 107 81
-3.025296e+000 -9.009647e-001 -7.931956e+000 174 143 118
-2.945613e+000 -8.506885e-001 -7.880930e+000 212 187 158
-2.945613e+000 -8.506885e-001 -7.880930e+000 212 187 158
-2.911736e+000 -9.590780e-001 -8.099709e+000 153 103 76
-2.890829e+000 -1.038958e+000 -8.252252e+000 154 114 87
-2.734450e+000 -1.064220e+000 -8.495137e+000 195 158 138
-1.921438e+000 -1.212492e+000 -8.926128e+000 148 105 88
-3.039190e+000 -8.058158e-001 -8.051777e+000 140 96 57
-2.960248e+000 -9.273486e-001 -8.458440e+000 151 108 89
-2.110824e+000 -1.185355e+000 -9.099941e+000 173 136 120
-2.110824e+000 -1.185355e+000 -9.099941e+000 173 136 120
-3.044133e+000 -7.432401e-001 -8.204714e+000 180 149 120
-2.086551e+000 -1.047461e+000 -9.194424e+000 144 116 104
-2.086551e+000 -1.047461e+000 -9.194424e+000 144 116 104
-2.067685e+000 -1.079854e+000 -9.246368e+000 189 171 170
-2.610987e+000 -9.690780e-001 -9.022978e+000 179 133 99
-1.933920e+000 -1.022658e+000 -9.346866e+000 180 173 187
-1.472694e+000 -9.780332e-001 -9.462292e+000 61 33 30
-3.112201e+000 -6.998556e-001 -8.508926e+000 175 134 105
-3.112201e+000 -6.998556e-001 -8.508926e+000 175 134 105
-3.046699e+000 -7.062178e-001 -8.563973e+000 196 159 130
-3.043935e+000 -6.599581e-001 -8.597064e+000 200 161 128
-2.627262e+000 -8.957167e-001 -9.067321e+000 193 151 113
-2.461219e+000 -8.895421e-001 -9.301983e+000 150 115 96
-1.620278e+000 -8.640983e-001 -9.507798e+000 182 171 184
-2.460013e+000 -8.046390e-001 -9.173056e+000 84 44 36
-2.439937e+000 -7.608898e-001 -9.201541e+000 84 44 42
-2.439937e+000 -7.608898e-001 -9.201541e+000 84 44 42
-1.555823e+000 -7.900614e-001 -9.518505e+000 133 121 122
-1.243359e+000 -7.444049e-001 -9.631426e+000 54 35 36
-3.003829e+000 -1.603103e-001 -8.045467e+000 65 40 33
-3.095355e+000 -4.118863e-001 -8.398501e+000 148 117 86
-3.121765e+000 -4.470165e-001 -8.649672e+000 151 101 65
-2.943035e+000 -6.356729e-001 -9.040999e+000 178 134 107
-2.943035e+000 -6.356729e-001 -9.040999e+000 178 134 107
-2.373859e+000 -6.742004e-001 -9.448410e+000 38 18 15
-2.085020e+000 -7.026789e-001 -9.542033e+000 55 36 35
-3.204165e+000 -3.341031e-001 -8.428381e+000 34 18 18
-3.091355e+000 -4.332319e-001 -8.708914e+000 148 99 62
-2.432023e+000 -5.927743e-001 -9.353287e+000 56 37 36
-1.625610e+000 -6.051041e-001 -9.567600e+000 70 50 49
-1.356642e+000 -5.860479e-001 -9.686676e+000 124 90 81
-1.356642e+000 -5.860479e-001 -9.686676e+000 124 90 81
-1.202130e+000 -6.025830e-001 -9.817270e+000 171 168 174
-3.236237e+000 -3.239388e-001 -8.734538e+000 176 136 101
-3.159947e+000 -2.859538e-001 -8.714948e+000 129 84 53
-3.140105e+000 -2.262080e-001 -8.701754e+000 99 57 35
-3.176633e+000 -3.227959e-001 -8.844482e+000 125 72 45
-2.974276e+000 -5.116354e-001 -9.181104e+000 154 106 88
-2.846904e+000 -4.706296e-001 -9.285922e+000 84 44 26
-2.648499e+000 -5.260486e-001 -9.321373e+000 131 99 87
-2.664078e+000 -4.967080e-001 -9.338076e+000 48 22 18
-1.336814e+000 -4.149744e-001 -9.757799e+000 182 172 188
-3.152358e+000 3.930587e-002 -8.386099e+000 37 19 15
-3.233395e+000 -2.138504e-001 -8.818460e+000 159 115 68
-3.239037e+000 -2.165982e-001 -8.822152e+000 159 115 68
-3.113005e+000 -3.164961e-001 -8.965233e+000 87 44 23
-2.819887e+000 -4.621929e-001 -9.383709e+000 175 141 126
-2.508771e+000 -3.846153e-001 -9.519835e+000 187 160 141
-1.981893e+000 -3.533348e-001 -9.683484e+000 121 96 96
-2.025622e+000 -4.146346e-001 -9.744116e+000 173 153 146
-3.056584e+000 1.635921e-001 -8.284057e+000 36 18 16
-3.215516e+000 6.276098e-002 -8.489663e+000 39 26 24
-3.268674e+000 -1.651049e-001 -8.973827e+000 108 65 48
-3.069383e+000 -2.799119e-001 -9.128244e+000 148 100 73
-3.182322e+000 -3.346036e-001 -9.241218e+000 120 78 53
-2.834037e+000 -2.749221e-001 -9.377320e+000 160 119 97
-2.513735e+000 -3.236642e-001 -9.607047e+000 162 138 132
-2.428940e+000 -3.072419e-001 -9.610692e+000 79 48 37
-2.428940e+000 -3.072419e-001 -9.610692e+000 79 48 37
-2.262909e+000 -3.035853e-001 -9.657926e+000 74 48 34
-2.005005e+000 -2.676663e-001 -9.760546e+000 76 54 40
-1.314807e+000 -2.537824e-001 -9.902595e+000 92 84 94
-3.314364e+000 2.050144e-002 -8.846871e+000 167 122 95
-3.043818e+000 -1.941332e-001 -9.340268e+000 120 79 57
-3.034323e+000 4.167011e-001 -8.219816e+000 125 93 65
-3.208221e+000 1.871890e-001 -8.630582e+000 31 16 19
-3.267239e+000 9.351012e-002 -8.813200e+000 82 44 27
-3.209234e+000 1.505755e-001 -8.896768e+000 146 108 90
-3.217432e+000 -4.106645e-002 -9.066725e+000 176 143 128
-3.148863e+000 -4.700678e-003 -9.024245e+000 176 143 128
-2.412321e+000 -1.011898e-001 -9.663000e+000 160 128 116
-2.271597e+000 -1.271099e-001 -9.794243e+000 102 83 76
-2.271597e+000 -1.271099e-001 -9.794243e+000 102 83 76
-1.412395e+000 1.096683e-001 -9.952562e+000 18 13 14
-1.412395e+000 1.096683e-001 -9.952562e+000 18 13 14
-3.258247e+000 1.019684e-001 -8.991506e+000 136 94 75
-2.929478e+000 -6.291561e-003 -9.471540e+000 156 123 104
-2.924681e+000 -4.151373e-003 -9.468786e+000 156 123 104
-3.177899e+000 1.977572e-001 -9.116577e+000 89 55 40
-3.223162e+000 1.081533e-001 -9.262552e+000 132 86 63
-2.984820e+000 1.147958e-001 -9.489777e+000 100 63 45
-2.833092e+000 1.501944e-001 -9.478264e+000 103 62 40
-2.833092e+000 1.501944e-001 -9.478264e+000 103 62 40
-3.316866e+000 4.076026e-001 -9.100142e+000 181 146 122
-3.171715e+000 3.603358e-001 -9.098090e+000 147 117 90
-2.726084e+000 3.173459e-001 -9.415162e+000 61 30 11
-2.773164e+000 4.104208e-001 -9.416443e+000 73 40 27
-2.819518e+000 2.751009e-001 -9.503655e+000 136 101 82
-2.819518e+000 2.751009e-001 -9.503655e+000 136 101 82
-2.550935e+000 2.427671e-001 -9.732364e+000 42 23 25
-2.304378e+000 2.431530e-001 -9.839932e+000 41 29 33
-2.217721e+000 2.468729e-001 -9.843067e+000 81 71 69
-1.590216e+000 4.832347e-001 -9.839841e+000 114 110 113
-2.946088e+000 3.992583e-001 -9.366243e+000 133 107 90
-2.666956e+000 5.731111e-001 -9.442048e+000 60 32 20
-2.658520e+000 5.171856e-001 -9.490864e+000 86 57 46
-2.475449e+000 5.234452e-001 -9.666334e+000 68 54 52
-2.475449e+000 5.234452e-001 -9.666334e+000 68 54 52
-3.334264e+000 6.148671e-001 -9.070671e+000 170 142 113
-3.014038e+000 5.670278e-001 -9.427514e+000 81 51 43
-2.259517e+000 7.090691e-001 -9.703277e+000 45 27 21
-3.094035e+000 7.324793e-001 -9.348793e+000 129 102 83
-3.179408e+000 7.680220e-001 -9.406189e+000 174 155 146
-3.068484e+000 7.773061e-001 -9.461481e+000 212 197 178
-3.195249e+000 8.198957e-001 -9.424699e+000 185 173 161
-1.005208e+000 1.727656e+000 -1.000074e+001 107 78 60
-9.889499e-001 1.879416e+000 -9.934685e+000 142 101 67
-9.024944e-001 1.984778e+000 -1.045973e+001 126 95 64
-2.832771e+000 -1.325336e+000 -8.007184e+000 184 161 142
-2.863381e+000 -1.251728e+000 -8.085207e+000 156 111 83
-2.706101e+000 -1.361178e+000 -8.183882e+000 149 121 112
-1.891547e+000 -1.378996e+000 -8.487631e+000 201 173 161
-1.841287e+000 -1.330259e+000 -8.587618e+000 203 184 177
-2.805087e+000 -1.107798e+000 -8.174914e+000 72 33 19
-2.805087e+000 -1.107798e+000 -8.174914e+000 72 33 19
-2.795042e+000 -1.093668e+000 -8.268060e+000 143 103 92
-2.947528e+000 -9.997976e-001 -8.065895e+000 148 100 72
-2.777426e+000 -1.092778e+000 -8.392887e+000 137 98 82
-2.718598e+000 -1.106146e+000 -8.397731e+000 176 139 120
-2.354738e+000 -1.103501e+000 -8.971424e+000 189 155 127
-1.350840e+000 -1.065094e+000 -9.197564e+000 48 41 53
-1.570098e+000 -1.035836e+000 -9.286062e+000 190 179 185
-1.185254e+000 -1.022517e+000 -9.204989e+000 45 38 59
-2.889847e+000 -5.177774e-001 -7.863485e+000 142 106 76
-3.109848e+000 -6.113780e-001 -8.104922e+000 168 133 114
-2.689983e+000 -9.173934e-001 -8.897809e+000 156 112 85
-2.170729e+000 -1.000915e+000 -9.209492e+000 134 102 87
-1.458141e+000 -1.000028e+000 -9.414078e+000 142 108 98
-3.091850e+000 -5.899567e-001 -8.181770e+000 148 115 98
-2.915385e+000 -7.524105e-001 -8.726053e+000 170 125 94
-2.725809e+000 -8.432512e-001 -8.970154e+000 140 89 60
-2.619824e+000 -8.681433e-001 -9.027053e+000 153 103 70
-2.520345e+000 -8.510715e-001 -9.159436e+000 144 96 74
-2.301461e+000 -9.505151e-001 -9.289713e+000 108 70 60
-2.301461e+000 -9.505151e-001 -9.289713e+000 108 70 60
-3.106475e+000 -4.693163e-001 -8.326134e+000 34 16 21
-2.692814e+000 -7.494955e-001 -9.062455e+000 159 110 87
-1.530977e+000 -7.458997e-001 -9.577954e+000 71 46 45
-1.284614e+000 -7.361155e-001 -9.605097e+000 160 142 139
-1.284614e+000 -7.361155e-001 -9.605097e+000 160 142 139
-3.025387e+000 -5.987368e-001 -8.825327e+000 177 130 92
-3.046868e+000 -6.067165e-001 -8.836906e+000 177 130 92
-2.437842e+000 -7.389199e-001 -9.390714e+000 71 47 43
-1.611029e+000 -6.714575e-001 -9.538423e+000 150 132 123
-1.214057e+000 -6.988788e-001 -9.681223e+000 130 107 110
-3.138008e+000 -2.737594e-001 -8.456871e+000 179 147 119
-3.134034e+000 -4.593347e-001 -8.773931e+000 196 148 110
-2.177192e+000 -6.528336e-001 -9.489200e+000 102 78 66
-2.245064e+000 -5.689408e-001 -9.480231e+000 55 31 26
-3.093775e+000 -4.841513e-001 -9.247780e+000 150 106 81
-2.150013e+000 -5.271830e-001 -9.526073e+000 69 38 32
-2.301910e+000 -4.971745e-001 -9.506273e+000 77 47 44
-3.177366e+000 -9.304651e-002 -8.405889e+000 34 22 23
-3.156588e+000 -7.827200e-002 -8.465638e+000 25 14 20
-3.047623e+000 -3.820912e-001 -9.081932e+000 81 36 24
-3.073145e+000 -3.410249e-001 -9.103097e+000 71 31 28
-3.121648e+000 -3.403722e-001 -9.198634e+000 92 48 31
-3.275271e+000 -1.263677e-002 -8.683277e+000 33 18 15
-3.293537e+000 -9.126787e-002 -8.764387e+000 169 132 106
-3.210045e+000 -1.734789e-001 -8.857397e+000 179 134 103
-3.109042e+000 -1.577633e-001 -8.937011e+000 138 93 69
-2.754514e+000 -3.120952e-001 -9.418481e+000 130 99 81
-2.156398e+000 -3.455842e-001 -9.765126e+000 138 120 108
-2.156398e+000 -3.455842e-001 -9.765126e+000 138 120 108
-3.280669e+000 -4.265863e-002 -8.781618e+000 86 49 31
-3.217753e+000 8.226403e-003 -8.779634e+000 179 131 95
-3.047094e+000 -1.277511e-001 -9.226593e+000 75 32 23
-2.172010e+000 -1.990223e-001 -9.795659e+000 34 16 16
-1.954083e+000 -1.491862e-001 -9.827282e+000 27 11 12
-1.435549e+000 -1.699372e-001 -9.976480e+000 163 161 175
-2.907039e+000 5.657864e-001 -8.179445e+000 190 168 137
-3.237456e+000 -4.902126e-003 -9.074303e+000 172 139 119
-2.737785e+000 -8.907037e-002 -9.507893e+000 172 136 122
-2.573950e+000 -8.350709e-002 -9.634982e+000 150 109 88
-1.473995e+000 3.408525e-002 -1.000595e+001 20 13 21
-1.473995e+000 3.408525e-002 -1.000595e+001 20 13 21
-3.148757e+000 4.236685e-001 -8.570253e+000 89 54 34
-3.254477e+000 3.238457e-001 -8.691191e+000 155 123 95
-3.194920e+000 1.982598e-001 -8.888467e+000 85 53 42
-2.782015e+000 5.006683e-002 -9.483235e+000 101 64 48
-2.736581e+000 3.690975e-002 -9.583125e+000 173 145 131
-2.746505e+000 3.197592e-002 -9.587949e+000 173 145 131
-1.967208e+000 1.550769e-001 -9.861146e+000 48 34 34
-1.600641e+000 1.246734e-001 -9.863918e+000 98 83 78
-3.199158e+000 3.256840e-001 -8.879153e+000 92 54 33
-3.215216e+000 3.632266e-001 -8.889683e+000 184 148 120
-2.826773e+000 2.120039e-001 -9.449772e+000 128 87 65
-2.546585e+000 7.536123e-002 -9.714877e+000 126 97 85
-2.944800e+000 3.365959e-001 -9.345940e+000 88 54 39
-2.696522e+000 3.891459e-001 -9.470210e+000 76 46 38
-2.709676e+000 2.563658e-001 -9.600677e+000 73 43 33
-3.081684e+000 5.086167e-001 -9.261080e+000 136 104 89
-2.831731e+000 5.774065e-001 -9.327180e+000 60 33 22
-2.651867e+000 4.708013e-001 -9.500819e+000 53 25 20
-2.633589e+000 4.477036e-001 -9.533326e+000 106 72 50
-2.651184e+000 3.600401e-001 -9.646871e+000 39 24 24
-3.337817e+000 6.505046e-001 -9.032226e+000 205 193 175
-2.639753e+000 6.437139e-001 -9.442048e+000 74 45 29
-2.375273e+000 6.939028e-001 -9.639310e+000 55 37 33
-2.282394e+000 6.162097e-001 -9.741447e+000 28 17 18
-3.323699e+000 7.426630e-001 -9.195422e+000 168 142 124
-3.030444e+000 6.759806e-001 -9.419761e+000 171 147 123
-3.199900e+000 8.976550e-001 -9.146985e+000 208 191 175
-8.477896e-001 1.843141e+000 -9.910900e+000 70 41 27
-7.155875e-001 1.500638e+000 -1.068249e+001 72 51 48
-2.895404e+000 -1.220973e+000 -7.949378e+000 205 182 156
-2.974555e+000 -1.145774e+000 -7.968745e+000 221 203 181
-3.047852e+000 -9.559582e-001 -7.956076e+000 215 191 169
-2.748702e+000 -1.039153e+000 -8.400733e+000 186 151 131
-2.990685e+000 -8.085875e-001 -8.077897e+000 152 105 75
-2.838575e+000 -1.000936e+000 -8.484992e+000 194 158 146
-2.999262e+000 -6.417595e-001 -7.918185e+000 217 192 163
-2.967949e+000 -7.821866e-001 -8.108483e+000 107 62 35
-2.601611e+000 -9.264189e-001 -8.985340e+000 195 156 122
-1.915588e+000 -9.683299e-001 -9.324999e+000 147 120 104
-3.107241e+000 -6.085723e-001 -8.320096e+000 177 149 119
-3.092655e+000 -6.565640e-001 -8.461043e+000 193 159 131
-2.898706e+000 -7.998154e-001 -8.783090e+000 205 173 147
-1.124368e+000 -8.389836e-001 -9.582016e+000 16 15 30
-2.913004e+000 -6.981080e-001 -8.969606e+000 163 114 82
-2.961801e+000 -7.155048e-001 -8.998470e+000 163 114 82
-2.320422e+000 -7.060165e-001 -9.398939e+000 44 25 28
-2.202658e+000 -6.686734e-001 -9.442019e+000 50 35 33
-1.943337e+000 -6.124089e-001 -9.494360e+000 39 24 31
-3.163871e+000 -1.386938e-001 -8.454743e+000 45 33 37
-3.203298e+000 -2.362384e-001 -8.610661e+000 133 91 53
-3.192602e+000 -3.531754e-001 -8.826065e+000 173 128 99
-1.333327e+000 -4.698035e-001 -9.720464e+000 105 75 66
-2.924461e+000 -3.762116e-001 -9.363217e+000 132 96 70
-2.924461e+000 -3.762116e-001 -9.363217e+000 132 96 70
-2.864032e+000 -3.730660e-001 -9.391811e+000 116 78 59
-3.265077e+000 -9.594291e-002 -8.654474e+000 157 116 94
-1.434460e+000 -2.398516e-001 -9.913778e+000 178 179 194
-2.787971e+000 -7.439848e-002 -9.485989e+000 82 46 32
-2.637182e+000 -8.459138e-002 -9.500464e+000 96 61 48
-2.810345e+000 5.055535e-002 -9.575738e+000 82 46 35
-5.847199e-001 1.235104e-001 -1.046648e+001 85 90 108
-5.847199e-001 1.235104e-001 -1.046648e+001 85 90 108
-3.255048e+000 4.150176e-001 -8.676906e+000 187 154 123
-3.169778e+000 3.142567e-001 -9.039781e+000 143 114 96
-3.236019e+000 4.378838e-001 -8.962149e+000 205 170 133
-3.274597e+000 3.066420e-001 -9.096716e+000 94 59 43
-3.046877e+000 4.153461e-001 -9.209487e+000 148 122 98
-2.943444e+000 3.361459e-001 -9.457505e+000 121 91 67
-2.409233e+000 2.535123e-001 -9.712206e+000 67 46 50
-2.915050e+000 5.671974e-001 -9.282839e+000 53 25 14
-2.601078e+000 3.360687e-001 -9.718710e+000 24 13 17
-1.517245e+000 7.837714e-001 -9.726702e+000 114 113 108
-3.204045e+000 6.643628e-001 -9.151431e+000 111 72 46
-2.733511e+000 5.377235e-001 -9.582794e+000 122 90 69
-2.252023e-001 1.039104e+000 -1.040087e+001 18 15 26
-2.982856e+000 7.236633e-001 -9.501192e+000 148 125 106
-1.140479e+000 1.569624e+000 -1.038925e+001 71 49 38
-8.151855e-001 1.611810e+000 -1.057228e+001 123 94 73
-8.144026e-001 1.611812e+000 -1.057294e+001 123 94 73
-1.164501e+000 1.672521e+000 -1.051114e+001 112 76 46
-2.868777e+000 -1.289359e+000 -8.056437e+000 217 204 196
-2.802046e+000 -1.241844e+000 -8.202277e+000 148 100 76
-2.243419e+000 -1.258548e+000 -8.810416e+000 195 160 138
-2.793799e+000 -1.057169e+000 -8.812377e+000 202 169 152
-1.042366e+000 -9.507670e-001 -9.431047e+000 141 141 170
-1.972210e+000 -6.582960e-001 -9.608486e+000 53 39 39
-2.980308e+000 -4.582044e-001 -9.060319e+000 84 39 21
-2.867269e+000 -4.681060e-001 -9.214304e+000 154 113 92
-3.098249e+000 -2.969099e-001 -8.980563e+000 103 61 47
-3.098519e+000 -3.219197e-001 -9.063122e+000 172 123 89
-3.034069e+000 -3.590179e-001 -9.133905e+000 146 94 63
-2.472675e+000 -3.917143e-001 -9.508620e+000 159 132 116
-3.044802e+000 -3.151056e-001 -9.284772e+000 118 75 56
-2.270804e+000 -3.429626e-001 -9.697288e+000 137 115 102
-1.832309e+000 -3.094914e-001 -9.798964e+000 50 29 26
-3.033398e+000 -3.634286e-002 -9.201084e+000 81 43 31
-2.787379e+000 -2.157158e-002 -9.372802e+000 132 95 77
-2.981416e+000 3.606916e-001 -9.254191e+000 62 38 31
-2.989018e+000 3.956293e-001 -9.309349e+000 125 98 81
-3.077593e+000 7.205201e-001 -9.441809e+000 152 131 112
-7.712688e-001 1.546196e+000 -1.064993e+001 140 112 88
-2.213910e+000 -9.598663e-001 -9.169141e+000 164 129 110
-2.870070e+000 -1.125194e-001 -7.864637e+000 207 190 161
-1.589633e+000 -5.792690e-001 -9.702336e+000 150 128 114
-3.041440e+000 -3.495472e-001 -8.962119e+000 188 143 104
-2.952961e+000 1.943590e-001 -8.096167e+000 74 46 34
-3.246462e+000 -2.207162e-001 -8.700023e+000 182 146 120
-3.187684e+000 -1.916257e-001 -8.658906e+000 182 146 120
-3.238716e+000 -1.689479e-001 -8.860216e+000 181 136 107
-2.245126e+000 -2.743757e-001 -9.739927e+000 132 106 83
-1.847400e+000 -1.971323e-001 -9.844672e+000 42 25 17
-5.409596e-001 -1.559706e-002 -1.013002e+001 107 112 134
-3.165662e+000 1.594102e-002 -9.174933e+000 157 117 89
-3.159133e+000 7.518269e-002 -9.290313e+000 132 87 59
-2.946659e+000 1.993298e-001 -9.469080e+000 84 49 30
-2.869130e+000 1.862062e-001 -9.635648e+000 87 55 44
-2.869130e+000 1.862062e-001 -9.635648e+000 87 55 44
-1.420634e+000 8.805061e-001 -9.778368e+000 74 70 69
-2.944268e+000 -1.043535e+000 -8.033165e+000 131 81 56
-2.930088e+000 -9.168775e-001 -8.227142e+000 169 126 92
-2.573660e+000 -1.040984e+000 -8.797247e+000 169 131 110
-1.350980e+000 -1.044291e+000 -9.248026e+000 77 61 61
-1.350980e+000 -1.044291e+000 -9.248026e+000 77 61 61
-2.928420e+000 -2.532195e-001 -7.952099e+000 87 61 47
-3.101461e+000 -9.061210e-002 -8.991794e+000 129 92 76
-3.052814e+000 3.689654e-001 -8.309404e+000 65 44 41
-3.226600e+000 4.388050e-001 -8.794592e+000 152 107 72
-2.219452e+000 1.329496e-001 -9.783717e+000 37 24 31
-3.223604e+000 4.273382e-001 -8.992764e+000 169 134 92
-3.191433e+000 6.615948e-001 -9.119738e+000 123 83 57
-2.985176e+000 -6.908511e-001 -8.056740e+000 114 73 45
-1.706711e+000 -9.896815e-001 -9.311659e+000 195 189 201
-3.079205e+000 -5.431397e-001 -8.390383e+000 183 150 122
-2.418718e+000 1.737744e-001 -9.742985e+000 87 58 44
-1.006151e+000 4.062033e-001 -1.023108e+001 118 120 143
-2.901437e+000 -8.919921e-001 -7.786488e+000 204 185 160
-2.823835e+000 -1.002533e+000 -8.360652e+000 172 135 109
-3.156446e+000 -2.664974e-001 -8.562473e+000 196 161 133
-3.104538e+000 1.598249e-002 -8.751063e+000 170 118 81
-2.958737e+000 -2.905884e-001 -8.121028e+000 34 18 18
-5.829104e-001 3.323963e-001 -1.031496e+001 109 108 124
-2.005791e+000 6.564067e-003 -9.811255e+000 34 21 28
-4.686554e-001 7.441527e-001 -1.058279e+001 8 5 12
-2.220533e+000 -6.779914e-001 -9.283851e+000 76 53 47
3.374491e+001 2.317084e+001 2.884483e+001 181 160 118
-2.470232e+000 2.948933e-001 -9.777515e+000 80 68 67
4.731944e-001 2.791679e+000 -8.452213e+000 174 134 98
4.731944e-001 2.791679e+000 -8.452213e+000 174 134 98
4.727161e-001 2.520126e+000 -8.906400e+000 42 22 15
-7.842596e-001 1.198714e+000 -1.051571e+001 107 110 117
-3.138000e+000 -2.840049e-001 -8.986930e+000 117 71 47
-2.568378e+000 -4.053053e-001 -9.475192e+000 168 133 115
-1.460732e+000 5.451397e-001 -9.806238e+000 111 107 107
4.760968e-001 2.739294e+000 -8.792819e+000 96 63 37
-1.110877e-001 3.409747e-001 -1.043132e+001 91 89 100
4.854654e-001 2.585345e+000 -8.624701e+000 38 21 17
-3.125391e-001 1.280375e+000 -1.057879e+001 26 17 22
-2.808813e+000 -4.631987e-001 -9.337020e+000 132 94 72
-2.349284e+000 -1.084679e+000 -9.060112e+000 151 116 90
-2.894746e+000 -4.589311e-002 -7.845270e+000 201 184 150
-2.500925e+000 -4.274701e-001 -9.526379e+000 177 152 132
-2.291918e+000 -4.441684e-001 -9.576052e+000 175 154 143
-3.218369e+000 -1.564284e-001 -9.024045e+000 90 46 33
-2.848286e+000 -8.298475e-002 -9.432405e+000 118 77 57
-3.006258e+000 3.360612e-002 -9.383533e+000 107 70 58
4.991111e-001 2.823549e+000 -8.840200e+000 153 114 75
-9.950261e-001 1.526875e+000 -1.045282e+001 50 27 21
-3.077128e+000 -5.042965e-001 -8.781311e+000 138 85 48
-3.254635e+000 -6.167510e-002 -9.010017e+000 45 18 13
-2.786646e+000 -2.056884e-001 -9.478539e+000 171 143 120
-2.466469e+000 -2.201629e-001 -9.636108e+000 177 152 133
-2.570077e+000 -1.149912e-003 -9.642146e+000 85 50 36
5.912188e-001 3.080276e+000 -8.725573e+000 168 141 102
-7.128120e-001 1.302742e+000 -1.057649e+001 79 59 50
-9.924640e-001 1.739069e+000 -1.015901e+001 77 60 53
-4.102220e-001 -5.847913e-001 -1.013791e+001 87 91 120
-1.324159e+000 -4.404324e-001 -9.785452e+000 110 100 108
-1.328973e+000 -4.412913e-001 -9.786883e+000 110 100 108
-3.291875e-001 -3.757377e-001 -1.050456e+001 14 7 15
-2.522391e+000 -1.183501e-001 -9.623022e+000 113 76 57
5.453050e-001 2.463373e+000 -8.905125e+000 67 52 48
4.981672e-001 2.702003e+000 -8.853597e+000 68 37 20
-2.946039e+000 -9.276808e-001 -8.395494e+000 196 160 138
-2.632712e+000 -1.407819e-002 -9.575966e+000 165 123 99
-2.265913e-001 1.154697e+000 -1.048559e+001 20 14 28
5.343556e-001 3.035718e+000 -8.793718e+000 164 137 98
-2.489998e+000 3.301855e-001 -9.763086e+000 30 19 23
5.705484e-001 2.647548e+000 -8.952199e+000 61 38 28
6.578065e-001 3.062249e+000 -8.862793e+000 167 134 101
-2.657395e+000 4.988569e-001 -9.456573e+000 63 41 30
-2.781522e+000 -1.201568e+000 -8.154977e+000 149 101 78
-2.692068e+000 -1.134421e+000 -8.298078e+000 124 92 79
-2.403971e+000 -1.210497e+000 -8.638024e+000 174 128 102
-2.668449e+000 -1.076038e+000 -8.575418e+000 170 137 122
-3.023841e+000 -8.749870e-001 -8.520616e+000 207 171 155
-2.699283e+000 -1.011809e+000 -8.801463e+000 171 134 116
-2.876491e+000 -9.001875e-001 -8.682845e+000 204 176 157
-2.629093e+000 -9.170223e-001 -9.016211e+000 207 163 136
-1.183925e+000 -6.252625e-001 -9.767969e+000 62 47 47
-1.220384e+000 -5.339348e-001 -9.887729e+000 17 14 24
-3.074337e+000 -2.351467e-001 -8.997039e+000 82 35 26
-1.326049e+000 -2.894977e-001 -9.894628e+000 165 161 174
-1.318312e+000 -3.657697e-001 -9.906139e+000 155 153 167
-3.250394e+000 3.085278e-002 -8.546336e+000 128 111 104
-3.250394e+000 3.085278e-002 -8.546336e+000 128 111 104
-3.241581e+000 -1.417012e-001 -8.825423e+000 185 137 115
-2.677568e+000 -2.862980e-001 -9.462761e+000 107 73 61
-2.687703e+000 -2.590498e-001 -9.454881e+000 152 120 102
-2.687703e+000 -2.590498e-001 -9.454881e+000 152 120 102
-2.360934e+000 -2.231944e-001 -9.675791e+000 164 139 121
-2.212098e+000 -1.751364e-001 -9.792277e+000 126 108 102
-3.140592e+000 -7.197373e-002 -9.189297e+000 99 56 37
-2.553520e+000 -1.010608e-001 -9.574490e+000 113 76 64
-2.553520e+000 -1.010608e-001 -9.574490e+000 113 76 64
-2.322668e+000 -5.816349e-002 -9.708772e+000 64 45 41
-3.125073e+000 3.410271e-002 -9.265354e+000 166 124 110
-2.123910e+000 1.131254e-001 -9.814272e+000 32 20 22
-2.674322e+000 1.134257e-001 -9.619479e+000 133 99 88
-2.264715e+000 1.999937e-001 -9.814209e+000 124 109 112
-2.264715e+000 1.999937e-001 -9.814209e+000 124 109 112
-2.041537e+000 1.818632e-001 -9.875154e+000 108 96 95
-2.985674e+000 2.256745e-001 -9.447651e+000 131 96 74
-2.635343e+000 3.078175e-001 -9.671925e+000 45 22 23
-2.702684e-001 1.081702e+000 -1.051570e+001 21 18 25
4.052082e-001 2.724964e+000 -8.462010e+000 124 85 52
5.161841e-001 2.651016e+000 -9.033945e+000 90 67 55
-8.854017e-001 1.474967e+000 -1.051451e+001 134 107 90
-1.075815e+000 1.554184e+000 -1.035508e+001 92 72 63
-4.166078e-001 -1.407067e+000 -8.073520e+000 36 24 28
1.739721e-001 -1.565203e+000 -8.508710e+000 58 45 38
-2.791834e+000 -1.199322e+000 -8.239102e+000 143 97 78
-4.042051e-001 -1.422779e+000 -9.176511e+000 57 43 47
-2.457105e+000 -1.215806e+000 -8.636997e+000 188 144 117
-2.375842e+000 -1.189608e+000 -8.742219e+000 194 154 129
-2.649897e+000 -1.092913e+000 -8.579519e+000 212 186 169
-1.254758e+000 -7.927515e-001 -9.522427e+000 77 47 46
-3.135070e+000 -5.348490e-001 -8.628994e+000 163 117 84
-3.121066e+000 -3.533239e-001 -8.874689e+000 170 117 87
-2.954963e+000 -4.521441e-001 -9.246435e+000 143 96 76
-3.090785e+000 -2.734855e-001 -9.055789e+000 89 42 25
-3.243810e+000 -1.276398e-001 -8.806515e+000 104 55 37
-2.206321e+000 -1.633930e-001 -9.768087e+000 17 3 1
-3.272764e+000 1.018204e-001 -9.029949e+000 77 42 38
-3.259666e+000 6.121889e-002 -9.093893e+000 158 126 103
-3.134537e+000 2.246293e-001 -9.247613e+000 133 88 65
-2.461881e+000 2.024594e-001 -9.746940e+000 57 38 31
-2.283660e+000 1.657777e-001 -9.777568e+000 74 59 60
-1.309385e+000 6.358657e-001 -1.006602e+001 106 103 110
-3.259820e+000 6.491455e-001 -9.282549e+000 144 108 93
-3.204850e+000 6.552807e-001 -9.323622e+000 176 147 129
8.517431e-001 3.085302e+000 -9.046155e+000 155 139 110
7.652501e-001 3.192507e+000 -8.877255e+000 210 193 166
-9.803949e-001 1.605024e+000 -1.047702e+001 136 109 91
-9.729454e-001 2.007184e+000 -1.016827e+001 127 89 68
-2.977095e+000 -1.223741e+000 -7.945209e+000 186 159 133
-4.212576e-001 -1.391928e+000 -9.204910e+000 143 145 171
-2.344832e+000 -1.231498e+000 -8.680528e+000 200 162 136
-2.311883e+000 -1.232027e+000 -8.725107e+000 197 159 130
