ply
format ascii 1.0
element face 0
property list uchar int vertex_indices
element vertex 880
property float x
property float y
property float z
property uchar diffuse_red
property uchar diffuse_green
property uchar diffuse_blue
end_header
3.643578e+000 2.844231e+000 -1.097107e+001 53 44 37
1.383457e+000 2.002986e+000 -8.244230e+000 161 145 112
1.565882e+000 1.966327e+000 -8.265996e+000 157 136 104
4.048312e+000 2.200123e+000 -1.032764e+001 24 15 19
9.243511e-001 1.722510e+000 -8.402693e+000 118 98 72
1.436712e+000 1.797207e+000 -8.255759e+000 70 43 24
4.002291e+000 2.155929e+000 -1.031303e+001 55 43 43
4.539667e+000 1.844551e+000 -9.530749e+000 39 29 27
4.846442e+000 1.851598e+000 -9.543955e+000 40 28 32
-4.285476e+000 3.653168e+000 -2.056702e+001 248 252 253
-3.630236e-001 1.940074e+000 -9.969249e+000 157 121 83
1.425179e+000 1.626118e+000 -8.257487e+000 105 78 51
4.311970e+000 1.805701e+000 -9.757938e+000 57 43 40
4.577153e+000 1.753785e+000 -9.535236e+000 31 21 20
4.557187e+000 1.749244e+000 -9.492095e+000 31 21 20
4.520833e+000 1.751701e+000 -9.601761e+000 74 63 57
1.369652e+000 1.388618e+000 -8.506159e+000 25 17 16
4.676484e+000 1.452335e+000 -9.202797e+000 30 21 20
4.858674e+000 1.325626e+000 -9.075288e+000 27 16 17
-4.173801e-001 1.336358e+000 -9.931429e+000 152 134 95
1.668730e+000 9.783372e-001 -7.541527e+000 130 96 61
4.826727e+000 1.195871e+000 -8.907019e+000 28 16 18
6.571229e-001 1.001728e+000 -9.213041e+000 37 35 40
4.816863e-001 9.353233e-001 -9.429168e+000 52 47 51
4.812687e-001 9.356138e-001 -9.453640e+000 52 47 51
1.422989e+000 7.416491e-001 -7.261330e+000 148 106 60
-1.727207e+001 1.693715e+000 -3.261927e+001 59 71 123
4.722364e-002 7.404831e-001 -9.885451e+000 33 29 30
1.463339e+000 6.011257e-001 -7.119400e+000 214 181 136
-2.150367e+000 4.246776e-001 -8.492114e+000 106 72 35
-1.819218e+000 4.439727e-001 -8.546517e+000 93 59 34
-1.147360e+000 4.468870e-001 -9.472151e+000 151 146 121
-5.755655e-001 5.218449e-001 -9.276847e+000 124 119 99
-1.798023e-001 4.407247e-001 -9.041417e+000 133 132 102
-1.796660e-001 4.410721e-001 -9.030724e+000 133 132 102
-7.938791e-002 4.210394e-001 -8.986121e+000 117 112 93
-4.733229e-002 3.761967e-001 -8.926382e+000 20 17 13
2.072408e-001 4.257898e-001 -8.973215e+000 136 134 116
1.272531e+000 4.035565e-001 -7.674667e+000 28 22 23
-2.144073e+000 2.818988e-001 -8.376348e+000 88 57 26
-9.846465e-001 2.712073e-001 -9.231950e+000 35 31 27
-8.025168e-001 2.571079e-001 -9.084911e+000 39 32 26
-6.078953e-001 2.188980e-001 -8.960580e+000 26 23 18
1.687591e+000 2.685193e-001 -6.953679e+000 138 94 55
2.191648e+000 2.782731e-001 -6.900919e+000 61 38 32
2.191648e+000 2.782731e-001 -6.900919e+000 61 38 32
-3.063590e+000 9.595722e-002 -8.895179e+000 185 157 126
-2.514452e+000 1.067705e-001 -8.347678e+000 174 140 95
1.148718e+000 1.856857e-001 -8.612609e+000 57 53 52
1.948954e+000 1.571542e-001 -6.817183e+000 98 66 42
-1.942664e+000 4.089508e-002 -8.153273e+000 133 105 76
-7.477451e-001 -9.570224e-002 -8.818788e+000 22 18 16
-4.583706e-003 5.661449e-003 -8.646587e+000 19 13 12
-2.441844e+000 -2.060716e-001 -8.083628e+000 165 131 91
-2.386057e+000 -3.393722e-001 -8.130607e+000 128 94 59
-2.144601e+000 -2.714532e-001 -8.018097e+000 175 146 114
1.569601e+000 -3.044068e-001 -7.492585e+000 119 99 82
-2.227423e+000 -4.298999e-001 -7.907285e+000 175 152 121
-1.951575e+000 -4.750941e-001 -7.903576e+000 147 118 86
9.319619e-001 -5.230330e-001 -8.555584e+000 14 12 15
-2.358443e+000 -7.192428e-001 -7.913325e+000 142 116 83
-1.956384e+000 -5.946581e-001 -7.905109e+000 97 64 31
-1.309397e+000 -6.110628e-001 -8.153279e+000 76 45 17
-2.608625e+000 -7.900209e-001 -8.021688e+000 173 143 109
-7.772486e-001 -1.145000e+000 -8.559311e+000 17 15 21
-2.367064e+000 -1.084370e+000 -7.915343e+000 126 94 69
-2.362953e+000 -1.081817e+000 -7.901306e+000 126 94 69
-1.413343e+000 -1.189451e+000 -8.019790e+000 42 21 18
-5.291107e-001 -1.230915e+000 -8.381198e+000 152 147 141
3.700257e-001 -1.174175e+000 -7.763657e+000 138 105 71
5.532771e-001 -1.062953e+000 -7.688284e+000 75 31 22
1.099788e-001 -1.342913e+000 -7.905646e+000 37 23 20
-2.474655e+000 -1.403636e+000 -8.051351e+000 123 102 76
-2.042082e+000 -1.494904e+000 -8.075691e+000 100 85 72
-1.687281e+000 -1.485990e+000 -8.035161e+000 25 14 14
2.405070e-001 -1.361479e+000 -7.826780e+000 137 105 84
-1.877779e+001 -8.453683e+000 -4.112343e+001 122 115 99
-1.975551e+000 -1.570648e+000 -8.096728e+000 108 92 74
-6.013372e-002 -1.670148e+000 -8.138480e+000 25 19 23
2.344586e+000 -1.687370e+000 -8.139926e+000 61 57 56
-2.297326e+001 -1.057961e+001 -4.494329e+001 84 71 65
-1.042975e+001 -5.788397e+000 -2.569467e+001 36 35 53
2.589193e-001 -1.721999e+000 -7.902507e+000 150 120 96
5.254717e-001 -1.753459e+000 -7.794353e+000 167 131 96
-1.306063e+001 -7.623530e+000 -2.845567e+001 120 129 163
-1.299532e+001 -8.031608e+000 -2.876932e+001 19 16 47
-1.297492e+001 -8.017157e+000 -2.872439e+001 19 16 47
-1.375398e+001 -8.553060e+000 -2.968077e+001 48 38 55
-9.985430e+000 -7.470150e+000 -2.502679e+001 208 194 193
-9.417927e+000 -7.048788e+000 -2.455991e+001 173 159 140
-1.748107e+001 -9.850051e+000 -3.168829e+001 146 129 111
-1.448034e+001 -9.412866e+000 -2.981265e+001 38 35 44
-1.379597e+001 -9.269569e+000 -2.927430e+001 72 73 93
-1.347917e+001 -9.371905e+000 -2.885423e+001 68 66 86
7.329314e-001 2.343268e+000 -8.327000e+000 93 56 33
3.572838e+000 2.890274e+000 -1.093742e+001 69 57 48
5.011926e-001 2.013503e+000 -8.728165e+000 92 79 66
5.515157e-001 1.969439e+000 -8.712981e+000 146 119 94
4.030743e+000 2.303234e+000 -1.028994e+001 39 29 29
-4.488243e+000 3.957274e+000 -2.065757e+001 195 195 198
9.212119e-001 1.796063e+000 -8.296416e+000 41 27 24
1.063409e+000 1.696299e+000 -8.224209e+000 30 19 16
4.670055e+000 1.890844e+000 -9.600289e+000 79 66 60
-4.306804e+000 3.998314e+000 -2.176897e+001 106 108 113
-4.292803e+000 3.987571e+000 -2.170535e+001 106 108 113
-4.107345e+000 3.771882e+000 -2.203626e+001 82 82 84
-2.863913e-001 1.969966e+000 -1.011592e+001 90 58 33
4.760079e+000 1.711144e+000 -9.353540e+000 42 36 30
1.514967e+000 1.443509e+000 -8.415755e+000 44 27 23
-8.392969e+000 4.669501e+000 -3.489660e+001 17 12 19
-7.124385e-001 1.555724e+000 -1.006163e+001 139 97 59
-7.871619e-001 1.382649e+000 -1.030240e+001 97 66 38
1.064411e+000 1.180478e+000 -8.977791e+000 67 61 61
-1.598625e+001 4.626307e+000 -4.474964e+001 37 39 53
1.804478e+000 8.330861e-001 -7.176002e+000 72 51 46
1.831640e+000 5.275055e-001 -6.970276e+000 66 46 41
1.655172e+000 3.868498e-001 -6.967070e+000 191 150 103
-2.397506e+000 2.246484e-001 -8.460162e+000 122 82 47
1.891068e+000 1.842595e-001 -6.824058e+000 108 72 46
2.133602e+000 3.095042e-001 -6.893395e+000 67 45 31
2.314012e+000 2.390729e-001 -6.992148e+000 46 28 24
-2.544155e+000 1.598091e-001 -8.404902e+000 133 91 49
-2.544155e+000 1.598091e-001 -8.404902e+000 133 91 49
-2.114886e+000 9.167650e-002 -8.267966e+000 79 48 28
1.842827e+000 9.019387e-002 -6.849991e+000 90 49 24
-2.350751e+000 -3.569372e-002 -8.137931e+000 136 104 64
-2.350751e+000 -3.569372e-002 -8.137931e+000 136 104 64
-2.254143e+000 -4.248611e-002 -8.144035e+000 175 147 110
-2.119905e+000 -7.412049e-002 -8.102153e+000 124 95 61
-1.214004e-001 -1.071829e-001 -8.617013e+000 137 130 102
6.497346e-001 -7.230859e-002 -8.630404e+000 114 102 91
7.454774e-001 -1.287240e-001 -8.632112e+000 91 88 73
1.843820e+000 2.212011e-002 -6.801174e+000 143 98 62
1.843820e+000 2.212011e-002 -6.801174e+000 143 98 62
-1.623733e+000 -2.696177e-001 -8.111701e+000 92 67 44
-3.459026e-001 -1.949243e-001 -8.593065e+000 20 24 23
3.002278e-001 -2.871447e-001 -8.609164e+000 139 132 106
5.516871e-001 -2.685509e-001 -8.590372e+000 132 126 104
-2.315276e+000 -3.306221e-001 -8.091736e+000 165 136 103
-1.822666e+000 -2.955296e-001 -8.153329e+000 66 42 19
-4.303662e-001 -4.053667e-001 -8.532066e+000 26 25 20
4.270007e-001 -4.062214e-001 -8.576402e+000 33 28 29
6.062641e-001 -4.137675e-001 -8.602440e+000 116 109 91
-2.762583e+000 -4.731765e-001 -8.188503e+000 168 129 94
-2.295432e+000 -4.906065e-001 -7.946772e+000 164 142 103
-1.693729e+000 -4.913653e-001 -7.990890e+000 39 26 20
-5.217968e-001 -6.175910e-001 -8.489934e+000 29 23 22
-4.754236e-001 -5.121011e-001 -8.510341e+000 23 21 18
-4.752319e-001 -5.120773e-001 -8.510276e+000 23 21 18
2.043144e-001 -4.837701e-001 -8.516123e+000 119 112 98
5.073332e-001 -6.333209e-001 -8.600672e+000 57 52 48
5.073332e-001 -6.333209e-001 -8.600672e+000 57 52 48
5.581414e-001 -5.206059e-001 -8.606618e+000 52 48 45
5.586569e-001 -5.212911e-001 -8.613173e+000 52 48 45
6.490123e-001 -5.695796e-001 -8.658195e+000 90 83 64
5.801518e-001 -6.005519e-001 -8.645763e+000 13 12 17
6.706634e-001 -6.486429e-001 -8.687257e+000 17 15 14
6.695607e-001 -6.466169e-001 -8.673656e+000 17 15 14
7.826324e-001 -5.330471e-001 -8.602325e+000 118 113 112
7.351337e-001 -6.270209e-001 -8.656801e+000 102 98 95
-1.392458e+000 -6.563771e-001 -8.058185e+000 81 46 24
3.147394e-001 -7.889161e-001 -8.514264e+000 87 80 61
4.356462e-001 -6.581344e-001 -8.553744e+000 11 9 10
3.889684e-001 -7.594814e-001 -8.536866e+000 19 17 20
-1.885358e+000 -7.813254e-001 -7.864958e+000 78 40 20
-6.726809e-001 -8.781966e-001 -8.484790e+000 155 150 130
-6.503800e-001 -9.402345e-001 -8.463795e+000 26 22 30
-6.148776e-001 -8.304136e-001 -8.466166e+000 26 25 23
-5.861404e-001 -9.051185e-001 -8.461092e+000 134 129 110
-1.232882e+000 -1.048891e+000 -8.109276e+000 70 39 23
-1.006411e+000 -1.094285e+000 -8.245055e+000 97 72 52
-6.780074e-001 -1.052144e+000 -8.475225e+000 24 20 19
-6.500350e-001 -1.120060e+000 -8.458528e+000 139 139 135
-6.180620e-001 -1.009805e+000 -8.441101e+000 132 131 126
-6.180620e-001 -1.009805e+000 -8.441101e+000 132 131 126
-5.248579e-001 -1.033042e+000 -8.376742e+000 138 134 123
-5.889121e-001 -1.076234e+000 -8.405903e+000 24 22 22
-2.239598e-002 -9.873957e-001 -8.413984e+000 127 114 85
9.282299e-001 -9.960242e-001 -7.623592e+000 72 37 18
-2.379781e+000 -1.207282e+000 -8.075320e+000 53 30 20
-6.170164e-001 -1.190280e+000 -8.420750e+000 24 23 26
4.168730e-001 -1.176554e+000 -7.725755e+000 149 113 79
-2.464839e+000 -1.331648e+000 -8.130254e+000 85 60 41
9.359021e-001 -1.263900e+000 -7.597108e+000 89 47 25
-7.517783e-001 -1.599904e+000 -8.892600e+000 185 189 198
6.498253e-001 -1.337627e+000 -7.523923e+000 107 56 35
1.147420e+000 -1.355533e+000 -7.566999e+000 98 60 37
-1.742653e+000 -1.562510e+000 -8.056390e+000 61 47 47
4.751347e-001 -1.683179e+000 -7.791485e+000 168 127 93
-1.664230e+001 -9.094979e+000 -3.107024e+001 70 63 78
-1.628502e+001 -9.246854e+000 -3.099410e+001 54 52 67
-1.350362e+001 -9.140131e+000 -2.932874e+001 72 79 117
-1.810053e+001 -1.005423e+001 -3.127255e+001 179 159 134
3.467557e+000 2.978923e+000 -1.116267e+001 76 63 59
3.708803e+000 2.762798e+000 -1.086703e+001 46 35 31
4.439410e+000 2.495814e+000 -1.053988e+001 34 23 21
7.531069e-001 1.853162e+000 -8.560299e+000 35 25 22
1.417797e+000 1.574263e+000 -8.306333e+000 50 30 17
4.623354e+000 1.727398e+000 -9.436266e+000 86 73 65
-1.210095e+001 5.980750e+000 -3.677612e+001 17 14 21
6.809996e-001 1.576077e+000 -9.352964e+000 41 39 37
-2.455877e-001 1.487067e+000 -9.957677e+000 130 109 80
-1.573108e+001 5.255252e+000 -4.437639e+001 45 50 57
-7.206505e-002 1.260875e+000 -1.008042e+001 100 84 67
-1.436757e+001 4.438972e+000 -4.587264e+001 34 29 23
-3.577920e+000 2.010306e+000 -1.965800e+001 30 30 35
1.385811e+000 8.773185e-001 -7.611566e+000 169 136 102
1.779648e+000 6.632145e-001 -7.004896e+000 69 46 30
1.399434e+000 5.261092e-001 -7.199893e+000 155 108 62
1.710674e+000 4.467208e-001 -6.992538e+000 126 83 44
-2.386318e+000 5.931046e-002 -8.232238e+000 120 80 44
-2.403032e+000 5.517447e-002 -8.278356e+000 120 80 44
2.609700e-001 3.896030e-002 -8.661177e+000 26 20 22
-1.977576e-001 -1.361173e-001 -8.609479e+000 29 28 19
-1.971602e-001 -1.356401e-001 -8.607134e+000 29 28 19
-4.540209e-002 -7.627886e-002 -8.621446e+000 27 21 22
3.195808e-002 -4.653250e-002 -8.628921e+000 131 121 100
1.360858e-001 -9.038513e-002 -8.622468e+000 124 116 93
3.661800e-001 -8.414584e-003 -8.657933e+000 23 25 22
3.662447e-001 -8.434193e-003 -8.657605e+000 23 25 22
2.892285e-001 -3.685665e-002 -8.650184e+000 137 130 104
2.125760e-001 -6.305621e-002 -8.635845e+000 26 22 20
2.423279e-001 -1.380999e-001 -8.629130e+000 123 115 93
3.186578e-001 -1.112418e-001 -8.639355e+000 24 21 23
4.425818e-001 2.129245e-002 -8.663119e+000 140 131 116
4.697278e-001 -5.217340e-002 -8.638621e+000 29 25 28
4.697278e-001 -5.217340e-002 -8.638621e+000 29 25 28
3.951624e-001 -8.149182e-002 -8.642595e+000 142 135 106
4.965992e-001 -1.236695e-001 -8.616480e+000 144 142 117
4.963359e-001 -1.236016e-001 -8.614625e+000 144 142 117
5.441336e-001 -2.310736e-002 -8.637134e+000 137 130 103
5.448201e-001 -2.308481e-002 -8.638564e+000 137 130 103
5.726269e-001 -9.574910e-002 -8.613002e+000 30 28 26
1.216517e+000 -2.291914e-002 -8.280806e+000 91 82 73
1.905046e+000 1.251784e-002 -6.788401e+000 195 167 128
1.906852e+000 1.154042e-002 -6.795577e+000 195 167 128
2.334146e+000 -2.675033e-002 -7.159030e+000 29 19 18
-2.671988e+000 -1.361463e-001 -8.256536e+000 125 81 39
-2.734865e-001 -1.664179e-001 -8.605713e+000 136 130 107
-1.682435e-001 -2.071666e-001 -8.591373e+000 135 131 101
-2.455552e-001 -2.367960e-001 -8.577563e+000 24 22 25
-1.625566e-002 -1.476497e-001 -8.599750e+000 136 131 106
-6.315629e-002 -2.493360e-001 -8.570427e+000 134 127 108
-6.315629e-002 -2.493360e-001 -8.570427e+000 134 127 108
-1.399065e-001 -2.787551e-001 -8.566576e+000 30 29 24
1.657481e-001 -1.648941e-001 -8.611857e+000 25 22 23
4.317347e-002 -2.928173e-001 -8.566995e+000 135 123 107
1.184681e-001 -2.664005e-001 -8.584786e+000 26 21 24
1.181770e-001 -2.658109e-001 -8.578258e+000 26 21 24
2.700097e-001 -2.133352e-001 -8.619241e+000 25 20 16
3.449494e-001 -1.860273e-001 -8.623731e+000 142 136 110
4.211034e-001 -1.554452e-001 -8.621653e+000 28 24 24
4.211034e-001 -1.554452e-001 -8.621653e+000 28 24 24
5.219557e-001 -1.968945e-001 -8.593084e+000 27 22 26
5.226201e-001 -1.966597e-001 -8.593192e+000 27 22 26
3.735965e-001 -2.589398e-001 -8.607046e+000 23 21 22
3.740163e-001 -2.594314e-001 -8.610276e+000 23 21 22
4.485202e-001 -2.284260e-001 -8.600701e+000 153 145 126
4.480766e-001 -2.281110e-001 -8.597718e+000 153 145 126
4.717895e-001 -3.015825e-001 -8.579242e+000 25 21 18
4.710970e-001 -3.018269e-001 -8.579261e+000 25 21 18
5.989786e-001 -1.713770e-001 -8.591885e+000 124 115 92
5.991171e-001 -1.712411e-001 -8.590244e+000 124 115 92
-2.445272e+000 -3.207607e-001 -8.118436e+000 160 130 97
-1.574565e+000 -3.876683e-001 -8.107068e+000 48 30 25
-3.671071e-001 -3.710914e-001 -8.541151e+000 131 129 107
-2.921330e-001 -3.396844e-001 -8.553724e+000 25 26 28
-2.166462e-001 -3.088897e-001 -8.559729e+000 139 133 109
-2.625488e-001 -4.105435e-001 -8.526162e+000 139 132 104
-2.625488e-001 -4.105435e-001 -8.526162e+000 139 132 104
-1.543232e-001 -4.504135e-001 -8.508265e+000 138 130 109
-1.541901e-001 -4.501156e-001 -8.505756e+000 138 130 109
-3.326888e-002 -3.205614e-001 -8.545629e+000 26 20 24
7.259916e-002 -3.658826e-001 -8.544649e+000 21 21 22
2.234853e-001 -3.154414e-001 -8.598382e+000 21 20 16
2.532941e-001 -3.887692e-001 -8.585978e+000 124 116 95
2.528478e-001 -3.879843e-001 -8.578589e+000 124 116 95
3.273365e-001 -3.627953e-001 -8.595940e+000 25 22 24
3.567889e-001 -4.364966e-001 -8.583267e+000 143 136 109
2.809301e-001 -4.634107e-001 -8.567791e+000 26 21 25
4.011246e-001 -3.333663e-001 -8.592802e+000 151 147 124
4.011246e-001 -3.333663e-001 -8.592802e+000 151 147 124
5.741510e-001 -3.458429e-001 -8.601519e+000 22 17 19
-1.897622e+001 -2.934499e+000 -3.676153e+001 212 203 195
-1.832003e+000 -5.374436e-001 -7.909309e+000 138 107 79
-4.133035e-001 -4.771083e-001 -8.529370e+000 149 138 120
-3.829285e-001 -5.476018e-001 -8.496122e+000 27 22 25
-9.525449e-002 -5.953571e-001 -8.465075e+000 132 121 97
5.619080e-002 -5.415888e-001 -8.491933e+000 134 124 100
5.609023e-002 -5.425948e-001 -8.498677e+000 134 124 100
1.316203e-001 -5.145845e-001 -8.518531e+000 23 17 26
8.549742e-002 -6.154226e-001 -8.486005e+000 25 20 17
1.601481e-001 -5.922554e-001 -8.508286e+000 128 118 94
1.605000e-001 -5.911871e-001 -8.502027e+000 128 118 94
2.345519e-001 -5.621433e-001 -8.525553e+000 19 15 20
2.349264e-001 -5.616558e-001 -8.523752e+000 19 15 20
3.380378e-001 -6.117327e-001 -8.544158e+000 24 18 22
3.842832e-001 -5.112812e-001 -8.571745e+000 31 27 23
3.846002e-001 -5.110763e-001 -8.571020e+000 31 27 23
-5.459760e-001 -7.949859e-001 -8.472747e+000 141 137 112
-4.273754e-001 -6.521056e-001 -8.472834e+000 24 24 23
-3.224692e-001 -6.879977e-001 -8.450527e+000 27 26 25
-4.702855e-001 -7.566562e-001 -8.449952e+000 27 26 22
-3.978183e-001 -7.206741e-001 -8.447339e+000 138 130 114
-3.667407e-001 -7.902526e-001 -8.420188e+000 24 24 23
-2.923754e-001 -7.561776e-001 -8.418402e+000 132 131 102
-1.846045e-001 -7.956588e-001 -8.400678e+000 131 122 93
-1.846033e-001 -7.948294e-001 -8.395153e+000 131 122 93
-6.572215e-002 -6.675425e-001 -8.450469e+000 32 29 28
-6.539922e-002 -6.675774e-001 -8.451202e+000 32 29 28
-1.407422e-001 -6.941652e-001 -8.429445e+000 126 118 95
-1.406017e-001 -6.939513e-001 -8.428769e+000 126 118 95
1.027087e-002 -6.412449e-001 -8.474914e+000 134 124 101
-1.104056e-001 -7.668885e-001 -8.411382e+000 26 21 25
-1.104056e-001 -7.668885e-001 -8.411382e+000 26 21 25
-3.387864e-002 -7.407573e-001 -8.443286e+000 110 104 84
3.817740e-002 -7.153949e-001 -8.464221e+000 23 16 19
1.416471e-001 -7.644766e-001 -8.479664e+000 27 22 29
1.424745e-001 -7.659104e-001 -8.489316e+000 27 22 29
2.177431e-001 -7.394377e-001 -8.500372e+000 138 128 98
2.176576e-001 -7.380380e-001 -8.492778e+000 138 128 98
3.677878e-001 -6.841110e-001 -8.535786e+000 104 97 72
-4.414406e-001 -8.243345e-001 -8.419814e+000 130 124 102
-1.551858e-001 -8.674928e-001 -8.379598e+000 27 24 25
-1.550799e-001 -8.674521e-001 -8.379916e+000 27 24 25
-2.305838e-001 -8.974486e-001 -8.380487e+000 140 132 111
-3.062539e-001 -9.265599e-001 -8.358544e+000 25 23 27
-7.846437e-002 -8.405377e-001 -8.397799e+000 128 118 97
-5.392710e-003 -8.154322e-001 -8.425369e+000 21 19 18
-5.132349e-002 -9.146816e-001 -8.395641e+000 23 20 22
9.690864e-002 -8.646161e-001 -8.448960e+000 21 18 24
9.723915e-002 -8.639559e-001 -8.446661e+000 21 18 24
1.714628e-001 -8.398232e-001 -8.478014e+000 116 105 82
2.438176e-002 -8.909672e-001 -8.415441e+000 117 109 89
1.236945e-001 -9.398179e-001 -8.453148e+000 97 87 64
2.421672e-001 -8.126702e-001 -8.495854e+000 17 18 21
-2.317757e+000 -9.698966e-001 -7.880675e+000 135 91 64
-1.552189e+000 -1.025408e+000 -7.962026e+000 56 27 22
-4.937908e-001 -1.104737e+000 -8.355115e+000 34 31 32
-4.557935e-001 -9.951126e-001 -8.361552e+000 29 25 23
-3.828224e-001 -9.586024e-001 -8.355362e+000 136 131 113
7.411225e-001 -1.301560e+000 -7.611716e+000 85 46 26
-2.712396e+000 -1.435645e+000 -8.039496e+000 235 219 194
-2.716399e+000 -1.438328e+000 -8.051589e+000 235 219 194
1.119838e+000 -1.405746e+000 -7.516287e+000 203 170 137
-2.111656e+001 -8.251943e+000 -3.959923e+001 165 152 130
9.038192e-001 -1.556286e+000 -7.614053e+000 209 175 137
-1.071652e+001 -5.934725e+000 -2.582966e+001 98 99 119
-1.593296e+001 -9.050743e+000 -3.117499e+001 109 103 106
-1.657261e+001 -9.390859e+000 -3.069685e+001 67 58 76
-1.734339e+001 -9.988700e+000 -3.162838e+001 196 183 168
1.147304e+000 2.251299e+000 -8.184631e+000 180 160 127
1.622818e+000 1.765888e+000 -8.285875e+000 75 47 23
-1.145069e+001 5.661624e+000 -3.835015e+001 15 12 19
6.801826e-001 1.122445e+000 -9.405963e+000 71 64 57
9.009418e-001 1.208319e+000 -9.012524e+000 37 31 33
9.808031e-001 1.133918e+000 -8.927965e+000 40 34 31
7.587671e-001 9.168985e-001 -9.062035e+000 76 71 65
8.633521e-001 8.472519e-001 -9.065402e+000 54 50 49
1.400378e+000 4.721793e-001 -7.071788e+000 150 103 58
1.784779e+000 4.763508e-001 -6.964777e+000 179 153 116
1.655190e+000 4.363021e-001 -7.037175e+000 194 156 110
-1.951419e+000 2.518456e-001 -8.415141e+000 50 21 17
-1.949160e+000 2.522184e-001 -8.411362e+000 50 21 17
-1.583653e+000 3.712718e-001 -8.708703e+000 55 31 19
-2.235295e+000 2.040161e-001 -8.353328e+000 154 124 86
-8.723606e-001 -1.172068e-001 -9.011986e+000 75 70 60
-2.398430e+000 -1.684504e-001 -8.125263e+000 178 148 110
2.495573e+000 -1.643903e-001 -7.120450e+000 20 10 19
2.151029e+000 -3.351056e-001 -7.138642e+000 155 133 113
-1.917579e+001 -2.957456e+000 -3.721880e+001 213 204 195
-9.265709e-001 -1.441686e+000 -9.000173e+000 163 169 182
-3.664913e-001 -1.319472e+000 -8.337600e+000 137 134 127
8.409873e-001 -1.260934e+000 -7.590994e+000 104 62 40
-1.901107e+001 -8.270503e+000 -4.048125e+001 139 131 112
7.227951e-001 -1.579501e+000 -7.691102e+000 138 91 49
1.073333e+000 -1.517150e+000 -7.634881e+000 157 114 72
-2.075809e+000 -1.865667e+000 -8.174628e+000 42 36 32
-1.326831e+001 -7.500796e+000 -2.906974e+001 22 14 30
-1.640950e+001 -9.625913e+000 -3.101437e+001 110 102 118
1.974024e+000 2.390366e+000 -9.061452e+000 31 19 28
8.801192e-001 1.715678e+000 -8.386509e+000 122 94 64
1.789110e+000 9.270375e-001 -7.363081e+000 172 153 121
-3.514621e+000 2.194933e+000 -1.963308e+001 182 190 200
-1.919044e-002 2.939520e-001 -8.800607e+000 97 90 75
-2.358926e+000 1.076596e-001 -8.322030e+000 109 71 37
-2.532651e+000 -9.378387e-001 -7.929277e+000 181 145 109
6.860490e-001 -9.424879e-001 -7.718798e+000 66 34 22
8.203003e-001 -9.481310e-001 -7.573979e+000 111 75 51
-1.364964e+001 -8.785654e+000 -2.924853e+001 27 25 35
-3.932774e+000 2.614889e+000 -1.978969e+001 222 221 219
-4.362370e-002 9.934383e-001 -1.002361e+001 81 66 47
-1.234363e+000 -1.176232e+000 -8.112145e+000 82 56 41
-1.546445e+001 -9.216184e+000 -3.122927e+001 30 27 34
-4.459395e-001 2.035163e+000 -1.024501e+001 148 116 76
1.037000e+000 1.639560e+000 -8.258863e+000 48 37 33
-1.067496e+001 4.729317e+000 -3.695864e+001 22 19 30
2.299085e+000 -8.014716e-002 -7.088868e+000 47 32 27
-7.140700e-001 -1.259299e+000 -8.642321e+000 119 124 127
-2.329436e+000 -1.823497e+000 -8.137771e+000 205 193 179
2.317090e+000 1.082246e-001 -7.055592e+000 146 126 102
-1.552709e+000 -8.089715e-001 -7.964729e+000 76 43 27
-1.105904e+000 -1.012070e+000 -8.220260e+000 70 43 20
-1.471588e+000 -1.993683e-001 -8.057838e+000 171 151 116
-1.985599e+001 -9.471229e+000 -4.125671e+001 19 16 25
4.508450e-001 -3.638632e-002 -8.007983e+000 25 22 26
7.769089e-001 2.176973e+000 -8.319447e+000 145 115 97
5.043206e-001 2.145280e+000 -8.812724e+000 162 145 117
9.171557e-001 1.909733e+000 -8.320240e+000 52 34 24
4.850881e+000 1.943563e+000 -9.569022e+000 82 70 72
4.929776e+000 1.789510e+000 -9.379093e+000 46 33 27
-3.913085e-001 1.203553e+000 -9.901130e+000 150 125 92
-3.537334e-001 1.183984e+000 -9.919535e+000 107 82 51
6.761295e-001 8.855374e-001 -9.232663e+000 28 24 25
1.783708e+000 6.099361e-001 -7.009105e+000 177 157 119
-1.709303e+001 1.693834e+000 -3.211585e+001 56 69 118
2.834283e-001 3.919896e-001 -8.934933e+000 97 90 81
8.633776e-001 4.454575e-001 -8.839603e+000 61 57 54
1.708612e+000 3.365417e-001 -6.971515e+000 95 56 24
1.919382e+000 4.432168e-001 -6.875723e+000 170 148 107
-2.080542e+000 2.616694e-001 -8.373046e+000 124 92 67
-1.295320e-001 3.680529e-001 -8.939467e+000 154 149 119
1.716899e+000 2.388545e-001 -6.912869e+000 165 120 78
6.309959e-001 1.904378e-001 -8.739329e+000 54 48 35
2.741183e+000 1.141523e-001 -7.387202e+000 19 9 12
-1.063476e+000 3.440868e-002 -8.306130e+000 110 95 74
-3.573026e-001 -1.023081e-001 -8.646671e+000 132 122 105
-9.379783e-001 -2.893389e-001 -8.669442e+000 44 36 36
8.854075e-001 -4.367672e-001 -8.564406e+000 78 73 76
1.472893e-001 -6.192874e-001 -8.497550e+000 136 129 101
-7.325109e-001 -1.070139e+000 -8.535707e+000 128 129 122
-2.902197e-001 -1.032675e+000 -8.353118e+000 137 132 113
-1.280268e+001 -8.390597e+000 -2.833027e+001 91 104 149
-1.782607e+001 -9.975916e+000 -3.154662e+001 157 140 124
-1.376211e+001 -9.280266e+000 -2.900752e+001 32 33 52
3.242066e+000 3.046134e+000 -1.141709e+001 69 58 52
1.486628e+000 1.983384e+000 -8.244005e+000 70 49 25
6.237600e-001 1.910330e+000 -8.582821e+000 157 133 105
4.317293e+000 2.177556e+000 -1.001969e+001 63 50 42
4.174086e+000 2.122253e+000 -1.003870e+001 36 24 25
1.220598e+000 1.449579e+000 -8.282555e+000 99 77 53
-2.766624e-001 1.562492e+000 -1.001270e+001 58 35 16
-2.766624e-001 1.562492e+000 -1.001270e+001 58 35 16
-4.250707e-001 1.216098e+000 -9.861942e+000 115 87 50
3.224425e-001 2.026638e-001 -8.734830e+000 104 98 85
1.476796e+000 3.160619e-001 -7.177153e+000 139 96 54
-1.132194e+000 8.642727e-002 -8.255608e+000 47 30 14
-3.864872e-001 1.281782e-001 -8.786229e+000 36 34 16
-3.886618e-001 1.253077e-001 -8.797280e+000 36 34 16
-3.154771e-001 -1.207562e-001 -8.623347e+000 21 18 15
-3.159342e-001 -1.205851e-001 -8.622810e+000 21 18 15
1.463812e+000 -5.892768e-002 -7.344159e+000 150 111 85
5.637243e-001 -2.450850e-001 -8.578970e+000 145 138 119
5.637243e-001 -2.450850e-001 -8.578970e+000 145 138 119
-1.863864e+000 -3.239216e-001 -8.045830e+000 120 94 69
9.310191e-001 -4.151098e-001 -8.707754e+000 11 9 15
-1.864117e+000 -6.216174e-001 -7.916211e+000 95 56 33
-1.816282e+000 -6.229075e-001 -7.879793e+000 146 112 84
-2.223806e+000 -7.831943e-001 -7.841778e+000 84 49 22
-2.411266e+000 -9.603744e-001 -7.887602e+000 164 123 91
-2.528525e-001 -1.091385e+000 -8.361263e+000 115 110 104
6.952381e-002 -1.059761e+000 -8.484493e+000 27 23 21
-2.113152e+000 -1.150065e+000 -7.933694e+000 62 40 29
-1.573055e+000 -1.135137e+000 -8.024074e+000 86 55 40
-1.470375e+000 -1.095694e+000 -8.043695e+000 51 28 18
-1.546933e+000 -1.287385e+000 -7.950597e+000 43 35 32
-1.298851e+001 -8.196847e+000 -2.904465e+001 122 131 164
-1.703782e+001 -9.968079e+000 -3.074801e+001 175 165 156
9.615630e-001 1.968732e+000 -8.324403e+000 46 33 25
1.369073e+000 1.728314e+000 -8.223466e+000 50 30 19
4.737898e+000 1.482645e+000 -9.228490e+000 75 60 57
-4.023985e+000 2.725265e+000 -1.964298e+001 231 228 223
4.856307e+000 1.324667e+000 -9.073220e+000 27 16 17
-5.117847e-001 1.278399e+000 -9.926645e+000 73 49 21
1.824653e+000 6.854713e-001 -7.047215e+000 189 169 134
1.999330e+000 4.212683e-001 -6.867339e+000 170 146 112
-1.034368e+000 3.791587e-001 -9.322678e+000 50 48 39
2.246220e-001 1.695493e-001 -8.700452e+000 93 88 72
2.330539e-001 9.265212e-002 -8.675247e+000 126 120 99
1.131979e+000 5.531223e-002 -8.490501e+000 71 66 63
-6.720960e-001 -6.343229e-002 -8.770929e+000 106 99 88
-2.320472e-001 -1.852963e-002 -8.658899e+000 23 19 27
1.259972e+000 -2.174313e-001 -8.199295e+000 61 56 55
1.650036e+000 -1.402792e-001 -7.008819e+000 174 126 85
1.650036e+000 -1.402792e-001 -7.008819e+000 174 126 85
-2.739697e+000 -2.939213e-001 -8.221312e+000 195 158 121
-8.699336e-001 -3.415825e-001 -8.737642e+000 72 68 56
-2.424151e+000 -9.205054e-001 -7.907691e+000 121 78 46
-2.563462e+000 -1.105867e+000 -8.019944e+000 165 127 88
-2.585306e+000 -1.213846e+000 -8.057746e+000 168 137 104
-1.159262e+000 -1.232090e+000 -8.307492e+000 57 38 32
-4.231287e-001 -1.232840e+000 -8.311119e+000 135 132 123
-2.416902e-001 -1.183828e+000 -8.376017e+000 97 93 84
-2.089849e-001 -1.577153e+000 -8.152268e+000 41 36 32
-1.338536e+001 -9.295536e+000 -2.865364e+001 68 66 86
4.928037e+000 1.486643e+000 -9.056232e+000 43 27 28
1.429797e-001 1.254407e+000 -1.023614e+001 44 34 32
7.158629e-001 8.473611e-001 -9.189460e+000 24 19 24
3.918762e-001 6.920076e-001 -9.441989e+000 94 89 82
1.818973e+000 4.721348e-001 -6.950010e+000 173 149 115
1.833965e+000 5.253832e-001 -6.978214e+000 66 46 41
1.621528e+000 3.684547e-001 -7.024444e+000 138 92 51
1.773206e+000 3.450738e-001 -6.846511e+000 90 55 17
-5.508691e-001 2.214372e-002 -8.743577e+000 131 122 103
9.531132e-001 -1.057110e-001 -8.649816e+000 51 47 48
-9.858087e-001 -4.662119e-001 -8.482285e+000 35 20 24
-1.083657e+000 -5.991540e-001 -8.308509e+000 66 41 19
6.510925e-001 -5.756684e-001 -8.693160e+000 90 83 64
-6.133007e-001 -8.274374e-001 -8.453373e+000 26 25 23
-5.538315e-001 -9.659093e-001 -8.401446e+000 28 26 23
-1.748795e-001 -1.036316e+000 -8.362760e+000 119 107 91
-1.688470e+001 -9.314173e+000 -3.104805e+001 126 126 143
1.062882e+000 2.402103e+000 -8.342008e+000 177 157 122
1.062882e+000 2.402103e+000 -8.342008e+000 177 157 122
3.792278e+000 2.803046e+000 -1.087715e+001 113 99 86
4.125901e+000 2.219640e+000 -1.004855e+001 78 63 58
1.299115e+000 1.669448e+000 -8.270332e+000 47 28 18
4.812419e+000 1.760333e+000 -9.323447e+000 94 78 71
1.805157e+000 7.609936e-001 -7.088088e+000 179 159 125
-1.331223e+000 1.656534e-001 -8.171377e+000 143 121 95
4.147133e-001 9.390325e-002 -8.682332e+000 21 18 19
5.992291e-002 -1.183923e-001 -8.607106e+000 22 19 22
2.425126e-001 -1.377443e-001 -8.625930e+000 123 115 93
3.187487e-001 -1.112435e-001 -8.639058e+000 24 21 23
2.700572e-001 -2.136642e-001 -8.619882e+000 25 20 16
3.447443e-001 -1.864854e-001 -8.626584e+000 142 136 110
1.949372e-001 -2.390695e-001 -8.600698e+000 123 118 99
-3.378386e-001 -4.432483e-001 -8.519557e+000 20 20 18
7.476126e-001 -3.798165e-001 -8.594951e+000 144 137 110
-3.532032e-001 -6.162085e-001 -8.468602e+000 132 127 103
-1.714584e-001 -6.245346e-001 -8.456054e+000 24 22 25
-1.714584e-001 -6.245346e-001 -8.456054e+000 24 22 25
-9.532510e-002 -5.956545e-001 -8.465467e+000 132 121 97
-5.018098e-001 -6.880197e-001 -8.478478e+000 138 132 113
-5.459095e-001 -7.937325e-001 -8.462158e+000 141 137 112
6.980768e-002 -7.882584e-001 -8.457569e+000 107 100 73
6.980768e-002 -7.882584e-001 -8.457569e+000 107 100 73
-2.305207e-001 -8.961442e-001 -8.370541e+000 140 132 111
-3.062347e-001 -9.268667e-001 -8.360037e+000 25 23 27
-2.585324e+000 -9.916453e-001 -7.984043e+000 171 136 98
-2.585324e+000 -9.916453e-001 -7.984043e+000 171 136 98
7.569289e-001 6.548790e-001 -8.916801e+000 66 64 65
3.821440e-001 1.814518e-001 -8.726442e+000 95 89 72
7.678795e-001 7.951262e-001 -9.084987e+000 18 16 19
-1.827938e+000 -2.395683e-001 -8.013268e+000 75 48 27
7.365216e-001 2.484634e+000 -8.422234e+000 122 75 33
6.586631e-001 2.047837e+000 -8.574245e+000 101 64 38
8.874038e-001 2.080206e+000 -8.330975e+000 47 23 19
1.230041e+000 1.858389e+000 -8.121380e+000 82 69 53
7.119224e-001 1.831800e+000 -8.769340e+000 44 30 21
9.035216e-001 1.763290e+000 -8.466329e+000 151 126 96
1.039590e+000 1.847501e+000 -8.268019e+000 32 19 12
1.202995e+000 1.783484e+000 -8.326981e+000 61 45 45
1.194970e+000 1.779233e+000 -8.271823e+000 61 45 45
1.729872e+000 1.801889e+000 -8.413286e+000 75 47 33
1.095532e+000 1.644630e+000 -8.323044e+000 78 64 59
1.640140e+000 1.601259e+000 -8.303864e+000 91 52 21
1.676042e+000 1.125172e+000 -7.738160e+000 125 97 76
-3.712582e-001 6.671552e-001 -9.529989e+000 128 124 115
-3.322397e-001 6.808154e-001 -9.495673e+000 25 22 15
-3.322397e-001 6.808154e-001 -9.495673e+000 25 22 15
-2.938704e-001 6.880899e-001 -9.526518e+000 31 26 22
-2.843915e-002 7.561535e-001 -9.835221e+000 67 61 57
1.396990e+000 8.867986e-001 -7.550427e+000 185 145 107
1.761627e+000 9.202101e-001 -7.590156e+000 54 39 25
1.864800e+000 9.512845e-001 -7.406492e+000 158 139 103
-2.500836e+000 4.954094e-001 -8.869175e+000 143 101 61
-2.069321e+000 4.625669e-001 -8.590525e+000 150 114 82
-1.747084e+000 5.239980e-001 -8.659265e+000 96 61 33
-1.660254e+000 5.874447e-001 -9.551436e+000 210 215 235
-1.515256e+000 4.921661e-001 -8.852753e+000 129 102 79
-1.050600e+000 5.664053e-001 -9.487467e+000 36 29 19
-6.293745e-001 6.009739e-001 -9.356179e+000 111 104 94
-6.293745e-001 6.009739e-001 -9.356179e+000 111 104 94
-4.579161e-001 6.503922e-001 -9.555923e+000 35 27 21
-3.911284e-001 6.344704e-001 -9.440778e+000 34 27 18
-3.911284e-001 6.344704e-001 -9.440778e+000 34 27 18
-3.512720e-001 6.446749e-001 -9.432309e+000 27 23 13
-3.143233e-001 6.559934e-001 -9.439372e+000 119 118 100
-3.143233e-001 6.559934e-001 -9.439372e+000 119 118 100
-2.644373e-001 6.294482e-001 -9.434034e+000 22 17 13
-2.163807e-001 6.347556e-001 -9.432215e+000 96 90 84
-2.751996e-002 6.466035e-001 -9.676166e+000 23 20 13
1.113260e-001 6.307513e-001 -9.599678e+000 26 19 11
1.302443e-001 6.018065e-001 -9.535705e+000 92 85 75
2.235095e-001 5.905384e-001 -9.388377e+000 74 75 64
1.325892e+000 7.506483e-001 -7.677912e+000 28 21 31
1.434459e+000 7.995011e-001 -7.234401e+000 148 105 62
1.434459e+000 7.995011e-001 -7.234401e+000 148 105 62
4.761608e+000 9.261199e-001 -8.620410e+000 66 55 57
-2.666496e+000 3.401855e-001 -8.705037e+000 178 146 105
-2.269087e+000 3.729527e-001 -8.524804e+000 99 63 28
-2.191599e+000 3.113624e-001 -8.318683e+000 158 125 90
-2.258342e+000 4.076758e-001 -8.599257e+000 185 150 110
-2.100467e+000 3.344848e-001 -8.292027e+000 84 50 22
-2.048705e+000 3.166594e-001 -8.381701e+000 121 90 69
-1.953901e+000 3.318336e-001 -8.480707e+000 113 78 59
-1.710373e+000 3.535461e-001 -8.653600e+000 81 55 45
-1.591201e+000 3.172772e-001 -8.729667e+000 43 21 8
-1.228815e+000 3.561641e-001 -8.908053e+000 90 72 50
-5.912357e-002 4.996143e-001 -9.200297e+000 34 25 26
2.579055e-001 5.112025e-001 -9.219241e+000 13 11 12
2.789749e-001 4.813333e-001 -9.185425e+000 71 67 62
3.178752e-001 4.785583e-001 -9.184774e+000 80 76 73
1.469903e+000 6.872791e-001 -7.112475e+000 201 164 122
1.469903e+000 6.872791e-001 -7.112475e+000 201 164 122
-2.104302e+000 2.568746e-001 -8.268261e+000 140 108 83
-2.087466e+000 3.040965e-001 -8.315120e+000 148 118 90
-2.087466e+000 3.040965e-001 -8.315120e+000 148 118 90
-1.149165e+000 2.753325e-001 -8.558739e+000 127 107 82
-4.100672e-001 2.004083e-001 -8.854314e+000 158 148 122
1.351291e+000 5.646653e-001 -7.224280e+000 154 112 63
1.474705e+000 5.586939e-001 -7.268945e+000 158 117 73
1.474104e+000 4.829268e-001 -7.097423e+000 224 186 139
-2.890948e+000 2.027504e-002 -8.432463e+000 199 161 116
-2.270211e+000 1.729460e-003 -8.102701e+000 131 101 62
-2.165321e+000 5.883322e-002 -8.172843e+000 101 68 35
-2.215600e+000 3.037646e-002 -8.197943e+000 111 79 41
-2.000230e+000 1.435038e-001 -8.273430e+000 68 36 11
-1.278274e+000 1.187991e-001 -8.154171e+000 86 62 37
-1.278899e+000 1.174729e-001 -8.158688e+000 86 62 37
-5.855052e-001 1.529612e-001 -8.912300e+000 113 38 50
-1.893356e-001 1.624402e-001 -8.749805e+000 158 157 125
-1.905236e-001 1.597695e-001 -8.759128e+000 158 157 125
7.597227e-001 9.831295e-002 -8.688547e+000 45 38 31
1.416975e+000 4.290000e-001 -7.249544e+000 146 91 50
1.626134e+000 4.472853e-001 -7.142272e+000 97 54 12
1.685568e+000 4.267898e-001 -6.847121e+000 132 95 51
-2.375989e+000 -6.292609e-002 -8.105082e+000 182 148 108
-2.375989e+000 -6.292609e-002 -8.105082e+000 182 148 108
-2.005464e+000 6.796839e-003 -7.989461e+000 159 130 98
-2.045576e+000 -4.254000e-002 -7.926353e+000 110 80 44
-2.053829e+000 -1.082032e-001 -8.020203e+000 117 89 52
-1.829480e+000 -1.417783e-002 -8.065260e+000 122 96 72
-4.212907e-001 -1.018551e-001 -8.635165e+000 139 111 95
2.832857e-001 -9.769194e-002 -8.637683e+000 31 31 24
1.498895e+000 2.758797e-001 -7.168190e+000 189 144 102
1.741336e+000 2.486554e-001 -6.857067e+000 159 114 73
2.655798e+000 2.221391e-001 -7.427316e+000 57 47 46
2.778563e+000 1.944036e-001 -7.681752e+000 62 52 51
-2.187498e+000 -1.586959e-001 -8.045596e+000 182 150 112
-2.193247e+000 -2.509213e-001 -7.954097e+000 161 134 97
-2.014733e+000 -1.770075e-001 -8.020515e+000 163 131 100
-2.030503e+000 -2.065046e-001 -8.025035e+000 108 73 43
-1.725574e+000 -2.268400e-001 -8.096708e+000 59 32 12
-1.654586e+000 -2.215289e-001 -8.021640e+000 73 49 25
-1.654586e+000 -2.215289e-001 -8.021640e+000 73 49 25
-9.956311e-001 -7.839513e-002 -7.919519e+000 125 104 79
1.654991e+000 2.065573e-001 -6.860623e+000 151 104 62
1.732033e+000 1.317814e-001 -6.784163e+000 200 152 108
1.776214e+000 1.144054e-001 -6.809566e+000 200 153 110
1.840543e+000 1.871426e-001 -6.919460e+000 153 111 73
1.852258e+000 1.851455e-001 -6.873439e+000 144 103 64
2.769413e+000 1.833580e-001 -7.412228e+000 60 51 50
2.769413e+000 1.833580e-001 -7.412228e+000 60 51 50
-2.590258e+000 -4.123642e-001 -7.975106e+000 150 105 66
-2.584613e+000 -4.620033e-001 -7.970763e+000 187 146 101
-2.249050e+000 -3.726080e-001 -8.053483e+000 171 143 110
-1.874294e+000 -3.191692e-001 -7.917131e+000 145 116 87
-1.826168e+000 -4.361108e-001 -8.071195e+000 73 47 30
-1.601231e+000 -3.297343e-001 -8.046471e+000 74 56 49
-1.592471e+000 -3.904971e-001 -7.980280e+000 95 78 63
-3.829731e-001 -4.046461e-001 -8.554179e+000 138 132 110
-3.829731e-001 -4.046461e-001 -8.554179e+000 138 132 110
8.456630e-001 -2.863338e-001 -8.573977e+000 33 29 17
8.453824e-001 -2.864164e-001 -8.573502e+000 33 29 17
8.846017e-001 -3.796300e-001 -8.565589e+000 87 80 74
2.227762e+000 -4.480641e-003 -7.093218e+000 89 61 38
-2.668509e+000 -5.738877e-001 -8.024175e+000 108 70 32
-1.356393e+000 -5.848040e-001 -8.093056e+000 81 45 23
-1.016384e+000 -5.525781e-001 -8.188765e+000 94 69 54
-9.155744e-001 -5.298102e-001 -8.403773e+000 62 48 44
1.912322e+000 -9.365097e-002 -6.874203e+000 171 131 96
2.056574e+000 -1.704048e-001 -6.937671e+000 138 99 60
-2.195201e+000 -6.291860e-001 -7.766011e+000 167 138 106
-2.207474e+000 -7.398813e-001 -7.882654e+000 152 115 89
-1.252766e+000 -7.056704e-001 -8.059797e+000 88 52 28
-9.328521e-001 -6.307934e-001 -8.343367e+000 100 89 59
-5.734711e-001 -6.613882e-001 -8.485505e+000 155 148 129
2.345547e+000 -2.848368e-001 -7.135683e+000 44 29 34
2.346773e+000 -2.859159e-001 -7.139506e+000 44 29 34
-2.991979e+000 -9.065779e-001 -8.336848e+000 167 143 123
-2.406079e+000 -8.203667e-001 -7.832480e+000 139 103 71
-2.207892e+000 -7.753019e-001 -7.903784e+000 87 52 24
-1.626733e+000 -7.827017e-001 -7.918778e+000 72 35 16
-1.261477e+000 -7.945167e-001 -7.962032e+000 136 103 72
-1.261477e+000 -7.945167e-001 -7.962032e+000 136 103 72
-1.275436e+000 -8.098442e-001 -8.156808e+000 74 39 17
-8.772102e-001 -9.689296e-001 -8.439769e+000 90 84 75
1.394048e-001 -8.153121e-001 -8.436075e+000 109 99 77
1.863753e+000 -3.952269e-001 -7.240817e+000 24 14 15
-2.607815e+000 -1.072442e+000 -7.876715e+000 176 131 89
-2.358686e+000 -9.831964e-001 -7.740904e+000 134 95 67
-2.280760e+000 -1.042319e+000 -7.816947e+000 129 93 71
-1.760240e+000 -8.798099e-001 -7.754772e+000 127 90 64
-1.547291e+000 -9.571289e-001 -7.742798e+000 61 29 14
-4.517638e-001 -1.041129e+000 -8.297180e+000 147 144 126
8.225211e-002 -9.942362e-001 -8.395751e+000 63 59 58
7.165393e-001 -8.756555e-001 -7.802663e+000 80 45 23
-2.602096e+000 -1.120582e+000 -8.024488e+000 168 124 85
-1.430846e+000 -1.064085e+000 -7.982209e+000 102 71 51
-1.090138e+000 -1.123891e+000 -8.264457e+000 119 92 67
-1.058184e+000 -1.405548e+000 -8.755195e+000 40 25 18
-1.020506e+000 -1.386495e+000 -8.700336e+000 150 136 128
-7.424349e-001 -1.323995e+000 -8.541407e+000 173 175 187
-5.745548e-001 -1.191027e+000 -8.438955e+000 173 167 159
1.824473e-001 -1.111534e+000 -8.024864e+000 135 106 72
8.850931e-001 -9.599326e-001 -7.574962e+000 78 43 21
-1.166192e+000 -1.332938e+000 -8.264447e+000 27 15 14
-7.290099e-001 -1.382752e+000 -8.579067e+000 55 60 72
-7.290099e-001 -1.382752e+000 -8.579067e+000 55 60 72
6.672962e-002 -1.250613e+000 -8.111575e+000 130 103 81
5.557829e-002 -1.251543e+000 -8.032188e+000 46 26 10
2.699669e-001 -1.133549e+000 -7.956452e+000 139 111 90
2.699669e-001 -1.133549e+000 -7.956452e+000 139 111 90
3.223465e-001 -1.211676e+000 -7.885530e+000 133 98 79
5.800943e-001 -1.134447e+000 -7.700514e+000 82 42 16
8.708163e-001 -1.116741e+000 -7.541441e+000 171 127 95
9.445071e-001 -1.019338e+000 -7.644260e+000 80 45 23
9.759868e-001 -1.096694e+000 -7.529231e+000 170 132 93
9.759868e-001 -1.096694e+000 -7.529231e+000 170 132 93
-1.451095e+000 -1.466890e+000 -8.077037e+000 32 19 19
2.634280e-001 -1.333637e+000 -7.828563e+000 58 29 11
4.018427e-001 -1.337079e+000 -7.919622e+000 91 50 30
4.535584e-001 -1.302430e+000 -7.809994e+000 96 53 34
8.413405e-001 -1.185876e+000 -7.655419e+000 162 121 84
8.638369e-001 -1.220720e+000 -7.500974e+000 100 56 28
8.849365e-001 -1.216605e+000 -7.536591e+000 185 141 109
1.136131e+000 -1.124356e+000 -7.554532e+000 134 101 70
-3.855397e-001 -1.715511e+000 -8.551744e+000 160 160 161
-3.855397e-001 -1.715511e+000 -8.551744e+000 160 160 161
1.428477e-001 -1.438703e+000 -7.877402e+000 134 107 98
3.531964e-001 -1.541782e+000 -7.813848e+000 174 141 110
3.821799e-001 -1.520020e+000 -7.776928e+000 95 59 33
3.821799e-001 -1.520020e+000 -7.776928e+000 95 59 33
4.121067e-001 -1.486009e+000 -7.750301e+000 178 143 109
7.350341e-001 -1.362350e+000 -7.604979e+000 199 154 121
1.187247e+000 -1.345847e+000 -7.604746e+000 175 138 102
1.654157e-001 -1.692700e+000 -7.900022e+000 47 20 10
1.654157e-001 -1.692700e+000 -7.900022e+000 47 20 10
4.317669e-001 -1.707285e+000 -7.973698e+000 130 91 50
8.395786e-001 -1.529222e+000 -7.734747e+000 168 124 78
1.216394e+000 -1.457625e+000 -7.605018e+000 204 172 134
-5.835981e-002 -2.035829e+000 -8.339977e+000 64 53 57
7.616937e-002 -1.844523e+000 -8.112083e+000 58 41 33
6.494445e-001 -1.746060e+000 -7.833020e+000 137 102 70
8.717110e-001 -1.724940e+000 -7.826282e+000 207 168 125
1.126127e+000 -1.855615e+000 -7.917370e+000 199 166 133
3.314027e-001 -2.029043e+000 -8.201984e+000 133 108 84
4.669981e-001 2.236699e+000 -9.009902e+000 87 73 62
1.042429e+000 2.301352e+000 -8.332666e+000 170 146 110
6.353933e-001 2.110482e+000 -8.655737e+000 92 53 23
6.353933e-001 2.110482e+000 -8.655737e+000 92 53 23
6.845965e-001 1.998822e+000 -8.618946e+000 63 35 21
6.845965e-001 1.998822e+000 -8.618946e+000 63 35 21
9.222396e-001 1.963496e+000 -8.312634e+000 92 70 56
1.218122e+000 1.931712e+000 -8.341637e+000 38 29 24
7.818907e-001 1.738256e+000 -8.856031e+000 131 117 104
1.018689e+000 1.772123e+000 -8.234452e+000 137 122 102
8.984158e-001 1.696609e+000 -8.431542e+000 111 84 55
8.813007e-001 1.583045e+000 -8.654529e+000 118 103 84
1.004380e+000 1.672386e+000 -8.311547e+000 40 26 24
2.029051e+000 1.679582e+000 -8.558162e+000 14 8 12
1.009825e+000 1.519374e+000 -8.898763e+000 42 38 35
1.390016e+000 1.451577e+000 -8.331017e+000 68 40 28
1.924110e+000 1.495376e+000 -8.553324e+000 68 56 52
1.924110e+000 1.495376e+000 -8.553324e+000 68 56 52
6.016732e-001 9.828868e-001 -9.301633e+000 63 58 54
1.950232e+000 1.046332e+000 -7.535657e+000 45 19 18
2.014832e+000 1.039572e+000 -7.571528e+000 61 38 22
-1.754380e+000 6.276502e-001 -9.161377e+000 133 101 68
-3.861644e-002 6.867575e-001 -9.663044e+000 65 60 57
2.679453e-002 7.000346e-001 -9.865845e+000 56 53 48
1.509211e+000 9.797365e-001 -7.427053e+000 176 137 94
1.862441e+000 9.302110e-001 -7.330113e+000 73 49 23
-1.860749e+000 4.882595e-001 -8.637276e+000 143 108 76
-1.860749e+000 4.882595e-001 -8.637276e+000 143 108 76
-1.784388e+000 4.608357e-001 -9.046853e+000 76 45 20
-1.589523e+000 4.721261e-001 -8.622285e+000 116 89 64
-1.538999e+000 5.255766e-001 -8.914085e+000 105 77 55
-1.138436e+000 5.231160e-001 -9.599195e+000 168 162 132
-9.637814e-001 5.561112e-001 -9.396007e+000 37 29 21
-7.549129e-001 5.694115e-001 -9.391889e+000 118 112 96
-5.166891e-001 6.142110e-001 -9.402515e+000 28 24 10
-6.023710e-001 5.982192e-001 -9.460708e+000 119 112 102
-5.310771e-001 5.794279e-001 -9.343212e+000 111 104 95
-4.685187e-001 6.187342e-001 -9.453362e+000 113 110 95
-3.520572e-001 5.791310e-001 -9.331554e+000 33 29 22
-3.520572e-001 5.791310e-001 -9.331554e+000 33 29 22
-2.730266e-001 5.992015e-001 -9.327368e+000 122 116 99
-2.702396e-001 6.012004e-001 -9.307224e+000 122 116 99
-2.526210e-001 5.628998e-001 -9.254449e+000 29 24 20
-1.578363e-001 5.369808e-001 -9.192740e+000 27 19 13
4.802869e-001 6.899630e-001 -9.434298e+000 26 23 20
-2.835199e+000 2.829752e-001 -8.803986e+000 122 93 63
-2.725221e+000 3.570064e-001 -8.791852e+000 176 143 102
-2.556805e+000 2.935883e-001 -8.532226e+000 181 147 101
-2.302476e+000 3.056510e-001 -8.463931e+000 103 67 33
-1.344292e-001 4.990551e-001 -9.130935e+000 115 109 94
7.880939e-002 4.733676e-001 -9.114801e+000 24 19 15
1.534670e-001 4.483227e-001 -9.045848e+000 23 19 20
6.848245e-002 4.412510e-001 -9.026452e+000 104 101 84
3.015441e-001 4.523881e-001 -9.112371e+000 16 15 11
2.717830e-001 4.223202e-001 -8.985908e+000 20 14 17
4.821555e-001 3.929196e-001 -8.863806e+000 120 114 102
1.317633e+000 5.789406e-001 -7.775159e+000 198 177 140
1.359824e+000 6.415177e-001 -7.519462e+000 185 148 103
1.380266e+000 5.762854e-001 -7.230381e+000 173 131 81
-3.032633e+000 1.602871e-001 -8.988575e+000 185 162 125
-2.996654e+000 1.969828e-001 -8.954924e+000 128 101 68
-2.149571e+000 1.750111e-001 -8.355922e+000 79 48 22
-1.987747e+000 2.829811e-001 -8.370948e+000 45 17 5
-1.992086e+000 1.916495e-001 -8.353350e+000 73 42 24
-1.840712e+000 1.863119e-001 -8.339419e+000 81 58 44
-1.700883e+000 2.234560e-001 -8.543777e+000 38 20 10
6.096691e-001 3.075478e-001 -8.771796e+000 50 43 37
1.824788e+000 5.484195e-001 -7.069488e+000 172 147 107
-2.326092e+000 2.328933e-002 -8.105775e+000 169 137 96
-2.153847e+000 1.488486e-001 -8.199169e+000 102 66 39
-1.847179e+000 5.936123e-002 -8.210546e+000 109 78 58
-1.258152e+000 1.489201e-001 -8.162076e+000 134 113 81
1.770651e-001 1.595550e-001 -8.717720e+000 98 89 74
1.276285e+000 1.687181e-001 -8.287491e+000 49 40 33
-2.497678e+000 -1.431461e-001 -8.157734e+000 156 118 77
-2.434975e+000 -1.500738e-001 -8.023098e+000 126 88 51
-2.416541e+000 -1.623843e-001 -8.076826e+000 172 138 100
-2.111556e+000 -9.694376e-002 -7.983755e+000 173 143 105
-2.041549e+000 -7.132838e-002 -7.994563e+000 165 139 104
-4.515052e-001 -1.356392e-001 -8.630030e+000 125 61 60
-2.604031e+000 -3.349667e-001 -8.124274e+000 126 83 47
-2.555176e+000 -2.833614e-001 -8.061182e+000 172 131 87
-2.508685e+000 -2.551501e-001 -8.075594e+000 166 124 84
-2.494169e+000 -3.137575e-001 -8.090241e+000 144 102 60
-2.285345e+000 -1.929309e-001 -8.009216e+000 170 136 99
-2.268101e+000 -2.291119e-001 -8.029525e+000 106 67 28
-2.268101e+000 -2.291119e-001 -8.029525e+000 106 67 28
1.235580e+000 -8.563891e-002 -8.285810e+000 66 56 45
1.254532e+000 -5.306375e-002 -8.227446e+000 95 85 73
1.336070e+000 9.825539e-002 -7.468203e+000 146 117 95
1.715110e+000 1.019346e-001 -6.798732e+000 157 105 63
1.825613e+000 1.676208e-001 -6.880978e+000 100 55 24
1.966086e+000 1.484923e-001 -6.776007e+000 114 77 50
-2.824098e+000 -5.070833e-001 -8.209141e+000 134 100 74
-1.625264e+000 -3.108883e-001 -8.084118e+000 87 67 43
1.478782e+000 -7.757611e-002 -7.433084e+000 156 116 85
1.494908e+000 -2.066848e-001 -7.941812e+000 15 6 7
1.587668e+000 -3.293649e-002 -6.952127e+000 191 142 101
1.815368e+000 -4.161686e-002 -6.888622e+000 146 95 63
1.964021e+000 2.856018e-004 -6.800042e+000 197 158 117
2.139646e+000 5.210262e-002 -6.984091e+000 161 128 96
-2.108603e+000 -5.344319e-001 -7.731019e+000 141 114 84
-1.462000e+000 -4.990104e-001 -8.097810e+000 84 53 28
-1.451029e+000 -5.580127e-001 -8.062329e+000 68 36 15
-9.952965e-001 -5.862792e-001 -8.317644e+000 53 30 19
1.648940e+000 -1.779058e-001 -6.997402e+000 157 105 65
1.801045e+000 -1.868221e-001 -7.106394e+000 152 100 60
1.932496e+000 -4.724295e-002 -6.792547e+000 196 157 116
-2.756552e+000 -7.201449e-001 -8.152561e+000 163 131 93
-2.756552e+000 -7.201449e-001 -8.152561e+000 163 131 93
-2.524278e+000 -7.161541e-001 -7.870386e+000 189 158 120
-2.387863e+000 -6.977558e-001 -7.935314e+000 176 144 110
-1.950391e+000 -6.834693e-001 -7.801365e+000 88 45 20
-1.236906e+000 -6.731611e-001 -8.115831e+000 78 46 23
-6.235513e-001 -7.694943e-001 -8.480314e+000 153 146 127
1.711883e+000 -3.273186e-001 -7.211519e+000 179 146 118
2.297440e+000 -3.271366e-001 -7.173572e+000 34 18 19
-2.296888e+000 -7.964401e-001 -7.726860e+000 166 122 93
-1.917407e+000 -8.534933e-001 -7.802437e+000 78 37 19
-1.472540e+000 -8.449456e-001 -7.965407e+000 69 36 18
-1.123086e+000 -8.163559e-001 -8.161212e+000 78 46 25
-1.015476e+000 -8.075904e-001 -8.198561e+000 93 65 37
-1.015476e+000 -8.075904e-001 -8.198561e+000 93 65 37
-2.856049e+000 -1.041001e+000 -8.179349e+000 161 123 83
-2.443832e+000 -1.102685e+000 -8.008184e+000 84 46 25
-2.052143e+000 -9.423512e-001 -7.834206e+000 78 37 18
-1.362790e+000 -9.135586e-001 -8.000830e+000 75 40 21
-8.589863e-002 -1.062383e+000 -8.398223e+000 52 47 43
-2.811821e+000 -1.274964e+000 -8.104684e+000 172 139 100
-2.536432e+000 -1.112109e+000 -7.911103e+000 102 61 31
-2.536432e+000 -1.112109e+000 -7.911103e+000 102 61 31
