ply
format ascii 1.0
element face 0
property list uchar int vertex_indices
element vertex 894
property float x
property float y
property float z
property uchar diffuse_red
property uchar diffuse_green
property uchar diffuse_blue
end_header
4.784317e-001 5.626334e-002 -8.699413e+000 119 111 87
-8.912766e+000 -1.228737e+001 -2.384361e+001 190 183 167
-5.532718e-001 -6.920715e-001 -8.498015e+000 34 27 16
-1.158460e+001 -1.877421e+001 -3.096654e+001 161 144 126
3.706809e-001 -6.502555e-001 -8.560767e+000 17 12 17
3.008916e+000 2.952676e+000 -1.139039e+001 32 22 23
3.480967e+000 3.109474e+000 -1.142656e+001 63 54 51
-3.742355e-001 8.913232e-001 -9.931359e+000 64 42 18
-2.297331e-001 5.639534e-001 -9.414044e+000 74 70 60
-1.254251e+001 -1.031184e+001 -2.623468e+001 47 45 50
-8.335573e+000 -7.530252e+000 -2.279664e+001 122 114 101
3.712010e+000 1.290020e+000 -1.001340e+001 65 55 43
-2.729765e+000 -7.970786e-002 -8.466923e+000 125 94 65
-2.729765e+000 -7.970786e-002 -8.466923e+000 125 94 65
4.315294e+000 1.312901e+000 -9.308478e+000 59 45 44
-6.525760e-001 -2.091450e-001 -8.740431e+000 67 63 51
4.347718e+000 1.057610e+000 -9.173663e+000 50 40 39
-8.337220e-001 -3.337320e-001 -8.622851e+000 59 48 39
1.120944e+000 1.474186e-001 -8.496905e+000 61 55 48
1.681928e+000 8.800728e-001 -7.606005e+000 32 21 15
-1.591543e+000 -4.893066e-001 -8.018346e+000 90 72 52
-7.897235e-001 -8.939119e-001 -8.550975e+000 66 58 45
3.226937e+000 2.709736e+000 -1.103547e+001 22 13 14
3.933359e+000 2.626998e+000 -1.081706e+001 24 16 14
3.433893e+000 2.424275e+000 -1.075512e+001 20 11 12
1.016418e+000 2.131261e+000 -8.343384e+000 65 41 29
-2.110377e+000 4.758721e-001 -8.877963e+000 70 39 18
-1.388172e+001 -9.905740e+000 -2.698248e+001 66 59 59
-1.957743e+000 4.869334e-001 -8.808100e+000 52 25 14
-1.322050e+001 -9.985766e+000 -2.621222e+001 69 63 67
4.180203e+000 1.491664e+000 -9.678165e+000 26 16 15
2.865348e-001 3.609494e-001 -9.027634e+000 68 61 51
-8.915805e+000 -1.019712e+001 -2.402822e+001 236 234 237
1.124694e+000 1.528556e-001 -8.638682e+000 35 31 31
6.928083e-001 -1.026423e+000 -7.692871e+000 69 40 22
-3.564622e-001 1.848398e+000 -1.001589e+001 107 74 43
1.290243e-002 6.222282e-001 -9.782135e+000 43 40 35
-9.280251e-002 3.561077e-001 -8.992468e+000 96 89 70
4.159511e+000 1.082147e+000 -9.387745e+000 71 63 55
1.177439e+000 2.242374e-001 -8.483226e+000 41 36 30
2.922970e+000 2.646148e+000 -1.111914e+001 48 40 37
4.088035e+000 2.403591e+000 -1.033602e+001 61 47 43
-1.009161e+001 -7.854833e+000 -2.512533e+001 56 61 81
-8.325653e-001 2.918372e-001 -9.189082e+000 20 23 14
-1.273612e+001 -1.080412e+001 -2.557541e+001 88 83 97
3.016325e+000 2.524840e+000 -1.115684e+001 21 16 14
1.106004e+000 1.569683e+000 -8.297527e+000 27 13 10
1.335824e+000 1.451003e+000 -8.342001e+000 66 44 31
-1.451706e+001 -1.090680e+001 -2.684232e+001 81 76 73
-1.065801e+001 -9.763506e+000 -2.620695e+001 255 255 253
-4.997936e-001 5.526409e-002 -8.812323e+000 26 18 22
-1.244127e+001 -1.011505e+001 -2.644752e+001 65 60 64
3.876826e-001 3.461381e-001 -8.905315e+000 72 66 54
3.429523e+000 2.837332e+000 -1.110706e+001 88 73 54
3.048629e+000 2.553320e+000 -1.103272e+001 24 20 19
3.330825e+000 3.125283e+000 -1.140490e+001 84 71 63
3.422939e+000 2.999428e+000 -1.132729e+001 41 28 19
-5.227678e-001 1.872983e+000 -1.014392e+001 129 96 60
2.976192e+000 2.693399e+000 -1.128254e+001 52 42 40
3.042786e+000 2.817243e+000 -1.136750e+001 27 16 14
3.042786e+000 2.817243e+000 -1.136750e+001 27 16 14
3.763751e+000 2.759985e+000 -1.106351e+001 24 12 12
3.938028e+000 2.578127e+000 -1.083507e+001 32 20 20
-7.645506e-001 1.150552e+000 -1.018586e+001 66 39 18
-6.490980e-001 1.200925e+000 -9.979032e+000 78 52 25
3.145325e+000 2.236943e+000 -1.085133e+001 77 65 51
3.586445e+000 2.292872e+000 -1.070625e+001 22 14 12
3.402329e+000 2.110457e+000 -1.063745e+001 21 15 14
-2.599666e+000 3.037098e-001 -9.782805e+000 118 111 100
-3.928380e-001 1.115088e+000 -9.841566e+000 125 102 68
4.024559e+000 2.244318e+000 -1.034193e+001 60 42 37
-3.079868e+000 1.900024e-001 -9.338514e+000 154 139 108
-2.035540e+000 5.053880e-001 -8.838714e+000 101 69 44
-2.164509e-001 6.711971e-001 -9.842191e+000 15 11 10
-2.091871e+000 4.290347e-001 -8.669725e+000 63 31 15
-1.021795e+000 3.985592e-001 -9.377792e+000 122 116 92
-1.021795e+000 3.985592e-001 -9.377792e+000 122 116 92
-1.457199e+000 3.896140e-001 -8.914204e+000 34 17 1
-1.037809e+000 3.465040e-001 -9.347656e+000 101 93 76
-1.037809e+000 3.465040e-001 -9.347656e+000 101 93 76
-1.075635e-001 5.291969e-001 -9.419260e+000 12 7 4
-2.122349e+000 2.080713e-001 -8.392332e+000 74 46 22
-2.017663e+000 2.274300e-001 -8.417969e+000 109 83 60
-1.977864e+000 2.004860e-001 -8.407672e+000 97 70 51
-1.257842e+000 2.379605e-001 -8.862205e+000 34 17 7
-1.904236e+000 1.548750e-001 -8.385741e+000 43 19 9
-1.904236e+000 1.548750e-001 -8.385741e+000 43 19 9
-1.784875e+000 1.692869e-001 -8.431345e+000 64 46 35
1.871445e-001 3.898222e-001 -9.086358e+000 75 68 56
2.396606e-001 4.176329e-001 -9.178049e+000 61 58 53
1.381896e+000 1.339260e+000 -8.405213e+000 102 80 50
-2.505984e+000 -1.411403e-001 -8.300820e+000 103 68 31
-2.399289e+000 -1.681472e-001 -8.202632e+000 125 91 56
-1.108283e+000 1.939948e-001 -8.529595e+000 70 52 30
2.576559e-001 3.329326e-001 -8.958429e+000 83 77 62
-2.623533e+000 -3.045591e-001 -8.232938e+000 146 115 86
-2.560630e+000 -3.061590e-001 -8.209190e+000 111 75 41
-2.305750e+000 -2.366555e-001 -8.162051e+000 92 62 26
-1.698136e+000 -9.951416e-002 -8.367479e+000 56 34 11
-5.703313e-001 4.992599e-002 -8.640395e+000 76 65 45
-1.924355e+000 -2.571426e-001 -8.039378e+000 130 104 71
-1.727761e+000 -4.120202e-001 -8.079004e+000 80 61 47
-4.089127e-001 -2.033492e-001 -8.627762e+000 102 35 29
-3.671859e-001 -3.292532e-001 -8.572998e+000 28 22 12
-4.506413e-001 -4.426048e-001 -8.539982e+000 29 24 17
5.155534e-001 -3.684368e-002 -8.665845e+000 129 117 79
-2.504959e+000 -9.160162e-001 -8.019089e+000 121 82 43
-2.172540e+000 -6.422993e-001 -7.886897e+000 139 113 80
-6.732152e-001 -9.738007e-001 -8.496170e+000 139 136 116
-6.732152e-001 -9.738007e-001 -8.496170e+000 139 136 116
-3.693752e-001 -8.394333e-001 -8.411248e+000 138 124 83
4.962060e-001 -6.854133e-001 -8.627961e+000 11 2 5
-7.273412e-001 -1.252305e+000 -8.518170e+000 152 156 165
-6.415951e-001 -1.233899e+000 -8.442807e+000 84 81 86
7.192196e-001 -8.363140e-001 -8.719774e+000 15 11 10
1.462110e+000 6.083578e-001 -7.227993e+000 71 35 13
-1.180578e+000 -1.524050e+000 -8.269961e+000 27 23 22
-1.110564e+000 -1.403494e+000 -8.291837e+000 46 33 27
1.067659e+000 -1.251513e+000 -8.997206e+000 25 26 31
1.373751e+000 3.615099e-001 -7.287876e+000 101 59 19
-1.876422e+000 -1.734268e+000 -8.134535e+000 82 68 59
1.188791e-001 -1.171734e+000 -8.190653e+000 71 57 42
2.338048e-001 -1.102387e+000 -7.998280e+000 101 74 53
2.565556e-001 -1.191008e+000 -7.999603e+000 52 24 9
2.921471e-001 -1.089763e+000 -7.900984e+000 59 31 11
1.685874e+000 3.184087e-001 -7.013258e+000 88 52 16
2.620092e+000 1.317417e-001 -7.494438e+000 51 39 39
8.386614e-001 -1.014663e+000 -7.513819e+000 132 93 58
3.516566e+000 3.096591e+000 -1.149942e+001 59 45 42
-1.166181e-001 1.742241e+000 -1.008531e+001 42 25 10
7.867191e-001 2.435561e+000 -8.739289e+000 101 64 22
3.082611e+000 2.450741e+000 -1.109058e+001 19 10 11
3.138190e+000 2.309941e+000 -1.098058e+001 32 20 12
3.253174e+000 2.242062e+000 -1.079468e+001 46 37 35
-7.028676e-001 1.000464e+000 -1.005716e+001 123 97 65
-1.301963e-001 1.208776e+000 -1.002631e+001 49 31 10
3.660744e+000 2.171995e+000 -1.068828e+001 20 11 13
4.022806e+000 2.445852e+000 -1.064325e+001 16 10 7
-3.031693e+000 2.098019e-001 -9.671612e+000 43 36 29
-4.247120e-001 1.093631e+000 -9.904077e+000 78 53 20
3.422975e+000 2.010199e+000 -1.057495e+001 27 17 14
-2.752654e+000 2.729340e-001 -9.344937e+000 64 43 22
-1.817720e+000 5.468464e-001 -9.236807e+000 89 71 51
3.228570e+000 1.755039e+000 -1.076357e+001 43 31 19
4.006628e+000 2.109044e+000 -1.024293e+001 34 20 19
4.118450e+000 2.089565e+000 -1.016964e+001 92 75 68
-2.009762e+000 4.613814e-001 -8.739201e+000 101 70 49
-1.510331e+000 4.316603e-001 -8.972944e+000 52 31 13
-1.512738e+000 4.167206e-001 -8.999766e+000 52 31 13
-1.175136e+000 3.943223e-001 -9.476169e+000 79 72 55
3.544121e+000 1.576105e+000 -1.027145e+001 76 64 49
-1.318211e+000 4.000278e-001 -8.992166e+000 56 39 23
-1.845807e+000 3.052197e-001 -8.490981e+000 73 52 39
-1.845807e+000 3.052197e-001 -8.490981e+000 73 52 39
-1.446170e+000 2.297542e-001 -8.850086e+000 38 19 10
7.465461e-001 7.889183e-001 -9.057144e+000 54 50 41
3.625916e+000 1.268131e+000 -1.015632e+001 67 55 43
3.997009e+000 1.566540e+000 -9.872341e+000 23 18 14
3.964187e+000 1.531905e+000 -9.889979e+000 54 45 41
-1.911703e+000 1.353297e-001 -8.468795e+000 37 13 3
-1.025093e+000 1.173648e-001 -8.952922e+000 63 46 33
1.339936e+000 1.321208e+000 -8.300650e+000 99 79 55
1.777139e+000 1.495969e+000 -8.362036e+000 98 79 61
3.769680e+000 1.307993e+000 -1.002269e+001 70 61 44
4.230148e+000 1.571159e+000 -9.712184e+000 49 38 36
-2.365566e+000 -1.968118e-001 -8.231915e+000 89 57 20
-1.918050e+000 4.078604e-002 -8.242048e+000 92 65 46
-1.930272e+000 1.602148e-002 -8.210225e+000 91 64 43
-1.930272e+000 1.602148e-002 -8.210225e+000 91 64 43
-1.893928e+000 2.317605e-002 -8.233721e+000 58 31 14
-9.998286e-001 2.431688e-002 -8.963077e+000 47 40 34
3.963792e+000 1.253614e+000 -9.689615e+000 44 32 20
-1.997453e+000 -4.974366e-002 -8.107811e+000 119 93 60
-1.341007e+000 1.509926e-001 -8.227639e+000 44 27 14
-8.940170e-001 1.809672e-001 -8.388499e+000 17 13 11
-2.360026e+000 -3.778714e-001 -8.103917e+000 151 119 80
8.156568e-001 3.439841e-001 -8.852378e+000 17 13 14
4.093973e+000 1.028322e+000 -9.584031e+000 74 66 46
5.992262e-001 1.584031e-001 -8.743394e+000 91 88 71
6.337223e-001 1.186656e-001 -8.705406e+000 103 96 78
-2.475911e+000 -7.427908e-001 -8.050272e+000 143 115 77
-2.204641e+000 -6.499842e-001 -7.924507e+000 101 75 40
-8.959830e-001 -5.411418e-001 -8.454185e+000 47 39 30
1.330506e+000 7.716898e-001 -7.641317e+000 143 109 71
1.227837e+000 3.061312e-001 -7.839797e+000 71 61 51
4.247363e+000 5.421822e-001 -9.213266e+000 62 52 43
5.439070e-001 -6.124442e-001 -8.672114e+000 15 11 9
8.294683e-001 -5.118646e-001 -8.506594e+000 50 44 35
1.055580e+000 -2.880509e-001 -8.496706e+000 46 43 35
-1.387828e+000 -1.141510e+000 -7.990113e+000 92 73 57
-6.928076e-001 -1.214933e+000 -8.472331e+000 82 85 94
-2.082385e-001 -9.998088e-001 -8.357106e+000 106 98 79
4.058206e-002 -9.324901e-001 -8.442535e+000 23 16 9
4.226485e-001 -7.995299e-001 -8.590217e+000 14 9 11
4.375673e+000 4.481556e-001 -8.846344e+000 63 50 41
4.360601e+000 4.357028e-001 -8.748527e+000 64 52 40
1.711449e+000 4.915870e-001 -7.088105e+000 160 138 89
5.660051e-002 -1.255109e+000 -8.024385e+000 74 56 46
1.333778e-001 -1.142952e+000 -7.994998e+000 89 66 50
1.031518e+000 -8.696572e-001 -8.119934e+000 110 118 137
2.839579e+000 1.379350e-001 -7.203476e+000 65 49 24
1.792574e+000 -1.481702e-001 -6.884610e+000 165 144 118
1.092214e+000 2.580305e+000 -9.253727e+000 111 96 80
3.888468e+000 2.766164e+000 -1.114938e+001 35 24 22
3.937755e+000 2.722332e+000 -1.098864e+001 59 45 42
3.987156e+000 2.741178e+000 -1.100116e+001 29 19 20
6.537616e-001 2.322626e+000 -8.489933e+000 144 106 70
4.033622e+000 2.745572e+000 -1.085947e+001 31 21 19
3.712361e+000 2.531003e+000 -1.061553e+001 93 83 66
3.977446e+000 2.530227e+000 -1.062503e+001 32 22 23
-7.938971e-001 9.857299e-001 -1.014564e+001 76 53 28
7.266321e-001 1.878134e+000 -8.471990e+000 120 92 63
4.114744e+000 2.340181e+000 -1.047541e+001 38 25 24
4.897622e-002 8.713494e-001 -1.002046e+001 50 42 34
7.103071e-001 1.636587e+000 -8.677461e+000 105 93 73
-2.003630e+000 5.265138e-001 -8.955694e+000 88 64 42
4.438081e-001 1.107515e+000 -9.611670e+000 40 36 37
8.309699e-001 1.698390e+000 -8.423352e+000 76 55 36
3.695217e+000 1.852851e+000 -1.023200e+001 25 15 16
4.141236e+000 2.117645e+000 -1.018260e+001 30 19 14
-2.493783e+000 2.826695e-001 -8.688437e+000 120 90 54
-1.536545e+000 4.839658e-001 -9.083010e+000 105 83 60
7.873577e-001 1.468767e+000 -8.624289e+000 51 44 33
3.749763e+000 1.617775e+000 -1.021550e+001 74 65 49
-1.824256e+000 3.519427e-001 -8.653787e+000 35 16 12
-2.464548e+000 6.759823e-002 -8.404018e+000 141 106 68
-2.256590e+000 1.056838e-001 -8.440316e+000 77 43 15
-1.850431e+000 2.022932e-001 -8.572205e+000 39 19 15
-1.825554e+000 2.173004e-001 -8.597070e+000 34 17 10
-1.072951e+000 2.304467e-001 -8.949746e+000 66 50 35
1.036852e+000 8.579635e-001 -8.947439e+000 47 40 32
4.090955e+000 1.466413e+000 -9.696463e+000 45 35 31
-1.824837e+000 4.976495e-002 -8.277073e+000 79 54 33
3.459755e-001 3.650482e-001 -8.957958e+000 45 37 26
-2.407837e+000 -2.399492e-001 -8.137115e+000 142 110 72
4.036471e+000 1.020661e+000 -9.676601e+000 80 64 48
-2.010644e+000 -3.561264e-001 -8.051769e+000 100 71 39
-1.545224e+000 -2.797111e-001 -8.124557e+000 74 50 21
-1.495466e+000 -4.550617e-001 -8.095385e+000 84 59 37
-1.515400e+000 -6.268315e-001 -8.043216e+000 67 36 8
-1.366104e+000 -5.428567e-001 -8.167363e+000 77 47 22
4.742068e-001 -4.705163e-001 -8.597689e+000 17 13 17
5.621114e-001 -4.402420e-001 -8.647067e+000 85 78 60
5.842165e-001 -5.056325e-001 -8.656000e+000 18 11 13
5.988089e-001 -5.742677e-001 -8.666189e+000 68 62 47
1.270084e+000 5.986191e-001 -7.458554e+000 151 112 71
6.810346e-001 -6.538979e-001 -8.697553e+000 63 60 51
-1.937424e+000 -1.387954e+000 -8.041671e+000 92 76 60
-1.572836e+000 -1.171218e+000 -7.933768e+000 32 18 14
-6.796406e-001 -1.116949e+000 -8.466294e+000 45 45 49
1.268804e+000 4.538775e-001 -7.305983e+000 159 121 76
1.399279e+000 3.897298e-001 -7.143195e+000 169 131 84
4.409553e+000 3.542136e-001 -8.740384e+000 64 53 39
4.501956e-002 -1.256797e+000 -8.216425e+000 28 17 12
4.578118e-001 -9.389868e-001 -8.163508e+000 42 22 12
3.113200e-001 -1.021157e+000 -8.026015e+000 48 25 11
6.521219e-001 -7.937094e-001 -7.785787e+000 86 59 41
-6.919360e-002 -1.625682e+000 -8.117324e+000 34 26 23
1.541096e-001 -1.285988e+000 -7.868898e+000 49 27 21
2.712658e-001 -1.261415e+000 -7.895495e+000 50 26 15
4.960310e-001 -9.644352e-001 -7.790322e+000 72 36 18
5.432658e-001 -9.867123e-001 -7.670725e+000 110 76 51
1.361505e-001 -1.593712e+000 -7.944163e+000 128 98 70
2.806933e+000 4.379306e-002 -7.272836e+000 50 42 39
6.001546e-001 -1.501571e+000 -7.697714e+000 180 149 105
1.057155e+000 -1.287839e+000 -7.579759e+000 124 91 50
-1.207988e-001 1.960326e+000 -1.028879e+001 43 27 19
3.033876e+000 2.752783e+000 -1.114915e+001 59 47 43
1.060466e+000 2.559752e+000 -9.317370e+000 42 33 28
-7.784891e-001 1.262956e+000 -1.027868e+001 70 41 25
-6.444195e-001 1.264823e+000 -1.004657e+001 121 90 59
-2.673008e+000 3.659936e-001 -9.592657e+000 25 18 18
3.634286e+000 2.166719e+000 -1.024743e+001 45 35 31
3.830213e+000 2.076962e+000 -1.027535e+001 51 40 36
-1.634756e+000 5.332368e-001 -9.120110e+000 101 78 48
8.894404e-001 1.817324e+000 -8.292630e+000 45 32 24
-2.847900e+000 4.846785e-002 -8.791978e+000 118 84 46
-2.367288e+000 3.423019e-001 -8.823335e+000 85 53 26
-1.140741e+000 4.334854e-001 -9.495082e+000 26 20 20
-1.110438e+000 3.832980e-001 -9.439072e+000 94 87 68
-8.292993e-001 4.765130e-001 -9.349041e+000 22 19 13
-6.186948e-001 5.512291e-001 -9.465784e+000 20 18 12
-3.338231e-001 6.278623e-001 -9.595120e+000 96 89 71
-3.338231e-001 6.278623e-001 -9.595120e+000 96 89 71
-2.446843e+000 2.319444e-001 -8.554834e+000 131 99 58
-2.446843e+000 2.319444e-001 -8.554834e+000 131 99 58
-1.429763e+000 3.936635e-001 -9.016295e+000 49 30 15
-1.451915e+000 3.838316e-001 -8.868717e+000 33 17 7
-1.028907e+000 3.667761e-001 -9.373426e+000 109 101 83
-9.681878e-001 4.116648e-001 -9.354953e+000 21 21 13
-5.085809e-001 5.108851e-001 -9.334019e+000 92 85 69
-4.891386e-001 4.725591e-001 -9.272351e+000 17 12 16
-1.929436e-001 5.298937e-001 -9.326249e+000 15 13 15
-1.361097e-001 5.485642e-001 -9.418059e+000 14 10 11
-2.358051e-002 5.756380e-001 -9.610444e+000 16 16 16
4.024187e+000 1.737893e+000 -9.961892e+000 26 16 14
-1.785663e+000 3.222452e-001 -8.611017e+000 63 41 28
-1.526878e+000 2.314643e-001 -8.799069e+000 38 21 14
-1.033818e+000 2.457488e-001 -8.959546e+000 14 10 13
-3.945282e-001 4.567246e-001 -9.215219e+000 16 15 11
-1.537068e-001 4.682835e-001 -9.183308e+000 11 11 9
-1.149139e-001 5.183939e-001 -9.348955e+000 68 58 48
-3.906443e-002 5.051021e-001 -9.378072e+000 17 12 7
-7.508946e-002 4.645513e-001 -9.208427e+000 68 62 46
-1.721172e-002 4.802180e-001 -9.309987e+000 77 70 60
-1.721172e-002 4.802180e-001 -9.309987e+000 77 70 60
1.185194e-003 4.587789e-001 -9.238204e+000 18 13 10
5.466867e-002 4.873737e-001 -9.327866e+000 20 15 14
1.484932e-001 4.700597e-001 -9.273628e+000 15 13 12
-2.371317e+000 3.425247e-002 -8.241914e+000 136 102 68
-1.097060e+000 1.571333e-001 -8.835604e+000 39 25 16
-6.915876e-001 1.852155e-001 -9.026192e+000 25 21 13
-1.727699e-002 3.670469e-001 -9.007034e+000 17 16 14
4.062858e+000 1.490096e+000 -9.727596e+000 24 15 14
-3.878058e-001 -3.299251e-001 -8.592038e+000 25 23 19
-4.283085e-001 -4.330832e-001 -8.563946e+000 31 27 24
1.676778e-001 -2.757342e-001 -8.627366e+000 118 103 79
1.676778e-001 -2.757342e-001 -8.627366e+000 118 103 79
2.380156e-001 -2.469967e-001 -8.642729e+000 26 21 16
2.328090e-001 -2.313853e-001 -8.619295e+000 26 21 16
2.099364e+000 9.577147e-001 -8.046994e+000 14 6 7
-2.271733e+000 -6.583510e-001 -7.875873e+000 151 122 90
-2.261435e+000 -8.128174e-001 -7.946653e+000 112 79 44
-5.154360e-001 -6.228215e-001 -8.509588e+000 26 22 15
2.652215e-001 -3.036678e-001 -8.614394e+000 127 119 82
2.207466e-001 -4.017928e-001 -8.588836e+000 114 100 68
2.207466e-001 -4.017928e-001 -8.588836e+000 114 100 68
2.892786e-001 -3.800913e-001 -8.608031e+000 33 26 21
-5.614103e-001 -7.169588e-001 -8.486719e+000 31 27 17
1.746940e-001 -4.955946e-001 -8.548654e+000 104 92 68
6.078260e-002 -6.180304e-001 -8.500555e+000 23 26 13
1.336102e-001 -5.926995e-001 -8.514418e+000 119 103 71
1.336102e-001 -5.926995e-001 -8.514418e+000 119 103 71
2.026376e-001 -5.630261e-001 -8.534152e+000 20 16 16
3.432041e-001 -5.156031e-001 -8.578161e+000 27 24 14
1.393694e+000 7.580707e-001 -7.506454e+000 75 47 26
-6.632131e-001 -1.021646e+000 -8.476650e+000 36 31 28
-6.632173e-001 -1.044792e+000 -8.504320e+000 36 31 28
-6.066501e-001 -9.810260e-001 -8.443939e+000 137 132 109
-5.466522e-001 -9.434025e-001 -8.419726e+000 33 29 30
-5.466522e-001 -9.434025e-001 -8.419726e+000 33 29 30
-4.829791e-001 -8.917650e-001 -8.385594e+000 128 121 95
-5.173790e-002 -7.374168e-001 -8.457060e+000 102 91 64
-2.613968e-002 -7.939630e-001 -8.428352e+000 22 16 16
4.473570e-002 -7.771049e-001 -8.466017e+000 97 85 59
4.473570e-002 -7.771049e-001 -8.466017e+000 97 85 59
8.839429e-002 -6.931782e-001 -8.501036e+000 118 102 77
2.302815e-001 -6.343708e-001 -8.524189e+000 95 85 58
1.712639e+000 7.952171e-001 -7.316302e+000 144 126 83
1.729062e+000 8.299897e-001 -7.353068e+000 49 30 13
1.729062e+000 8.299897e-001 -7.353068e+000 49 30 13
-5.173024e-001 -1.030804e+000 -8.418370e+000 134 127 104
-4.516627e-001 -9.965411e-001 -8.402469e+000 24 23 19
-4.258041e-001 -1.057941e+000 -8.375420e+000 137 127 99
7.214814e-002 -8.519321e-001 -8.463093e+000 18 14 12
1.692663e+000 7.131555e-001 -7.236616e+000 44 27 17
-1.168924e+000 -1.310460e+000 -8.187897e+000 39 24 19
-4.965616e-001 -1.258314e+000 -8.392394e+000 122 115 97
1.038789e-001 -1.358199e+000 -7.885337e+000 92 72 61
2.520884e-001 -1.369305e+000 -7.801111e+000 142 109 78
3.522094e+000 3.224529e+000 -1.156412e+001 65 51 50
2.958518e+000 1.966498e+000 -1.111955e+001 25 16 11
8.961992e-002 7.090791e-001 -9.937864e+000 55 52 40
3.929826e+000 1.998553e+000 -1.012292e+001 22 16 19
-1.186242e+000 2.432939e-001 -9.632338e+000 14 11 13
-8.779629e-001 3.972765e-001 -9.291632e+000 27 21 21
-8.060590e-001 4.324372e-001 -9.285397e+000 116 107 74
-6.385512e-001 4.304423e-001 -9.249978e+000 20 21 14
-2.586752e+000 6.405676e-002 -8.523561e+000 135 101 56
-6.676458e-001 3.025888e-001 -9.134438e+000 120 107 83
-6.676458e-001 3.025888e-001 -9.134438e+000 120 107 83
-6.171311e-001 3.788893e-001 -9.195039e+000 109 100 69
-3.757236e-001 4.117017e-001 -9.155296e+000 108 103 73
-3.757236e-001 4.117017e-001 -9.155296e+000 108 103 73
-3.018179e-001 4.374760e-001 -9.159792e+000 21 19 15
-4.994006e-001 3.098036e-001 -9.084826e+000 20 19 15
-4.275396e-001 3.416559e-001 -9.084964e+000 119 104 78
-3.341703e-001 3.202157e-001 -9.037827e+000 118 113 84
-2.815214e-001 3.934757e-001 -9.100816e+000 108 103 72
-1.685056e+000 3.993463e-002 -8.532505e+000 17 11 6
-3.857697e-001 2.474656e-001 -8.975465e+000 120 109 87
1.191424e-001 2.274330e-001 -8.845327e+000 68 61 43
-1.341203e-001 -1.423552e-001 -8.633971e+000 135 120 86
1.166965e-002 -8.530096e-002 -8.644804e+000 126 117 76
5.988571e-001 6.872614e-002 -8.705592e+000 65 58 42
1.347550e+000 5.368618e-001 -8.452266e+000 52 47 43
-2.526534e-001 -2.619236e-001 -8.590434e+000 27 22 20
-2.526534e-001 -2.619236e-001 -8.590434e+000 27 22 20
-2.967882e-001 -3.612912e-001 -8.563501e+000 27 22 18
-2.967882e-001 -3.612912e-001 -8.563501e+000 27 22 18
-2.246794e-001 -3.324192e-001 -8.569662e+000 131 118 77
-2.246794e-001 -3.324192e-001 -8.569662e+000 131 118 77
-1.786740e-001 -2.384813e-001 -8.604615e+000 127 116 79
-1.071641e-001 -2.089323e-001 -8.607406e+000 32 24 21
3.856663e-002 -1.557366e-001 -8.628084e+000 26 16 13
6.548955e-002 -2.229778e-001 -8.608412e+000 125 113 78
2.157744e-002 -3.151517e-001 -8.574803e+000 130 117 70
3.833952e-001 -1.886092e-001 -8.640206e+000 25 17 13
3.833952e-001 -1.886092e-001 -8.640206e+000 25 17 13
4.295347e-001 -9.158183e-002 -8.657813e+000 31 22 21
-2.687536e-001 -4.232774e-001 -8.534821e+000 134 122 82
-1.958596e-001 -3.975144e-001 -8.543547e+000 27 21 11
-1.958596e-001 -3.975144e-001 -8.543547e+000 27 21 11
-5.125140e-002 -3.404238e-001 -8.558341e+000 28 24 15
-9.529128e-002 -4.356742e-001 -8.527800e+000 35 28 20
3.356360e-001 -2.820431e-001 -8.619634e+000 27 26 17
4.081065e-001 -2.567586e-001 -8.615466e+000 144 130 96
3.651546e-001 -3.627488e-001 -8.619020e+000 143 132 104
3.651546e-001 -3.627488e-001 -8.619020e+000 143 132 104
4.765302e-001 -2.249279e-001 -8.607072e+000 33 29 24
2.295898e+000 8.751621e-001 -7.989787e+000 17 11 15
-4.252644e-001 -6.512321e-001 -8.485029e+000 29 22 19
-3.973118e-001 -7.116267e-001 -8.454244e+000 123 113 84
-1.389574e-001 -5.310610e-001 -8.498548e+000 31 23 14
-1.830104e-001 -6.224853e-001 -8.461813e+000 26 24 15
-1.830104e-001 -6.224853e-001 -8.461813e+000 26 24 15
1.890733e+000 8.987892e-001 -7.540252e+000 127 107 67
-4.389536e-001 -8.109789e-001 -8.429081e+000 119 114 83
-4.114256e-001 -8.722475e-001 -8.394490e+000 27 23 20
-3.677841e-001 -7.790960e-001 -8.425881e+000 28 25 22
-2.682330e-001 -8.114049e-001 -8.398746e+000 26 26 20
-2.682330e-001 -8.114049e-001 -8.398746e+000 26 26 20
-2.253834e-001 -7.169853e-001 -8.429267e+000 29 24 19
-3.828421e-001 -9.587011e-001 -8.393416e+000 132 118 93
-3.106481e-001 -9.077792e-001 -8.372722e+000 27 27 19
-3.106481e-001 -9.077792e-001 -8.372722e+000 27 27 19
-2.383407e-001 -8.816568e-001 -8.384880e+000 126 114 85
-1.243723e+000 -1.451050e+000 -8.180695e+000 101 83 69
-3.666162e-001 -1.466100e+000 -8.438016e+000 68 64 63
1.456069e+000 3.033510e-001 -7.138582e+000 172 131 85
2.598207e-001 -1.107620e+000 -7.974106e+000 89 61 37
8.167853e-001 -1.172870e+000 -7.592110e+000 153 114 73
-6.829835e-001 1.703025e+000 -1.049359e+001 141 111 73
3.890843e+000 2.958314e+000 -1.112323e+001 67 52 47
-6.748436e-001 1.324669e+000 -1.010386e+001 103 69 41
6.844306e-001 2.376508e+000 -8.418143e+000 92 55 29
7.428659e-001 2.130847e+000 -8.619636e+000 61 28 20
-3.115344e+000 2.238107e-001 -9.553859e+000 57 52 48
1.726613e-001 6.193514e-001 -9.536585e+000 103 96 73
9.237364e-001 9.242304e-001 -8.943024e+000 52 47 41
-1.983234e+000 -4.011542e-001 -8.006992e+000 127 101 67
1.205032e+000 -6.522820e-003 -8.009818e+000 71 62 47
1.527892e+000 6.528261e-001 -7.390298e+000 57 30 13
-9.900661e-002 -1.024139e+000 -8.394491e+000 40 34 36
-9.900661e-002 -1.024139e+000 -8.394491e+000 40 34 36
1.615038e+000 2.887870e-001 -7.063342e+000 78 42 18
-2.813271e-001 1.997509e+000 -1.066695e+001 44 39 31
-6.481702e-001 1.589016e+000 -9.911167e+000 120 85 47
-2.617822e+000 7.334113e-002 -8.559721e+000 135 102 59
1.474078e+000 1.241358e+000 -8.453200e+000 12 10 15
4.244809e+000 1.160914e+000 -9.588210e+000 23 14 16
1.199023e+000 3.464429e-001 -8.785151e+000 14 12 15
1.618461e+000 8.778756e-001 -7.554587e+000 37 26 20
1.430847e+000 3.144574e-001 -7.179478e+000 152 110 64
3.406489e+000 2.807995e+000 -1.086347e+001 89 75 48
3.406489e+000 2.807995e+000 -1.086347e+001 89 75 48
8.414383e-001 1.547043e+000 -8.536053e+000 109 81 51
1.124956e+000 1.509275e+000 -8.356684e+000 47 29 20
6.782887e-001 7.382232e-001 -9.083779e+000 28 25 26
2.140495e+000 8.255123e-001 -7.946555e+000 37 19 8
1.327141e+000 5.180757e-001 -7.394094e+000 83 42 14
4.166820e-001 1.058781e+000 -9.937145e+000 18 14 15
1.297311e+000 1.796043e+000 -8.281605e+000 134 112 73
1.085361e+000 -1.092658e+000 -7.837482e+000 71 44 24
1.644598e+000 1.076164e+000 -8.155773e+000 13 11 16
2.968772e-001 -1.059498e+000 -8.194980e+000 77 59 45
2.818599e+000 2.973139e+000 -1.159001e+001 45 35 33
-2.799475e+000 -1.155392e+000 -8.379974e+000 251 253 249
1.219163e+000 1.212258e-001 -8.213953e+000 75 71 62
-3.167293e-001 1.449661e+000 -9.981996e+000 115 94 58
3.759157e+000 1.297064e+000 -9.919064e+000 63 51 37
1.221946e+000 3.432695e-001 -8.416393e+000 44 39 33
-9.814886e+000 -1.909772e+001 -2.766354e+001 203 189 167
1.017574e+000 2.128675e+000 -8.344926e+000 65 41 29
3.771239e+000 2.004467e+000 -1.021716e+001 50 40 38
3.866665e+000 1.247449e+000 -9.798406e+000 74 64 51
1.099574e+000 3.707564e-002 -8.481084e+000 25 20 14
-8.302860e+000 -1.395782e+001 -2.289122e+001 185 168 141
1.651048e+000 5.835843e-001 -7.161128e+000 137 113 77
4.157059e+000 1.188291e+000 -9.469002e+000 25 16 19
3.675471e+000 1.613631e+000 -1.007535e+001 58 45 38
2.887338e+000 2.944959e+000 -1.151358e+001 28 17 13
3.480412e+000 2.806006e+000 -1.090758e+001 58 39 32
3.804649e+000 2.454356e+000 -1.053650e+001 102 89 74
3.291927e+000 1.724405e+000 -1.063152e+001 70 58 44
3.649896e+000 1.755121e+000 -1.020129e+001 32 18 14
-1.377652e+000 2.484694e-001 -8.844475e+000 34 15 9
-7.639626e-001 1.939285e-001 -9.057610e+000 27 20 10
-7.161618e-002 2.979969e-001 -8.904791e+000 18 17 13
1.904417e-001 3.312075e-001 -8.937840e+000 17 8 1
2.929056e-001 2.496557e-001 -8.890493e+000 64 56 45
-4.480296e-001 -1.271125e-001 -8.678621e+000 17 10 10
-4.787982e-001 -1.885443e-001 -8.645868e+000 125 103 76
1.377096e+000 8.374354e-001 -7.625771e+000 93 59 31
2.973345e+000 2.898271e+000 -1.138719e+001 29 19 18
3.807580e+000 3.070167e+000 -1.125839e+001 65 52 44
3.318096e+000 1.695669e+000 -1.056950e+001 76 64 48
3.516123e+000 1.572715e+000 -1.033438e+001 50 41 24
4.114353e+000 1.825847e+000 -9.838573e+000 31 19 18
3.882360e+000 1.237031e+000 -9.814859e+000 73 62 44
2.317099e-001 1.322400e-001 -8.735827e+000 79 70 53
1.270390e+000 4.064470e-001 -8.404607e+000 65 62 57
-1.751707e+000 1.244496e-001 -8.489343e+000 19 15 14
1.085474e+000 -5.309525e-001 -8.405950e+000 19 15 14
1.037535e+000 2.162567e+000 -8.352973e+000 154 130 87
-9.943252e-001 4.689104e-001 -9.396525e+000 131 117 91
1.693316e+000 7.117053e-001 -7.237286e+000 44 27 17
-7.201853e+000 -1.755030e+001 -2.086002e+001 97 93 92
-2.512197e-001 1.689825e+000 -1.004398e+001 117 92 61
1.840936e+000 3.977040e-001 -7.048050e+000 149 120 76
3.737214e+000 3.189649e+000 -1.124699e+001 83 65 55
2.736354e+000 2.682055e+000 -1.131527e+001 48 35 26
-7.050633e-001 1.574956e+000 -1.015010e+001 113 70 28
-1.782472e-001 1.682016e+000 -1.005013e+001 48 27 1
-1.785529e-001 1.689779e+000 -1.003385e+001 48 27 1
-8.100791e-001 1.166067e+000 -1.024188e+001 115 86 62
-8.095472e-001 1.182960e+000 -1.020879e+001 115 86 62
-2.913479e-001 1.519870e+000 -9.975810e+000 122 94 55
3.541064e+000 2.706577e+000 -1.079133e+001 105 87 67
1.104932e+000 2.519285e+000 -8.689724e+000 157 130 87
3.889825e+000 2.755089e+000 -1.082497e+001 34 22 22
8.488304e-001 2.400897e+000 -8.580011e+000 58 25 9
-6.653733e-001 9.564236e-001 -9.942650e+000 104 89 60
-6.195213e-002 1.062962e+000 -1.001668e+001 75 57 35
8.047028e-001 2.243576e+000 -8.457204e+000 74 48 31
2.953942e+000 1.892716e+000 -1.104494e+001 64 51 42
3.159508e+000 2.198166e+000 -1.059086e+001 84 70 60
4.032704e+000 2.527993e+000 -1.056558e+001 68 53 48
-3.834247e-001 8.441792e-001 -9.915543e+000 53 36 15
4.060287e+000 2.483694e+000 -1.049977e+001 28 13 10
4.060287e+000 2.483694e+000 -1.049977e+001 28 13 10
-2.032321e+000 4.748329e-001 -8.793633e+000 97 67 37
-1.929918e+000 5.432338e-001 -8.993438e+000 41 19 8
-1.801879e+000 5.181229e-001 -8.884033e+000 75 47 35
3.494720e+000 2.014416e+000 -1.045125e+001 56 45 41
-1.491005e+000 4.576278e-001 -9.044676e+000 54 32 15
-1.460620e+000 4.351864e-001 -8.958307e+000 56 35 20
3.227752e+000 1.652121e+000 -1.063624e+001 79 69 49
-2.096274e+000 3.178978e-001 -8.583229e+000 91 63 44
-1.593636e+000 3.640359e-001 -8.817472e+000 39 18 7
-1.562623e+000 4.379008e-001 -8.864843e+000 90 70 48
-1.357441e+000 3.989622e-001 -8.947557e+000 87 64 48
9.095201e-001 1.853639e+000 -8.197035e+000 118 104 83
3.635721e+000 1.724837e+000 -1.013358e+001 80 66 57
1.412771e+000 1.821393e+000 -8.282653e+000 143 115 70
3.902225e+000 1.805578e+000 -1.001433e+001 23 12 10
4.248864e+000 1.870081e+000 -9.745896e+000 116 98 80
-1.825318e+000 1.324638e-002 -8.249176e+000 65 34 15
-9.062803e-001 -6.058958e-002 -8.963183e+000 58 48 38
-1.141275e-001 3.454757e-001 -8.969029e+000 115 106 73
-9.432349e-001 -9.612000e-002 -8.874637e+000 57 48 41
3.335910e-001 3.105229e-001 -8.942826e+000 60 53 35
4.187532e+000 1.561426e+000 -9.645240e+000 60 49 42
-1.640022e+000 -1.107743e-001 -8.231126e+000 112 87 46
-4.042843e-001 -8.093958e-002 -8.680710e+000 96 36 40
-4.042843e-001 -8.093958e-002 -8.680710e+000 96 36 40
4.118747e+000 1.320168e+000 -9.519008e+000 46 34 32
4.138375e+000 1.349949e+000 -9.548604e+000 23 15 12
2.691729e-002 -6.401064e-002 -8.663423e+000 135 123 81
2.691729e-002 -6.401064e-002 -8.663423e+000 135 123 81
-2.550668e+000 -8.225547e-001 -8.105043e+000 140 101 58
9.283061e-001 -4.525119e-001 -8.553648e+000 47 42 37
4.508784e+000 9.577593e-001 -8.875634e+000 29 15 12
-2.265936e+000 -1.867927e+000 -8.195686e+000 254 253 249
1.057144e+000 -3.525303e-001 -8.382858e+000 51 44 37
4.536263e+000 8.792266e-001 -8.855248e+000 61 47 41
1.251408e+000 2.604010e-001 -7.732392e+000 121 93 62
1.565301e+000 7.305391e-001 -7.428494e+000 116 84 46
-6.975072e+000 -1.898683e+001 -2.139842e+001 143 129 116
6.891787e-001 -8.676539e-001 -7.761243e+000 94 62 38
-8.613173e+000 -2.038337e+001 -1.948474e+001 102 100 102
-8.014829e+000 -1.928898e+001 -1.911991e+001 139 144 166
-5.566216e+000 -1.850101e+001 -1.821332e+001 131 134 146
8.514302e-001 -1.165273e+000 -7.621626e+000 108 63 22
4.768708e+000 1.509210e-001 -8.075130e+000 80 66 54
-5.283639e+000 -1.880021e+001 -1.765846e+001 131 126 119
-5.056518e+000 -1.869978e+001 -1.777846e+001 193 188 184
-1.578881e+000 -1.154682e+001 -1.414275e+001 43 41 47
-1.368149e+000 -1.141451e+001 -1.382185e+001 60 58 61
-9.116239e+000 -2.090441e+001 -1.752027e+001 170 188 224
-6.307167e+000 -1.943283e+001 -1.723403e+001 136 115 96
-4.402326e+000 -1.809501e+001 -1.686983e+001 225 219 219
-8.789571e+000 -2.116206e+001 -1.688339e+001 178 195 222
-8.789571e+000 -2.116206e+001 -1.688339e+001 178 195 222
-6.022680e+000 -1.980657e+001 -1.685418e+001 215 190 152
-5.870920e+000 -1.918371e+001 -1.663301e+001 195 171 142
-5.334413e+000 -1.923410e+001 -1.672632e+001 189 176 171
2.946950e+000 2.918474e+000 -1.134171e+001 28 14 11
3.712191e+000 3.151422e+000 -1.124708e+001 80 64 53
-4.447188e-001 1.746634e+000 -1.016135e+001 122 88 51
-6.086851e-002 1.757965e+000 -1.016514e+001 45 25 4
2.909293e+000 2.565615e+000 -1.116078e+001 40 26 23
3.202669e+000 2.779220e+000 -1.106580e+001 32 21 17
3.561601e+000 2.925156e+000 -1.113434e+001 47 33 30
2.692908e+000 2.186906e+000 -1.149077e+001 61 48 39
3.249911e+000 2.652589e+000 -1.100942e+001 30 20 15
3.717373e+000 2.736496e+000 -1.088182e+001 62 49 43
3.734847e+000 2.791548e+000 -1.093468e+001 58 45 39
3.734847e+000 2.791548e+000 -1.093468e+001 58 45 39
-5.097372e-001 1.370318e+000 -9.964723e+000 96 66 42
1.084824e+000 2.529112e+000 -8.700828e+000 93 68 27
2.897549e+000 2.214699e+000 -1.107827e+001 63 51 37
3.887296e+000 2.695078e+000 -1.081514e+001 32 18 17
-8.187733e+000 -8.483918e+000 -2.291067e+001 134 118 98
-7.375755e-001 1.000247e+000 -1.002743e+001 66 38 13
-7.375755e-001 1.000247e+000 -1.002743e+001 66 38 13
6.559896e-001 2.391702e+000 -8.397020e+000 82 42 17
2.900340e+000 2.020478e+000 -1.112504e+001 54 45 34
3.677529e+000 2.614303e+000 -1.063025e+001 48 34 25
-3.024554e+000 2.365836e-001 -9.299033e+000 196 178 140
-2.838441e+000 3.090985e-001 -9.334145e+000 139 117 80
7.860974e-001 2.237834e+000 -8.423610e+000 60 33 21
-1.968632e+000 5.720931e-001 -9.170819e+000 79 59 46
-3.218098e-001 8.331613e-001 -9.927840e+000 118 94 59
3.108677e+000 1.765428e+000 -1.082123e+001 77 65 49
3.233833e+000 2.024522e+000 -1.059320e+001 72 59 43
4.067376e+000 2.475198e+000 -1.045176e+001 61 48 39
-2.063057e+000 4.563993e-001 -8.786869e+000 62 32 13
1.018802e+000 2.187557e+000 -8.322150e+000 163 135 88
-2.305170e+000 3.684543e-001 -8.724886e+000 123 88 58
-1.624783e+000 4.667396e-001 -8.905985e+000 81 57 32
3.872151e+000 2.110678e+000 -1.006802e+001 35 24 17
-2.126623e+000 3.177971e-001 -8.610149e+000 57 28 12
-1.989804e+000 3.830304e-001 -8.616483e+000 98 68 50
-1.562229e+000 4.002001e-001 -8.777770e+000 80 58 43
-1.526597e+000 3.029552e-001 -8.836172e+000 29 10 3
3.475075e+000 1.731249e+000 -1.031999e+001 77 62 45
3.573070e+000 1.685812e+000 -1.021440e+001 81 66 47
3.591777e+000 1.507735e+000 -1.015558e+001 82 65 49
3.970084e+000 1.884854e+000 -9.932715e+000 34 19 16
6.537764e-001 7.784487e-001 -9.171259e+000 20 14 16
3.562147e+000 1.415070e+000 -1.022425e+001 73 60 42
3.562147e+000 1.415070e+000 -1.022425e+001 73 60 42
-2.391680e+000 -1.842996e-001 -8.292663e+000 107 65 25
-3.405242e-001 1.947109e-001 -8.903352e+000 26 17 15
-3.405242e-001 1.947109e-001 -8.903352e+000 26 17 15
7.604046e-001 7.491691e-001 -9.060335e+000 12 10 7
3.607173e+000 1.284576e+000 -1.013060e+001 78 61 47
3.890738e+000 1.576733e+000 -9.836843e+000 51 40 36
-1.826865e+000 -2.677844e-002 -8.219991e+000 62 31 10
-2.855926e-003 2.938503e-001 -8.891486e+000 20 17 8
1.295375e+000 1.345875e+000 -8.252609e+000 29 17 14
4.291913e+000 1.672658e+000 -9.486788e+000 72 53 46
-8.951122e+000 -1.682209e+001 -2.490744e+001 189 166 125
-1.044147e+000 6.112701e-002 -8.356830e+000 103 86 58
-2.002119e-001 9.257909e-002 -8.793729e+000 136 123 80
8.512897e-001 4.019977e-001 -8.843578e+000 45 40 38
-1.594241e+000 -2.837845e-001 -8.243266e+000 132 102 61
6.683954e-002 7.404638e-002 -8.725428e+000 80 69 51
3.997766e+000 9.449335e-001 -9.649191e+000 42 28 11
6.574600e-001 8.073626e-002 -8.696057e+000 108 100 79
4.314847e+000 1.251282e+000 -9.261346e+000 66 53 44
4.359648e+000 1.280088e+000 -9.244920e+000 30 20 17
1.185382e+000 3.500441e-001 -8.430435e+000 66 59 49
4.416098e+000 1.146723e+000 -9.171050e+000 29 20 15
4.241273e-001 -7.398127e-001 -8.604441e+000 51 40 36
7.437194e-001 -3.761686e-001 -8.607990e+000 21 14 4
9.105514e-001 -3.336345e-001 -8.582062e+000 40 35 33
1.393887e+000 8.659576e-001 -7.602304e+000 133 99 63
4.235700e+000 6.701890e-001 -9.105202e+000 75 60 43
8.930294e-002 -9.638393e-001 -8.498929e+000 86 76 55
1.613019e+000 8.631308e-001 -7.502664e+000 50 29 20
4.623280e+000 8.533861e-001 -8.792274e+000 29 15 15
1.288598e+000 4.435258e-001 -7.306821e+000 158 114 65
5.921230e-002 -1.268757e+000 -8.127910e+000 103 81 60
5.797880e-002 -1.257394e+000 -8.117278e+000 103 81 60
5.906818e-001 -8.623655e-001 -7.945905e+000 44 21 13
6.016038e-001 -8.640648e-001 -7.904434e+000 104 77 56
1.587033e+000 4.866695e-001 -7.177833e+000 159 122 77
4.719074e+000 6.783496e-001 -8.458268e+000 33 18 18
1.278335e-001 -1.294763e+000 -8.018278e+000 49 27 14
1.528569e+000 2.854367e-001 -7.141498e+000 121 76 34
-8.661000e+000 -2.020720e+001 -1.903428e+001 128 126 131
1.670974e+000 1.294061e-001 -7.000710e+000 146 102 57
1.890418e+000 3.461288e-001 -6.985030e+000 160 132 81
-1.955624e+000 -1.147417e+001 -1.390717e+001 90 89 98
-9.208238e+000 -2.128166e+001 -1.751618e+001 166 180 215
-8.935167e+000 -2.078630e+001 -1.727108e+001 199 215 248
-9.036215e+000 -2.111305e+001 -1.745842e+001 199 215 248
-8.843013e+000 -2.090751e+001 -1.729837e+001 168 182 217
-6.278469e+000 -1.957116e+001 -1.718126e+001 190 165 134
-5.257430e+000 -1.889278e+001 -1.759772e+001 116 105 102
-5.387048e+000 -1.961339e+001 -1.752895e+001 106 92 84
-5.639409e+000 -1.948189e+001 -1.653597e+001 222 214 225
-5.242600e+000 -1.936391e+001 -1.658142e+001 214 200 186
3.360296e+000 3.197272e+000 -1.142571e+001 67 51 47
2.899557e+000 2.838100e+000 -1.141415e+001 32 22 20
-5.250147e-001 1.448625e+000 -1.003409e+001 100 65 37
-5.250147e-001 1.448625e+000 -1.003409e+001 100 65 37
-2.607650e-001 1.514467e+000 -9.979995e+000 57 35 12
-6.923373e-001 1.192370e+000 -1.001796e+001 137 107 73
2.942098e+000 1.998189e+000 -1.100568e+001 34 25 15
3.211522e+000 2.262126e+000 -1.071854e+001 47 36 34
-2.705914e+000 2.929140e-001 -9.256870e+000 107 86 57
-8.446460e-002 1.086853e+000 -1.002399e+001 58 39 17
9.857753e-001 2.342188e+000 -8.398929e+000 153 125 76
3.452095e+000 2.283543e+000 -1.060950e+001 30 19 18
-1.888244e+000 5.455724e-001 -9.165106e+000 66 44 31
-1.679977e+000 4.401952e-001 -9.731401e+000 101 78 47
-1.675264e+000 5.540810e-001 -9.146104e+000 50 24 7
3.916487e+000 2.293723e+000 -1.027578e+001 99 79 68
3.931624e+000 2.149188e+000 -1.012252e+001 28 17 13
-2.098811e+000 3.106486e-001 -8.508752e+000 115 86 56
4.125523e-002 5.833750e-001 -9.622229e+000 81 74 46
3.417964e+000 1.529574e+000 -1.045820e+001 74 61 42
3.826576e+000 1.953866e+000 -1.009562e+001 57 42 39
3.896250e+000 2.065726e+000 -9.994150e+000 57 43 37
4.138839e+000 2.080314e+000 -9.934580e+000 36 19 12
5.133216e-001 7.408114e-001 -9.367849e+000 15 9 9
4.099922e+000 2.053535e+000 -9.922010e+000 83 64 52
1.927815e-001 4.951059e-001 -9.367468e+000 13 9 9
3.814764e+000 1.629232e+000 -9.863561e+000 47 36 30
3.800152e+000 1.639389e+000 -9.841140e+000 47 36 30
3.955534e+000 1.710284e+000 -9.891956e+000 56 46 37
-2.279393e+000 -1.257431e-001 -8.269605e+000 106 73 28
-1.721104e+000 7.004969e-002 -8.397477e+000 83 60 41
2.865676e-001 3.597469e-001 -9.028877e+000 69 62 45
3.677687e+000 1.113818e+000 -9.996345e+000 85 73 57
-2.276848e+000 -4.085245e-001 -8.176385e+000 118 81 44
-2.276848e+000 -4.085245e-001 -8.176385e+000 118 81 44
-2.029309e+000 -2.246434e-001 -8.126288e+000 101 66 29
-1.734957e+000 -1.779394e-001 -8.175076e+000 72 42 18
-1.734957e+000 -1.779394e-001 -8.175076e+000 72 42 18
-1.044449e+000 -5.762322e-003 -8.326436e+000 108 88 55
3.959056e+000 1.320386e+000 -9.692721e+000 87 69 58
4.143563e+000 1.403016e+000 -9.501792e+000 63 51 42
3.459452e-001 1.713659e-001 -8.750009e+000 81 72 55
6.091054e-001 2.019727e-001 -8.761675e+000 40 31 25
-2.812830e+000 -1.230775e+000 -8.250706e+000 254 255 249
4.286564e+000 1.264478e+000 -9.286292e+000 36 23 17
4.286564e+000 1.264478e+000 -9.286292e+000 36 23 17
-1.742905e+000 -7.924543e-001 -7.921357e+000 96 61 29
4.433130e-001 -4.073578e-001 -8.601036e+000 124 110 75
4.473529e+000 9.545050e-001 -8.955903e+000 31 19 18
4.584825e+000 1.092676e+000 -8.927297e+000 30 19 13
1.227771e+000 2.756850e-001 -7.769958e+000 85 73 54
1.852357e+000 8.763010e-001 -7.503129e+000 139 115 74
1.344898e+000 5.801030e-001 -7.409422e+000 95 51 14
1.322283e+000 5.291624e-001 -7.374092e+000 77 40 12
3.066641e-001 -9.649098e-001 -8.144002e+000 95 69 44
1.660679e+000 7.463409e-001 -7.260783e+000 141 113 72
1.018165e-001 -1.200108e+000 -8.075676e+000 49 27 14
3.502669e-001 -1.041974e+000 -8.022678e+000 72 41 24
7.953955e-001 -9.567941e-001 -7.679523e+000 123 87 55
8.471431e-001 -9.030014e-001 -7.698529e+000 76 42 19
-7.688741e+000 -1.898400e+001 -1.841041e+001 161 166 191
-7.713681e+000 -1.961136e+001 -1.880044e+001 148 153 175
4.696976e+000 1.185600e-001 -8.135440e+000 74 61 45
-6.194699e+000 -1.897925e+001 -1.783512e+001 149 139 130
-5.948006e+000 -1.900488e+001 -1.769883e+001 203 190 177
-5.946653e+000 -1.899816e+001 -1.769400e+001 203 190 177
-1.437095e+000 -1.125368e+001 -1.399192e+001 20 18 21
4.845303e+000 -1.298284e-001 -7.916440e+000 77 61 46
-7.433927e+000 -2.032067e+001 -1.665420e+001 191 169 143
-6.480169e+000 -1.994255e+001 -1.685344e+001 127 116 112
-6.082715e+000 -1.963856e+001 -1.659504e+001 147 127 101
-5.590441e+000 -1.936868e+001 -1.667099e+001 195 194 192
-5.200975e+000 -1.933806e+001 -1.677340e+001 150 131 109
-5.200975e+000 -1.933806e+001 -1.677340e+001 150 131 109
2.915351e+000 2.888756e+000 -1.137562e+001 54 41 34
2.976319e+000 2.728030e+000 -1.117324e+001 29 18 16
3.402366e+000 2.635030e+000 -1.081798e+001 36 24 24
-2.632695e+000 1.915908e-001 -8.673246e+000 160 123 79
-1.012878e+000 4.965271e-001 -9.470109e+000 23 19 12
-9.260002e-001 4.832331e-001 -9.407965e+000 21 19 16
-2.628087e-001 6.417346e-001 -9.611194e+000 18 11 8
-1.147916e-001 6.310504e-001 -9.649329e+000 15 9 9
9.832604e-003 6.362020e-001 -9.756963e+000 52 45 36
5.181717e-001 1.191259e+000 -9.430500e+000 55 48 38
-9.732821e-002 5.866313e-001 -9.591131e+000 63 53 37
-4.460277e-002 6.093321e-001 -9.667405e+000 54 48 34
6.864831e-002 5.578903e-001 -9.561672e+000 17 12 14
8.986695e-001 1.723052e+000 -8.277662e+000 117 99 72
3.826871e+000 1.909402e+000 -1.017326e+001 29 20 15
-2.462219e+000 -3.796204e-003 -8.407028e+000 88 49 16
-2.313621e+000 1.343995e-001 -8.523560e+000 83 47 14
-1.110085e+000 2.329067e-001 -9.032400e+000 66 48 34
1.083818e-001 5.103088e-001 -9.420834e+000 20 11 12
1.408376e+000 1.851343e+000 -8.280214e+000 65 36 19
-1.155585e+000 1.705529e-001 -8.793129e+000 100 82 60
-1.350973e-001 4.396890e-001 -9.110926e+000 92 78 52
1.265972e-001 4.963411e-001 -9.340518e+000 76 69 54
3.883876e-002 4.119562e-001 -9.089823e+000 14 11 4
2.104079e-001 3.958798e-001 -9.065845e+000 78 69 53
2.104079e-001 3.958798e-001 -9.065845e+000 78 69 53
-2.228382e+000 -2.963026e-001 -8.149728e+000 112 74 37
-2.228382e+000 -2.963026e-001 -8.149728e+000 112 74 37
4.243423e+000 1.551535e+000 -9.653770e+000 32 20 20
-1.973784e+000 -3.079477e-001 -8.114883e+000 94 58 24
-1.973784e+000 -3.079477e-001 -8.114883e+000 94 58 24
3.854760e+000 9.624314e-001 -9.628721e+000 34 21 18
4.356504e+000 1.416916e+000 -9.407868e+000 32 21 17
-1.689805e+000 -4.518444e-001 -8.105492e+000 32 24 21
1.437239e+000 9.197106e-001 -8.021436e+000 31 27 24
-1.822794e+000 -6.682292e-001 -7.955271e+000 97 58 25
1.075881e+000 1.236352e-001 -8.650818e+000 50 43 35
-6.018597e-001 -8.546577e-001 -8.515458e+000 34 33 27
1.558277e+000 9.628449e-001 -7.618571e+000 108 79 60
-1.613711e+000 -9.312600e-001 -7.927089e+000 89 54 23
1.085441e+000 -2.147874e-001 -8.602283e+000 64 55 46
-3.543315e-001 -1.037584e+000 -8.381878e+000 32 30 17
4.375061e+000 6.565394e-001 -8.713429e+000 77 61 45
1.540934e+000 5.078739e-001 -7.217693e+000 90 50 14
4.730615e+000 5.472095e-001 -8.317270e+000 52 40 39
4.699335e+000 3.161353e-001 -8.364627e+000 20 11 12
4.779916e+000 3.074233e-001 -8.102687e+000 53 39 38
7.695171e-001 -1.238387e+000 -7.621477e+000 129 82 40
-8.306635e+000 -1.988809e+001 -1.776013e+001 204 214 248
-8.166087e+000 -2.001696e+001 -1.790168e+001 115 106 111
-8.166087e+000 -2.001696e+001 -1.790168e+001 115 106 111
-6.143493e+000 -1.867161e+001 -1.765325e+001 152 141 135
4.902542e+000 4.545400e-002 -7.956524e+000 30 19 17
-4.530748e+000 -1.797273e+001 -1.678777e+001 255 254 252
-4.456735e+000 -1.830436e+001 -1.710885e+001 148 145 146
4.875481e+000 4.751019e-004 -7.924755e+000 71 55 43
-6.367682e+000 -1.972948e+001 -1.700291e+001 183 167 146
-6.375542e+000 -1.976136e+001 -1.702161e+001 183 167 146
-5.938844e+000 -1.944373e+001 -1.707567e+001 227 209 194
-7.274818e+000 -2.032061e+001 -1.666519e+001 206 182 154
3.592349e+000 2.968016e+000 -1.103019e+001 36 25 23
3.614444e+000 2.956291e+000 -1.107563e+001 36 25 23
-6.430037e-001 1.484371e+000 -1.003293e+001 141 98 56
-9.116621e-002 1.152665e+000 -1.003762e+001 110 86 50
4.026085e+000 2.433482e+000 -1.023529e+001 75 61 49
8.884231e-001 2.066544e+000 -8.376169e+000 53 33 24
-1.077233e+000 4.761615e-001 -9.470846e+000 131 117 89
-8.282907e-001 4.736587e-001 -9.352738e+000 25 24 16
3.716493e+000 1.958164e+000 -1.028017e+001 29 14 17
-8.548082e-001 3.390777e-001 -9.246897e+000 116 99 73
-6.585482e-001 4.788075e-001 -9.304888e+000 111 99 71
-6.584930e-001 4.851150e-001 -9.295701e+000 111 99 71
-5.848471e-001 4.975980e-001 -9.317428e+000 20 13 16
-5.641640e-001 4.561337e-001 -9.255048e+000 111 96 69
-8.108022e-001 2.390557e-001 -9.138708e+000 113 103 65
-8.108070e-001 2.414491e-001 -9.135404e+000 113 103 65
-6.895832e-001 3.569123e-001 -9.184159e+000 26 18 19
-6.166069e-001 3.815191e-001 -9.191023e+000 111 97 65
-5.940774e-001 3.287764e-001 -9.141113e+000 22 17 17
-4.479436e-001 3.841768e-001 -9.149387e+000 24 18 13
-3.197233e-001 4.823636e-001 -9.218823e+000 102 90 58
-3.015034e-001 4.388592e-001 -9.157596e+000 22 19 12
-2.280556e-001 4.572718e-001 -9.170201e+000 101 88 63
-7.178529e-001 2.226878e-001 -9.080460e+000 120 112 81
-5.730257e-001 2.808614e-001 -9.082755e+000 115 100 67
-6.236712e-001 2.022240e-001 -9.025953e+000 113 99 65
-4.988720e-001 3.064568e-001 -9.089806e+000 22 16 13
-4.267977e-001 3.378219e-001 -9.090877e+000 118 106 80
-4.771034e-001 2.581851e-001 -9.032166e+000 124 111 85
-2.615329e-001 3.504462e-001 -9.037201e+000 20 20 12
-2.079502e-001 4.189104e-001 -9.104460e+000 16 15 10
1.538779e+000 1.674041e+000 -8.328378e+000 65 33 20
-4.563523e-001 2.134453e-001 -8.972114e+000 25 22 15
-3.129950e-001 2.760299e-001 -8.974432e+000 23 25 14
-2.403659e-001 3.053480e-001 -8.978177e+000 120 110 80
-1.301378e-001 2.942596e-001 -8.919143e+000 72 57 22
1.914840e-003 3.330039e-001 -8.938969e+000 94 85 59
1.709814e-001 3.613800e-001 -8.987817e+000 78 63 34
-2.118792e+000 -3.538635e-001 -8.091680e+000 134 105 63
-2.570528e+000 -7.097510e-001 -8.109679e+000 154 115 73
-8.717188e-002 -5.939064e-002 -8.671744e+000 139 120 88
-1.797246e+000 -5.565323e-001 -8.014043e+000 119 84 52
-1.797246e+000 -5.565323e-001 -8.014043e+000 119 84 52
-3.671102e-001 -4.090857e-001 -8.579959e+000 136 122 83
1.594508e-001 -3.685224e-002 -8.674557e+000 141 126 83
2.311075e-001 -9.263642e-003 -8.685944e+000 30 23 22
1.234300e+000 4.181343e-001 -8.611042e+000 39 34 29
-1.372900e+000 -5.545844e-001 -8.166402e+000 77 43 16
6.264188e-001 -1.860715e-001 -8.635690e+000 22 14 10
1.977346e+000 8.946675e-001 -7.615561e+000 115 88 57
-3.665874e-001 -1.458480e+000 -8.432632e+000 71 62 56
4.725366e+000 5.176684e-001 -8.411963e+000 27 17 16
-2.110346e+000 -1.206088e+001 -1.454474e+001 17 15 18
4.754550e+000 2.239734e-001 -8.058064e+000 31 21 20
-8.905468e+000 -2.084324e+001 -1.829608e+001 218 237 255
-7.153992e+000 -2.027718e+001 -1.700543e+001 136 127 131
-5.370236e+000 -1.868967e+001 -1.657490e+001 255 255 255
-1.175099e-001 1.683149e+000 -1.003866e+001 118 94 56
4.058134e+000 2.253515e+000 -1.012461e+001 37 26 24
-2.991404e+000 -4.101763e-001 -8.844242e+000 94 67 48
3.814697e+000 1.595526e+000 -1.004016e+001 25 14 10
1.952926e+000 9.598916e-001 -8.130069e+000 12 12 12
1.488933e+000 9.026069e-001 -7.598148e+000 30 13 6
4.455006e+000 6.621606e-001 -8.705339e+000 23 13 12
1.986790e-001 -1.250869e+000 -8.033182e+000 53 27 14
-2.260747e+000 -1.206525e+001 -1.438897e+001 252 253 248
-2.260747e+000 -1.206525e+001 -1.438897e+001 252 253 248
-6.186351e+000 -1.950066e+001 -1.733666e+001 205 178 150
-6.028392e+000 -2.045888e+001 -1.790642e+001 137 124 118
-2.668295e-001 1.841984e+000 -1.008711e+001 51 32 17
3.513139e+000 2.884903e+000 -1.099539e+001 41 29 29
1.008528e+000 2.271522e+000 -8.327213e+000 158 130 82
-9.547145e-001 5.081632e-001 -9.748231e+000 94 86 65
-7.302809e-001 5.895952e-001 -9.724920e+000 91 80 59
-1.290404e+000 1.621023e-001 -9.744576e+000 131 143 158
