ply
format ascii 1.0
element face 0
property list uchar int vertex_indices
element vertex 890
property float x
property float y
property float z
property uchar diffuse_red
property uchar diffuse_green
property uchar diffuse_blue
end_header
-1.005835e+000 -5.859174e-001 -8.265231e+000 118 84 46
-8.589155e-001 -7.946132e-001 -8.511813e+000 108 92 66
-5.212651e-001 -6.139751e-001 -8.491036e+000 31 27 14
7.191998e-001 -2.524517e-002 -8.625127e+000 21 17 14
-9.504945e-001 -1.222741e+000 -8.404037e+000 14 14 13
-9.504945e-001 -1.222741e+000 -8.404037e+000 14 14 13
-7.373806e-001 -1.096638e+000 -8.511971e+000 160 154 133
-6.513981e-001 -9.436318e-001 -8.465137e+000 63 57 39
-6.513981e-001 -9.436318e-001 -8.465137e+000 63 57 39
-6.508345e-001 -1.116217e+000 -8.437305e+000 163 156 137
6.439390e-001 -2.175817e-001 -8.566995e+000 26 19 14
7.540787e-001 -3.267565e-001 -8.547048e+000 105 91 64
1.549558e+000 9.712984e-001 -7.931104e+000 145 119 86
4.588700e+000 1.333627e+000 -9.154787e+000 28 14 11
1.491049e+000 9.401685e-001 -7.855553e+000 141 113 71
1.554583e+000 9.879531e-001 -7.748697e+000 66 40 17
1.575158e+000 1.166991e+000 -7.712425e+000 38 16 5
2.154000e+000 1.062322e+000 -8.039055e+000 69 44 22
4.900772e+000 1.529028e+000 -8.911742e+000 36 18 11
-3.728662e-001 -1.266929e+000 -8.303017e+000 142 128 101
-1.361233e-001 -1.118787e+000 -8.367314e+000 41 34 21
5.665989e-001 -1.176598e+000 -8.664777e+000 30 19 17
4.640279e+000 1.085293e+000 -9.052918e+000 54 40 34
6.164252e-001 -9.302120e-001 -8.374285e+000 70 56 43
1.913700e+000 1.051610e+000 -7.610950e+000 36 19 11
2.046530e+000 1.022702e+000 -7.586649e+000 97 74 42
2.460608e+000 9.508083e-001 -7.883676e+000 77 54 38
2.460608e+000 9.508083e-001 -7.883676e+000 77 54 38
1.307440e-001 -1.155107e+000 -8.018849e+000 39 18 7
3.430919e-001 -9.047045e-001 -7.924886e+000 121 84 49
1.528989e+000 9.559204e-001 -7.216434e+000 141 99 57
1.897666e+000 1.055161e+000 -7.342415e+000 54 26 11
1.897666e+000 1.055161e+000 -7.342415e+000 54 26 11
1.982550e+000 1.082580e+000 -7.426477e+000 128 101 63
5.015947e+000 1.253556e+000 -8.584071e+000 129 109 84
5.044476e+000 1.293416e+000 -8.503177e+000 84 65 54
-4.487186e-002 -1.735580e+000 -8.122911e+000 46 31 26
6.601095e-001 -7.715587e-001 -7.712318e+000 61 29 9
1.441849e+000 7.598479e-001 -7.111343e+000 113 67 24
1.505034e+000 8.052181e-001 -7.218690e+000 92 50 10
1.793068e+000 9.363188e-001 -7.128386e+000 57 25 4
1.793068e+000 9.363188e-001 -7.128386e+000 57 25 4
4.515722e+000 5.262037e-001 -8.510916e+000 34 21 13
5.057219e+000 1.176703e+000 -8.456354e+000 126 105 76
2.682799e-001 -1.577251e+000 -7.857177e+000 120 81 48
3.279159e-001 -1.155845e+000 -7.735031e+000 112 74 37
8.289648e-001 -8.627534e-001 -7.638845e+000 83 46 19
1.798911e+000 7.811042e-001 -6.958645e+000 160 127 70
4.341271e+000 3.717092e-001 -8.226417e+000 21 11 12
4.390991e+000 3.389124e-001 -8.208579e+000 52 39 34
4.390991e+000 3.389124e-001 -8.208579e+000 52 39 34
4.441752e+000 3.713612e-001 -8.209097e+000 46 35 31
4.441752e+000 3.713612e-001 -8.209097e+000 46 35 31
1.817305e+000 5.418786e-001 -6.881768e+000 153 117 65
1.763662e+000 3.860127e-001 -6.814793e+000 94 50 12
4.840656e+000 2.726701e-001 -8.074990e+000 79 62 45
4.869575e+000 2.599309e-001 -8.040437e+000 66 49 34
5.188877e+000 7.133211e-001 -7.982023e+000 32 19 15
5.198239e+000 6.617134e-001 -7.921219e+000 27 14 14
5.198239e+000 6.617134e-001 -7.921219e+000 27 14 14
5.320569e+000 7.955872e-001 -7.911554e+000 93 69 53
1.876421e+000 2.124933e-001 -6.803134e+000 116 73 22
4.943188e+000 1.552966e-001 -7.886526e+000 79 64 43
1.875590e+000 1.137803e-001 -6.714918e+000 186 149 101
5.347181e+000 6.026966e-001 -7.674946e+000 74 54 45
5.413735e+000 6.743866e-001 -7.722515e+000 110 85 67
5.547737e+000 4.914438e-001 -7.723683e+000 51 37 31
5.071201e+000 5.499457e-004 -7.765646e+000 79 62 44
-7.625434e-002 2.073206e+000 -1.045559e+001 41 22 15
3.295118e+000 3.055658e+000 -1.143764e+001 67 54 42
3.761656e+000 3.237086e+000 -1.142031e+001 26 13 7
3.464165e+000 2.938499e+000 -1.134230e+001 30 17 9
-3.163264e+000 2.251373e-001 -9.584886e+000 191 164 120
1.273892e+000 2.700286e+000 -9.339830e+000 41 31 19
-3.051460e+000 1.796683e-001 -9.228710e+000 114 81 50
-2.545916e+000 5.007996e-001 -9.147284e+000 79 44 16
-2.538082e+000 5.456728e-001 -9.222040e+000 84 46 22
-2.619793e+000 3.996829e-001 -8.957880e+000 109 69 34
-2.332736e+000 5.444597e-001 -9.039980e+000 58 29 13
1.060366e-001 1.006748e+000 -1.019875e+001 47 39 24
7.052437e-001 2.477003e+000 -8.666573e+000 97 55 22
1.285559e+000 2.769951e+000 -8.771243e+000 128 97 53
-9.331412e-002 7.348966e-001 -1.008410e+001 122 121 121
2.692332e-002 7.619477e-001 -9.997579e+000 54 46 34
-1.125662e+000 3.726878e-001 -9.441515e+000 14 9 11
-8.659100e-001 5.569838e-001 -9.470149e+000 111 103 67
-7.861275e-001 5.848622e-001 -9.481141e+000 24 21 15
-7.861275e-001 5.848622e-001 -9.481141e+000 24 21 15
-6.437110e-001 6.357009e-001 -9.585738e+000 110 98 65
-6.437110e-001 6.357009e-001 -9.585738e+000 110 98 65
-7.088348e-001 6.150585e-001 -9.484182e+000 100 89 68
-6.276370e-001 6.151885e-001 -9.515944e+000 21 12 14
-5.628139e-001 6.491523e-001 -9.605350e+000 22 16 19
-4.872023e-001 6.749364e-001 -9.612389e+000 110 96 58
-4.872023e-001 6.749364e-001 -9.612389e+000 110 96 58
-4.061150e-001 6.930665e-001 -9.621319e+000 21 13 12
-5.476261e-001 6.384353e-001 -9.521578e+000 100 86 55
-5.476261e-001 6.384353e-001 -9.521578e+000 100 86 55
-4.650956e-001 6.477130e-001 -9.540667e+000 20 13 19
-3.855507e-001 6.674950e-001 -9.546597e+000 113 97 71
-3.855507e-001 6.674950e-001 -9.546597e+000 113 97 71
-2.630052e-001 7.354899e-001 -9.740444e+000 97 87 59
-3.246216e-001 7.014058e-001 -9.648145e+000 109 94 70
-3.246216e-001 7.014058e-001 -9.648145e+000 109 94 70
-3.101498e-001 6.912559e-001 -9.556751e+000 24 16 15
-3.101498e-001 6.912559e-001 -9.556751e+000 24 16 15
-2.347508e-001 7.057767e-001 -9.573512e+000 87 75 50
-1.826880e-001 7.350164e-001 -9.770568e+000 19 10 11
-1.026326e-001 7.253151e-001 -9.806930e+000 71 63 40
-4.737710e-002 7.827723e-001 -9.855151e+000 70 61 43
-4.737710e-002 7.827723e-001 -9.855151e+000 70 61 43
-2.969910e-002 7.373165e-001 -9.792129e+000 12 11 13
3.832937e+000 2.463879e+000 -1.039476e+001 67 51 44
3.929660e+000 2.286934e+000 -1.049056e+001 26 18 12
-2.715235e+000 1.535416e-001 -8.465198e+000 144 103 48
-2.451261e+000 2.594648e-001 -8.600200e+000 80 41 8
-9.780467e-001 4.416208e-001 -9.314306e+000 123 110 80
-9.780467e-001 4.416208e-001 -9.314306e+000 123 110 80
-5.295144e-001 6.170113e-001 -9.437871e+000 19 18 11
-4.483488e-001 6.156487e-001 -9.466671e+000 106 90 66
-4.483488e-001 6.156487e-001 -9.466671e+000 106 90 66
-3.682279e-001 6.494201e-001 -9.462777e+000 23 21 9
-3.682279e-001 6.494201e-001 -9.462777e+000 23 21 9
-4.299445e-001 5.986455e-001 -9.379700e+000 20 15 11
-4.299445e-001 5.986455e-001 -9.379700e+000 20 15 11
-2.913808e-001 6.531522e-001 -9.494950e+000 105 92 61
-2.155284e-001 6.709320e-001 -9.503084e+000 20 12 13
-2.726843e-001 6.355978e-001 -9.405585e+000 16 16 7
-1.542724e-001 6.944467e-001 -9.600606e+000 13 9 4
-7.642629e-002 6.682727e-001 -9.631950e+000 62 52 41
-1.301034e-001 6.453787e-001 -9.538711e+000 57 47 30
-5.270310e-002 6.290897e-001 -9.561806e+000 16 10 8
6.143493e-002 6.654631e-001 -9.762567e+000 16 8 10
7.370606e-002 6.649704e-001 -9.664876e+000 84 73 53
2.411738e-002 6.294549e-001 -9.582532e+000 85 76 49
-1.521764e-001 5.615277e-001 -9.290221e+000 81 68 46
-9.335017e-002 5.936750e-001 -9.377752e+000 71 61 38
-3.740521e-002 6.200165e-001 -9.464641e+000 67 58 43
-3.740521e-002 6.200165e-001 -9.464641e+000 67 58 43
-7.227485e-002 5.620899e-001 -9.307385e+000 20 15 12
-7.227485e-002 5.620899e-001 -9.307385e+000 20 15 12
-1.262057e-002 5.815705e-001 -9.405534e+000 23 16 6
-1.262057e-002 5.815705e-001 -9.405534e+000 23 16 6
6.065859e-003 5.746774e-001 -9.310175e+000 88 80 62
4.334143e-002 6.074311e-001 -9.500557e+000 21 16 13
6.227716e-002 5.824655e-001 -9.427680e+000 84 77 49
6.227716e-002 5.824655e-001 -9.427680e+000 84 77 49
7.956062e-001 2.145016e+000 -8.328496e+000 80 43 18
1.127841e+000 2.279890e+000 -8.272489e+000 163 134 74
4.033853e+000 2.113058e+000 -1.016837e+001 36 23 17
4.409182e+000 2.372415e+000 -1.012121e+001 60 41 34
-1.363601e-001 5.504331e-001 -9.192462e+000 19 15 15
2.684874e-002 5.509907e-001 -9.235903e+000 16 11 7
2.684874e-002 5.509907e-001 -9.235903e+000 16 11 7
-3.611010e-002 5.242719e-001 -9.137024e+000 16 12 9
-3.611010e-002 5.242719e-001 -9.137024e+000 16 12 9
4.735888e-002 5.088982e-001 -9.177496e+000 79 67 42
4.735888e-002 5.088982e-001 -9.177496e+000 79 67 42
8.449181e-002 5.639186e-001 -9.350036e+000 20 17 12
8.449181e-002 5.639186e-001 -9.350036e+000 20 17 12
1.606111e-001 5.794131e-001 -9.358299e+000 76 64 46
1.324229e-001 5.032233e-001 -9.209396e+000 16 12 3
1.324229e-001 5.032233e-001 -9.209396e+000 16 12 3
2.042292e-001 5.191530e-001 -9.217957e+000 71 62 50
9.721171e-001 1.979799e+000 -8.256972e+000 45 27 16
-1.934523e+000 1.516187e-001 -8.275812e+000 65 33 11
7.648440e-002 4.975387e-001 -8.977016e+000 90 79 52
1.412055e-001 5.165170e-001 -9.088632e+000 91 77 54
2.275525e-001 4.934380e-001 -9.141544e+000 20 13 6
9.750737e-001 1.893087e+000 -8.224980e+000 110 91 56
4.254922e+000 2.032683e+000 -9.929480e+000 60 46 35
1.132877e+000 8.676378e-001 -8.986316e+000 19 13 14
1.174455e+000 1.041903e+000 -8.802520e+000 46 39 26
1.919431e+000 1.877227e+000 -8.432581e+000 64 46 30
4.207020e+000 1.782890e+000 -9.888360e+000 63 46 39
-1.860259e+000 -6.502506e-002 -8.088257e+000 103 70 35
4.626879e+000 2.030166e+000 -9.641014e+000 38 23 18
-1.889265e+000 -3.088317e-001 -7.947588e+000 120 88 49
-1.935748e-001 -1.391326e-001 -8.615661e+000 33 26 14
-1.194052e-001 -8.403677e-002 -8.602211e+000 144 125 78
1.125849e-001 -1.276166e-003 -8.628124e+000 31 24 13
1.125849e-001 -1.276166e-003 -8.628124e+000 31 24 13
-2.426429e+000 -8.209525e-001 -7.961441e+000 156 123 72
-9.104862e-001 -6.627448e-001 -8.432742e+000 28 17 14
-3.686804e-001 -3.503115e-001 -8.525547e+000 145 127 78
-2.437488e-001 -2.284815e-001 -8.571880e+000 33 27 12
-1.395288e-001 -2.526821e-001 -8.538992e+000 36 30 14
-6.067367e-002 -2.355804e-001 -8.555935e+000 146 124 87
6.468698e-002 -1.103359e-001 -8.603360e+000 35 29 12
6.468698e-002 -1.103359e-001 -8.603360e+000 35 29 12
1.571772e-002 -2.089702e-001 -8.568719e+000 26 28 7
9.142328e-002 -1.785134e-001 -8.580549e+000 127 114 74
1.405205e-001 -7.298024e-002 -8.609390e+000 135 119 70
1.405205e-001 -7.298024e-002 -8.609390e+000 135 119 70
2.164874e-001 -3.994939e-002 -8.620528e+000 28 29 13
1.679968e-001 -1.473882e-001 -8.595808e+000 26 23 9
2.488586e-001 -1.209190e-001 -8.617802e+000 121 104 65
2.954735e-001 -1.631868e-002 -8.637061e+000 144 122 75
2.954735e-001 -1.631868e-002 -8.637061e+000 144 122 75
3.429623e-001 8.690900e-002 -8.659079e+000 141 125 84
3.719657e-001 1.508760e-002 -8.642719e+000 37 31 12
3.719657e-001 1.508760e-002 -8.642719e+000 37 31 12
3.240887e-001 -9.075547e-002 -8.625189e+000 31 26 7
3.240887e-001 -9.075547e-002 -8.625189e+000 31 26 7
4.028159e-001 -6.063028e-002 -8.627969e+000 149 133 76
4.486029e-001 4.891426e-002 -8.642789e+000 153 131 81
5.552532e-001 -1.029538e-002 -8.630901e+000 145 128 76
6.269827e-001 2.284816e-002 -8.634237e+000 26 21 17
4.579666e+000 1.610148e+000 -9.347392e+000 39 24 21
4.769212e+000 1.886220e+000 -9.243248e+000 83 64 50
-1.522645e-001 -4.404872e-001 -8.496385e+000 143 123 75
-8.489021e-004 -3.754635e-001 -8.512080e+000 129 115 74
2.771872e-002 -4.471033e-001 -8.492041e+000 28 24 9
2.771872e-002 -4.471033e-001 -8.492041e+000 28 24 9
4.420590e-002 -2.697167e-001 -8.540760e+000 137 120 79
1.208997e-001 -2.517257e-001 -8.564905e+000 29 22 14
1.489789e-001 -3.255634e-001 -8.550737e+000 121 101 71
1.044642e-001 -4.257721e-001 -8.516064e+000 125 109 68
1.982955e-001 -2.184060e-001 -8.583624e+000 124 107 64
1.982955e-001 -2.184060e-001 -8.583624e+000 124 107 64
2.274517e-001 -2.970950e-001 -8.575876e+000 27 17 11
2.769979e-001 -1.988382e-001 -8.609905e+000 29 21 5
3.066732e-001 -2.681106e-001 -8.594504e+000 134 119 79
3.329041e-001 -3.407715e-001 -8.579577e+000 29 28 16
3.492563e-001 -1.642592e-001 -8.610200e+000 148 128 78
3.492563e-001 -1.642592e-001 -8.610200e+000 148 128 78
4.260948e-001 -1.261585e-001 -8.599946e+000 38 28 26
4.260948e-001 -1.261585e-001 -8.599946e+000 38 28 26
3.811812e-001 -2.422106e-001 -8.597208e+000 34 30 4
3.811812e-001 -2.422106e-001 -8.597208e+000 34 30 4
4.543315e-001 -2.053900e-001 -8.579498e+000 152 134 83
5.018483e-001 -9.999287e-002 -8.595343e+000 155 133 93
5.018483e-001 -9.999287e-002 -8.595343e+000 155 133 93
5.802298e-001 -7.294539e-002 -8.597481e+000 34 29 26
5.266773e-001 -1.784982e-001 -8.577255e+000 38 27 23
6.083276e-001 -1.556769e-001 -8.581868e+000 139 117 78
6.570929e-001 -5.214605e-002 -8.615228e+000 121 99 64
6.843660e-001 -1.273267e-001 -8.594425e+000 23 19 13
4.607639e+000 1.695015e+000 -9.239307e+000 45 28 20
-5.580358e-001 -9.658145e-001 -8.405489e+000 39 36 26
-5.476767e-001 -7.811370e-001 -8.446125e+000 155 137 91
-5.158581e-001 -8.643944e-001 -8.424763e+000 32 30 23
-4.736488e-001 -7.413124e-001 -8.434523e+000 33 27 16
-4.431639e-001 -8.248694e-001 -8.413932e+000 145 124 82
-4.431639e-001 -8.248694e-001 -8.413932e+000 145 124 82
-4.146353e-001 -8.823607e-001 -8.372265e+000 30 29 24
-3.982184e-001 -7.155033e-001 -8.437963e+000 139 123 75
-2.165581e-001 -7.092220e-001 -8.401364e+000 32 27 9
-9.476178e-002 -5.854721e-001 -8.454779e+000 134 116 75
-1.404936e-001 -6.803907e-001 -8.415828e+000 131 112 72
-1.404936e-001 -6.803907e-001 -8.415828e+000 131 112 72
-6.722184e-002 -6.563190e-001 -8.437743e+000 27 18 15
-3.227538e-002 -7.251662e-001 -8.424906e+000 108 89 57
-3.227538e-002 -7.251662e-001 -8.424906e+000 108 89 57
-1.821663e-002 -5.523728e-001 -8.466428e+000 32 30 10
5.973332e-002 -5.284061e-001 -8.482772e+000 139 116 82
1.338623e-001 -5.008950e-001 -8.500974e+000 17 18 10
2.385250e-001 -5.482531e-001 -8.514303e+000 22 11 15
2.385250e-001 -5.482531e-001 -8.514303e+000 22 11 15
7.146887e-001 -1.947999e-001 -8.572643e+000 113 100 66
7.146887e-001 -1.947999e-001 -8.572643e+000 113 100 66
7.906494e-001 -1.778406e-001 -8.594610e+000 20 17 5
4.613481e+000 1.253097e+000 -9.171970e+000 55 40 33
4.584520e+000 1.645879e+000 -9.010779e+000 62 45 37
-3.086819e-001 -9.174023e-001 -8.345526e+000 34 26 14
-2.324654e-001 -8.870313e-001 -8.354771e+000 135 121 66
-2.324654e-001 -8.870313e-001 -8.354771e+000 135 121 66
-1.843132e-001 -7.857363e-001 -8.384456e+000 136 116 79
-1.566038e-001 -8.568405e-001 -8.367318e+000 30 21 15
-7.691550e-002 -8.344493e-001 -8.389439e+000 119 98 70
-7.691550e-002 -8.344493e-001 -8.389439e+000 119 98 70
-4.058336e-003 -8.021516e-001 -8.411401e+000 23 13 7
-4.058336e-003 -8.021516e-001 -8.411401e+000 23 13 7
2.042317e+000 9.776658e-001 -8.110388e+000 69 44 21
-1.751101e-001 -1.199954e+000 -8.353709e+000 115 103 77
1.484436e+000 1.031952e+000 -7.576082e+000 67 35 14
5.109096e-001 -8.888341e-001 -8.159663e+000 85 58 37
1.511520e+000 1.028158e+000 -7.396988e+000 135 94 48
4.273929e+000 4.753352e-001 -9.020653e+000 22 11 9
5.089264e+000 1.351680e+000 -8.783857e+000 30 18 17
1.390994e-003 -1.352887e+000 -8.135928e+000 45 27 23
1.182454e-001 -1.366905e+000 -7.822081e+000 100 68 43
3.699575e-001 -9.895738e-001 -7.847435e+000 103 68 40
5.907909e-001 -8.516464e-001 -7.783213e+000 56 28 14
8.957657e-001 -8.291858e-001 -7.936336e+000 99 74 44
4.666924e+000 7.775869e-001 -8.497626e+000 35 21 19
4.852262e+000 1.040438e+000 -8.473168e+000 56 39 32
2.303593e-001 -1.623098e+000 -7.844273e+000 156 127 100
8.508360e-001 -1.078323e+000 -7.424874e+000 175 129 79
1.005374e+000 -9.846101e-001 -7.407591e+000 130 86 37
1.510503e+000 2.428992e-001 -6.992955e+000 156 106 57
1.653670e+000 3.546335e-001 -6.901125e+000 114 66 27
1.860929e+000 5.453364e-001 -6.893728e+000 67 40 12
5.050796e+000 7.490176e-001 -8.067687e+000 63 49 39
5.126266e+000 6.667437e-001 -8.061645e+000 33 23 19
5.140337e+000 5.506721e-001 -7.926916e+000 55 41 35
5.105902e+000 3.872676e-001 -7.895681e+000 50 36 35
3.733100e+000 3.482240e+000 -1.180586e+001 31 17 16
3.753776e+000 3.365558e+000 -1.169125e+001 34 20 19
5.466655e-002 2.052910e+000 -1.047979e+001 27 17 8
1.656266e-001 2.062481e+000 -1.052972e+001 64 54 44
-8.158535e-001 1.514308e+000 -1.039685e+001 113 69 27
-4.108166e-002 1.967489e+000 -1.024991e+001 107 84 53
3.350127e+000 3.000042e+000 -1.141005e+001 29 18 12
3.435078e+000 3.037791e+000 -1.102118e+001 63 46 36
-8.090528e-001 1.070233e+000 -1.025174e+001 79 55 25
-2.384863e+000 4.842228e-001 -9.728043e+000 27 21 21
-6.782584e-001 1.190254e+000 -1.013533e+001 73 42 15
2.371458e-001 1.315442e+000 -1.036464e+001 115 113 118
-2.655507e+000 3.535927e-001 -9.263139e+000 116 76 44
-3.074750e+000 9.251792e-002 -9.164032e+000 43 22 7
-2.744949e-001 8.991132e-001 -1.003392e+001 114 86 49
3.711634e+000 2.611986e+000 -1.072310e+001 69 52 42
3.711634e+000 2.611986e+000 -1.072310e+001 69 52 42
-2.149465e+000 5.245144e-001 -8.908918e+000 103 67 43
-1.458582e+000 2.636221e-001 -9.784694e+000 71 52 36
-1.116145e+000 5.264084e-001 -9.676177e+000 52 40 23
-9.282980e-001 5.133621e-001 -9.384778e+000 122 103 72
-7.717508e-001 5.643778e-001 -9.399711e+000 105 92 62
-6.912633e-001 5.822066e-001 -9.413932e+000 22 19 10
6.298568e-001 2.179536e+000 -8.630329e+000 62 34 9
6.383458e-001 2.346422e+000 -8.456685e+000 128 91 47
-2.815779e+000 8.145368e-002 -8.623337e+000 147 108 59
-1.670818e+000 4.462593e-001 -8.889680e+000 85 59 36
-1.670818e+000 4.462593e-001 -8.889680e+000 85 59 36
-1.128698e+000 6.347136e-002 -9.596925e+000 57 48 41
-9.038132e-001 4.578948e-001 -9.328319e+000 26 19 14
-8.051769e-001 4.378250e-001 -9.269265e+000 26 18 17
-8.279424e-001 4.972420e-001 -9.321515e+000 128 108 78
-8.279424e-001 4.972420e-001 -9.321515e+000 128 108 78
-7.516385e-001 5.271337e-001 -9.324452e+000 19 18 9
-6.493272e-001 4.941090e-001 -9.280659e+000 21 12 13
-5.925389e-001 5.684724e-001 -9.349476e+000 24 17 6
-5.714956e-001 5.284934e-001 -9.278711e+000 111 99 63
4.002333e+000 2.303183e+000 -1.019943e+001 65 48 40
-2.548073e+000 1.661675e-001 -8.406964e+000 103 59 20
-8.565351e-001 3.530972e-001 -9.210224e+000 22 18 11
-7.816629e-001 3.929431e-001 -9.202906e+000 120 103 76
-7.581856e-001 3.329138e-001 -9.151080e+000 25 22 13
-6.814298e-001 3.625584e-001 -9.154271e+000 117 101 68
-5.476707e-001 4.729649e-001 -9.222753e+000 24 17 13
-4.918548e-001 5.480549e-001 -9.292164e+000 19 16 11
-4.918548e-001 5.480549e-001 -9.292164e+000 19 16 11
-4.709858e-001 5.083506e-001 -9.221094e+000 118 103 69
-5.259255e-001 4.254065e-001 -9.158595e+000 119 106 66
-4.496616e-001 4.620924e-001 -9.155936e+000 25 21 15
-4.111683e-001 5.649299e-001 -9.307711e+000 109 96 63
-3.919695e-001 5.288704e-001 -9.234547e+000 26 16 16
-3.919695e-001 5.288704e-001 -9.234547e+000 26 16 16
-3.717134e-001 4.858752e-001 -9.167314e+000 115 102 73
-3.114832e-001 5.541277e-001 -9.243378e+000 113 98 61
2.280064e-001 6.753962e-001 -9.385787e+000 106 96 71
4.710869e-001 7.267718e-001 -9.454105e+000 18 13 10
-6.596398e-001 3.165350e-001 -9.088834e+000 26 20 13
-5.034787e-001 3.757874e-001 -9.096308e+000 25 21 19
-4.046063e-001 3.586992e-001 -9.036774e+000 24 20 13
-3.500709e-001 4.410541e-001 -9.099909e+000 28 18 17
-3.289247e-001 3.951736e-001 -9.035105e+000 124 112 70
-2.710090e-001 4.643561e-001 -9.111361e+000 121 106 72
-2.158793e-001 5.377123e-001 -9.179603e+000 106 89 63
4.464111e+000 2.346196e+000 -1.003540e+001 28 19 10
-2.241102e+000 8.584564e-003 -8.204110e+000 91 55 18
-1.740001e-001 4.554455e-001 -9.041516e+000 123 108 75
-1.425490e-002 4.923215e-001 -9.064897e+000 94 80 54
3.364473e-001 5.024146e-001 -9.175131e+000 102 94 74
3.364473e-001 5.024146e-001 -9.175131e+000 102 94 74
9.530795e-001 1.831644e+000 -8.241567e+000 38 23 13
-2.487497e+000 -2.669313e-001 -8.103552e+000 122 78 31
-2.445832e+000 -2.760771e-001 -8.041322e+000 158 122 74
1.081381e-001 4.243968e-001 -8.943853e+000 18 13 8
1.772205e+000 1.876269e+000 -8.335701e+000 68 40 24
-2.315836e+000 -5.156910e-001 -7.951784e+000 155 121 73
-2.315836e+000 -5.156910e-001 -7.951784e+000 155 121 73
2.794611e-001 1.998363e-001 -8.695622e+000 89 75 48
4.688662e+000 1.903135e+000 -9.514196e+000 80 57 44
4.772708e+000 1.772603e+000 -9.320769e+000 43 28 23
-2.181422e+000 -8.680400e-001 -7.783071e+000 129 91 54
4.755286e+000 1.827734e+000 -9.160903e+000 80 59 48
4.808268e+000 1.744969e+000 -9.104312e+000 71 52 38
1.097341e+000 1.193230e-001 -8.410047e+000 47 38 31
8.011831e-001 -4.360905e-001 -8.490747e+000 83 74 59
1.329902e+000 2.439438e-001 -8.262859e+000 71 63 42
1.621752e+000 1.092112e+000 -7.653253e+000 28 14 11
2.098615e+000 1.076803e+000 -8.056446e+000 12 7 12
1.029920e+000 -9.989729e-001 -8.689849e+000 116 120 123
4.385980e+000 7.903462e-001 -9.146607e+000 58 41 30
9.904925e-001 -1.099105e+000 -8.524933e+000 53 46 38
-2.395863e-001 -1.893608e+000 -8.303945e+000 124 131 134
1.017504e+000 -1.076652e+000 -8.413932e+000 118 123 127
1.333880e+000 4.827854e-001 -7.515574e+000 113 69 30
7.860824e-002 -1.379833e+000 -7.945144e+000 43 31 19
7.410223e-001 -7.955729e-001 -7.905803e+000 62 32 16
1.462329e+000 7.425382e-001 -7.215856e+000 151 106 50
6.736854e-001 -1.052048e+000 -7.622867e+000 86 41 19
4.442564e+000 5.108219e-001 -8.377445e+000 27 17 16
4.472970e+000 3.857998e-001 -8.288527e+000 22 12 11
4.827161e+000 5.822801e-001 -8.329759e+000 38 27 23
5.121815e+000 6.708722e-001 -8.227405e+000 25 15 10
5.176688e+000 3.317816e-001 -7.726951e+000 56 42 41
3.081829e+000 3.235674e+000 -1.179119e+001 33 19 16
9.146676e-002 1.929225e+000 -1.035018e+001 66 51 32
2.688447e+000 2.407946e+000 -1.185395e+001 21 11 10
3.684853e+000 2.878394e+000 -1.096684e+001 46 30 21
6.837155e-001 2.553005e+000 -8.842043e+000 168 126 76
1.475713e+000 2.706740e+000 -9.161070e+000 63 49 28
3.163114e+000 2.020907e+000 -1.121798e+001 57 46 29
6.911052e-001 2.636339e+000 -8.481859e+000 164 122 76
1.051172e+000 2.688704e+000 -8.769226e+000 129 88 44
-3.045092e+000 -2.403207e-002 -8.915758e+000 122 79 35
-1.796486e+000 6.049532e-001 -9.215646e+000 46 23 15
-1.350267e+000 7.586120e-002 -9.961602e+000 115 115 117
5.701235e-003 7.887268e-001 -1.009000e+001 22 17 13
6.087878e-001 2.372304e+000 -8.604356e+000 137 100 56
4.259775e+000 2.660584e+000 -1.059832e+001 27 18 11
-2.964463e+000 6.019553e-002 -8.743333e+000 144 101 50
-2.776622e+000 1.992667e-001 -8.734777e+000 149 107 59
-2.057806e+000 5.872378e-001 -8.795963e+000 33 13 2
6.800478e-001 2.183078e+000 -8.557208e+000 147 104 63
9.135123e-001 2.463633e+000 -8.459581e+000 52 22 11
1.053966e+000 2.616900e+000 -8.423893e+000 159 126 73
4.003905e+000 2.456734e+000 -1.033692e+001 28 17 14
4.003905e+000 2.456734e+000 -1.033692e+001 28 17 14
-2.734387e+000 1.516334e-002 -8.486120e+000 96 53 13
3.602235e+000 1.639589e+000 -1.048696e+001 72 57 39
-1.090086e+000 8.427108e-002 -9.090564e+000 78 58 37
4.118465e+000 1.666244e+000 -9.905363e+000 25 14 12
2.296517e+000 1.942213e+000 -8.340445e+000 32 21 19
4.772081e+000 2.040220e+000 -9.762302e+000 33 20 20
4.772081e+000 2.040220e+000 -9.762302e+000 33 20 20
4.711975e+000 2.092370e+000 -9.550653e+000 70 54 42
4.730152e+000 1.890187e+000 -9.434158e+000 32 18 15
-2.074498e+000 -6.696941e-001 -7.868995e+000 136 101 61
-2.074498e+000 -6.696941e-001 -7.868995e+000 136 101 61
4.775508e-001 -9.603174e-001 -8.652724e+000 19 14 11
1.229433e+000 1.874454e-002 -8.223686e+000 80 65 42
1.527485e+000 1.004717e+000 -7.517510e+000 124 89 55
2.256230e+000 1.102911e+000 -7.883907e+000 93 62 31
1.334924e+000 4.769711e-001 -7.628288e+000 165 133 86
8.171706e-001 -7.561092e-001 -7.789198e+000 71 40 20
5.446049e-001 -1.256070e+000 -7.649374e+000 117 68 27
8.253923e-001 -9.135929e-001 -7.501294e+000 130 87 43
4.927396e+000 4.566961e-001 -7.977271e+000 26 16 15
1.937419e+000 2.475825e-001 -6.765180e+000 116 74 31
1.937419e+000 2.475825e-001 -6.765180e+000 116 74 31
2.182677e+000 4.555370e-001 -6.814919e+000 157 120 67
5.424073e+000 3.743543e-001 -7.681850e+000 28 17 15
3.218505e+000 3.471985e+000 -1.186386e+001 53 36 28
-6.775746e-001 1.317095e+000 -1.017930e+001 113 79 41
-2.639840e+000 2.817058e-001 -9.856971e+000 26 21 18
-2.499898e+000 2.962744e-001 -9.786899e+000 110 84 57
2.883441e+000 2.135494e+000 -1.134442e+001 23 13 11
-2.288969e+000 5.126849e-001 -9.398913e+000 41 23 13
-4.499585e-001 1.110387e+000 -9.945579e+000 139 102 55
3.863931e+000 2.800051e+000 -1.076460e+001 112 87 58
-2.813046e+000 2.519828e-001 -9.015178e+000 132 93 49
-2.813046e+000 2.519828e-001 -9.015178e+000 132 93 49
2.996210e-001 9.971718e-001 -1.038631e+001 110 108 111
1.065969e+000 2.711203e+000 -8.625767e+000 155 125 71
1.179062e+000 2.714405e+000 -8.858649e+000 154 123 71
3.069743e+000 1.935757e+000 -1.116249e+001 26 20 15
1.212809e+000 1.705156e+000 -8.256863e+000 56 33 16
-2.683924e-001 8.293746e-002 -8.708009e+000 19 15 20
1.568917e+000 1.805169e+000 -8.252820e+000 83 50 21
6.112757e-002 9.813773e-002 -8.660740e+000 89 74 42
1.929546e+000 1.019296e+000 -8.030404e+000 70 45 23
-4.660818e-001 -1.399633e+000 -8.403310e+000 161 147 121
-4.660818e-001 -1.399633e+000 -8.403310e+000 161 147 121
6.535507e-001 -1.139035e+000 -8.737310e+000 127 127 125
6.535507e-001 -1.139035e+000 -8.737310e+000 127 127 125
-3.150524e-001 -1.635029e+000 -8.321382e+000 162 151 128
9.327303e-001 -1.145370e+000 -8.528264e+000 32 25 17
1.405497e+000 6.596772e-001 -7.243345e+000 75 30 11
2.698419e+000 2.436959e+000 -1.239697e+001 26 16 14
3.737431e+000 3.232671e+000 -1.141918e+001 31 20 16
-2.796201e+000 2.321838e-001 -9.868360e+000 137 115 79
-2.096855e+000 5.866633e-001 -9.431868e+000 30 16 15
1.212997e-001 1.234130e+000 -1.018093e+001 75 62 50
3.418338e+000 1.793239e+000 -1.087819e+001 74 57 40
-2.771815e+000 6.454735e-002 -8.610645e+000 149 108 60
5.975298e-001 1.391968e+000 -9.211432e+000 54 45 30
-1.906717e+000 3.882981e-001 -8.533270e+000 52 23 5
4.312315e+000 2.215873e+000 -9.837639e+000 73 51 37
4.312315e+000 2.215873e+000 -9.837639e+000 73 51 37
3.971963e+000 1.212153e+000 -1.014731e+001 45 30 11
-1.123875e+000 -1.063403e+000 -8.191693e+000 131 97 52
1.337244e+000 -7.678005e-001 -8.295779e+000 20 16 16
4.416106e+000 3.494206e-001 -8.076193e+000 19 13 13
5.056999e+000 3.187427e-001 -7.770823e+000 31 20 19
7.039745e-001 2.617905e+000 -8.960982e+000 175 139 81
9.415926e-001 2.713088e+000 -9.190861e+000 150 112 62
3.501074e+000 2.394252e+000 -1.079079e+001 26 16 14
3.253111e+000 1.771552e+000 -1.093541e+001 21 12 10
9.894204e-001 2.104150e+000 -8.273951e+000 42 27 20
-1.450611e+000 -2.015945e-001 -8.030669e+000 168 137 83
-2.515797e+000 -8.733107e-001 -7.928561e+000 165 129 77
1.009525e+000 -1.093276e+000 -8.683612e+000 116 120 120
4.912603e+000 5.579253e-001 -8.169056e+000 27 17 16
6.529503e-001 1.777731e+000 -8.534447e+000 36 27 20
3.507325e+000 1.461172e+000 -1.038978e+001 20 12 11
-4.836682e-001 -9.760051e-001 -8.422589e+000 154 132 93
1.449245e+000 7.648357e-001 -8.053606e+000 39 30 26
1.180297e+000 -1.171656e+000 -8.534230e+000 119 123 126
-3.083897e+000 1.002282e-001 -9.207629e+000 90 64 36
7.369013e-001 1.971360e+000 -8.575801e+000 138 106 59
-2.453574e+000 -6.495097e-001 -7.944402e+000 153 119 71
-9.471039e-001 -1.496456e+000 -8.352953e+000 18 13 17
4.509466e+000 3.305684e-001 -8.568760e+000 34 24 23
-1.617727e-001 1.605673e+000 -1.009590e+001 136 105 56
-3.221236e-001 1.109305e+000 -9.976057e+000 118 89 47
8.307285e-001 2.393260e+000 -8.361074e+000 76 46 34
4.590860e+000 8.977453e-001 -9.926793e+000 81 63 41
3.659158e+000 2.420854e+000 -1.060589e+001 35 24 22
3.659158e+000 2.420854e+000 -1.060589e+001 35 24 22
-1.440245e+000 2.496973e-001 -8.518062e+000 129 102 58
-8.503071e-001 -1.741598e-001 -8.716168e+000 67 58 37
2.157067e+000 1.860311e+000 -8.627838e+000 16 12 13
-1.233674e+000 2.199624e-001 -9.311051e+000 26 17 17
9.955832e-001 1.124552e+000 -8.111647e+000 15 13 15
4.517795e+000 2.806794e+000 -1.052102e+001 155 134 115
4.542615e+000 2.783104e+000 -1.049509e+001 59 38 17
-5.075924e+000 4.208510e+000 -2.088136e+001 50 45 39
8.896239e-001 1.819977e+000 -8.361530e+000 159 133 99
-3.125924e+000 3.026375e+000 -1.974021e+001 17 16 21
-7.449484e-001 1.334759e+000 -1.015880e+001 132 101 71
-3.870329e-001 1.219809e+000 -9.870975e+000 150 125 92
-2.265942e-001 9.759971e-001 -9.961628e+000 61 44 24
5.257617e-002 9.374114e-001 -1.001174e+001 73 60 56
4.593646e-001 4.097436e-001 -8.896106e+000 64 56 53
-4.628852e-001 2.362220e-001 -8.911811e+000 136 130 114
-6.285930e-001 -1.208775e-001 -8.694951e+000 107 102 87
-2.336152e+000 -2.729979e-001 -8.080474e+000 121 82 51
-1.949697e+000 -6.093250e-001 -7.944657e+000 140 108 79
-2.349486e+000 -1.077155e+000 -7.952248e+000 129 95 76
-1.892752e+000 -1.423838e+000 -8.045087e+000 25 15 16
-1.892752e+000 -1.423838e+000 -8.045087e+000 25 15 16
3.528615e+000 3.015117e+000 -1.103372e+001 99 86 69
3.528615e+000 3.015117e+000 -1.103372e+001 99 86 69
-3.539046e+000 4.413196e+000 -2.164293e+001 55 57 64
1.120282e+000 1.721262e+000 -8.130249e+000 94 81 72
-4.534357e-001 1.893304e+000 -1.018403e+001 104 66 29
1.099746e+000 1.671263e+000 -8.238431e+000 76 62 55
1.088376e+000 1.609099e+000 -8.329587e+000 31 17 14
1.332063e+000 1.547257e+000 -8.155246e+000 72 44 30
1.566789e+000 4.534205e-001 -6.986283e+000 141 98 53
-2.006945e-001 2.769563e-001 -8.817966e+000 135 130 108
-2.426485e+000 6.378350e-003 -8.202752e+000 163 129 84
1.835577e+000 -5.994089e-003 -6.755472e+000 182 143 104
-1.756533e+000 -1.469472e-001 -8.050638e+000 157 133 109
1.693690e+000 -9.618116e-002 -6.955716e+000 122 69 36
-1.864108e+000 -4.532144e-001 -7.945493e+000 123 96 67
-2.521175e+000 -7.158297e-001 -7.975902e+000 192 164 126
-2.027950e+000 -8.139651e-001 -7.915585e+000 119 83 51
-2.016300e+000 -8.739225e-001 -7.875417e+000 122 86 54
-1.822519e+000 -1.140670e+000 -7.943346e+000 106 70 54
-1.563422e+000 -1.127792e+000 -8.108614e+000 35 15 8
-1.371892e+000 -1.470954e+000 -8.164951e+000 69 53 54
1.015530e+000 -1.917504e+000 -7.942938e+000 154 113 83
3.855697e+000 3.408466e+000 -1.150423e+001 73 58 51
3.855697e+000 3.408466e+000 -1.150423e+001 73 58 51
3.500073e+000 3.166996e+000 -1.115934e+001 112 94 84
1.171255e+000 2.232806e+000 -8.271917e+000 67 48 18
6.866867e-001 2.020003e+000 -8.563524e+000 60 34 12
1.714406e+000 1.972490e+000 -8.245274e+000 147 127 95
1.778404e+000 1.612924e+000 -8.241794e+000 65 38 19
1.634539e+000 1.003216e+000 -7.429825e+000 83 49 36
1.350442e+000 8.668960e-001 -7.547213e+000 20 22 24
-9.719181e-001 4.366219e-001 -9.280591e+000 165 162 132
-9.719181e-001 4.366219e-001 -9.280591e+000 165 162 132
-7.539385e-001 5.379328e-001 -9.275102e+000 28 24 13
1.722922e+000 3.699624e-001 -6.930357e+000 103 68 37
-9.261384e-001 3.272711e-001 -9.182852e+000 152 148 122
1.677414e+000 -4.644008e-002 -6.933938e+000 115 65 40
-2.783062e+000 -3.256702e-001 -8.239656e+000 128 92 60
-1.861962e+000 -3.712058e-001 -8.072212e+000 71 44 25
-1.529165e+000 -4.034817e-001 -8.141181e+000 136 113 81
2.292466e+000 -2.335131e-001 -7.013629e+000 53 30 18
-1.667032e+000 -4.399626e-001 -7.963434e+000 109 97 80
-1.125977e+000 -8.505999e-001 -8.219199e+000 81 52 31
-2.554662e+000 -1.045528e+000 -8.021690e+000 118 77 45
-1.938127e+000 -1.026709e+000 -7.900060e+000 114 80 61
-2.642847e+000 -1.201384e+000 -8.024997e+000 107 67 35
-2.586124e+000 -1.156800e+000 -8.031719e+000 101 66 36
-2.590641e+000 -1.153750e+000 -8.030787e+000 101 66 36
-1.342461e+000 -1.222662e+000 -8.058064e+000 36 19 22
-1.426901e-001 -1.190699e+000 -8.310490e+000 122 118 105
3.311986e-001 -1.490588e+000 -7.803622e+000 41 21 15
-2.759171e+000 -1.844838e+000 -8.319401e+000 64 54 53
1.004227e+000 -1.728119e+000 -7.771927e+000 171 131 95
-4.519741e+000 4.589411e+000 -2.097825e+001 148 149 153
-4.390039e+000 3.485675e+000 -2.113160e+001 199 207 220
-7.164649e-001 1.579231e+000 -1.006069e+001 139 97 59
5.230595e-001 1.321553e+000 -9.624411e+000 26 21 18
-7.318895e-001 1.145849e+000 -1.007546e+001 163 127 95
1.613107e+000 5.110627e-001 -7.003875e+000 123 84 55
4.456680e-001 4.520844e-001 -8.871368e+000 123 122 111
-8.581737e-001 2.205892e-001 -9.081862e+000 109 101 90
-1.951250e+000 1.237727e-001 -8.248757e+000 54 22 13
-2.304337e+000 4.677447e-002 -8.171852e+000 170 142 105
-3.877467e-001 -2.927856e-001 -8.560772e+000 26 21 25
1.706973e+000 -1.488577e-001 -7.001954e+000 170 126 87
-2.709249e+000 -4.726617e-001 -8.127858e+000 132 91 53
-1.935504e+000 -6.526903e-001 -7.929714e+000 87 49 30
-1.679253e+000 -6.854583e-001 -7.947288e+000 80 46 19
-5.739704e-001 -7.233612e-001 -8.482280e+000 29 25 13
-9.224594e-001 -9.658455e-001 -8.448356e+000 23 11 21
-1.913803e+000 -9.703811e-001 -7.867284e+000 79 46 30
-1.264879e+000 -9.415275e-001 -8.076449e+000 80 50 35
-6.826714e-001 -1.054389e+000 -8.472404e+000 24 20 19
-5.911270e-001 -1.079016e+000 -8.398219e+000 24 22 22
-2.188302e-002 -9.889688e-001 -8.415685e+000 127 114 85
-2.554884e+000 -1.097955e+000 -8.046168e+000 161 126 88
-1.732534e+000 -1.118486e+000 -7.953482e+000 73 40 34
-2.721631e+000 -1.286247e+000 -8.075339e+000 205 174 145
-2.372859e+000 -1.530349e+000 -8.172020e+000 95 75 51
2.337913e-001 -1.436255e+000 -7.874849e+000 27 19 15
7.876492e-001 -1.458788e+000 -7.617634e+000 130 77 39
8.970886e-001 -1.379785e+000 -7.520160e+000 137 94 52
-2.431967e+000 -1.649878e+000 -8.158493e+000 63 45 31
9.395360e-002 -1.648674e+000 -7.959312e+000 29 18 14
8.407249e-001 -1.557116e+000 -7.633113e+000 199 160 120
1.137108e-001 -1.833876e+000 -7.968290e+000 108 82 67
6.361934e-001 -1.827770e+000 -7.827925e+000 85 57 50
6.115409e-001 -1.919169e+000 -7.897093e+000 65 42 36
9.409609e-001 2.059723e+000 -8.281140e+000 44 31 25
-4.363032e+000 4.921931e+000 -2.156098e+001 31 29 35
-3.581958e+000 4.683544e+000 -2.234910e+001 219 220 231
-4.365788e+000 4.482506e+000 -2.160950e+001 63 63 71
1.168418e+000 1.688120e+000 -8.227405e+000 28 12 12
8.637452e-001 1.663026e+000 -8.460387e+000 47 36 29
-3.526727e+000 3.076685e+000 -2.042546e+001 53 53 51
-6.442669e-001 1.134734e+000 -1.006157e+001 77 47 20
-5.319826e-001 1.090109e+000 -9.951680e+000 153 119 75
1.807012e+000 6.879116e-001 -7.009682e+000 69 46 30
1.466963e+000 5.027386e-001 -7.000316e+000 216 182 139
1.661546e+000 2.583098e-001 -6.922010e+000 176 131 89
1.824393e+000 3.183080e-001 -6.769172e+000 196 164 122
-1.861665e+000 7.972682e-002 -8.133819e+000 106 79 52
-1.757676e+000 1.861765e-001 -8.444635e+000 21 16 17
5.278301e-001 6.103253e-002 -8.646960e+000 25 19 26
-2.691092e+000 -1.980015e-001 -8.193386e+000 184 145 101
6.605260e-001 -3.134866e-001 -8.587181e+000 140 134 112
-1.224507e-001 -9.404118e-001 -8.365100e+000 136 123 95
-1.421216e+000 -9.510768e-001 -8.076967e+000 71 38 21
3.558454e-001 -9.496482e-001 -8.052181e+000 156 124 85
8.450392e-001 -1.033602e+000 -7.522275e+000 78 41 24
9.761357e-001 -1.841632e+000 -7.803242e+000 132 91 59
9.761357e-001 -1.841632e+000 -7.803242e+000 132 91 59
-3.812910e+000 4.827637e+000 -2.177074e+001 52 53 58
9.967651e-001 1.268235e+000 -8.967461e+000 67 61 58
2.553315e+000 -1.580232e-001 -7.169960e+000 20 10 19
-1.959691e+000 -1.288797e+000 -7.984893e+000 38 24 24
-2.440679e+000 -1.571279e+000 -8.109762e+000 142 125 99
1.797844e+000 1.672095e+000 -8.185806e+000 127 100 73
6.170500e-001 6.606319e-001 -9.137505e+000 24 21 25
2.207821e-001 -1.509426e+000 -7.892853e+000 33 21 21
2.207821e-001 -1.509426e+000 -7.892853e+000 33 21 21
-1.750084e+000 -1.685712e+000 -8.178130e+000 58 40 40
1.429383e-001 -2.011786e+000 -8.208146e+000 40 27 27
-3.546822e+000 4.932046e+000 -2.160244e+001 185 187 201
-4.565846e+000 3.786431e+000 -2.126973e+001 192 196 206
-9.235923e-002 1.667847e-001 -8.740415e+000 20 18 23
9.715832e-001 -9.596316e-001 -7.666184e+000 78 46 25
-6.497388e-001 6.975237e-002 -8.760140e+000 102 96 82
1.510296e+000 -9.838364e-002 -7.340051e+000 184 155 127
-7.643070e-001 -9.283918e-001 -8.560482e+000 121 112 103
9.530664e-001 -7.849784e-001 -7.781255e+000 61 42 34
4.329515e-001 -1.946964e+000 -8.127621e+000 166 131 100
-4.746444e+000 4.045322e+000 -2.080896e+001 218 219 224
-5.167010e-001 -1.600259e+000 -8.704232e+000 175 174 179
6.144777e-002 1.302906e+000 -1.017253e+001 36 23 13
6.261059e-002 1.302238e+000 -1.016201e+001 36 23 13
9.618353e-002 1.291593e+000 -1.020763e+001 78 66 53
9.240193e-001 -4.344214e-001 -8.550623e+000 13 12 16
-1.148640e+000 -8.415739e-001 -8.115142e+000 113 79 55
-2.003119e+000 -1.092655e+000 -7.915051e+000 106 73 58
-2.745142e-001 1.988544e+000 -1.008529e+001 69 40 17
1.021678e+000 1.736813e+000 -8.220644e+000 64 49 40
-4.973364e-001 1.192725e+000 -9.937232e+000 131 97 57
-3.204961e-001 1.062004e+000 -9.971901e+000 80 54 29
5.366514e-001 4.122513e-001 -8.762452e+000 66 60 50
-4.250092e-001 1.243372e+000 -9.890053e+000 118 86 48
4.230976e-001 1.062641e-001 -8.673365e+000 23 18 21
-1.719372e+000 -6.698394e-001 -7.884960e+000 119 86 53
-1.569345e+001 1.252728e+000 -3.536797e+001 59 72 115
-8.403465e-001 -6.904121e-001 -8.345324e+000 102 90 75
1.170578e+000 2.171922e+000 -8.250150e+000 179 157 111
-6.566639e-001 -9.434886e-001 -8.476350e+000 32 26 28
-3.281775e+000 -4.166599e+000 -1.737280e+001 141 137 138
-3.281775e+000 -4.166599e+000 -1.737280e+001 141 137 138
1.255231e+000 1.393376e+000 -8.637762e+000 56 55 53
1.648308e-002 1.313794e+000 -1.012943e+001 40 25 20
6.280735e-001 2.653311e-001 -8.761502e+000 130 124 110
5.871373e-001 -2.528542e-002 -8.620802e+000 125 119 102
-4.672352e-001 -1.827161e-001 -8.603387e+000 130 113 92
4.799655e-001 -4.422318e-001 -8.559881e+000 151 146 123
4.799655e-001 -4.422318e-001 -8.559881e+000 151 146 123
-6.049087e-001 -7.961181e-001 -8.477729e+000 26 21 17
-6.049087e-001 -7.961181e-001 -8.477729e+000 26 21 17
-5.887012e-001 -1.137348e+000 -8.405547e+000 147 143 138
1.971440e-001 -1.765914e+000 -7.982854e+000 115 91 67
-1.317841e+001 7.138845e+000 -2.324450e+001 126 121 103
1.393787e+000 4.447180e-001 -7.194452e+000 217 180 140
-2.504789e-001 -1.091210e+000 -8.349053e+000 115 110 104
8.508769e-002 -1.013670e+000 -8.447778e+000 61 57 55
-1.777721e+001 3.566053e-001 -3.484645e+001 216 214 210
-1.565092e+000 -1.241087e+000 -7.981881e+000 24 14 13
1.617834e-001 -1.637003e+000 -7.926607e+000 109 90 80
-1.582720e+001 8.413232e+000 -2.842175e+001 112 106 97
-1.587994e+001 8.420574e+000 -2.845751e+001 112 106 97
1.104406e+000 1.364534e+000 -8.725765e+000 42 36 38
2.258749e+000 2.587663e-001 -6.900335e+000 137 120 91
3.176872e-001 -5.336189e-001 -8.544469e+000 116 110 87
-6.559199e-001 -9.414017e-001 -8.470002e+000 26 22 30
-2.148603e+000 -1.017592e+000 -7.872434e+000 72 39 20
-1.599214e+001 8.302607e+000 -2.804472e+001 107 100 91
5.487561e-001 1.052550e+000 -9.309271e+000 63 54 55
2.192976e-001 -5.304740e-002 -8.626667e+000 26 22 20
1.192079e-001 -6.864931e-001 -8.477286e+000 138 130 100
9.579517e-001 1.804956e+000 -8.308890e+000 34 23 20
-1.241521e+001 1.000669e+001 -3.607928e+001 21 16 20
-1.157595e+001 9.186918e+000 -3.205555e+001 84 74 70
-1.157595e+001 9.186918e+000 -3.205555e+001 84 74 70
8.074862e-001 2.184614e+000 -8.395597e+000 67 33 21
9.906394e-001 1.660894e+000 -8.357660e+000 58 46 35
1.690731e+000 1.537204e+000 -8.351879e+000 86 54 31
-4.693423e-001 2.026473e+000 -1.021892e+001 176 139 95
-4.880319e-001 1.575190e+000 -1.008554e+001 97 58 26
-4.156042e+000 4.267396e+000 -2.149902e+001 98 102 107
-1.051698e-001 1.335599e+000 -1.004617e+001 70 53 25
1.463193e+000 5.781624e-001 -7.194021e+000 209 175 129
-5.718352e-002 1.017040e-001 -8.698396e+000 124 37 50
-2.482439e+000 9.703510e-002 -8.296303e+000 139 102 58
-2.064811e+000 1.915299e-002 -8.143936e+000 161 133 96
-2.026660e+000 -5.070759e-003 -8.115124e+000 101 72 40
-1.939902e+000 -1.294763e-001 -8.011925e+000 149 120 86
-7.642689e-001 -9.719911e-002 -8.794461e+000 36 31 25
-2.038919e+000 -2.976430e-001 -8.010613e+000 161 137 103
-9.365976e-001 -6.293765e-001 -8.341601e+000 88 75 59
-2.279440e+000 -7.302350e-001 -7.867679e+000 126 91 59
9.519110e-001 -1.072085e+000 -7.446444e+000 85 48 21
1.120661e+000 -1.126603e+000 -7.437408e+000 102 68 40
-2.105577e+000 -1.220092e+000 -7.929551e+000 51 34 29
3.996044e-001 -1.398478e+000 -7.722692e+000 97 58 31
-2.745200e+000 -1.410801e+000 -7.948410e+000 201 172 141
-3.402285e-001 -1.492062e+000 -8.293234e+000 149 148 144
4.953630e-001 -1.485037e+000 -7.704506e+000 127 93 68
7.631873e-001 2.242309e+000 -8.411691e+000 96 54 30
5.410602e-001 2.107781e+000 -8.897460e+000 87 72 62
9.774501e-001 1.990420e+000 -8.293764e+000 39 24 17
9.470992e-001 1.947999e+000 -8.487058e+000 103 84 70
1.557410e+000 1.624551e+000 -8.226427e+000 73 38 10
1.952119e+000 1.686765e+000 -8.353190e+000 73 57 41
1.515429e+000 1.623810e+000 -8.253120e+000 124 91 63
1.633414e+000 1.634989e+000 -8.288842e+000 98 60 37
-2.605213e-001 1.861422e+000 -9.997143e+000 83 49 17
-3.112527e-001 1.396657e+000 -1.007169e+001 62 38 16
-2.497066e-001 1.245498e+000 -9.954709e+000 131 107 78
1.458489e+000 4.244987e-001 -7.191953e+000 143 101 59
1.825427e+000 4.134854e-001 -6.874006e+000 168 140 101
9.879214e-001 4.640984e-001 -8.828711e+000 16 11 15
-4.776630e-002 3.995672e-001 -8.955125e+000 22 19 12
-3.275032e-002 3.432052e-001 -8.845087e+000 134 130 103
-2.376404e+000 2.247853e-001 -8.381269e+000 126 91 49
-2.213880e+000 2.954080e-001 -8.352839e+000 163 133 95
-2.154883e+000 3.128532e-001 -8.391140e+000 111 79 41
-1.003050e+000 2.968380e-001 -9.320520e+000 37 33 30
-2.248838e+000 1.597565e-002 -8.205278e+000 120 90 54
-4.385834e-001 9.616335e-002 -8.772712e+000 152 146 120
-1.113670e+000 -1.712853e-001 -8.160478e+000 67 47 23
-1.844274e+000 -3.293836e-001 -8.039496e+000 107 76 55
-1.714864e+000 -3.179111e-001 -8.092186e+000 90 71 51
-2.510764e+000 -3.527716e-001 -8.101977e+000 170 136 98
-9.238225e-001 -5.197027e-001 -8.446952e+000 54 44 39
-1.013525e+000 -5.819616e-001 -8.365597e+000 53 33 22
-9.985387e-001 -6.289250e-001 -8.303471e+000 114 90 72
-9.436197e-001 -5.764453e-001 -8.384515e+000 48 34 19
-9.458319e-001 -6.667346e-001 -8.339161e+000 51 38 25
-2.381837e+000 -9.419705e-001 -7.842763e+000 149 109 73
-2.034823e+000 -9.238415e-001 -7.861381e+000 79 42 24
-1.374626e+000 -8.844987e-001 -8.041651e+000 124 92 67
-9.232747e-001 -1.061532e+000 -8.479787e+000 24 14 15
9.278063e-001 -1.055671e+000 -7.466150e+000 140 105 77
-1.689417e+000 -1.163516e+000 -7.951592e+000 49 22 15
-1.493552e+000 -1.157162e+000 -8.019547e+000 41 22 15
-1.070659e+000 -1.145936e+000 -8.292768e+000 57 35 23
-9.574130e-001 -1.072436e+000 -8.432729e+000 66 47 41
-8.286493e-001 -1.135707e+000 -8.616432e+000 117 114 115
-4.296465e-001 -1.237782e+000 -8.357366e+000 131 127 119
1.408862e+000 -1.312056e+000 -7.492382e+000 51 39 32
-1.651113e+000 -1.173459e+000 -7.930519e+000 82 55 43
-1.432079e+000 -1.190475e+000 -8.041919e+000 37 20 13
-1.133103e+000 -1.330296e+000 -8.208787e+000 58 44 41
2.884836e-001 -1.494924e+000 -7.772465e+000 55 38 34
3.905640e-001 -1.508525e+000 -7.714684e+000 68 46 34
-1.688918e+000 -1.530108e+000 -8.079571e+000 52 43 42
-4.928785e-001 -1.785208e+000 -8.749564e+000 168 165 174
1.199097e-001 -1.898872e+000 -7.937599e+000 44 27 20
3.557343e-001 -1.896005e+000 -7.905590e+000 176 146 118
1.174774e+000 2.238642e+000 -8.280251e+000 85 64 33
5.408774e-001 2.133189e+000 -8.816716e+000 151 128 103
7.768405e-001 1.916525e+000 -8.676248e+000 32 18 20
1.444368e+000 1.666434e+000 -8.257499e+000 98 69 51
1.582269e-001 2.129389e+000 -1.059310e+001 54 37 35
-8.710592e-001 1.178138e+000 -1.029691e+001 159 122 90
1.343819e+000 6.123626e-001 -7.783481e+000 191 169 141
1.539027e+000 4.700405e-001 -7.080764e+000 205 167 122
1.692024e+000 2.884730e-001 -6.886933e+000 149 105 66
1.766404e+000 8.014611e-002 -6.789429e+000 182 136 87
1.780552e+000 4.233015e-002 -6.821607e+000 115 69 36
-1.137028e+000 5.643358e-001 -9.546438e+000 162 158 140
-9.453876e-001 5.374871e-001 -9.408840e+000 143 138 118
-8.689565e-001 5.683185e-001 -9.385105e+000 33 29 20
-4.473084e-001 2.866291e-001 -8.945194e+000 36 28 26
1.119272e+000 -1.750170e-001 -8.370945e+000 74 68 65
-2.398320e+000 -1.727185e-002 -8.249332e+000 133 98 52
-2.168967e+000 -9.770975e-002 -8.104743e+000 167 138 102
-6.945906e-001 -4.714191e-002 -8.815628e+000 113 107 95
-3.569393e-001 -1.115886e-001 -8.632490e+000 130 127 99
-2.786631e+000 -1.840013e-001 -8.273976e+000 122 82 46
1.819011e+000 -5.122467e-001 -7.988665e+000 49 47 52
-2.519408e+000 -8.183845e-001 -7.929235e+000 181 150 119
-2.051172e+000 -9.695667e-001 -7.858866e+000 124 89 61
-1.549460e+000 -9.490644e-001 -7.905644e+000 91 58 40
-2.461706e+000 -1.119224e+000 -8.010384e+000 83 53 38
-7.829573e-001 -1.153142e+000 -8.548862e+000 21 19 24
1.128619e+000 -1.277119e+000 -7.492223e+000 105 64 36
1.312162e+000 -1.278298e+000 -7.516747e+000 91 70 49
1.991301e-001 -1.286523e+000 -7.837697e+000 121 95 72
-2.704453e+000 -1.283647e+000 -8.027459e+000 215 182 140
-5.962035e-002 -1.491151e+000 -8.250859e+000 36 26 26
3.506193e-001 -1.531921e+000 -7.766658e+000 151 127 100
7.491427e-001 -1.554654e+000 -7.514075e+000 131 82 42
-1.959325e+000 -1.591457e+000 -8.124986e+000 46 32 33
1.269579e+000 -1.697846e+000 -7.749632e+000 160 130 104
-2.003660e+000 -1.722064e+000 -8.299514e+000 68 43 35
2.137609e-001 -1.854155e+000 -7.997921e+000 132 107 85
9.840689e-001 -1.768705e+000 -7.772254e+000 183 144 104
3.208355e-001 -1.910690e+000 -8.024981e+000 34 22 17
5.201201e-001 -1.899293e+000 -7.770473e+000 100 71 48
5.666095e-001 -1.972858e+000 -7.879317e+000 150 121 102
-1.840771e-001 4.716229e+000 -1.261355e+001 20 16 25
8.398206e-001 2.149013e+000 -8.410601e+000 58 31 20
1.488222e+000 1.974588e+000 -8.249780e+000 160 142 106
1.084258e+000 1.742343e+000 -8.255819e+000 34 19 21
1.292854e+000 1.505591e+000 -8.307425e+000 49 32 24
-1.185608e-001 1.212103e+000 -1.008920e+001 78 61 35
1.461680e-001 1.276863e+000 -1.031095e+001 45 36 26
1.461680e-001 1.276863e+000 -1.031095e+001 45 36 26
1.049634e+000 6.191272e-001 -8.975981e+000 42 37 41
1.636142e+000 2.256401e-001 -6.937188e+000 150 107 65
1.673439e+000 2.658183e-001 -6.965330e+000 190 148 105
1.914897e+000 2.131014e-001 -6.839947e+000 106 71 41
1.876571e+000 1.557598e-001 -6.805726e+000 169 130 89
1.873624e+000 3.645599e-002 -6.803810e+000 132 84 51
2.602487e+000 -8.775927e-002 -7.172513e+000 87 70 63
9.186481e-001 1.356069e-001 -8.699495e+000 43 38 42
-2.224311e-001 -6.374458e-002 -8.626966e+000 127 119 104
7.538738e-001 -1.213671e-001 -8.603826e+000 92 88 79
7.538564e-001 -1.196425e-001 -8.615676e+000 92 88 79
1.712679e+000 -2.205973e-001 -7.093313e+000 155 111 72
-1.941178e-001 -1.259578e-001 -8.605682e+000 21 15 22
5.582395e-001 -2.604753e-001 -8.555721e+000 120 113 95
-4.299308e-001 -4.002422e-001 -8.519326e+000 22 19 12
-1.607598e+000 -4.155940e-001 -7.997166e+000 114 94 70
3.913915e-001 -5.065415e-001 -8.552041e+000 29 24 30
-1.208342e+000 -7.220794e-001 -8.136814e+000 77 41 17
-6.201092e-001 -8.336820e-001 -8.455134e+000 25 24 31
1.013375e-001 -8.644015e-001 -8.431594e+000 19 15 16
1.013375e-001 -8.644015e-001 -8.431594e+000 19 15 16
9.287034e-001 -9.988391e-001 -7.468461e+000 82 50 29
-7.144294e-001 -9.859130e-001 -8.492934e+000 127 125 112
-5.264318e-001 -1.035474e+000 -8.370921e+000 128 126 114
-4.554412e-001 -9.947969e-001 -8.353135e+000 27 25 24
-9.761379e-002 -1.013941e+000 -8.384713e+000 19 15 21
-1.669368e+000 -1.083374e+000 -7.880016e+000 95 64 43
-2.684105e-001 -1.156520e+000 -8.318668e+000 28 23 20
6.273368e-001 -1.312525e+000 -7.513585e+000 164 123 94
1.308935e+000 -1.322736e+000 -7.473437e+000 160 133 103
1.310669e+000 -1.411520e+000 -7.521098e+000 160 135 105
-2.679001e+000 -1.352266e+000 -8.012978e+000 178 150 115
1.582797e-001 -1.449012e+000 -7.866632e+000 119 96 78
1.340316e+000 -1.552144e+000 -7.610865e+000 152 131 106
-1.723420e+000 -1.620639e+000 -8.128221e+000 29 15 18
2.540432e-001 -1.604653e+000 -7.833693e+000 135 113 100
2.560127e-001 -1.605634e+000 -7.808672e+000 135 113 100
-3.741100e-001 -1.772088e+000 -8.578508e+000 134 134 142
9.552475e-001 1.850378e+000 -8.396714e+000 40 27 23
1.683511e+000 1.104347e+000 -7.508531e+000 122 90 60
-2.359680e-001 1.291693e+000 -9.943877e+000 137 113 85
-6.513324e-002 1.291623e+000 -1.008506e+001 115 98 70
