ply
format ascii 1.0
element face 0
property list uchar int vertex_indices
element vertex 886
property float x
property float y
property float z
property uchar diffuse_red
property uchar diffuse_green
property uchar diffuse_blue
end_header
4.586090e+000 -6.591839e-001 -8.566824e+000 125 107 97
4.631435e+000 -3.891227e-001 -8.398167e+000 146 129 122
-8.413973e-001 9.174026e-001 -9.505583e+000 26 38 23
-7.635592e-001 9.489791e-001 -9.457770e+000 125 115 62
-7.258256e-001 1.011992e+000 -9.404457e+000 132 112 75
-7.252379e-001 1.011359e+000 -9.405003e+000 132 112 75
-5.616931e-001 1.036485e+000 -9.468671e+000 36 43 35
-9.369230e-001 1.129398e+000 -9.114798e+000 130 105 49
-8.333951e-001 1.162411e+000 -9.159087e+000 116 105 77
-8.333951e-001 1.162411e+000 -9.159087e+000 116 105 77
3.459398e-001 1.083953e+000 -9.774707e+000 128 81 63
1.349300e+000 1.082544e+000 -1.025745e+001 112 59 45
3.424070e-001 1.330602e+000 -9.558785e+000 130 82 67
1.242830e+000 1.276964e+000 -9.996243e+000 99 29 31
2.826241e+000 1.496486e+000 -1.022140e+001 104 63 38
2.955905e+000 1.428323e+000 -9.971621e+000 52 11 29
-8.148456e-001 1.216504e+000 -8.410717e+000 61 90 96
2.397192e+000 1.265514e+000 -9.532595e+000 79 22 15
-1.267550e+000 4.853384e-001 -7.799548e+000 212 192 159
1.860308e+000 9.559276e-001 -8.936374e+000 85 62 74
-1.214745e+000 5.448251e-001 -7.780749e+000 208 190 152
-5.553493e-001 5.976686e-001 -7.722015e+000 156 32 37
1.869109e+000 5.195828e-001 -8.511535e+000 116 52 55
-1.032720e+000 8.550773e-001 -9.446447e+000 28 58 81
-8.944045e-001 9.897620e-001 -9.344802e+000 31 40 27
-6.335838e-001 9.602988e-001 -9.515597e+000 105 104 57
-6.719033e-001 1.054841e+000 -9.402624e+000 33 41 36
-5.142609e-001 1.107934e+000 -9.359791e+000 34 42 33
-3.708547e-001 1.155320e+000 -9.403503e+000 27 40 21
3.341252e+000 1.338853e+000 -1.081731e+001 23 31 28
3.160093e+000 1.460714e+000 -1.055272e+001 28 35 33
3.413537e+000 1.521710e+000 -1.043473e+001 49 13 24
-1.418251e+000 8.340836e-001 -8.163396e+000 116 95 70
4.409867e-002 1.121942e+000 -8.563126e+000 41 56 33
1.537243e-001 7.990766e-001 -8.186287e+000 33 52 32
2.363971e+000 8.172729e-001 -8.948066e+000 26 17 22
3.473706e-001 7.328089e-001 -8.124230e+000 155 148 71
7.313120e-001 5.900683e-001 -8.150983e+000 28 53 20
7.313120e-001 5.900683e-001 -8.150983e+000 28 53 20
2.394267e+000 5.451648e-001 -8.731271e+000 84 40 38
-8.909413e-001 1.169895e+000 -9.124813e+000 24 40 31
-6.052805e-001 1.074806e+000 -9.376783e+000 109 104 76
-6.052805e-001 1.074806e+000 -9.376783e+000 109 104 76
9.342478e-001 1.176401e+000 -9.966178e+000 108 47 50
2.872701e-001 1.209967e+000 -8.741503e+000 26 49 20
6.927086e-001 1.191483e+000 -8.858794e+000 153 142 109
6.137659e-001 1.037849e+000 -8.648184e+000 171 38 42
1.477695e+000 7.725214e-001 -8.606462e+000 15 69 102
1.617693e+000 7.794478e-001 -8.619353e+000 21 73 107
5.968792e-002 5.262233e-001 -7.860442e+000 166 157 92
1.221575e+000 1.106781e+000 -1.013824e+001 86 24 26
1.270133e+000 1.280271e+000 -9.947003e+000 93 24 28
2.189074e+000 1.043130e+000 -9.158119e+000 140 112 90
-4.718392e-001 5.607203e-001 -7.697372e+000 180 144 108
3.943325e+000 4.667671e-001 -9.303525e+000 185 151 118
2.212815e+000 1.379179e+000 -9.670517e+000 145 112 69
2.212815e+000 1.379179e+000 -9.670517e+000 145 112 69
2.185200e-001 7.356556e-001 -8.163284e+000 30 60 32
2.052595e+000 5.573890e-001 -8.620800e+000 104 50 54
5.907192e-001 3.950815e-001 -8.004736e+000 165 155 127
1.795340e+000 1.382385e+000 -9.850923e+000 85 18 27
-1.046593e+000 1.211810e+000 -8.963377e+000 125 114 93
-7.626836e-001 1.067200e+000 -8.283801e+000 16 73 102
3.584834e+000 1.374835e+000 -1.023318e+001 142 106 82
5.862671e-001 1.290625e+000 -9.034895e+000 147 136 106
-7.102073e-001 9.760571e-001 -8.107702e+000 172 150 135
-1.194123e+000 6.960412e-001 -7.797917e+000 189 172 144
-4.304748e-001 5.906731e-001 -7.738074e+000 181 30 37
2.151013e+000 5.257755e-001 -8.639523e+000 118 68 76
-1.502130e+000 3.426641e-001 -7.912054e+000 170 145 115
-1.502130e+000 3.426641e-001 -7.912054e+000 170 145 115
3.030208e+000 4.682351e-001 -8.954706e+000 149 141 153
3.446611e+000 5.024216e-001 -9.142198e+000 162 113 86
4.152052e+000 1.542157e-001 -9.407161e+000 158 98 40
4.095848e+000 1.489736e-001 -9.383842e+000 150 91 54
4.142217e+000 1.320366e-001 -9.433509e+000 58 14 4
1.005969e+000 6.981801e-002 -8.169862e+000 162 170 144
1.093026e+000 5.354926e-002 -8.216173e+000 25 81 116
2.447217e+000 3.513388e-002 -8.776839e+000 163 31 41
3.265937e+000 5.444162e-002 -9.111941e+000 89 18 27
3.395503e+000 -1.961443e-002 -9.193373e+000 183 88 51
3.797397e+000 -1.416641e-002 -9.374504e+000 46 20 30
3.797856e+000 -1.352232e-002 -9.376332e+000 46 20 30
4.087502e+000 7.104446e-002 -9.476306e+000 62 19 11
4.096750e+000 4.436887e-002 -9.495310e+000 164 94 52
3.677778e-001 -8.006569e-002 -7.980425e+000 168 162 142
9.539233e-001 -7.745113e-002 -8.224993e+000 196 152 117
9.217960e-001 -1.072280e-001 -8.233911e+000 197 165 131
3.432234e+000 -1.445595e-001 -9.322232e+000 194 132 77
3.669380e+000 -1.710275e-001 -9.454634e+000 163 148 115
8.903006e-001 -2.251435e-001 -8.303938e+000 208 161 134
8.893905e-001 -2.254926e-001 -8.300428e+000 208 161 134
2.673541e+000 -2.552613e-001 -9.063256e+000 188 72 77
2.811195e+000 -3.045328e-001 -9.185949e+000 118 66 51
3.146302e+000 -2.610048e-001 -9.281301e+000 207 141 93
3.376710e+000 -2.862758e-001 -9.398477e+000 188 95 53
-4.283317e-001 -3.709029e-001 -7.868597e+000 142 157 34
5.879861e-001 -4.018478e-001 -8.308746e+000 158 142 124
8.643788e-001 -3.919076e-001 -8.415828e+000 197 152 115
3.341266e+000 -3.310028e-001 -9.446466e+000 129 50 17
-4.349240e-001 -4.507277e-001 -7.926853e+000 173 158 144
8.209287e-001 -4.780231e-001 -8.452148e+000 200 157 123
8.307241e-001 -4.789902e-001 -8.467691e+000 200 157 123
-5.813147e-001 -5.212873e-001 -7.926919e+000 219 157 116
-2.575960e-001 -6.183116e-001 -8.139595e+000 42 62 48
-5.621305e-002 -6.374399e-001 -8.272601e+000 21 59 41
4.253457e-001 -6.353224e-001 -8.483626e+000 128 48 54
4.886565e-001 -6.358944e-001 -8.505390e+000 158 153 143
5.339826e-001 -6.419051e-001 -8.542836e+000 144 113 110
3.350245e+000 -8.048629e-001 -1.006896e+001 114 95 89
-7.062582e-002 -6.807931e-001 -8.329924e+000 34 54 50
1.283279e+000 -7.821489e-001 -9.049191e+000 148 90 84
1.990141e+000 -7.598283e-001 -9.333469e+000 148 89 93
2.030899e+000 -7.663827e-001 -9.378911e+000 184 126 118
2.142441e+000 -7.761647e-001 -9.496028e+000 163 42 51
-6.943644e-001 -8.229859e-001 -8.259069e+000 196 152 127
-1.176322e+000 -9.959678e-001 -8.443008e+000 160 158 163
1.765679e+000 8.075333e-001 -8.728427e+000 91 34 38
2.189207e+000 7.606622e-001 -8.849656e+000 86 63 74
-5.337654e-001 4.560404e-001 -7.582676e+000 168 150 117
3.821655e+000 5.808675e-001 -9.324596e+000 182 149 114
3.319231e+000 1.956211e-001 -9.093902e+000 129 34 27
4.130791e+000 2.235670e-001 -9.357788e+000 41 11 18
4.099635e+000 9.785411e-002 -9.428053e+000 170 102 65
4.100001e+000 9.779660e-002 -9.428272e+000 170 102 65
1.925209e+000 -1.472701e-001 -8.676461e+000 127 78 62
2.524769e+000 -5.540653e-002 -8.858569e+000 202 89 95
2.881856e+000 -6.707949e-002 -9.021423e+000 195 144 124
3.142109e+000 -6.798033e-002 -9.089649e+000 186 127 91
2.453295e+000 -1.825457e-001 -8.892941e+000 165 35 48
2.882947e+000 -2.599010e-001 -9.173804e+000 193 142 113
3.834723e+000 -3.161549e-001 -9.703505e+000 76 56 57
-7.575489e-002 -3.305531e-001 -7.982618e+000 55 100 125
2.365748e+000 -3.896062e-001 -9.057461e+000 159 31 45
3.058500e+000 -4.424735e-001 -9.442449e+000 146 41 22
3.490519e+000 -3.817142e-001 -9.590846e+000 188 153 126
-5.589131e-001 -4.459235e-001 -7.875471e+000 172 167 136
-4.624539e-001 -4.717325e-001 -7.921670e+000 181 42 33
6.478161e-001 -4.183723e-001 -8.306348e+000 164 160 148
2.808107e+000 -5.152544e-001 -9.414803e+000 194 135 119
-6.190889e-001 -5.665107e-001 -7.976805e+000 184 46 57
-2.511217e-001 -5.431410e-001 -8.074839e+000 152 158 40
-2.595845e-001 -5.734852e-001 -8.108792e+000 23 59 39
9.142929e-001 -6.225521e-001 -8.657632e+000 20 76 111
1.879852e+000 -7.322040e-001 -9.275856e+000 187 134 118
-5.263535e-001 -6.590784e-001 -8.095313e+000 183 47 56
-5.275372e-001 -6.580822e-001 -8.105556e+000 183 47 56
9.478829e-002 -7.239870e-001 -8.453970e+000 48 63 34
1.597030e+000 -7.672607e-001 -9.181521e+000 186 126 112
-7.050170e-001 -8.009899e-001 -8.233306e+000 176 44 53
-7.088311e-001 -8.013483e-001 -8.230566e+000 176 44 53
-7.228649e-001 -8.391237e-001 -8.272877e+000 184 51 56
4.245294e+000 -1.516912e+000 -9.459533e+000 45 35 39
6.497767e-001 1.197953e+000 -8.822488e+000 166 152 120
-7.649687e-001 9.744905e-001 -8.119669e+000 170 135 122
-4.870366e-001 7.839076e-001 -7.948268e+000 168 40 44
-8.850572e-002 5.139940e-001 -7.798255e+000 65 99 108
2.118360e+000 5.316307e-001 -8.628218e+000 69 24 31
3.387032e+000 3.544975e-001 -9.022143e+000 135 45 53
2.021006e+000 -9.784249e-002 -8.665857e+000 153 107 84
2.021006e+000 -9.784249e-002 -8.665857e+000 153 107 84
2.105565e+000 -1.394901e-001 -8.748232e+000 164 118 103
3.809606e+000 -7.361867e-002 -9.445184e+000 186 158 147
6.680339e-002 -3.335620e-001 -8.054979e+000 24 53 30
2.937940e+000 -3.548570e-001 -9.257456e+000 197 131 104
3.543602e+000 -3.518999e-001 -9.562320e+000 82 69 75
-5.820658e-001 -4.720672e-001 -7.889082e+000 196 40 57
-5.822264e-001 -4.718085e-001 -7.889418e+000 196 40 57
-5.043801e-001 -4.742623e-001 -7.910867e+000 186 45 46
-1.545859e-001 -4.948804e-001 -8.105110e+000 44 108 125
5.231358e-001 -4.496354e-001 -8.314513e+000 164 154 142
9.733912e-001 -4.716902e-001 -8.511848e+000 6 54 92
1.255579e+000 -4.727114e-001 -8.636318e+000 118 69 53
1.338720e+000 -4.521353e-001 -8.659433e+000 172 110 97
8.107004e-002 -7.291323e-001 -8.470261e+000 36 64 42
6.975989e-001 -7.381793e-001 -8.750114e+000 168 29 46
-5.927651e-001 -8.065040e-001 -8.271340e+000 190 46 56
-4.540938e-001 -8.287092e-001 -8.365239e+000 142 144 89
2.461135e+000 7.151667e-001 -8.891529e+000 128 97 94
3.337387e+000 1.512061e-001 -9.087045e+000 196 104 33
4.307777e+000 1.843880e-001 -9.500391e+000 30 18 30
1.532422e+000 -1.268563e-001 -8.505687e+000 185 124 103
1.893118e+000 -1.156794e-001 -8.653727e+000 189 140 110
9.494865e-001 -2.456764e-001 -8.327909e+000 151 35 36
2.444876e-001 -4.299172e-001 -8.159184e+000 25 62 31
2.362859e-001 -4.258119e-001 -8.174921e+000 25 62 31
8.039359e-001 -6.104428e-001 -8.576447e+000 182 110 94
-3.252533e-001 -6.744083e-001 -8.207560e+000 123 134 65
6.764372e-001 -7.884286e-001 -8.833244e+000 151 35 42
-5.645676e-001 -8.251664e-001 -8.341430e+000 143 141 101
-1.557100e-001 -8.156613e-001 -8.486272e+000 139 147 59
4.090029e+000 -1.962860e+000 -9.811900e+000 142 128 129
2.112891e+000 4.908622e-001 -8.593082e+000 84 37 43
2.389756e+000 8.858849e-002 -8.724872e+000 169 33 48
3.885777e+000 -7.976578e-002 -9.492675e+000 137 84 43
1.357485e-001 -2.170071e-001 -7.974095e+000 100 119 137
1.357485e-001 -2.170071e-001 -7.974095e+000 100 119 137
3.899411e+000 -3.664708e-001 -9.793983e+000 156 125 114
-3.942002e-001 -4.761466e-001 -7.950339e+000 11 85 134
-1.041383e-001 -4.570633e-001 -8.049173e+000 21 55 33
8.131210e-001 -4.357142e-001 -8.430909e+000 152 28 38
2.468118e+000 -5.732026e-001 -9.372122e+000 168 31 40
2.468118e+000 -5.732026e-001 -9.372122e+000 168 31 40
2.909523e+000 -6.095463e-001 -9.603392e+000 189 138 116
2.909523e+000 -6.095463e-001 -9.603392e+000 189 138 116
-2.628112e-001 -5.199662e-001 -8.034911e+000 90 118 87
1.650275e-001 -5.384538e-001 -8.253529e+000 159 170 103
1.077863e-001 -5.845084e-001 -8.296446e+000 30 66 45
-2.763226e-001 -6.989457e-001 -8.310309e+000 32 68 39
-6.536688e-001 -7.988498e-001 -8.242652e+000 205 148 129
4.107377e+000 -1.856525e+000 -9.794866e+000 50 38 53
3.978932e+000 -2.228058e+000 -1.005002e+001 146 132 132
-1.697841e-001 5.010955e-001 -7.740539e+000 82 108 101
7.622132e-002 5.131255e-001 -7.866641e+000 163 148 120
7.096244e-002 5.109337e-001 -7.850444e+000 163 148 120
2.498963e+000 5.100726e-001 -8.756942e+000 68 22 32
3.963157e+000 7.795682e-002 -9.353392e+000 187 104 52
2.276150e+000 -4.510079e-001 -9.066911e+000 180 57 68
3.069227e+000 -5.979322e-001 -9.672130e+000 140 106 81
1.436663e+000 -6.157610e-001 -8.878032e+000 193 131 110
-1.602020e-001 -7.514724e-001 -8.359115e+000 114 137 124
-9.167090e-002 -7.705165e-001 -8.466402e+000 31 61 39
1.400174e-003 -7.300361e-001 -8.425222e+000 137 148 142
5.463583e-002 7.239081e-001 -8.073904e+000 35 60 36
3.568024e+000 -2.589890e-001 -9.475763e+000 197 167 143
-7.953820e-002 -6.013706e-001 -8.174675e+000 79 114 133
2.650397e+000 -8.326397e-001 -9.886477e+000 201 140 139
2.371601e+000 6.876804e-001 -8.874499e+000 136 108 97
3.336454e+000 5.860908e-001 -9.130426e+000 156 116 81
1.351775e+000 -3.006334e-001 -8.565719e+000 193 128 108
1.808776e-001 -2.740163e-001 -8.057258e+000 23 59 30
1.754412e+000 -5.470224e-001 -9.280239e+000 188 127 108
1.267874e+000 5.144571e-001 -8.278322e+000 155 22 24
3.937264e+000 1.683632e-001 -9.307725e+000 204 117 46
2.503859e+000 2.077036e-002 -8.805201e+000 157 24 27
2.390321e+000 -8.158333e-002 -8.814125e+000 194 92 88
2.424282e+000 -1.016329e-001 -8.847926e+000 166 32 36
2.424282e+000 -1.016329e-001 -8.847926e+000 166 32 36
3.139396e+000 -4.068621e-002 -9.062906e+000 188 121 77
5.473131e-001 -4.037530e-001 -8.291064e+000 176 153 131
2.601525e+000 -4.049593e-001 -9.152712e+000 160 30 38
2.735890e+000 -5.405481e-001 -9.387681e+000 139 80 66
2.826955e+000 -5.459215e-001 -9.443561e+000 138 80 60
1.383463e+000 -7.574456e-001 -9.067913e+000 142 80 65
-1.011099e-002 -8.429834e-001 -8.596686e+000 68 81 35
4.017707e+000 -2.165754e+000 -9.966868e+000 152 134 130
2.381447e+000 3.987195e-001 -8.683252e+000 181 129 83
3.507841e+000 -3.141982e-001 -9.522456e+000 180 148 111
-5.001580e-001 -4.736888e-001 -7.912219e+000 182 49 49
-8.152607e-002 -4.198534e-001 -8.043625e+000 171 156 30
3.760078e+000 -7.319522e-001 -1.013475e+001 149 110 102
4.219186e+000 -1.589147e+000 -9.530916e+000 62 43 52
1.825430e+000 5.657389e-001 -8.558237e+000 185 140 84
3.917559e+000 7.746085e-002 -9.347321e+000 198 108 45
1.425138e+000 -1.839410e-002 -8.377570e+000 154 98 82
-1.767852e-001 -3.496586e-001 -7.953889e+000 105 104 24
4.045823e+000 -2.164179e+000 -9.866657e+000 153 135 133
4.120635e+000 -2.114791e+000 -9.704679e+000 143 125 121
3.912359e+000 5.126409e-001 -9.303043e+000 189 154 125
1.118002e+000 8.099646e-002 -8.226983e+000 168 163 140
2.514229e+000 6.110153e-001 -8.822151e+000 145 114 96
1.291609e+000 -2.181138e-001 -8.516095e+000 189 119 103
4.041717e+000 -2.166895e+000 -9.961889e+000 131 113 111
3.986653e+000 1.084723e-001 -9.363471e+000 191 99 42
1.023975e+000 -2.911972e-001 -8.400407e+000 27 78 112
2.658806e+000 -3.559948e-001 -9.149979e+000 197 79 76
3.394787e+000 3.963726e-001 -9.073361e+000 175 118 83
3.787876e+000 -2.753321e+000 -1.048218e+001 115 97 97
4.299667e+000 -1.444195e+000 -9.336151e+000 160 139 134
1.189641e+000 -2.856199e-001 -8.441175e+000 17 66 96
-6.463859e+000 -4.956509e+001 -3.437611e+001 48 34 21
-4.592412e+000 -5.776180e+001 -1.769623e+001 140 117 83
-7.372202e+000 -6.224308e+001 -1.985021e+001 72 60 48
-3.865176e+000 -5.855341e+001 -1.681057e+001 48 40 37
-3.586495e+000 -6.115572e+001 -1.557554e+001 134 113 83
-2.134726e+000 -5.493750e+001 -2.578394e+001 143 129 102
-2.134726e+000 -5.493750e+001 -2.578394e+001 143 129 102
-1.842876e+000 -5.546367e+001 -2.499891e+001 129 108 81
-1.842876e+000 -5.546367e+001 -2.499891e+001 129 108 81
-4.221117e+000 -5.812178e+001 -1.750579e+001 130 122 113
-3.365910e+000 -5.768040e+001 -1.753408e+001 58 57 63
-3.365910e+000 -5.768040e+001 -1.753408e+001 58 57 63
-5.109940e+000 -6.005980e+001 -1.664055e+001 166 128 85
-7.850466e+000 -6.028729e+001 -2.114617e+001 41 27 18
-8.237155e+000 -6.360421e+001 -2.059569e+001 60 47 38
-1.956295e+000 -5.667360e+001 -1.771790e+001 56 51 47
2.549665e+000 -5.686645e+001 -1.799478e+001 24 14 15
2.549665e+000 -5.686645e+001 -1.799478e+001 24 14 15
-6.774877e+000 -7.202040e+001 -1.688531e+001 135 104 62
-6.140769e+000 -6.802703e+001 -1.678723e+001 202 166 113
-8.302861e+000 -6.016952e+001 -2.061581e+001 174 144 94
-4.496363e+000 -5.769905e+001 -1.932358e+001 23 17 19
-7.970843e+000 -2.576716e+001 -2.100942e+001 186 149 97
-5.507011e+000 -5.695622e+001 -1.690164e+001 40 29 21
-7.371135e+000 -6.118116e+001 -2.290271e+001 190 158 107
-7.887901e+000 -6.601457e+001 -2.113691e+001 64 51 41
-7.887901e+000 -6.601457e+001 -2.113691e+001 64 51 41
2.518772e+000 1.304913e+000 -9.608730e+000 153 118 77
1.915001e+000 1.322020e+000 -9.446222e+000 24 63 94
-6.703955e-001 9.539171e-001 -8.157188e+000 157 30 41
-2.607488e-001 -6.431307e+001 -1.515094e+001 98 77 60
-6.022115e-001 -6.346496e+001 -1.489476e+001 91 78 60
-5.680327e-001 -6.448622e+001 -1.503279e+001 91 78 60
2.179854e+000 1.319706e+000 -9.536291e+000 53 15 16
-4.292448e+000 -5.954969e+001 -1.713061e+001 46 37 36
4.640353e+000 -1.045391e+000 -8.484168e+000 139 123 107
4.640353e+000 -1.045391e+000 -8.484168e+000 139 123 107
-4.493850e+000 -5.689091e+001 -1.800143e+001 173 150 117
-4.229202e+000 -5.842010e+001 -1.755123e+001 147 145 143
-3.731402e+000 -5.865428e+001 -1.725811e+001 24 18 28
-3.812981e+000 -6.415687e+001 -1.556181e+001 92 88 59
-3.192307e+000 -6.504777e+001 -1.533194e+001 159 152 126
-2.312079e+000 -6.494916e+001 -1.487280e+001 136 134 119
-9.885034e-001 -6.361217e+001 -1.496015e+001 133 127 105
-7.034370e+000 -7.420471e+001 -1.337302e+001 111 83 57
2.990071e-001 -4.466666e+001 -1.743213e+001 204 188 149
-7.782868e+000 -7.400853e+001 -1.307478e+001 85 63 45
-2.367327e+000 -6.617708e+001 -1.313346e+001 192 172 139
-1.105646e+000 -6.606254e+001 -1.360418e+001 187 177 145
1.329939e+000 1.265538e+000 -9.163306e+000 26 73 96
-4.052631e+000 -5.879971e+001 -1.835599e+001 29 22 30
-1.363655e+000 -6.522319e+001 -1.433857e+001 58 70 71
-7.245670e-001 -6.613056e+001 -1.376415e+001 173 163 127
-7.378721e-001 -6.669057e+001 -1.287048e+001 57 83 70
-2.831466e+000 -6.640088e+001 -1.417319e+001 54 74 68
-1.876400e+000 -6.649151e+001 -1.339127e+001 186 167 136
-2.069146e+000 -6.713486e+001 -1.238165e+001 62 95 86
-7.461305e+000 -6.554267e+001 -1.806172e+001 201 173 126
-3.827763e+000 -6.947166e+001 -1.275335e+001 213 187 150
-3.827763e+000 -6.947166e+001 -1.275335e+001 213 187 150
-4.736660e+000 -6.252710e+001 -1.506683e+001 213 185 138
-1.059789e+000 1.075545e+000 -9.172678e+000 119 42 36
9.144717e-001 1.085130e+000 -1.008962e+001 88 30 28
2.812822e+000 1.390303e+000 -9.875489e+000 110 58 32
1.297378e+000 1.234010e+000 -9.119557e+000 21 67 96
-1.402531e+000 6.870985e-001 -8.021320e+000 194 172 135
-6.301997e-001 9.132307e-001 -8.124572e+000 166 28 43
-5.847081e-001 8.085926e-001 -8.014534e+000 164 32 29
2.210942e+000 9.842552e-001 -9.100075e+000 138 118 104
1.103736e+000 7.574262e-001 -8.404710e+000 161 151 120
-4.689507e-001 6.144682e-001 -7.783351e+000 172 33 38
-1.063268e+000 9.807789e-001 -9.293202e+000 135 39 38
3.442249e+000 1.526366e+000 -1.048839e+001 98 59 55
2.030049e-001 1.333706e+000 -8.919638e+000 153 139 44
1.847111e+000 1.399251e+000 -9.581685e+000 133 129 107
2.892800e+000 1.408643e+000 -9.918086e+000 87 38 24
-2.499961e-001 1.123671e+000 -8.485416e+000 30 44 24
-2.499961e-001 1.123671e+000 -8.485416e+000 30 44 24
2.495652e+000 1.149454e+000 -9.403901e+000 138 84 74
2.495652e+000 1.149454e+000 -9.403901e+000 138 84 74
1.925143e+000 1.084177e+000 -9.119337e+000 81 55 67
1.966380e+000 1.086529e+000 -9.131272e+000 122 97 101
-2.011360e-001 6.309169e-001 -7.893628e+000 79 109 120
3.208967e+000 1.384882e+000 -1.070909e+001 41 43 38
3.208967e+000 1.384882e+000 -1.070909e+001 41 43 38
2.632296e+000 1.326992e+000 -9.719159e+000 152 118 81
-2.469599e-001 9.929668e-001 -8.332905e+000 17 52 33
1.197952e+000 9.919270e-001 -8.754207e+000 143 24 27
1.197952e+000 9.919270e-001 -8.754207e+000 143 24 27
1.704110e-001 7.239280e-001 -8.114256e+000 19 47 14
-1.099238e-001 9.983045e-001 -9.695991e+000 106 104 86
4.035748e+000 8.209923e-001 -9.618139e+000 140 77 43
1.967773e+000 1.432103e+000 -9.776553e+000 129 91 67
9.344101e-001 1.372882e+000 -9.291721e+000 138 129 100
-1.168614e+000 8.553315e-001 -9.392069e+000 109 14 29
-8.797607e-001 8.922893e-001 -9.508127e+000 104 106 54
-1.153853e+000 9.428996e-001 -9.287616e+000 129 26 46
-1.115033e+000 9.399887e-001 -9.329896e+000 123 37 44
-1.075888e+000 1.039616e+000 -9.222171e+000 105 26 27
-5.430960e-001 9.581077e-001 -9.599556e+000 113 113 32
-5.412773e-001 9.758302e-001 -9.538177e+000 110 106 39
-5.408977e-001 9.779088e-001 -9.538017e+000 110 106 39
-8.233180e-002 1.049215e+000 -9.688198e+000 83 23 29
8.701000e-001 1.051353e+000 -1.012232e+001 133 73 66
8.514136e-001 1.063200e+000 -1.008672e+001 94 15 21
8.954981e-001 1.074688e+000 -1.011067e+001 89 23 24
1.488517e+000 1.046937e+000 -1.040535e+001 118 85 70
-1.107715e+000 1.107536e+000 -9.105152e+000 143 108 78
-1.079915e+000 9.558364e-001 -9.152943e+000 143 108 78
-1.091939e+000 1.145059e+000 -9.063382e+000 139 120 83
-1.074257e+000 1.164044e+000 -9.046181e+000 110 21 31
-1.074257e+000 1.164044e+000 -9.046181e+000 110 21 31
-9.690673e-001 1.134397e+000 -9.130240e+000 126 116 103
-5.649190e-001 1.095324e+000 -9.391697e+000 31 39 29
1.057043e+000 1.304243e+000 -9.915320e+000 124 65 60
1.034163e+000 1.279915e+000 -9.867311e+000 122 61 61
1.117477e+000 1.332909e+000 -9.910758e+000 122 59 59
1.188363e+000 1.281153e+000 -9.969835e+000 107 46 45
1.207248e+000 1.296598e+000 -9.943353e+000 118 51 58
1.892918e+000 1.341986e+000 -1.019993e+001 77 25 27
1.797500e+000 1.492271e+000 -1.000029e+001 104 72 57
1.422223e+000 1.431922e+000 -9.698476e+000 104 31 33
1.560250e+000 1.423075e+000 -9.862985e+000 91 19 24
3.194454e+000 1.537118e+000 -1.033381e+001 65 19 22
3.762948e+000 1.610143e+000 -1.059397e+001 34 21 26
9.362391e-001 1.357484e+000 -9.211720e+000 150 144 108
2.041461e+000 1.464155e+000 -9.652027e+000 22 54 58
3.084147e+000 1.403521e+000 -9.977224e+000 46 11 21
1.309183e+000 1.248487e+000 -9.136199e+000 151 146 112
-6.002002e-001 1.006983e+000 -8.256605e+000 153 148 15
-1.285705e+000 7.935876e-001 -7.982759e+000 112 90 67
-1.081899e-001 1.020982e+000 -8.390115e+000 30 45 29
1.112912e+000 1.056074e+000 -8.814146e+000 177 144 92
2.425121e+000 1.094598e+000 -9.237872e+000 98 67 63
2.425121e+000 1.094598e+000 -9.237872e+000 98 67 63
-1.188851e+000 7.031252e-001 -7.849255e+000 204 182 146
-6.055856e-001 9.587799e-001 -8.112633e+000 174 27 46
1.821463e+000 7.634214e-001 -8.698419e+000 156 91 85
4.636271e+000 -6.063380e-001 -8.487174e+000 128 112 102
4.855353e+000 2.075110e-001 -7.848327e+000 133 118 117
4.863516e+000 3.442276e-001 -7.790051e+000 61 51 52
4.888886e+000 2.996476e-001 -7.709185e+000 87 73 72
5.283753e+000 -1.695425e+000 -7.218444e+000 29 19 28
-1.210411e+000 8.714519e-001 -9.330186e+000 124 29 34
-1.210411e+000 8.714519e-001 -9.330186e+000 124 29 34
-1.170157e+000 8.716443e-001 -9.359340e+000 123 66 55
-7.343668e-001 9.474277e-001 -9.502280e+000 119 104 33
-4.962494e-002 9.762077e-001 -9.791714e+000 112 106 90
2.878677e-001 9.234819e-001 -9.999500e+000 123 67 59
3.544718e-001 1.041398e+000 -9.902425e+000 133 79 67
5.045361e-001 9.681668e-001 -1.006010e+001 96 37 27
5.958362e-001 9.799008e-001 -1.006876e+001 102 44 33
5.949201e-001 9.792347e-001 -1.006878e+001 102 44 33
1.375674e+000 1.047947e+000 -1.038365e+001 100 74 56
-1.144665e+000 1.040414e+000 -9.154279e+000 109 26 30
-1.131789e+000 1.083189e+000 -9.114387e+000 110 21 34
-1.017357e+000 1.104744e+000 -9.169668e+000 134 26 44
-3.951557e-001 1.096718e+000 -9.453950e+000 22 37 41
4.640483e-001 1.227044e+000 -9.713776e+000 109 56 45
4.603810e-001 1.222284e+000 -9.672947e+000 126 71 59
6.581483e-001 1.252088e+000 -9.746730e+000 128 71 60
6.861031e-001 1.289455e+000 -9.732042e+000 110 50 44
3.210444e+000 1.449838e+000 -1.062986e+001 73 74 67
3.210444e+000 1.449838e+000 -1.062986e+001 73 74 67
1.389039e+000 1.423368e+000 -9.694519e+000 128 74 56
1.386231e+000 1.425528e+000 -9.692709e+000 128 74 56
1.382757e+000 1.408834e+000 -9.787679e+000 101 25 29
1.646429e+000 1.426934e+000 -9.893466e+000 77 12 22
1.881854e+000 1.422500e+000 -9.950655e+000 112 78 61
1.355865e+000 1.440451e+000 -9.555316e+000 117 26 31
1.466405e+000 1.442169e+000 -9.624083e+000 141 62 57
1.478731e+000 1.446659e+000 -9.477631e+000 149 61 54
3.154836e+000 1.487125e+000 -1.019679e+001 151 110 78
3.157231e+000 1.453462e+000 -1.003650e+001 149 98 65
-5.899851e-001 1.038456e+000 -8.271340e+000 30 55 29
3.457875e-001 1.170677e+000 -8.655633e+000 157 150 43
2.614852e+000 1.175566e+000 -9.452300e+000 163 128 91
-1.302509e+000 7.612613e-001 -7.982444e+000 202 182 143
-1.302213e+000 7.551724e-001 -7.982841e+000 202 182 143
-6.309191e-001 9.446084e-001 -8.139698e+000 185 140 113
2.236254e+000 1.100581e+000 -9.238363e+000 141 112 99
1.967224e+000 8.047770e-001 -8.797978e+000 125 90 88
2.753255e+000 7.953203e-001 -9.073403e+000 74 47 48
8.348842e-001 6.720385e-001 -8.283391e+000 179 39 38
2.519000e+000 6.262960e-001 -8.834801e+000 152 117 108
2.325047e+000 6.094489e-001 -8.750649e+000 172 128 116
4.844952e+000 9.694973e-002 -7.784898e+000 147 129 124
4.891411e+000 3.959619e-001 -7.735925e+000 60 51 60
-1.268846e+000 8.262866e-001 -9.352991e+000 19 53 80
-8.177627e-001 8.012602e-001 -9.604682e+000 74 81 64
-8.513023e-001 8.730256e-001 -9.542171e+000 23 36 18
-5.334473e-001 8.983463e-001 -9.664563e+000 27 41 20
-6.121152e-001 1.021774e+000 -9.451984e+000 126 107 38
-3.338638e-001 1.060291e+000 -9.544238e+000 28 35 15
-3.338638e-001 1.060291e+000 -9.544238e+000 28 35 15
2.449308e-001 1.012766e+000 -9.910895e+000 123 73 63
3.694381e-001 1.104024e+000 -9.847567e+000 128 74 62
1.077973e+000 9.858041e-001 -1.023218e+001 123 73 62
-1.228293e+000 1.162885e+000 -8.980861e+000 48 68 77
-9.856438e-001 1.182412e+000 -9.083563e+000 134 31 37
-9.856438e-001 1.182412e+000 -9.083563e+000 134 31 37
4.417750e-001 1.044007e+000 -9.887645e+000 113 55 44
4.184649e-001 1.106551e+000 -9.806968e+000 134 80 68
4.184649e-001 1.106551e+000 -9.806968e+000 134 80 68
4.122198e-001 1.260469e+000 -9.680274e+000 133 80 67
1.046664e+000 1.331869e+000 -9.823315e+000 129 72 65
2.686443e+000 1.248457e+000 -1.071378e+001 102 68 56
1.303510e+000 1.390759e+000 -9.745524e+000 96 22 18
1.340211e+000 1.404243e+000 -9.743925e+000 117 59 45
2.791333e+000 1.502612e+000 -1.025389e+001 83 41 22
2.747073e+000 1.503692e+000 -1.008582e+001 86 40 20
1.505535e+000 1.231791e+000 -9.177423e+000 85 13 16
-5.868019e-001 1.040170e+000 -8.273222e+000 34 46 9
-5.826121e-001 1.032965e+000 -8.275652e+000 34 46 9
1.220433e+000 9.390988e-001 -8.695501e+000 139 19 30
1.220433e+000 9.390988e-001 -8.695501e+000 139 19 30
4.107278e+000 7.608419e-001 -9.653507e+000 143 83 43
3.994774e+000 6.010569e-001 -9.360805e+000 169 135 104
1.059487e+000 4.656001e-001 -8.208531e+000 166 115 87
-3.453824e-001 4.818967e-001 -7.691257e+000 180 40 38
4.659619e+000 -3.573071e-001 -8.414161e+000 48 36 40
4.971648e+000 -5.324925e-001 -7.560228e+000 159 141 131
4.907115e+000 4.415720e-001 -7.701966e+000 55 47 59
-4.504956e-001 9.316821e-001 -9.663184e+000 107 104 55
-8.496343e-001 1.019649e+000 -9.353726e+000 109 96 53
3.204808e-001 1.047085e+000 -9.821671e+000 130 80 65
1.990381e+000 1.240865e+000 -1.039828e+001 77 30 27
2.058744e+000 1.245802e+000 -1.042687e+001 100 62 51
9.844120e-001 1.389266e+000 -9.334424e+000 144 126 107
2.364777e+000 1.298221e+000 -9.565110e+000 135 53 43
1.882143e+000 8.858401e-001 -8.852512e+000 84 58 71
3.154346e-001 6.107990e-001 -8.038585e+000 164 152 79
3.154346e-001 6.107990e-001 -8.038585e+000 164 152 79
5.073865e+000 -1.411918e+000 -7.449467e+000 157 140 120
-7.279979e-001 8.918998e-001 -9.578067e+000 25 39 24
-6.227922e-001 8.969656e-001 -9.613926e+000 26 40 26
-7.819103e-001 1.079426e+000 -9.333045e+000 32 35 27
-6.349566e-001 9.628331e-001 -9.514746e+000 110 106 75
-5.053489e-001 9.941184e-001 -9.590165e+000 24 35 27
1.291897e+000 1.218689e+000 -1.011845e+001 116 60 47
3.441064e-001 1.276486e+000 -9.614089e+000 129 72 63
3.123394e+000 1.345884e+000 -1.070988e+001 28 31 22
2.587349e+000 1.355705e+000 -9.743920e+000 116 44 26
8.638665e-001 1.111016e+000 -8.796601e+000 161 145 115
4.004441e+000 9.049538e-001 -9.739897e+000 161 100 59
2.366214e+000 8.144587e-001 -8.948513e+000 32 16 31
-1.505506e-001 6.217053e-001 -7.900370e+000 158 149 47
4.623450e+000 -1.895970e-001 -8.332507e+000 61 50 51
4.645579e+000 1.098151e-001 -8.111631e+000 56 43 50
-1.126151e+000 1.014343e+000 -9.225268e+000 126 67 57
3.564210e+000 1.358809e+000 -1.086025e+001 82 52 44
2.470955e+000 1.209619e+000 -9.489965e+000 149 115 99
2.185067e+000 1.047982e+000 -9.157110e+000 137 112 90
1.823280e-001 9.072673e-001 -8.334367e+000 172 152 89
1.385572e+000 9.772276e-001 -8.815726e+000 15 64 99
7.617984e-001 7.307111e-001 -8.298785e+000 177 42 49
4.657925e+000 -7.355182e-001 -8.724885e+000 51 42 47
2.767867e+000 1.400149e+000 -1.012994e+001 132 92 65
-8.040806e-001 1.029981e+000 -8.193781e+000 28 82 112
-1.758723e-001 1.105258e+000 -8.498675e+000 144 136 67
-3.159771e-001 8.557113e-001 -8.193280e+000 33 58 39
5.267367e-001 6.687710e-001 -8.160325e+000 155 146 112
3.707496e+000 4.542389e-001 -9.219828e+000 182 104 38
-6.718552e-002 1.131838e+000 -9.578441e+000 109 103 88
-1.155753e+000 1.152813e+000 -8.984461e+000 126 113 95
3.362197e+000 1.451279e+000 -1.066693e+001 20 29 23
1.485693e+000 1.419651e+000 -9.785795e+000 110 27 35
1.485693e+000 1.419651e+000 -9.785795e+000 110 27 35
3.193105e+000 1.488937e+000 -1.043961e+001 93 56 47
1.990761e-001 1.126859e+000 -8.442004e+000 169 151 117
-4.495905e-001 8.617139e-001 -9.643324e+000 28 44 35
1.123715e+000 1.376539e+000 -9.571307e+000 117 27 32
1.915729e+000 1.267278e+000 -9.374965e+000 95 19 29
1.077741e+000 1.289847e+000 -9.038068e+000 146 23 34
-7.149200e-001 5.586255e-001 -9.823230e+000 39 59 59
-1.158246e+000 7.596760e-001 -9.510489e+000 96 104 67
-4.738879e-001 7.891715e-001 -9.781021e+000 106 117 83
-4.738879e-001 7.891715e-001 -9.781021e+000 106 117 83
2.846041e-001 5.862071e-001 -1.023933e+001 120 72 75
2.846041e-001 5.862071e-001 -1.023933e+001 120 72 75
2.178861e-001 7.325587e-001 -1.012837e+001 119 66 73
3.318829e+000 4.145949e-001 -1.166192e+001 24 18 30
3.211975e+000 5.502617e-001 -1.155217e+001 115 66 59
-1.520174e+000 8.375881e-001 -9.222913e+000 14 43 72
-4.056676e-001 9.648471e-001 -9.729363e+000 115 119 116
-8.706491e-002 9.414281e-001 -9.815082e+000 82 28 32
1.373833e-001 9.314842e-001 -9.942019e+000 96 31 35
8.049825e-001 1.000504e+000 -1.016734e+001 82 21 20
2.175056e+000 7.293669e-001 -1.093125e+001 93 64 59
3.009087e+000 9.118946e-001 -1.116736e+001 45 55 46
-1.042013e+000 9.757980e-001 -9.313600e+000 134 120 108
-1.066636e+000 1.062176e+000 -9.200693e+000 112 34 31
-1.029255e+000 1.079565e+000 -9.203008e+000 117 25 27
-7.338109e-002 1.010435e+000 -9.749949e+000 76 21 27
-3.939275e-002 1.067380e+000 -9.689637e+000 85 33 39
5.052931e-001 1.046876e+000 -9.999551e+000 107 48 40
3.124882e+000 9.427035e-001 -1.115915e+001 26 32 28
-1.096607e+000 1.138063e+000 -9.085303e+000 101 21 16
-1.096607e+000 1.138063e+000 -9.085303e+000 101 21 16
-4.838406e-001 1.145065e+000 -9.363093e+000 101 96 58
9.186289e-001 1.180136e+000 -1.000756e+001 84 22 20
1.269566e+000 1.168351e+000 -1.013350e+001 129 66 56
-1.906719e+000 1.126527e+000 -8.549812e+000 126 63 56
9.705159e-001 1.400535e+000 -9.516210e+000 126 39 42
-2.132124e+000 6.493712e-001 -8.215959e+000 160 20 31
3.248642e+000 1.485133e+000 -1.038544e+001 106 62 56
1.790702e+000 1.421679e+000 -9.568376e+000 23 59 82
1.974229e+000 1.400152e+000 -9.596905e+000 71 100 109
1.348813e+000 1.242852e+000 -9.127644e+000 25 60 81
2.034616e+000 1.295536e+000 -9.473259e+000 68 101 113
2.246201e+000 1.152433e+000 -9.313566e+000 132 105 84
2.535450e+000 1.169124e+000 -9.523156e+000 138 109 93
2.327909e+000 1.013633e+000 -9.185811e+000 40 17 10
-4.782954e-001 8.187975e-001 -8.077009e+000 166 156 117
-4.782954e-001 8.187975e-001 -8.077009e+000 166 156 117
1.178986e+000 9.077221e-001 -8.645293e+000 187 134 94
1.989424e+000 8.416727e-001 -8.863725e+000 87 64 70
1.887758e+000 7.441151e-001 -8.723065e+000 158 101 85
3.920850e+000 6.803794e-001 -9.414325e+000 147 52 37
3.920850e+000 6.803794e-001 -9.414325e+000 147 52 37
-5.476356e-001 6.218829e-001 -7.752364e+000 188 153 109
-5.265542e-001 6.587183e-001 -7.819757e+000 192 148 104
8.279189e-001 7.003148e-001 -8.303951e+000 164 147 115
8.279189e-001 7.003148e-001 -8.303951e+000 164 147 115
2.535190e+000 6.089572e-001 -8.838535e+000 150 113 97
5.156225e+000 -2.066441e+000 -7.488978e+000 66 60 62
-6.942249e-001 3.096184e-001 -9.947337e+000 59 91 137
1.389175e+000 7.510002e-001 -1.064591e+001 93 63 61
2.980642e-001 9.376032e-001 -1.002574e+001 150 97 101
3.142704e-001 9.786810e-001 -9.984825e+000 130 81 67
4.561403e-001 9.355532e-001 -1.010589e+001 119 64 67
7.969110e-001 1.040200e+000 -1.020370e+001 88 27 32
1.503772e+000 7.921760e-001 -1.061036e+001 93 62 57
1.743909e+000 8.610736e-001 -1.067679e+001 98 63 61
1.837228e+000 8.431567e-001 -1.075413e+001 96 66 64
-8.146395e-001 1.034689e+000 -9.339391e+000 108 105 28
-1.400950e-002 1.054641e+000 -9.717337e+000 108 95 79
9.660984e-001 1.042206e+000 -1.008386e+001 86 20 24
1.162710e+000 1.220648e+000 -1.016264e+001 110 102 74
2.678601e+000 9.724772e-001 -1.090842e+001 79 40 34
-1.175672e+000 1.150751e+000 -9.058815e+000 40 59 67
-1.099097e+000 1.171068e+000 -9.059265e+000 138 109 81
4.892243e-001 1.182406e+000 -9.728643e+000 99 39 36
9.142061e-001 1.161372e+000 -9.955712e+000 96 31 27
4.980382e-001 1.265419e+000 -9.700543e+000 133 77 64
4.980382e-001 1.265419e+000 -9.700543e+000 133 77 64
6.274770e-001 1.206428e+000 -9.768598e+000 112 58 48
6.780673e-001 1.219754e+000 -9.756206e+000 127 73 61
1.059468e+000 1.266480e+000 -9.902620e+000 101 41 36
3.991161e+000 1.419800e+000 -1.059008e+001 29 19 28
2.768103e+000 1.414482e+000 -1.000189e+001 139 99 66
-1.485302e+000 9.144952e-001 -8.281960e+000 190 167 133
2.248630e+000 1.282753e+000 -9.619180e+000 153 28 42
-6.315716e-001 1.087857e+000 -8.257014e+000 149 140 27
1.584709e+000 1.196109e+000 -9.135377e+000 79 57 72
1.635481e+000 1.107478e+000 -9.106829e+000 78 56 68
-1.255627e+000 8.582415e-001 -7.954708e+000 203 185 143
1.230628e+000 1.043951e+000 -8.858338e+000 148 22 35
1.164509e+000 1.041021e+000 -8.803758e+000 147 19 27
2.582511e+000 1.059811e+000 -9.356568e+000 72 51 58
2.774393e+000 8.546772e-001 -9.217865e+000 69 52 53
-5.173685e-001 7.952961e-001 -7.985875e+000 193 148 109
1.382488e+000 7.992235e-001 -8.628229e+000 170 65 62
1.575850e+000 7.675952e-001 -8.625490e+000 17 70 88
2.131033e+000 7.103365e-001 -8.779190e+000 144 112 107
4.071548e+000 5.245706e-001 -9.377045e+000 180 130 98
-5.399105e-001 4.894150e-001 -7.801658e+000 191 36 40
-5.774638e-001 6.217135e-001 -7.747014e+000 178 44 51
-1.885129e-001 4.913634e-001 -7.960624e+000 34 52 31
1.036866e+000 5.352923e-001 -8.228370e+000 155 100 79
2.922790e+000 4.988825e-001 -8.925903e+000 168 138 99
2.922790e+000 4.988825e-001 -8.925903e+000 168 138 99
4.051997e+000 3.615871e-001 -9.272897e+000 46 25 32
4.335663e+000 4.530536e-001 -9.421015e+000 30 19 14
4.682559e+000 -3.684199e-001 -8.358740e+000 135 121 116
4.635231e+000 -1.142391e-001 -8.253634e+000 62 51 52
4.724617e+000 -3.543600e-001 -8.078644e+000 131 115 99
4.790987e+000 1.374076e-001 -7.986398e+000 49 37 38
2.440640e-001 5.363443e-001 -1.017967e+001 138 93 99
2.620946e-001 1.045329e+000 -9.932817e+000 102 48 36
9.526749e-001 9.113035e-001 -1.024842e+001 123 68 67
9.586448e-001 9.463308e-001 -1.027160e+001 106 42 43
1.661331e+000 9.437785e-001 -1.055826e+001 98 60 46
1.719589e+000 9.215303e-001 -1.060581e+001 123 93 85
1.837897e+000 9.558681e-001 -1.064999e+001 119 90 82
1.944053e+000 8.899690e-001 -1.075086e+001 117 91 84
1.936717e+000 1.003294e+000 -1.068116e+001 113 84 76
2.152908e+000 8.952751e-001 -1.086941e+001 112 83 78
3.023390e-002 1.005608e+000 -9.776568e+000 91 67 57
5.360844e-002 1.037407e+000 -9.736940e+000 99 82 66
3.653752e-001 1.043289e+000 -9.842388e+000 100 43 32
9.653454e-001 9.545602e-001 -1.020920e+001 123 65 64
2.076572e+000 1.061759e+000 -1.063974e+001 78 35 29
2.548746e+000 1.000799e+000 -1.083025e+001 62 22 12
2.548746e+000 1.000799e+000 -1.083025e+001 62 22 12
2.689442e+000 1.007449e+000 -1.092031e+001 98 62 44
-1.121221e+000 1.140318e+000 -9.070203e+000 122 27 32
-1.110918e+000 1.173021e+000 -9.031998e+000 126 27 37
3.205406e+000 1.237140e+000 -1.089881e+001 39 42 35
3.205406e+000 1.237140e+000 -1.089881e+001 39 42 35
5.284973e-001 1.310398e+000 -9.670224e+000 94 35 27
6.214099e-001 1.201011e+000 -9.730606e+000 130 78 65
2.342432e+000 1.223481e+000 -1.047675e+001 93 59 53
2.342432e+000 1.223481e+000 -1.047675e+001 93 59 53
3.282721e+000 1.214925e+000 -1.088849e+001 29 31 28
3.282721e+000 1.214925e+000 -1.088849e+001 29 31 28
3.207639e+000 1.412110e+000 -1.055079e+001 31 34 26
1.969836e-001 1.367503e+000 -8.991335e+000 49 62 42
1.558352e+000 1.243219e+000 -9.227875e+000 84 20 26
4.760138e-002 1.140296e+000 -8.568882e+000 35 48 45
3.106064e-001 1.040077e+000 -8.531720e+000 29 57 29
-5.164993e-001 8.573329e-001 -8.010570e+000 163 36 43
1.361291e-001 7.972414e-001 -8.181655e+000 15 54 35
2.507908e+000 7.588992e-001 -8.998256e+000 146 123 103
2.549917e+000 7.550578e-001 -8.963376e+000 148 121 103
2.803785e+000 6.989597e-001 -9.015289e+000 85 52 56
3.155861e+000 7.701873e-001 -9.192797e+000 156 120 71
4.458435e-001 6.925832e-001 -8.138665e+000 27 45 27
9.203637e-001 6.120956e-001 -8.241822e+000 150 100 83
1.043120e+000 4.275178e-001 -8.174360e+000 178 158 129
4.639726e+000 -3.994157e-001 -8.399432e+000 144 131 127
4.877779e+000 -1.039985e-001 -8.115099e+000 57 45 49
4.956413e+000 8.240920e-002 -7.865242e+000 148 130 120
-6.700351e-001 7.774239e-001 -9.712448e+000 39 53 54
-6.700351e-001 7.774239e-001 -9.712448e+000 39 53 54
-5.934158e-001 7.146665e-001 -9.764537e+000 103 110 87
-5.566560e-001 7.812423e-001 -9.753655e+000 37 49 37
-5.566560e-001 7.812423e-001 -9.753655e+000 37 49 37
8.655685e-001 3.322932e-001 -1.059052e+001 140 118 116
-5.771421e-001 9.297562e-001 -9.618441e+000 87 85 42
-4.217913e-001 9.519791e-001 -9.702599e+000 28 35 19
7.665524e-001 8.421252e-001 -1.029631e+001 87 23 31
1.539339e+000 9.261000e-001 -1.056101e+001 122 92 90
-7.141397e-001 9.609827e-001 -9.471656e+000 25 31 18
1.792697e+000 9.609242e-001 -1.054750e+001 105 61 48
2.061269e+000 1.011266e+000 -1.062489e+001 97 56 42
2.020031e+000 1.057754e+000 -1.054829e+001 75 25 26
-1.011932e+000 1.149989e+000 -9.123576e+000 117 31 28
-4.020953e-001 1.167974e+000 -9.432882e+000 26 37 20
-4.020953e-001 1.167974e+000 -9.432882e+000 26 37 20
-1.569698e-001 1.195783e+000 -9.459904e+000 19 38 22
-1.569698e-001 1.195783e+000 -9.459904e+000 19 38 22
-3.707230e-001 1.243501e+000 -9.286807e+000 21 37 26
1.131374e+000 1.359570e+000 -9.849767e+000 120 68 57
1.050665e+000 1.352748e+000 -9.314097e+000 145 41 41
2.422684e+000 1.248018e+000 -9.540482e+000 84 22 18
3.403615e-001 9.627974e-001 -8.467234e+000 22 57 29
2.953664e+000 7.713500e-001 -9.125315e+000 168 122 88
9.217075e-001 6.099522e-001 -8.241832e+000 150 99 83
1.017631e+000 6.140769e-001 -8.282525e+000 157 88 75
6.945388e-002 5.261658e-001 -7.866677e+000 162 154 84
4.554439e+000 -3.346462e-001 -8.471854e+000 43 36 38
4.867265e+000 -2.006198e+000 -7.966816e+000 155 145 120
4.978890e+000 2.208494e-002 -7.683803e+000 161 143 133
-5.134201e-001 8.418420e-001 -9.733051e+000 115 120 98
-4.388962e-001 7.979180e-001 -9.789400e+000 36 50 48
-4.388962e-001 7.979180e-001 -9.789400e+000 36 50 48
-9.529499e-001 8.328560e-001 -9.508475e+000 23 33 17
-6.315211e-001 9.192095e-001 -9.607988e+000 30 39 25
4.249861e-001 8.642856e-001 -1.009921e+001 136 87 83
1.914487e+000 9.915560e-001 -1.052821e+001 81 33 33
1.047759e+000 1.148541e+000 -9.997715e+000 126 76 63
2.165090e+000 1.153403e+000 -1.057971e+001 99 65 48
3.129083e+000 1.107288e+000 -1.092758e+001 27 35 27
3.585479e+000 1.015756e+000 -1.112942e+001 66 35 26
8.764556e-001 1.472468e+000 -9.532576e+000 121 103 85
1.045023e+000 1.445311e+000 -9.641445e+000 113 28 35
8.900263e-002 1.096508e+000 -8.523403e+000 168 156 81
8.544877e-001 1.197179e+000 -8.835387e+000 166 36 42
3.158508e-001 1.058964e+000 -8.540844e+000 34 54 31
1.514259e+000 1.055464e+000 -8.956995e+000 16 49 81
9.502606e-001 1.001367e+000 -8.632746e+000 174 37 51
1.511883e+000 1.000146e+000 -8.809149e+000 29 73 109
2.093860e+000 8.833391e-001 -8.919690e+000 79 57 70
-3.343709e-001 8.432051e-001 -8.067153e+000 157 153 100
2.522139e+000 7.886812e-001 -8.988807e+000 142 116 99
2.269514e+000 5.842055e-001 -8.708168e+000 99 52 51
2.185602e-001 5.227191e-001 -7.924632e+000 168 154 57
5.105543e+000 -1.672875e+000 -7.586783e+000 159 140 123
-1.213112e+000 7.777524e-001 -9.487318e+000 32 70 119
1.860732e-001 9.133800e-001 -9.946562e+000 93 33 28
1.860732e-001 9.133800e-001 -9.946562e+000 93 33 28
4.427199e-001 1.090310e+000 -9.934648e+000 127 76 57
1.229261e+000 1.118912e+000 -1.023186e+001 112 98 71
-1.081584e+000 1.188430e+000 -9.090601e+000 129 93 71
2.036909e+000 1.419215e+000 -9.685060e+000 14 61 78
1.609609e-002 1.268748e+000 -8.708793e+000 104 115 108
1.609609e-002 1.268748e+000 -8.708793e+000 104 115 108
6.095785e-001 1.220035e+000 -8.880174e+000 141 40 37
1.646181e+000 1.114862e+000 -9.083363e+000 85 60 78
9.281217e-002 9.374943e-001 -8.294697e+000 34 60 36
2.357880e+000 8.753769e-001 -9.027791e+000 138 113 93
7.835903e-001 1.085155e+000 -1.014739e+001 113 54 54
-6.370823e-001 1.153622e+000 -9.347492e+000 106 102 75
-6.370823e-001 1.153622e+000 -9.347492e+000 106 102 75
-4.639637e-001 1.127940e+000 -9.410830e+000 77 82 78
-4.639637e-001 1.127940e+000 -9.410830e+000 77 82 78
8.004617e-001 1.281416e+000 -9.981548e+000 85 20 21
-9.087771e-001 1.272813e+000 -9.085089e+000 23 36 30
1.257248e+000 1.308308e+000 -9.920883e+000 91 18 26
1.881584e+000 1.262778e+000 -9.380714e+000 109 22 28
1.108664e-001 6.794729e-001 -7.991457e+000 163 149 118
1.108664e-001 6.794729e-001 -7.991457e+000 163 149 118
2.487773e-001 6.088650e-001 -8.012428e+000 38 66 43
4.766354e-001 5.889165e-001 -8.085102e+000 30 52 29
2.692402e+000 5.829971e-001 -8.890156e+000 84 43 48
2.794887e+000 4.898304e-001 -1.132643e+001 93 63 55
7.213351e-001 7.657588e-001 -1.026558e+001 133 122 128
6.113744e-001 9.400449e-001 -1.006244e+001 107 50 41
1.037669e+000 1.116087e+000 -1.008976e+001 131 99 76
3.392770e+000 1.209640e+000 -9.997078e+000 146 112 77
4.811148e-002 8.609798e-001 -8.225968e+000 165 153 114
2.310908e+000 7.253186e-001 -8.875689e+000 148 117 104
3.367678e+000 1.443688e+000 -1.066979e+001 21 31 23
-1.167852e+000 7.948530e-001 -9.417747e+000 144 89 80
-1.175907e+000 1.154835e+000 -9.225885e+000 143 93 72
3.740490e+000 1.422111e+000 -1.039476e+001 132 99 68
-7.614771e-001 1.109558e+000 -8.280508e+000 22 82 111
8.697677e-002 1.118006e+000 -9.578175e+000 100 94 79
1.792688e+000 1.378169e+000 -9.838784e+000 87 14 29
1.906890e+000 1.084890e+000 -1.039652e+001 85 40 37
3.571352e+000 1.354114e+000 -1.020213e+001 143 106 77
5.505980e-001 1.248041e+000 -8.742089e+000 162 34 35
2.368904e+000 4.046483e-001 -8.677627e+000 160 115 68
1.523624e+000 2.440119e-001 -8.118707e+000 164 99 72
1.106259e+000 3.300765e-002 -8.182572e+000 114 144 155
3.162327e-001 -6.994617e-002 -7.962356e+000 150 154 132
3.451777e+000 -4.581188e-002 -9.242807e+000 191 96 51
2.360571e+000 -2.323881e-001 -8.919939e+000 201 75 79
2.810387e+000 -3.040986e-001 -9.182630e+000 118 66 51
3.326827e+000 -2.683934e-001 -9.391549e+000 170 84 50
3.392833e+000 -2.576390e-001 -9.387405e+000 178 91 59
2.384980e+000 -4.213647e-001 -9.101313e+000 193 75 77
2.432549e+000 -3.449089e-001 -9.052341e+000 164 37 45
2.629667e+000 -3.206355e-001 -9.099509e+000 168 51 62
2.593744e+000 -3.621452e-001 -9.123691e+000 189 72 81
3.216318e+000 -3.507019e-001 -9.403203e+000 144 47 17
-5.542867e-001 -4.682367e-001 -7.896398e+000 189 35 45
-5.542867e-001 -4.682367e-001 -7.896398e+000 189 35 45
8.314408e-001 -4.569221e-001 -8.445873e+000 158 36 41
2.560281e+000 -4.588718e-001 -9.203904e+000 186 61 76
2.976336e+000 -6.165725e-001 -9.611041e+000 143 105 86
3.227469e+000 -5.216221e-001 -9.606245e+000 171 134 107
3.303944e+000 -5.075897e-001 -9.610132e+000 172 138 110
-5.306651e-001 -6.257126e-001 -8.054906e+000 203 148 129
-2.513978e-001 -6.006575e-001 -8.143465e+000 159 164 40
2.095646e+000 -7.289246e-001 -9.299082e+000 184 113 103
-5.402085e-001 -7.765634e-001 -8.308390e+000 63 106 145
1.092881e+000 -8.409385e-001 -9.066760e+000 141 89 94
2.014018e+000 -7.685346e-001 -9.327003e+000 184 126 118
-5.150558e-001 -7.896583e-001 -8.259355e+000 122 135 84
-1.256964e+000 8.763180e-001 -7.982634e+000 195 173 149
2.316078e+000 3.630404e-001 -8.647963e+000 162 114 86
2.502659e+000 4.093518e-001 -8.732771e+000 161 120 65
3.976601e+000 5.321966e-001 -9.339227e+000 164 58 75
2.508670e+000 3.116742e-001 -8.727185e+000 87 32 43
2.927468e+000 3.213136e-001 -8.879172e+000 171 119 81
1.133231e+000 5.200442e-002 -8.219638e+000 21 88 131
2.326841e+000 3.599061e-003 -8.732393e+000 185 137 110
-1.532173e+000 -1.659747e-001 -8.057488e+000 181 158 135
2.181317e+000 -6.426540e-002 -8.731652e+000 196 142 116
2.651423e+000 -9.266587e-002 -8.935388e+000 201 86 88
2.651423e+000 -9.266587e-002 -8.935388e+000 201 86 88
3.680937e+000 -9.426134e-002 -9.381269e+000 188 168 144
1.683210e+000 -1.777518e-001 -8.601277e+000 195 128 101
2.364537e+000 -3.891086e-001 -9.051421e+000 159 31 45
2.665108e+000 -4.058481e-001 -9.171652e+000 161 36 49
3.135388e+000 -3.922684e-001 -9.399669e+000 150 45 25
3.369857e+000 -3.591679e-001 -9.491876e+000 179 102 60
2.356813e-001 -4.594664e-001 -8.201927e+000 163 167 26
2.241675e+000 -5.185274e-001 -9.136470e+000 157 37 43
2.895389e+000 -4.768293e-001 -9.366714e+000 196 134 116
-6.035478e-001 -5.382631e-001 -7.939023e+000 175 21 49
-1.681139e-001 -6.216150e-001 -8.199391e+000 23 58 43
-1.681139e-001 -6.216150e-001 -8.199391e+000 23 58 43
1.851958e+000 -6.950815e-001 -9.178547e+000 140 82 70
-6.946577e-001 -7.624992e-001 -8.188216e+000 169 49 59
1.146311e-001 -7.530954e-001 -8.500843e+000 160 160 43
6.229029e-001 5.256793e-001 -8.056095e+000 172 159 62
2.660548e+000 3.784235e-001 -8.778840e+000 117 63 25
4.233166e+000 5.185633e-001 -9.433996e+000 160 73 47
2.371812e+000 -2.344791e-003 -8.774521e+000 158 23 34
2.386675e+000 -1.060169e-001 -8.822501e+000 186 68 72
1.478319e+000 -1.636499e-001 -8.505862e+000 169 110 106
-1.467462e-002 -3.386939e-001 -8.005577e+000 63 107 125
5.306580e-001 -5.087210e-001 -8.371664e+000 166 164 144
5.394667e-001 -5.098801e-001 -8.369341e+000 166 164 144
2.223185e+000 6.988832e-001 -8.801844e+000 78 35 45
6.958819e-001 -8.397971e-001 -8.892790e+000 189 128 119
-2.109050e+001 1.005556e+001 -6.144284e+001 23 16 24
2.697269e+000 -2.120689e-001 -9.032155e+000 171 35 49
8.742021e-001 -4.211531e-001 -8.467930e+000 205 150 124
-4.458388e-001 -6.209359e-001 -8.105383e+000 23 90 148
-3.651740e+001 3.888867e+000 -7.276166e+001 59 47 50
4.128294e+000 2.272746e-001 -9.350094e+000 49 11 9
3.079720e+000 3.519594e-001 -8.932254e+000 157 113 88
1.918921e+000 -4.928228e-001 -8.942698e+000 134 71 62
3.134850e+000 1.314279e-001 -1.021292e+001 157 21 35
3.134850e+000 1.314279e-001 -1.021292e+001 157 21 35
6.445213e-001 -4.179178e-001 -8.347259e+000 172 160 144
1.184252e+000 -5.405381e-001 -8.697471e+000 188 131 111
2.317293e+000 3.534116e-001 -8.665178e+000 177 131 83
2.712693e+000 3.736989e-001 -8.788174e+000 181 135 72
3.276014e+000 1.598401e-002 -9.112090e+000 200 84 37
-5.899458e-002 -3.836300e-001 -8.032671e+000 30 59 39
-3.640815e+001 4.588461e+000 -7.457410e+001 86 65 68
-2.573596e+001 4.113908e+000 -7.909647e+001 111 97 84
-2.465315e+001 8.059480e+000 -7.455053e+001 68 56 56
-3.656152e+001 5.425260e+000 -7.332823e+001 133 91 81
-3.024936e+001 5.952849e+000 -7.326350e+001 84 41 36
-2.785875e+001 6.562807e+000 -7.559187e+001 41 28 25
-2.719384e+001 7.109866e+000 -7.498652e+001 53 44 45
-2.591136e+001 3.594086e+000 -8.043777e+001 38 27 22
-2.585558e+001 3.589967e+000 -8.027947e+001 38 27 22
-2.513996e+001 4.127812e+000 -7.957513e+001 118 102 90
8.699314e-001 -1.365406e-001 -8.151530e+000 157 22 36
