ply
format ascii 1.0
element face 0
property list uchar int vertex_indices
element vertex 886
property float x
property float y
property float z
property uchar diffuse_red
property uchar diffuse_green
property uchar diffuse_blue
end_header
2.071354e+000 -7.518460e-001 -9.325602e+000 184 126 118
2.186251e+000 -7.621077e-001 -9.447991e+000 163 42 51
-7.603511e-001 -8.108054e-001 -8.133982e+000 196 152 127
-1.264281e+000 -9.912297e-001 -8.321153e+000 160 158 163
1.800826e+000 8.889340e-001 -8.644029e+000 91 34 38
2.241119e+000 8.399700e-001 -8.774177e+000 86 63 74
-5.859979e-001 5.227629e-001 -7.428219e+000 168 150 117
3.937553e+000 6.522253e-001 -9.284100e+000 182 149 114
3.416278e+000 2.507580e-001 -9.038952e+000 129 34 27
4.258819e+000 2.797083e-001 -9.320867e+000 41 11 18
4.225543e+000 1.485634e-001 -9.393440e+000 170 102 65
4.226008e+000 1.485605e-001 -9.393830e+000 170 102 65
1.967613e+000 -1.065071e-001 -8.591474e+000 127 78 62
2.590780e+000 -1.079789e-002 -8.786692e+000 202 89 95
2.961332e+000 -2.299747e-002 -8.959692e+000 195 144 124
3.231854e+000 -2.397292e-002 -9.033035e+000 186 127 91
2.515999e+000 -1.433242e-001 -8.821957e+000 165 35 48
2.961039e+000 -2.239946e-001 -9.118555e+000 193 142 113
3.947412e+000 -2.826691e-001 -9.678985e+000 76 56 57
-1.121390e-001 -2.974476e-001 -7.850152e+000 55 100 125
2.423198e+000 -3.591687e-001 -8.992753e+000 159 31 45
3.141397e+000 -4.143018e-001 -9.400196e+000 146 41 22
3.590006e+000 -3.509791e-001 -9.558627e+000 188 153 126
-6.153203e-001 -4.177225e-001 -7.734070e+000 172 167 136
-5.149271e-001 -4.446378e-001 -7.783293e+000 181 42 33
6.393887e-001 -3.890730e-001 -8.194325e+000 164 160 148
2.880734e+000 -4.901476e-001 -9.369178e+000 194 135 119
-6.788915e-001 -5.434541e-001 -7.839584e+000 184 46 57
-2.959596e-001 -5.190849e-001 -7.945162e+000 152 158 40
-3.050534e-001 -5.507586e-001 -7.980336e+000 23 59 39
9.139280e-001 -6.019767e-001 -8.563078e+000 20 76 111
1.914790e+000 -7.162899e-001 -9.216491e+000 187 134 118
-5.831762e-001 -6.399957e-001 -7.963989e+000 183 47 56
-5.846218e-001 -6.389735e-001 -7.974695e+000 183 47 56
6.128956e-002 -7.077090e-001 -8.343525e+000 48 63 34
1.620782e+000 -7.528455e-001 -9.115460e+000 186 126 112
-7.711342e-001 -7.879015e-001 -8.106945e+000 176 44 53
-7.747810e-001 -7.883445e-001 -8.103620e+000 176 44 53
-7.901390e-001 -8.274968e-001 -8.148636e+000 184 51 56
4.377433e+000 -1.534110e+000 -9.428938e+000 45 35 39
6.366464e-001 1.296172e+000 -8.732011e+000 166 152 120
-8.319563e-001 1.063372e+000 -7.986244e+000 170 135 122
-5.405115e-001 8.646485e-001 -7.810011e+000 168 40 44
-1.236250e-001 5.831857e-001 -7.657256e+000 65 99 108
2.169378e+000 6.012306e-001 -8.542731e+000 69 24 31
3.487667e+000 4.163641e-001 -8.964935e+000 135 45 53
2.067611e+000 -5.498572e-002 -8.581308e+000 153 107 84
2.067611e+000 -5.498572e-002 -8.581308e+000 153 107 84
2.154921e+000 -9.841176e-002 -8.667921e+000 164 118 103
3.923497e+000 -3.001522e-002 -9.409048e+000 186 158 147
3.585398e-002 -3.005870e-001 -7.927008e+000 24 53 30
3.017596e+000 -3.229482e-001 -9.206359e+000 197 131 104
3.645595e+000 -3.199131e-001 -9.529338e+000 82 69 75
-6.396101e-001 -4.449756e-001 -7.748113e+000 196 40 57
-6.397915e-001 -4.447356e-001 -7.748393e+000 196 40 57
-5.585153e-001 -4.472735e-001 -7.771611e+000 186 45 46
-1.955083e-001 -4.687954e-001 -7.977346e+000 44 108 125
5.094566e-001 -4.216224e-001 -8.202087e+000 164 154 142
9.769876e-001 -4.446839e-001 -8.411630e+000 6 54 92
1.269981e+000 -4.457618e-001 -8.543850e+000 118 69 53
1.356398e+000 -4.243122e-001 -8.568615e+000 172 110 97
4.715297e-002 -7.134946e-001 -8.360544e+000 36 64 42
6.871480e-001 -7.225225e-001 -8.657784e+000 168 29 46
-6.546298e-001 -7.937975e-001 -8.147478e+000 190 46 56
-5.104176e-001 -8.168721e-001 -8.246669e+000 142 144 89
2.524112e+000 7.924815e-001 -8.820276e+000 128 97 94
3.435329e+000 2.044790e-001 -9.032156e+000 196 104 33
4.442135e+000 2.389381e-001 -9.471643e+000 30 18 30
1.559828e+000 -8.518625e-002 -8.409960e+000 185 124 103
1.934390e+000 -7.354058e-002 -8.567615e+000 189 140 110
9.537567e-001 -2.090230e-001 -8.219429e+000 151 35 36
2.199555e-001 -4.009785e-001 -8.037585e+000 25 62 31
2.114886e-001 -3.967973e-001 -8.053636e+000 25 62 31
7.997050e-001 -5.893464e-001 -8.477599e+000 182 110 94
-3.745619e-001 -6.558778e-001 -8.083377e+000 123 134 65
6.645592e-001 -7.753599e-001 -8.744296e+000 151 35 42
-6.253059e-001 -8.131768e-001 -8.220438e+000 143 141 101
-1.989444e-001 -8.011170e-001 -8.379828e+000 139 147 59
4.212239e+000 -1.998801e+000 -9.794784e+000 142 128 129
2.163985e+000 5.587314e-001 -8.506077e+000 84 37 43
2.451152e+000 1.393142e-001 -8.645891e+000 169 33 48
4.002471e+000 -3.637792e-002 -9.459402e+000 137 84 43
1.085060e-001 -1.790556e-001 -7.843124e+000 100 119 137
1.085060e-001 -1.790556e-001 -7.843124e+000 100 119 137
4.013930e+000 -3.351037e-001 -9.773867e+000 156 125 114
-4.439586e-001 -4.492450e-001 -7.813772e+000 11 85 134
-1.423753e-001 -4.293571e-001 -7.919558e+000 21 55 33
8.107309e-001 -4.071350e-001 -8.326017e+000 152 28 38
2.526842e+000 -5.505426e-001 -9.321654e+000 168 31 40
2.526842e+000 -5.505426e-001 -9.321654e+000 168 31 40
2.984597e+000 -5.884241e-001 -9.566641e+000 189 138 116
2.984597e+000 -5.884241e-001 -9.566641e+000 189 138 116
-3.077292e-001 -4.949505e-001 -7.903186e+000 90 118 87
1.365616e-001 -5.141978e-001 -8.135426e+000 159 170 103
7.635625e-002 -5.622574e-001 -8.179505e+000 30 66 45
-3.244028e-001 -6.815772e-001 -8.190471e+000 32 68 39
-7.175450e-001 -7.857095e-001 -8.117079e+000 205 148 129
4.230336e+000 -1.887904e+000 -9.776668e+000 50 38 53
4.093921e+000 -2.274967e+000 -1.004108e+001 146 132 132
-2.078282e-001 5.697412e-001 -7.596301e+000 82 108 101
4.749321e-002 5.822725e-001 -7.730127e+000 163 148 120
4.218339e-002 5.799729e-001 -7.713102e+000 163 148 120
2.564818e+000 5.786839e-001 -8.680361e+000 68 22 32
4.084403e+000 1.280004e-001 -9.314928e+000 187 104 52
2.329796e+000 -4.231616e-001 -9.001953e+000 180 57 68
3.150328e+000 -5.763171e-001 -9.639661e+000 140 106 81
1.456442e+000 -5.949060e-001 -8.797494e+000 193 131 110
-2.037658e-001 -7.363597e-001 -8.242549e+000 114 137 124
-1.331487e-001 -7.560582e-001 -8.355854e+000 31 61 39
-3.583244e-002 -7.140113e-001 -8.312885e+000 137 148 142
2.308788e-002 8.020369e-001 -7.945993e+000 35 60 36
3.671800e+000 -2.231179e-001 -9.439187e+000 197 167 143
-1.179060e-001 -5.798512e-001 -8.050658e+000 79 114 133
2.711902e+000 -8.209409e-001 -9.859589e+000 201 140 139
2.430977e+000 7.638884e-001 -8.801906e+000 136 108 97
3.433849e+000 6.577502e-001 -9.077190e+000 156 116 81
1.370999e+000 -2.663128e-001 -8.471224e+000 193 128 108
1.548054e-001 -2.385143e-001 -7.930249e+000 23 59 30
1.783860e+000 -5.232203e-001 -9.219503e+000 188 127 108
1.286111e+000 5.834552e-001 -8.170075e+000 155 22 24
4.058034e+000 2.223085e-001 -9.267408e+000 204 117 46
2.569487e+000 6.861077e-002 -8.730816e+000 157 24 27
2.451092e+000 -3.807421e-002 -8.739163e+000 194 92 88
2.486123e+000 -5.897809e-002 -8.774670e+000 166 32 36
2.486123e+000 -5.897809e-002 -8.774670e+000 166 32 36
3.229295e+000 4.494427e-003 -9.005294e+000 188 121 77
5.348691e-001 -3.738063e-001 -8.177755e+000 176 153 131
2.668009e+000 -3.751894e-001 -9.094136e+000 160 30 38
2.804746e+000 -5.175131e-001 -9.338283e+000 139 80 66
2.900199e+000 -5.220853e-001 -9.399544e+000 138 80 60
1.399192e+000 -7.426312e-001 -8.994993e+000 142 80 65
-4.973087e-002 -8.315685e-001 -8.492296e+000 68 81 35
4.135384e+000 -2.210210e+000 -9.955673e+000 152 134 130
2.443033e+000 4.626408e-001 -8.602553e+000 181 129 83
3.608713e+000 -2.806047e-001 -9.487479e+000 180 148 111
-5.540632e-001 -4.466960e-001 -7.772930e+000 182 49 49
-1.187507e-001 -3.905666e-001 -7.913907e+000 171 156 30
3.865655e+000 -7.159644e-001 -1.012810e+001 149 110 102
4.349559e+000 -1.609376e+000 -9.503133e+000 62 43 52
1.864698e+000 6.368315e-001 -8.467033e+000 185 140 84
4.037279e+000 1.275773e-001 -9.308789e+000 198 108 45
1.449160e+000 2.788269e-002 -8.275235e+000 154 98 82
-2.173044e-001 -3.173795e-001 -7.819289e+000 105 104 24
4.165627e+000 -2.208583e+000 -9.851491e+000 153 135 133
4.244999e+000 -2.157019e+000 -9.682922e+000 143 125 121
4.032360e+000 5.811406e-001 -9.262666e+000 189 154 125
1.130361e+000 1.315467e-001 -8.115485e+000 168 163 140
2.580098e+000 6.839187e-001 -8.748527e+000 145 114 96
1.308600e+000 -1.803268e-001 -8.418489e+000 189 119 103
4.160437e+000 -2.211378e+000 -9.950616e+000 131 113 111
4.109105e+000 1.598937e-001 -9.326262e+000 191 99 42
1.030826e+000 -2.564977e-001 -8.295892e+000 27 78 112
2.727664e+000 -3.241438e-001 -9.091777e+000 197 79 76
3.495320e+000 4.600391e-001 -9.018511e+000 175 118 83
3.890789e+000 -2.822326e+000 -1.049031e+001 115 97 97
4.435305e+000 -1.458350e+000 -9.300904e+000 160 139 134
1.203085e+000 -2.507253e-001 -8.339645e+000 17 66 96
-6.972468e+000 -5.125650e+001 -3.510594e+001 48 34 21
-4.881206e+000 -5.972066e+001 -1.785224e+001 140 117 83
-7.773588e+000 -6.432081e+001 -2.004835e+001 72 60 48
-4.120315e+000 -6.053485e+001 -1.694150e+001 48 40 37
-3.819762e+000 -6.320816e+001 -1.566338e+001 134 113 83
-2.412351e+000 -5.680409e+001 -2.624621e+001 143 129 102
-2.412351e+000 -5.680409e+001 -2.624621e+001 143 129 102
-2.103101e+000 -5.734693e+001 -2.543584e+001 129 108 81
-2.103101e+000 -5.734693e+001 -2.543584e+001 129 108 81
-4.495125e+000 -6.009073e+001 -1.765810e+001 130 122 113
-3.610602e+000 -5.963725e+001 -1.769575e+001 58 57 63
-3.610602e+000 -5.963725e+001 -1.769575e+001 58 57 63
-5.405931e+000 -6.208218e+001 -1.675241e+001 166 128 85
-8.281571e+000 -6.231111e+001 -2.138738e+001 41 27 18
-8.673538e+000 -6.571628e+001 -2.080891e+001 60 47 38
-2.153740e+000 -5.860246e+001 -1.790012e+001 56 51 47
2.506922e+000 -5.879940e+001 -1.822725e+001 24 14 15
2.506922e+000 -5.879940e+001 -1.822725e+001 24 14 15
-7.121274e+000 -7.434068e+001 -1.697477e+001 135 104 62
-6.468315e+000 -7.025489e+001 -1.688480e+001 202 166 113
-8.744913e+000 -6.219111e+001 -2.083504e+001 174 144 94
-4.796699e+000 -5.965512e+001 -1.953704e+001 23 17 19
-8.433923e+000 -2.670894e+001 -2.130188e+001 186 149 97
-5.820909e+000 -5.889371e+001 -1.702277e+001 40 29 21
-7.800704e+000 -6.322562e+001 -2.320623e+001 190 158 107
-8.315058e+000 -6.818695e+001 -2.136714e+001 64 51 41
-8.315058e+000 -6.818695e+001 -2.136714e+001 64 51 41
2.577649e+000 1.407078e+000 -9.568642e+000 153 118 77
1.949901e+000 1.425066e+000 -9.393724e+000 24 63 94
-7.334773e-001 1.041873e+000 -8.025974e+000 157 30 41
-3.760389e-001 -6.644397e+001 -1.525066e+001 98 77 60
-7.267190e-001 -6.557652e+001 -1.498378e+001 91 78 60
-6.927334e-001 -6.662220e+001 -1.512552e+001 91 78 60
2.225109e+000 1.422583e+000 -9.490038e+000 53 15 16
-4.564964e+000 -6.155825e+001 -1.726749e+001 46 37 36
4.797593e+000 -1.042011e+000 -8.415499e+000 139 123 107
4.797593e+000 -1.042011e+000 -8.415499e+000 139 123 107
-4.782362e+000 -5.882535e+001 -1.817009e+001 173 150 117
-4.503788e+000 -6.039680e+001 -1.770456e+001 147 145 143
-3.985930e+000 -6.063771e+001 -1.740553e+001 24 18 28
-4.052814e+000 -6.628720e+001 -1.564369e+001 92 88 59
-3.408659e+000 -6.720076e+001 -1.541067e+001 159 152 126
-2.494391e+000 -6.709932e+001 -1.494404e+001 136 134 119
-1.126802e+000 -6.572769e+001 -1.504774e+001 133 127 105
-7.355810e+000 -7.657864e+001 -1.334256e+001 111 83 57
1.846214e-001 -4.624457e+001 -1.764095e+001 204 188 149
-8.126314e+000 -7.637826e+001 -1.302790e+001 85 63 45
-2.535343e+000 -6.835906e+001 -1.314422e+001 192 172 139
-1.235426e+000 -6.824087e+001 -1.364236e+001 187 177 145
1.342673e+000 1.366360e+000 -9.093410e+000 26 73 96
-4.328289e+000 -6.078647e+001 -1.853829e+001 29 22 30
-1.508931e+000 -6.737863e+001 -1.439985e+001 58 70 71
-8.429545e-001 -6.831025e+001 -1.381112e+001 173 163 127
-8.485227e-001 -6.888446e+001 -1.288671e+001 57 83 70
-3.024647e+000 -6.858846e+001 -1.421465e+001 54 74 68
-2.030195e+000 -6.868117e+001 -1.341493e+001 186 167 136
-2.220095e+000 -6.934086e+001 -1.236902e+001 62 95 86
-7.846707e+000 -6.770589e+001 -1.819317e+001 201 173 126
-4.040408e+000 -7.173541e+001 -1.273549e+001 213 187 150
-4.040408e+000 -7.173541e+001 -1.273549e+001 213 187 150
-5.004233e+000 -6.461602e+001 -1.512524e+001 213 185 138
-1.148783e+000 1.168451e+000 -9.081162e+000 119 42 36
9.010020e-001 1.178049e+000 -1.005521e+001 88 30 28
2.881583e+000 1.495994e+000 -9.849387e+000 110 58 32
1.309140e+000 1.333493e+000 -9.047497e+000 21 67 96
-1.495501e+000 7.637709e-001 -7.877549e+000 194 172 135
-6.912701e-001 9.994539e-001 -7.992333e+000 166 28 43
-6.428264e-001 8.903708e-001 -7.878016e+000 164 32 29
2.261465e+000 1.073031e+000 -9.035517e+000 138 118 104
1.113795e+000 8.368412e-001 -8.300369e+000 161 151 120
-5.200055e-001 6.879964e-001 -7.638044e+000 172 33 38
-1.153517e+000 1.069606e+000 -9.206760e+000 135 39 38
3.531722e+000 1.637548e+000 -1.049392e+001 98 59 55
1.701246e-001 1.437604e+000 -8.829030e+000 153 139 44
1.877901e+000 1.505548e+000 -9.534335e+000 133 129 107
2.964531e+000 1.515085e+000 -9.894520e+000 87 38 24
-2.981949e-001 1.218770e+000 -8.372085e+000 30 44 24
-2.981949e-001 1.218770e+000 -8.372085e+000 30 44 24
2.555398e+000 1.245117e+000 -9.354875e+000 138 84 74
2.555398e+000 1.245117e+000 -9.354875e+000 138 84 74
1.963444e+000 1.177220e+000 -9.052996e+000 81 55 67
2.006314e+000 1.179663e+000 -9.065817e+000 122 97 101
-2.418186e-001 7.051202e-001 -7.755481e+000 79 109 120
3.286541e+000 1.490073e+000 -1.072175e+001 41 43 38
3.286541e+000 1.490073e+000 -1.072175e+001 41 43 38
2.694895e+000 1.430083e+000 -9.684774e+000 152 118 81
-2.936302e-001 1.082523e+000 -8.213083e+000 17 52 33
1.208829e+000 1.081214e+000 -8.665644e+000 143 24 27
1.208829e+000 1.081214e+000 -8.665644e+000 143 24 27
1.435013e-001 8.020366e-001 -7.988935e+000 19 47 14
-1.632948e-001 1.087711e+000 -9.635462e+000 106 104 86
4.157996e+000 9.025313e-001 -9.592155e+000 140 77 43
2.001854e+000 1.539729e+000 -9.738573e+000 129 91 67
9.292105e-001 1.478261e+000 -9.223688e+000 138 129 100
-1.264223e+000 9.387089e-001 -9.308848e+000 109 14 29
-9.641546e-001 9.772225e-001 -9.432509e+000 104 106 54
-1.247884e+000 1.030041e+000 -9.200108e+000 129 26 46
-1.207803e+000 1.026995e+000 -9.244542e+000 123 37 44
-1.166009e+000 1.130905e+000 -9.132617e+000 105 26 27
-6.140105e-001 1.045828e+000 -9.530938e+000 113 113 32
-6.115536e-001 1.064327e+000 -9.466969e+000 110 106 39
-6.111564e-001 1.066497e+000 -9.466806e+000 110 106 39
-1.344602e-001 1.140793e+000 -9.627603e+000 83 23 29
8.544317e-001 1.142838e+000 -1.008887e+001 133 73 66
8.352784e-001 1.155211e+000 -1.005160e+001 94 15 21
8.810171e-001 1.167174e+000 -1.007697e+001 89 23 24
1.496414e+000 1.138110e+000 -1.038952e+001 118 85 70
-1.198122e+000 1.201759e+000 -9.010336e+000 143 108 78
-1.169579e+000 1.043597e+000 -9.060374e+000 143 108 78
-1.181294e+000 1.240895e+000 -8.966942e+000 139 120 83
-1.162698e+000 1.260689e+000 -8.949179e+000 110 21 31
-1.162698e+000 1.260689e+000 -8.949179e+000 110 21 31
-1.053803e+000 1.229761e+000 -9.037779e+000 126 116 103
-6.348540e-001 1.188958e+000 -9.314073e+000 31 39 29
1.051270e+000 1.406506e+000 -9.874885e+000 124 65 60
1.027848e+000 1.381180e+000 -9.824613e+000 122 61 61
1.114316e+000 1.436382e+000 -9.870690e+000 122 59 59
1.187644e+000 1.382416e+000 -9.932898e+000 107 46 45
1.207581e+000 1.398514e+000 -9.905475e+000 118 51 58
1.919886e+000 1.445668e+000 -1.017917e+001 77 25 27
1.822359e+000 1.602360e+000 -9.970276e+000 104 72 57
1.433952e+000 1.539642e+000 -9.652205e+000 104 31 33
1.576315e+000 1.530327e+000 -9.824961e+000 91 19 24
3.275055e+000 1.648783e+000 -1.033059e+001 65 19 22
3.865099e+000 1.724616e+000 -1.060696e+001 34 21 26
9.318232e-001 1.462279e+000 -9.140285e+000 150 144 108
2.079830e+000 1.573148e+000 -9.609452e+000 22 54 58
3.163463e+000 1.509602e+000 -9.957934e+000 46 11 21
1.321265e+000 1.348624e+000 -9.064949e+000 151 146 112
-6.612114e-001 1.097177e+000 -8.130278e+000 153 148 15
-1.373339e+000 8.747364e-001 -7.838432e+000 112 90 67
-1.494966e-001 1.111748e+000 -8.274009e+000 30 45 29
1.119614e+000 1.148122e+000 -8.727359e+000 177 144 92
2.483432e+000 1.187981e+000 -9.181154e+000 98 67 63
2.483432e+000 1.187981e+000 -9.181154e+000 98 67 63
-1.271132e+000 7.804605e-001 -7.700120e+000 204 182 146
-6.654942e-001 1.046940e+000 -7.980118e+000 174 27 46
1.859163e+000 8.430250e-001 -8.613175e+000 156 91 85
4.793370e+000 -5.844258e-001 -8.418688e+000 128 112 102
5.028028e+000 2.634518e-001 -7.755197e+000 133 118 117
5.037365e+000 4.057100e-001 -7.694595e+000 61 51 52
5.064347e+000 3.594244e-001 -7.610531e+000 87 73 72
5.478840e+000 -1.718685e+000 -7.102592e+000 29 19 28
-1.307238e+000 9.555371e-001 -9.243947e+000 124 29 34
-1.307238e+000 9.555371e-001 -9.243947e+000 124 29 34
-1.265534e+000 9.557293e-001 -9.274716e+000 123 66 55
-8.125254e-001 1.034719e+000 -9.427763e+000 119 104 33
-1.013199e-001 1.064647e+000 -9.735796e+000 112 106 90
2.485979e-001 1.009611e+000 -9.955479e+000 123 67 59
3.189411e-001 1.132563e+000 -9.854932e+000 133 79 67
4.739146e-001 1.056164e+000 -1.002065e+001 96 37 27
5.690098e-001 1.068396e+000 -1.003051e+001 102 44 33
5.680552e-001 1.067698e+000 -1.003052e+001 102 44 33
1.379002e+000 1.139175e+000 -1.036587e+001 100 74 56
-1.237093e+000 1.131757e+000 -9.061199e+000 109 26 30
-1.223306e+000 1.176368e+000 -9.019738e+000 110 21 34
-1.104507e+000 1.198826e+000 -9.078436e+000 134 26 44
-4.584360e-001 1.190391e+000 -9.380536e+000 22 37 41
4.349359e-001 1.326156e+000 -9.659330e+000 109 56 45
4.314877e-001 1.321210e+000 -9.616731e+000 126 71 59
6.369835e-001 1.352242e+000 -9.695469e+000 128 71 60
6.662671e-001 1.391198e+000 -9.680424e+000 110 50 44
3.288911e+000 1.557736e+000 -1.063925e+001 73 74 67
3.288911e+000 1.557736e+000 -1.063925e+001 73 74 67
1.399405e+000 1.530722e+000 -9.647779e+000 128 74 56
1.396491e+000 1.532981e+000 -9.645864e+000 128 74 56
1.391983e+000 1.515551e+000 -9.744826e+000 101 25 29
1.665860e+000 1.534326e+000 -9.857523e+000 77 12 22
1.910716e+000 1.529643e+000 -9.919283e+000 112 78 61
1.366113e+000 1.548584e+000 -9.502365e+000 117 26 31
1.480696e+000 1.550340e+000 -9.575061e+000 141 62 57
1.494907e+000 1.555059e+000 -9.422507e+000 149 61 54
3.235036e+000 1.596726e+000 -1.018741e+001 151 110 78
3.239090e+000 1.561615e+000 -1.002040e+001 149 98 65
-6.506953e-001 1.129985e+000 -8.145741e+000 30 55 29
3.213628e-001 1.267743e+000 -8.555048e+000 157 150 43
2.679180e+000 1.272298e+000 -9.406420e+000 163 128 91
-1.390853e+000 8.410357e-001 -7.837944e+000 202 182 143
-1.390538e+000 8.346241e-001 -7.838367e+000 202 182 143
-6.921577e-001 1.032163e+000 -8.008099e+000 185 140 113
2.286586e+000 1.194256e+000 -9.179930e+000 141 112 99
2.010176e+000 8.860911e-001 -8.718313e+000 125 90 88
2.826809e+000 8.760548e-001 -9.012647e+000 74 47 48
8.346030e-001 7.479335e-001 -8.171387e+000 179 39 38
2.584841e+000 6.999809e-001 -8.761741e+000 152 117 108
2.383485e+000 6.824664e-001 -8.672230e+000 172 128 116
5.017737e+000 1.482491e-001 -7.688990e+000 147 129 124
5.066798e+000 4.597599e-001 -7.638437e+000 60 51 60
-1.368357e+000 9.084357e-001 -9.267176e+000 19 53 80
-9.004087e-001 8.822960e-001 -9.533709e+000 74 81 64
-9.348002e-001 9.571288e-001 -9.468255e+000 23 36 18
-6.045501e-001 9.835019e-001 -9.598780e+000 27 41 20
-6.846134e-001 1.112252e+000 -9.376471e+000 126 107 38
-3.953679e-001 1.152385e+000 -9.475218e+000 28 35 15
-3.953679e-001 1.152385e+000 -9.475218e+000 28 35 15
2.046655e-001 1.102711e+000 -9.862751e+000 123 73 63
3.350577e-001 1.197867e+000 -9.797903e+000 128 74 62
1.070080e+000 1.074478e+000 -1.020526e+001 123 73 62
-1.322694e+000 1.259501e+000 -8.879653e+000 48 68 77
-1.070661e+000 1.279838e+000 -8.988971e+000 134 31 37
-1.070661e+000 1.279838e+000 -8.988971e+000 134 31 37
4.100873e-001 1.135288e+000 -9.840322e+000 113 55 44
3.865384e-001 1.200517e+000 -9.756026e+000 134 80 68
3.865384e-001 1.200517e+000 -9.756026e+000 134 80 68
3.812194e-001 1.361015e+000 -9.623940e+000 133 80 67
1.041300e+000 1.435349e+000 -9.778883e+000 129 72 65
2.742086e+000 1.347864e+000 -1.072193e+001 102 68 56
1.309763e+000 1.496735e+000 -9.700152e+000 96 22 18
1.348046e+000 1.510777e+000 -9.698830e+000 117 59 45
2.855785e+000 1.612856e+000 -1.024367e+001 83 41 22
2.811170e+000 1.614102e+000 -1.006805e+001 86 40 20
1.525567e+000 1.331157e+000 -9.109731e+000 85 13 16
-6.473940e-001 1.131772e+000 -8.147732e+000 34 46 9
-6.430488e-001 1.124255e+000 -8.150304e+000 34 46 9
1.232770e+000 1.026191e+000 -8.604635e+000 139 19 30
1.232770e+000 1.026191e+000 -8.604635e+000 139 19 30
4.232166e+000 8.398272e-001 -9.629636e+000 143 83 43
4.117699e+000 6.733264e-001 -9.323549e+000 169 135 104
1.069381e+000 5.327403e-001 -8.095387e+000 166 115 87
-3.903291e-001 5.498023e-001 -7.543156e+000 180 40 38
4.818515e+000 -3.249985e-001 -8.342886e+000 48 36 40
5.151507e+000 -5.075746e-001 -7.455958e+000 159 141 131
5.083518e+000 5.072678e-001 -7.603203e+000 55 47 59
-5.180571e-001 1.018259e+000 -9.598114e+000 107 104 55
-9.313368e-001 1.110057e+000 -9.271848e+000 109 96 53
2.842443e-001 1.138528e+000 -9.770435e+000 130 80 65
2.019619e+000 1.340159e+000 -1.038678e+001 77 30 27
2.090584e+000 1.345316e+000 -1.041719e+001 100 62 51
9.809271e-001 1.495348e+000 -9.268666e+000 144 126 107
2.417572e+000 1.400136e+000 -9.521767e+000 135 53 43
1.921033e+000 9.705608e-001 -8.774402e+000 84 58 71
2.953587e-001 6.841339e-001 -7.911366e+000 164 152 79
2.953587e-001 6.841339e-001 -7.911366e+000 164 152 79
5.258171e+000 -1.423295e+000 -7.341358e+000 157 140 120
-8.065814e-001 9.768009e-001 -9.506816e+000 25 39 24
-6.972308e-001 9.820763e-001 -9.545168e+000 26 40 26
-8.605409e-001 1.172388e+000 -9.250926e+000 32 35 27
-7.090030e-001 1.050780e+000 -9.441677e+000 110 106 75
-5.745698e-001 1.083371e+000 -9.521507e+000 24 35 27
1.294182e+000 1.317230e+000 -1.008874e+001 116 60 47
3.108226e-001 1.377739e+000 -9.554323e+000 129 72 63
3.197419e+000 1.449390e+000 -1.072181e+001 28 31 22
2.647867e+000 1.459977e+000 -9.710192e+000 116 44 26
8.601693e-001 1.205432e+000 -8.706785e+000 161 145 115
4.124375e+000 9.899089e-001 -9.718815e+000 161 100 59
2.424630e+000 8.960774e-001 -8.878914e+000 32 16 31
-1.891487e-001 6.955320e-001 -7.762973e+000 158 149 47
4.781699e+000 -1.502750e-001 -8.257505e+000 61 50 51
4.807135e+000 1.615275e-001 -8.027633e+000 56 43 50
-1.218434e+000 1.104547e+000 -9.135381e+000 126 67 57
3.655329e+000 1.462736e+000 -1.088251e+001 82 52 44
2.528883e+000 1.307804e+000 -9.444376e+000 149 115 99
2.233977e+000 1.139457e+000 -9.094748e+000 137 112 90
1.538960e-001 9.931662e-001 -8.218551e+000 172 152 89
1.403806e+000 1.065895e+000 -8.731499e+000 15 64 99
7.583003e-001 8.090663e-001 -8.186777e+000 177 42 49
4.813645e+000 -7.190241e-001 -8.666548e+000 51 42 47
2.832399e+000 1.506163e+000 -1.011419e+001 132 92 65
-8.731834e-001 1.121142e+000 -8.062907e+000 28 82 112
-2.210561e-001 1.199598e+000 -8.386583e+000 144 136 67
-3.643126e-001 9.394665e-001 -8.066852e+000 33 58 39
5.145146e-001 7.445535e-001 -8.040243e+000 155 146 112
3.819625e+000 5.204298e-001 -9.173937e+000 182 104 38
-1.176531e-001 1.226966e+000 -9.513344e+000 109 103 88
-1.247101e+000 1.249003e+000 -8.884072e+000 126 113 95
3.446767e+000 1.559124e+000 -1.067930e+001 20 29 23
1.499304e+000 1.526811e+000 -9.743808e+000 110 27 35
1.499304e+000 1.526811e+000 -9.743808e+000 110 27 35
3.272653e+000 1.598528e+000 -1.044084e+001 93 56 47
1.703819e-001 1.222101e+000 -8.330964e+000 169 151 117
-5.169405e-001 9.453331e-001 -9.577391e+000 28 44 35
1.123953e+000 1.481991e+000 -9.516889e+000 117 27 32
1.951301e+000 1.368030e+000 -9.319433e+000 95 19 29
1.080920e+000 1.391798e+000 -8.960530e+000 146 23 34
-7.952070e-001 6.292965e-001 -9.762406e+000 39 59 59
-1.254506e+000 8.389531e-001 -9.432366e+000 96 104 67
-5.435377e-001 8.696616e-001 -9.720695e+000 106 117 83
-5.435377e-001 8.696616e-001 -9.720695e+000 106 117 83
2.429390e-001 6.579618e-001 -1.020532e+001 120 72 75
2.429390e-001 6.579618e-001 -1.020532e+001 120 72 75
1.744307e-001 8.105529e-001 -1.008910e+001 119 66 73
3.391708e+000 4.787097e-001 -1.171521e+001 24 18 30
3.281458e+000 6.201136e-001 -1.159996e+001 115 66 59
-1.629189e+000 9.202491e-001 -9.129245e+000 14 43 72
-4.719329e-001 1.052827e+000 -9.667526e+000 115 119 116
-1.405722e-001 1.028389e+000 -9.759802e+000 82 28 32
9.224807e-002 1.017982e+000 -9.894183e+000 96 31 35
7.861226e-001 1.089842e+000 -1.013518e+001 82 21 20
2.206925e+000 8.069472e-001 -1.094370e+001 93 64 59
3.073787e+000 9.970964e-001 -1.119731e+001 45 55 46
-1.131540e+000 1.064355e+000 -9.228228e+000 134 120 108
-1.156180e+000 1.154454e+000 -9.110309e+000 112 34 31
-1.117229e+000 1.172584e+000 -9.113071e+000 117 25 27
-1.257019e-001 1.100351e+000 -9.692049e+000 76 21 27
-8.970825e-002 1.159735e+000 -9.629502e+000 85 33 39
4.752719e-001 1.138248e+000 -9.957561e+000 107 48 40
3.194514e+000 1.029201e+000 -1.118981e+001 26 32 28
-1.186372e+000 1.233616e+000 -8.989747e+000 101 21 16
-1.186372e+000 1.233616e+000 -8.989747e+000 101 21 16
-5.500668e-001 1.240836e+000 -9.285007e+000 101 96 58
9.060991e-001 1.277139e+000 -9.969724e+000 84 22 20
1.270739e+000 1.264790e+000 -1.010419e+001 129 66 56
-2.026027e+000 1.221761e+000 -8.423980e+000 126 63 56
9.647834e-001 1.507022e+000 -9.458062e+000 126 39 42
-2.257859e+000 7.244786e-001 -8.073755e+000 160 20 31
3.330856e+000 1.594723e+000 -1.038481e+001 106 62 56
1.819237e+000 1.528943e+000 -9.519951e+000 23 59 82
2.010244e+000 1.506473e+000 -9.551358e+000 71 100 109
1.362707e+000 1.342666e+000 -9.056410e+000 25 60 81
2.074309e+000 1.397439e+000 -9.422993e+000 68 101 113
2.296267e+000 1.248283e+000 -9.258426e+000 132 105 84
2.595732e+000 1.265623e+000 -9.479537e+000 138 109 93
2.382570e+000 1.103622e+000 -9.125968e+000 40 17 10
-5.324738e-001 9.010423e-001 -7.944132e+000 166 156 117
-5.324738e-001 9.010423e-001 -7.944132e+000 166 156 117
1.190073e+000 9.934152e-001 -8.551910e+000 187 134 94
2.032763e+000 9.244621e-001 -8.787072e+000 87 64 70
1.928079e+000 8.228095e-001 -8.639484e+000 158 101 85
4.039973e+000 7.562101e-001 -9.378613e+000 147 52 37
4.039973e+000 7.562101e-001 -9.378613e+000 147 52 37
-6.017800e-001 6.958644e-001 -7.605021e+000 188 153 109
-5.804220e-001 7.342413e-001 -7.675475e+000 192 148 104
8.272070e-001 7.773140e-001 -8.192770e+000 164 147 115
8.272070e-001 7.773140e-001 -8.192770e+000 164 147 115
2.601673e+000 6.819006e-001 -8.765777e+000 150 113 97
5.342702e+000 -2.104416e+000 -7.383220e+000 66 60 62
-7.747777e-001 3.696930e-001 -9.891882e+000 59 91 137
1.390564e+000 8.296020e-001 -1.063923e+001 93 63 61
2.589855e-001 1.024333e+000 -9.982925e+000 150 97 101
2.762623e-001 1.067167e+000 -9.940440e+000 130 81 67
4.230350e-001 1.022168e+000 -1.006792e+001 119 64 67
7.773789e-001 1.131216e+000 -1.017303e+001 88 27 32
1.510344e+000 8.725240e-001 -1.060323e+001 93 62 57
1.760014e+000 9.443106e-001 -1.067467e+001 98 63 61
1.856544e+000 9.256110e-001 -1.075610e+001 96 66 64
-8.947304e-001 1.125758e+000 -9.257223e+000 108 105 28
-6.350170e-002 1.146446e+000 -9.658608e+000 108 95 79
9.548507e-001 1.133326e+000 -1.004965e+001 86 20 24
1.159096e+000 1.319309e+000 -1.013362e+001 110 102 74
2.731897e+000 1.060316e+000 -1.092453e+001 79 40 34
-1.268560e+000 1.246851e+000 -8.961407e+000 40 59 67
-1.188731e+000 1.268037e+000 -8.962585e+000 138 109 81
4.610411e-001 1.279616e+000 -9.675046e+000 99 39 36
9.019661e-001 1.257591e+000 -9.915634e+000 96 31 27
4.705012e-001 1.366168e+000 -9.645860e+000 133 77 64
4.705012e-001 1.366168e+000 -9.645860e+000 133 77 64
6.048030e-001 1.304637e+000 -9.717972e+000 112 58 48
6.576592e-001 1.318528e+000 -9.705521e+000 127 73 61
1.053899e+000 1.367166e+000 -9.861650e+000 101 41 36
4.102471e+000 1.526488e+000 -1.060476e+001 29 19 28
2.833742e+000 1.521239e+000 -9.980704e+000 139 99 66
-1.584216e+000 1.000827e+000 -8.148551e+000 190 167 133
2.295984e+000 1.384058e+000 -9.577047e+000 153 28 42
-6.939252e-001 1.181520e+000 -8.130431e+000 149 140 27
1.608514e+000 1.293906e+000 -9.066626e+000 79 57 72
1.661676e+000 1.201518e+000 -9.037307e+000 78 56 68
-1.341754e+000 9.422836e-001 -7.809479e+000 203 185 143
1.241963e+000 1.135384e+000 -8.774519e+000 148 22 35
1.173544e+000 1.132347e+000 -8.717010e+000 147 19 27
2.646296e+000 1.151714e+000 -9.306298e+000 72 51 58
2.847472e+000 9.379241e-001 -9.163424e+000 69 52 53
-5.723708e-001 8.765719e-001 -7.848758e+000 193 148 109
1.402336e+000 8.802948e-001 -8.535974e+000 170 65 62
1.603896e+000 8.473202e-001 -8.534896e+000 17 70 88
2.181090e+000 7.875783e-001 -8.700223e+000 144 112 107
4.197229e+000 5.938620e-001 -9.341092e+000 180 130 98
-5.941885e-001 5.577594e-001 -7.656462e+000 191 36 40
-6.328277e-001 6.956937e-001 -7.599169e+000 178 44 51
-2.293128e-001 5.597005e-001 -7.825420e+000 34 52 31
1.045681e+000 6.052970e-001 -8.115878e+000 155 100 79
3.004700e+000 5.671586e-001 -8.860380e+000 168 138 99
3.004700e+000 5.671586e-001 -8.860380e+000 168 138 99
4.177762e+000 4.240620e-001 -9.232330e+000 46 25 32
4.471878e+000 5.193430e-001 -9.389302e+000 30 19 14
4.842564e+000 -3.362234e-001 -8.285331e+000 135 121 116
4.794360e+000 -7.139522e-002 -8.175433e+000 62 51 52
4.888928e+000 -3.214946e-001 -7.993871e+000 131 115 99
4.959208e+000 1.907911e-001 -7.898475e+000 49 37 38
2.012208e-001 6.060003e-001 -1.014275e+001 138 93 99
2.223577e-001 1.136666e+000 -9.885770e+000 102 48 36
9.393105e-001 9.968248e-001 -1.022102e+001 123 68 67
9.453248e-001 1.033332e+000 -1.024525e+001 106 42 43
1.675073e+000 1.030553e+000 -1.055041e+001 98 60 46
1.735343e+000 1.007345e+000 -1.060049e+001 123 93 85
1.858239e+000 1.043119e+000 -1.064762e+001 119 90 82
1.967914e+000 9.743986e-001 -1.075368e+001 117 91 84
1.960943e+000 1.092540e+000 -1.068102e+001 113 84 76
2.184459e+000 9.798883e-001 -1.087912e+001 112 83 78
-1.792614e-002 1.095307e+000 -9.720747e+000 91 67 57
6.810202e-003 1.128470e+000 -9.679659e+000 99 82 66
3.308595e-001 1.134559e+000 -9.792445e+000 100 43 32
9.528889e-001 1.041927e+000 -1.018027e+001 123 65 64
2.107091e+000 1.153480e+000 -1.063913e+001 78 35 29
2.597329e+000 1.089862e+000 -1.084191e+001 62 22 12
2.597329e+000 1.089862e+000 -1.084191e+001 62 22 12
2.743088e+000 1.096762e+000 -1.093702e+001 98 62 44
-1.211896e+000 1.235971e+000 -8.973777e+000 122 27 32
-1.200805e+000 1.270083e+000 -8.934048e+000 126 27 37
3.280922e+000 1.336132e+000 -1.091934e+001 39 42 35
3.280922e+000 1.336132e+000 -1.091934e+001 39 42 35
5.025425e-001 1.413065e+000 -9.614545e+000 94 35 27
5.988288e-001 1.299000e+000 -9.678309e+000 130 78 65
2.385702e+000 1.322071e+000 -1.047171e+001 93 59 53
2.385702e+000 1.322071e+000 -1.047171e+001 93 59 53
3.361562e+000 1.312977e+000 -1.090927e+001 29 31 28
3.361562e+000 1.312977e+000 -1.090927e+001 29 31 28
3.286561e+000 1.518581e+000 -1.055674e+001 31 34 26
1.631960e-001 1.472806e+000 -8.903738e+000 49 62 42
1.580192e+000 1.343002e+000 -9.162823e+000 84 20 26
1.131844e-002 1.236034e+000 -8.461858e+000 35 48 45
2.858551e-001 1.131522e+000 -8.425518e+000 29 57 29
-5.716888e-001 9.412388e-001 -7.874520e+000 163 36 43
1.071430e-001 8.784648e-001 -8.058896e+000 15 54 35
2.571819e+000 8.381351e-001 -8.932052e+000 146 123 103
2.615908e+000 8.341467e-001 -8.896079e+000 148 121 103
2.879940e+000 7.756608e-001 -8.952506e+000 85 52 56
3.245141e+000 8.498546e-001 -9.140768e+000 156 120 71
4.304135e-001 7.693359e-001 -8.016923e+000 27 45 27
9.241287e-001 6.853613e-001 -8.128838e+000 150 100 83
1.052670e+000 4.929724e-001 -8.059610e+000 178 158 129
4.797570e+000 -3.685301e-001 -8.327328e+000 144 131 127
5.048254e+000 -6.070027e-002 -8.033335e+000 57 45 49
5.132611e+000 1.334900e-001 -7.773760e+000 148 130 120
-7.473946e-001 8.574275e-001 -9.647403e+000 39 53 54
-7.473946e-001 8.574275e-001 -9.647403e+000 39 53 54
-6.679982e-001 7.919896e-001 -9.702389e+000 103 110 87
-6.295733e-001 8.614000e-001 -9.691404e+000 37 49 37
-6.295733e-001 8.614000e-001 -9.691404e+000 37 49 37
8.452407e-001 3.932007e-001 -1.057659e+001 140 118 116
-6.496863e-001 1.016274e+000 -9.550300e+000 87 85 42
-4.884982e-001 1.039420e+000 -9.639472e+000 28 35 19
7.448430e-001 9.247092e-001 -1.026922e+001 87 23 31
1.547899e+000 1.012133e+000 -1.055217e+001 122 92 90
-7.911666e-001 1.048872e+000 -9.396021e+000 25 31 18
1.812089e+000 1.048417e+000 -1.054040e+001 105 61 48
2.091273e+000 1.100853e+000 -1.062349e+001 97 56 42
2.049024e+000 1.149330e+000 -1.054331e+001 75 25 26
-1.098444e+000 1.246039e+000 -9.030433e+000 117 31 28
-4.654800e-001 1.264698e+000 -9.358526e+000 26 37 20
-4.654800e-001 1.264698e+000 -9.358526e+000 26 37 20
-2.101660e-001 1.293678e+000 -9.388957e+000 19 38 22
-2.101660e-001 1.293678e+000 -9.388957e+000 19 38 22
-4.314272e-001 1.343488e+000 -9.206540e+000 21 37 26
1.129361e+000 1.464220e+000 -9.807240e+000 120 68 57
1.050203e+000 1.457235e+000 -9.248080e+000 145 41 41
2.478089e+000 1.347854e+000 -9.496593e+000 84 22 18
3.174612e-001 1.050964e+000 -8.358545e+000 22 57 29
3.035107e+000 8.510803e-001 -9.068581e+000 168 122 88
9.255290e-001 6.831268e-001 -8.128861e+000 150 99 83
1.025149e+000 6.874093e-001 -8.172171e+000 157 88 75
4.049501e-002 5.959749e-001 -7.729871e+000 162 154 84
4.708128e+000 -3.010928e-001 -8.402018e+000 43 36 38
5.037655e+000 -2.042058e+000 -7.878331e+000 155 145 120
5.157664e+000 7.067224e-002 -7.584903e+000 161 143 133
-5.843079e-001 9.245844e-001 -9.670342e+000 115 120 98
-5.071351e-001 8.787791e-001 -9.729754e+000 36 50 48
-5.071351e-001 8.787791e-001 -9.729754e+000 36 50 48
-1.040469e+000 9.152660e-001 -9.432174e+000 23 33 17
-7.062825e-001 1.005279e+000 -9.538901e+000 30 39 25
3.906093e-001 9.478761e-001 -1.006065e+001 136 87 83
1.939202e+000 1.080344e+000 -1.052140e+001 81 33 33
1.040791e+000 1.244192e+000 -9.960633e+000 126 76 63
2.199918e+000 1.249013e+000 -1.057740e+001 99 65 48
3.201105e+000 1.200793e+000 -1.094858e+001 27 35 27
3.674658e+000 1.105321e+000 -1.116298e+001 66 35 26
8.665884e-001 1.582027e+000 -9.474283e+000 121 103 85
1.041297e+000 1.553667e+000 -9.589311e+000 113 28 35
5.489854e-002 1.190384e+000 -8.414815e+000 168 156 81
8.500973e-001 1.295173e+000 -8.747166e+000 166 36 42
2.912421e-001 1.151208e+000 -8.435084e+000 34 54 31
1.536703e+000 1.147334e+000 -8.879984e+000 16 49 81
9.517743e-001 1.091065e+000 -8.536740e+000 174 37 51
1.535587e+000 1.089692e+000 -8.725822e+000 29 73 109
2.141097e+000 9.678761e-001 -8.846382e+000 79 57 70
-3.823282e-001 9.264717e-001 -7.935187e+000 157 153 100
2.586741e+000 8.691804e-001 -8.922341e+000 142 116 99
2.326019e+000 6.561318e-001 -8.627435e+000 99 52 51
1.954077e-001 5.923484e-001 -7.791665e+000 168 154 57
5.289289e+000 -1.694606e+000 -7.484702e+000 159 140 123
-1.311492e+000 8.578001e-001 -9.407711e+000 32 70 119
1.429625e-001 9.991059e-001 -9.899357e+000 93 33 28
1.429625e-001 9.991059e-001 -9.899357e+000 93 33 28
4.106464e-001 1.183549e+000 -9.889346e+000 127 76 57
1.227804e+000 1.213229e+000 -1.020635e+001 112 98 71
-1.170759e+000 1.286128e+000 -8.995423e+000 129 93 71
2.074748e+000 1.526321e+000 -9.643826e+000 14 61 78
-2.280404e-002 1.369928e+000 -8.607468e+000 104 115 108
-2.280404e-002 1.369928e+000 -8.607468e+000 104 115 108
5.943633e-001 1.319025e+000 -8.791606e+000 141 40 37
1.673053e+000 1.209212e+000 -9.012946e+000 85 60 78
6.095897e-002 1.024657e+000 -8.176374e+000 34 60 36
2.415231e+000 9.595478e-001 -8.961490e+000 138 113 93
7.640216e-001 1.178096e+000 -1.011422e+001 113 54 54
-7.096874e-001 1.249759e+000 -9.267337e+000 106 102 75
-7.096874e-001 1.249759e+000 -9.267337e+000 106 102 75
-5.297820e-001 1.222966e+000 -9.334954e+000 77 82 78
-5.297820e-001 1.222966e+000 -9.334954e+000 77 82 78
7.831757e-001 1.382742e+000 -9.941567e+000 85 20 21
-9.905463e-001 1.374119e+000 -8.991288e+000 23 36 30
1.259901e+000 1.410745e+000 -9.882504e+000 91 18 26
1.915669e+000 1.363329e+000 -9.325113e+000 109 22 28
8.254125e-002 7.557468e-001 -7.860358e+000 163 149 118
8.254125e-002 7.557468e-001 -7.860358e+000 163 149 118
2.261150e-001 6.821205e-001 -7.883483e+000 38 66 43
4.629890e-001 6.612814e-001 -7.961350e+000 30 52 29
2.765001e+000 6.548344e-001 -8.821023e+000 84 43 48
2.849026e+000 5.571875e-001 -1.136099e+001 93 63 55
6.979800e-001 8.451124e-001 -1.023675e+001 133 122 128
5.852599e-001 1.026855e+000 -1.002405e+001 107 50 41
1.029414e+000 1.210337e+000 -1.005647e+001 131 99 76
3.484570e+000 1.307682e+000 -9.981290e+000 146 112 77
1.497845e-002 9.449121e-001 -8.104293e+000 165 153 114
2.367650e+000 8.031739e-001 -8.802472e+000 148 117 104
3.452189e+000 1.551445e+000 -1.068220e+001 21 31 23
-1.263676e+000 8.756622e-001 -9.335598e+000 144 89 80
-1.270330e+000 1.251038e+000 -9.135599e+000 143 93 72
3.843168e+000 1.528976e+000 -1.039895e+001 132 99 68
-8.295815e-001 1.204153e+000 -8.153732e+000 22 82 111
4.306658e-002 1.212543e+000 -9.514475e+000 100 94 79
1.818774e+000 1.483528e+000 -9.801826e+000 87 14 29
1.932533e+000 1.177665e+000 -1.038410e+001 85 40 37
3.668740e+000 1.458185e+000 -1.019665e+001 143 106 77
5.341559e-001 1.348256e+000 -8.647108e+000 162 34 35
2.430034e+000 4.688104e-001 -8.596539e+000 160 115 68
1.554255e+000 3.014644e-001 -8.006127e+000 164 99 72
1.118543e+000 8.152667e-002 -8.069068e+000 114 144 155
2.968493e-001 -2.573789e-002 -7.832340e+000 150 154 132
3.552930e+000 -8.991627e-004 -9.195349e+000 191 96 51
2.419101e+000 -1.952756e-001 -8.849301e+000 201 75 79
2.885351e+000 -2.700544e-001 -9.127156e+000 118 66 51
3.421409e+000 -2.328636e-001 -9.349485e+000 170 84 50
3.490174e+000 -2.216862e-001 -9.345575e+000 178 91 59
2.442815e+000 -3.922785e-001 -9.038652e+000 193 75 77
2.492862e+000 -3.125774e-001 -8.988002e+000 164 37 45
2.697830e+000 -2.872847e-001 -9.038917e+000 168 51 62
2.660224e+000 -3.305168e-001 -9.063950e+000 189 72 81
3.306182e+000 -3.186466e-001 -9.360661e+000 144 47 17
-6.103945e-001 -4.409796e-001 -7.756081e+000 189 35 45
-6.103945e-001 -4.409796e-001 -7.756081e+000 189 35 45
8.295285e-001 -4.292808e-001 -8.341435e+000 158 36 41
2.624499e+000 -4.313795e-001 -9.147132e+000 186 61 76
3.054152e+000 -5.957521e-001 -9.575261e+000 143 105 86
3.315837e+000 -4.967901e-001 -9.572423e+000 171 134 107
3.395500e+000 -4.821619e-001 -9.577187e+000 172 138 110
-5.873508e-001 -6.052070e-001 -7.921851e+000 203 148 129
-2.968559e-001 -5.790922e-001 -8.016672e+000 159 164 40
2.139374e+000 -7.128797e-001 -9.242380e+000 184 113 103
-5.995717e-001 -7.624941e-001 -8.186150e+000 63 106 145
1.096264e+000 -8.296579e-001 -8.991343e+000 141 89 94
2.054024e+000 -7.541697e-001 -9.270760e+000 184 126 118
-5.728917e-001 -7.761578e-001 -8.135257e+000 122 135 84
-1.343594e+000 9.610575e-001 -7.838869e+000 195 173 149
2.375193e+000 4.254844e-001 -8.565280e+000 162 114 86
2.568885e+000 4.736997e-001 -8.655249e+000 161 120 65
4.098745e+000 6.014678e-001 -9.300655e+000 164 58 75
2.575232e+000 3.718739e-001 -8.649507e+000 87 32 43
3.010107e+000 3.818671e-001 -8.811673e+000 171 119 81
1.146330e+000 1.013328e-001 -8.108014e+000 21 88 131
2.385624e+000 5.073780e-002 -8.653294e+000 185 137 110
-1.631566e+000 -1.256559e-001 -7.915138e+000 181 158 135
2.234036e+000 -1.999932e-002 -8.651303e+000 196 142 116
2.722042e+000 -4.965062e-002 -8.867902e+000 201 86 88
2.722042e+000 -4.965062e-002 -8.867902e+000 201 86 88
3.790313e+000 -5.141224e-002 -9.341699e+000 188 168 144
1.716076e+000 -1.382689e-001 -8.510941e+000 195 128 101
2.421963e+000 -3.586508e-001 -8.986427e+000 159 31 45
2.734085e+000 -3.761108e-001 -9.114489e+000 161 36 49
3.221880e+000 -3.619705e-001 -9.356269e+000 150 45 25
3.465274e+000 -3.274764e-001 -9.454447e+000 179 102 60
2.105896e-001 -4.318969e-001 -8.081731e+000 163 167 26
2.293109e+000 -4.935570e-001 -9.074044e+000 157 37 43
2.972261e+000 -4.500780e-001 -9.320011e+000 196 134 116
-6.625685e-001 -5.140375e-001 -7.800045e+000 175 21 49
-2.105019e-001 -6.009512e-001 -8.075676e+000 23 58 43
-2.105019e-001 -6.009512e-001 -8.075676e+000 23 58 43
1.886513e+000 -6.776013e-001 -9.114515e+000 140 82 70
-7.596768e-001 -7.478314e-001 -8.059658e+000 169 49 59
8.154913e-002 -7.380604e-001 -8.392607e+000 160 160 43
6.157642e-001 5.952799e-001 -7.932690e+000 172 159 62
2.732994e+000 4.414233e-001 -8.704669e+000 117 63 25
4.365057e+000 5.872119e-001 -9.401736e+000 160 73 47
2.432165e+000 4.453314e-002 -8.697690e+000 158 23 34
2.447203e+000 -6.354384e-002 -8.747876e+000 186 68 72
1.503389e+000 -1.235482e-001 -8.409622e+000 169 110 106
-4.867388e-002 -3.059187e-001 -7.874754e+000 63 107 125
5.166147e-001 -4.832700e-001 -8.261469e+000 166 164 144
5.242127e-001 -4.845981e-001 -8.258401e+000 166 164 144
2.276998e+000 7.755789e-001 -8.724760e+000 78 35 45
6.839977e-001 -8.284737e-001 -8.806546e+000 189 128 119
-2.242489e+001 1.049302e+001 -6.318031e+001 23 16 24
2.768590e+000 -1.744300e-001 -8.968545e+000 171 35 49
8.739077e-001 -3.919859e-001 -8.364792e+000 205 150 124
-4.993847e-001 -6.001942e-001 -7.975408e+000 23 90 148
-3.846510e+001 4.083840e+000 -7.465370e+001 59 47 50
4.256321e+000 2.835963e-001 -9.312880e+000 49 11 9
3.168283e+000 4.137570e-001 -8.868296e+000 157 113 88
1.958556e+000 -4.667546e-001 -8.869180e+000 134 71 62
3.213487e+000 1.839497e-001 -1.020395e+001 157 21 35
3.213487e+000 1.839497e-001 -1.020395e+001 157 21 35
6.355356e-001 -3.886214e-001 -8.236767e+000 172 160 144
1.194972e+000 -5.164932e-001 -8.606822e+000 188 131 111
2.376357e+000 4.154050e-001 -8.583097e+000 177 131 83
2.787256e+000 4.364956e-001 -8.714901e+000 181 135 72
3.371165e+000 6.355827e-002 -9.057760e+000 200 84 37
-9.511944e-002 -3.528246e-001 -7.902488e+000 30 59 39
-3.835763e+001 4.807979e+000 -7.651319e+001 86 65 68
-2.734401e+001 4.315015e+000 -8.128396e+001 111 97 84
-2.620263e+001 8.408155e+000 -7.664642e+001 68 56 56
-3.851449e+001 5.675529e+000 -7.523715e+001 133 91 81
-3.199102e+001 6.224702e+000 -7.526213e+001 84 41 36
-2.953047e+001 6.856226e+000 -7.768626e+001 41 28 25
-2.883660e+001 7.423180e+000 -7.706712e+001 53 44 45
-2.753252e+001 3.775978e+000 -8.265607e+001 38 27 22
-2.747200e+001 3.771647e+000 -8.248853e+001 38 27 22
-2.672951e+001 4.329105e+000 -8.178010e+001 118 102 90
8.724078e-001 -9.525432e-002 -8.034542e+000 157 22 36
-2.731876e+001 7.032182e+000 -7.694851e+001 104 90 90
-2.805022e+001 6.139551e+000 -7.890205e+001 113 94 93
-3.100566e+001 4.504965e+000 -8.052426e+001 84 80 94
-2.654910e+001 4.971553e+000 -7.841422e+001 48 38 36
-2.583663e+001 8.942127e+000 -7.681974e+001 38 33 36
-2.680588e+001 7.418096e+000 -7.825424e+001 51 37 36
-2.630626e+001 6.571322e+000 -7.985373e+001 74 61 61
-3.000264e+001 5.891115e+000 -7.873084e+001 145 53 53
-3.001627e+001 4.024192e+000 -8.119941e+001 30 19 24
-2.650751e+001 4.960959e+000 -7.829545e+001 49 37 36
-6.051807e+000 -7.874923e+001 -1.392478e+001 141 113 81
-6.756434e-001 1.201381e+000 -8.317613e+000 37 57 17
1.035048e-001 8.960170e-001 -8.137010e+000 45 55 39
3.867559e-001 6.786950e-001 -7.918328e+000 160 161 23
2.002831e+000 9.138306e-001 -8.763243e+000 116 83 88
2.124684e+000 9.152441e-001 -8.803553e+000 122 97 101
-5.871470e-001 5.246658e-001 -7.432274e+000 190 148 126
2.317761e+000 7.539378e-001 -8.734745e+000 81 40 42
2.772367e+000 7.696605e-001 -8.947851e+000 67 27 34
3.048668e+000 8.003557e-001 -9.026893e+000 30 27 38
-1.358864e+000 4.855059e-001 -7.640566e+000 199 176 142
2.065916e+000 5.121937e-001 -8.463290e+000 168 129 89
2.541693e+000 4.892515e-001 -8.656048e+000 165 125 74
2.851472e+000 5.594084e-001 -8.777772e+000 67 38 43
3.122252e+000 5.115030e-001 -8.865392e+000 30 24 51
3.122252e+000 5.115030e-001 -8.865392e+000 30 24 51
3.261860e+000 6.195910e-001 -8.963531e+000 140 149 126
2.793675e+000 4.103179e-001 -8.687161e+000 162 126 75
3.316816e+000 4.523055e-001 -8.846274e+000 159 127 85
4.325347e+000 4.255821e-001 -9.160513e+000 200 98 56
4.278115e+000 2.943787e-001 -9.302263e+000 160 77 56
1.027502e+000 1.030649e-001 -8.076176e+000 26 37 71
3.849129e+000 1.965470e-001 -9.182823e+000 38 12 16
3.896270e+000 1.743108e-001 -9.221931e+000 46 21 24
4.194000e+000 2.186813e-001 -9.268189e+000 59 19 32
9.597356e-001 -3.404459e-002 -8.111443e+000 185 143 120
1.444820e+000 -1.501604e-002 -8.304849e+000 77 34 28
2.574055e+000 -1.196070e-002 -8.837415e+000 136 21 34
2.612884e+000 -1.124409e-002 -8.768448e+000 141 17 35
3.370941e+000 7.849253e-002 -9.056422e+000 182 75 50
3.444022e+000 1.107136e-002 -9.099829e+000 117 36 30
3.481614e+000 2.028203e-003 -9.149312e+000 153 74 53
3.517395e+000 9.968872e-003 -9.161751e+000 112 36 21
3.886428e+000 4.661575e-002 -9.271123e+000 167 145 131
3.886428e+000 4.661575e-002 -9.271123e+000 167 145 131
4.061758e+000 4.467993e-002 -9.268019e+000 156 96 59
4.251260e+000 1.217993e-001 -9.433576e+000 50 9 13
8.276126e-002 -1.897430e-001 -7.853523e+000 161 156 53
9.325431e-001 -1.837688e-001 -8.202467e+000 181 139 109
1.065930e+000 -1.162681e-001 -8.201108e+000 10 59 99
1.333527e+000 -1.457198e-001 -8.333477e+000 167 105 95
1.505482e+000 -9.622548e-002 -8.382774e+000 176 119 99
2.707890e+000 -1.030813e-001 -8.879431e+000 182 69 77
3.307667e+000 -1.212002e-001 -9.168775e+000 171 109 51
3.434713e+000 -3.920827e-002 -9.169851e+000 101 22 1
3.409718e+000 -1.343560e-001 -9.233450e+000 99 36 3
3.413734e+000 -1.330551e-001 -9.236732e+000 99 36 3
3.446810e+000 -1.189465e-001 -9.248301e+000 186 132 86
3.440582e+000 -1.224985e-001 -9.231772e+000 186 132 86
3.555359e+000 -8.531270e-002 -9.260999e+000 97 27 8
3.764447e+000 -7.372250e-002 -9.357901e+000 61 38 37
3.782094e+000 -1.245676e-001 -9.370711e+000 33 14 12
3.773497e+000 -1.342251e-001 -9.408680e+000 161 140 131
3.817335e+000 -2.498095e-002 -9.230688e+000 100 77 69
3.817335e+000 -2.498095e-002 -9.230688e+000 100 77 69
3.841260e+000 -9.954970e-002 -9.325739e+000 171 151 133
4.130282e+000 4.836905e-003 -9.500613e+000 157 89 51
-1.392363e-001 -2.917146e-001 -7.863763e+000 151 152 10
-1.405177e-001 -2.963565e-001 -7.835452e+000 151 152 10
2.680233e+000 -2.034663e-001 -8.934343e+000 189 74 84
2.976390e+000 -2.784603e-001 -9.121114e+000 183 134 109
3.346059e+000 -2.677661e-001 -9.329232e+000 172 76 51
3.499080e+000 -1.800477e-001 -9.312438e+000 182 123 63
3.488300e+000 -2.497186e-001 -9.183721e+000 160 69 30
3.639248e+000 -2.615787e-001 -9.462956e+000 121 105 85
3.681997e+000 -2.588226e-001 -9.479809e+000 126 106 99
-6.619471e-001 -4.220067e-001 -7.721599e+000 169 152 123
-4.773147e-001 -3.392692e-001 -7.727795e+000 146 154 35
-1.160108e-002 -4.098224e-001 -8.014797e+000 150 155 28
1.937269e-001 -3.639091e-001 -8.061035e+000 148 149 46
4.915357e-001 -3.756788e-001 -8.160205e+000 148 150 119
4.724418e-001 -3.919170e-001 -8.165127e+000 137 20 45
5.472233e-001 -3.914871e-001 -8.189812e+000 107 27 34
5.642839e-001 -4.289807e-001 -8.237566e+000 161 141 129
8.707781e-001 -3.266995e-001 -8.284563e+000 175 143 115
8.820218e-001 -3.462978e-001 -8.303109e+000 159 24 37
8.819974e-001 -3.463880e-001 -8.302886e+000 159 24 37
1.005624e+000 -3.966882e-001 -8.397374e+000 12 42 77
2.439750e+000 -3.372541e-001 -8.972683e+000 185 79 89
2.516573e+000 -3.339941e-001 -9.007975e+000 184 71 77
2.977898e+000 -2.969830e-001 -9.170073e+000 119 75 57
3.265656e+000 -3.081257e-001 -9.301426e+000 173 69 54
3.266273e+000 -3.320727e-001 -9.342026e+000 177 67 61
3.266273e+000 -3.320727e-001 -9.342026e+000 177 67 61
3.554098e+000 -2.837934e-001 -9.435234e+000 142 60 23
3.592344e+000 -3.185176e-001 -9.517517e+000 167 131 103
4.075750e+000 -2.596668e-001 -9.752529e+000 154 113 99
-6.621822e-001 -4.851236e-001 -7.780934e+000 170 28 40
-5.899849e-001 -4.807165e-001 -7.792327e+000 169 33 28
-5.898408e-001 -4.794277e-001 -7.797506e+000 169 33 28
-5.781225e-001 -4.963910e-001 -7.806830e+000 189 151 114
-5.792805e-001 -4.953489e-001 -7.810822e+000 189 151 114
-4.689870e-001 -4.429439e-001 -7.790053e+000 8 76 127
3.283441e-002 -5.011659e-001 -8.060914e+000 150 150 40
3.283441e-002 -5.011659e-001 -8.060914e+000 150 150 40
4.402044e-001 -5.154965e-001 -8.258617e+000 112 26 40
4.595642e-001 -4.544523e-001 -8.205042e+000 118 22 41
5.353206e-001 -4.523584e-001 -8.230802e+000 111 25 33
4.873767e-001 -5.145500e-001 -8.275373e+000 122 33 47
1.844101e+000 -4.593508e-001 -8.823092e+000 181 124 106
1.842743e+000 -4.604120e-001 -8.815446e+000 181 124 106
2.215073e+000 -4.875173e-001 -8.990611e+000 111 55 57
2.249804e+000 -5.020842e-001 -9.044353e+000 179 107 101
