ply
format ascii 1.0
element face 0
property list uchar int vertex_indices
element vertex 895
property float x
property float y
property float z
property uchar diffuse_red
property uchar diffuse_green
property uchar diffuse_blue
end_header
2.578329e+000 1.118480e+000 -9.152609e+000 69 48 53
6.130376e-001 7.721702e-001 -8.478038e+000 158 147 116
1.478302e+000 -2.815488e-001 -1.671855e+001 67 51 14
9.567837e-002 1.443716e+000 -8.785824e+000 149 136 51
1.844395e+000 1.496375e+000 -9.534251e+000 137 138 96
1.906957e+000 1.503524e+000 -9.561255e+000 134 135 114
1.906855e+000 1.503458e+000 -9.561287e+000 134 135 114
1.957522e+000 1.477318e+000 -9.518027e+000 27 52 55
1.965958e+000 1.458932e+000 -9.485668e+000 29 54 61
2.733419e+000 1.540251e+000 -9.957150e+000 144 97 51
-3.745649e-001 1.275959e+000 -8.419735e+000 29 41 28
5.630956e-001 1.324617e+000 -8.795732e+000 143 26 31
1.361207e+000 1.345752e+000 -9.100838e+000 148 145 106
1.358158e+000 1.349392e+000 -9.090880e+000 148 145 106
2.037133e+000 1.454414e+000 -9.524418e+000 27 54 58
2.037157e+000 1.454363e+000 -9.525440e+000 27 54 58
2.052073e+000 1.434205e+000 -9.485104e+000 27 57 68
1.463264e+000 1.317393e+000 -9.137059e+000 145 43 47
1.370922e+000 1.270453e+000 -8.991267e+000 24 59 71
1.370922e+000 1.270453e+000 -8.991267e+000 24 59 71
1.406760e+000 1.258909e+000 -8.982731e+000 145 154 119
1.472346e+000 1.276893e+000 -9.068833e+000 75 15 26
1.566446e+000 1.260261e+000 -9.028334e+000 170 117 81
2.395288e+000 1.292476e+000 -9.381056e+000 102 47 26
2.540814e+000 1.292869e+000 -9.470487e+000 101 71 64
-1.795884e+000 7.365578e-001 -8.350035e+000 149 80 62
-1.782460e+000 7.019987e-001 -8.399262e+000 180 141 98
-3.908150e-001 1.051692e+000 -8.256341e+000 147 138 3
-3.108843e-001 1.020654e+000 -8.205182e+000 158 143 29
8.847569e-001 1.121361e+000 -8.631424e+000 155 144 95
1.108538e+000 1.152448e+000 -8.747626e+000 185 151 90
1.178868e+000 1.154578e+000 -8.779948e+000 187 141 97
1.702718e+000 1.191428e+000 -8.999560e+000 139 74 59
1.719658e+000 1.158580e+000 -8.963254e+000 157 81 72
1.719442e+000 1.158582e+000 -8.963093e+000 157 81 72
2.493854e+000 1.252077e+000 -9.356211e+000 144 85 73
2.507081e+000 1.199318e+000 -9.292613e+000 139 78 65
-1.235067e+000 8.794767e-001 -7.816477e+000 201 175 122
-6.772747e-001 9.549409e-001 -7.941063e+000 177 154 87
1.013989e+000 1.087610e+000 -8.470194e+000 154 144 98
1.157935e+000 1.048565e+000 -8.638982e+000 183 147 97
1.226148e+000 1.052858e+000 -8.663921e+000 188 147 90
1.226181e+000 1.052891e+000 -8.663881e+000 188 147 90
1.513846e+000 1.049658e+000 -8.757725e+000 7 62 84
1.918029e+000 1.147593e+000 -9.021640e+000 73 55 55
1.918029e+000 1.147593e+000 -9.021640e+000 73 55 55
2.298965e+000 1.070114e+000 -9.066619e+000 110 102 72
2.504954e+000 1.170985e+000 -9.252232e+000 141 76 62
-1.198344e+000 8.449129e-001 -7.758320e+000 81 50 31
-1.199271e+000 8.421261e-001 -7.763924e+000 81 50 31
-5.549888e-001 9.116903e-001 -7.927179e+000 161 30 39
-5.549888e-001 9.116903e-001 -7.927179e+000 161 30 39
1.251969e+000 9.970681e-001 -8.605289e+000 188 128 82
1.251969e+000 9.970681e-001 -8.605289e+000 188 128 82
1.486800e+000 1.021495e+000 -8.724851e+000 24 59 76
1.949964e+000 1.008340e+000 -8.865511e+000 73 48 44
1.950976e+000 1.007618e+000 -8.866732e+000 73 48 44
2.054551e+000 9.760091e-001 -8.867174e+000 69 45 41
-1.336841e+000 6.935567e-001 -7.794602e+000 106 76 38
-1.284901e+000 6.739496e-001 -7.739422e+000 206 179 136
-1.288535e+000 6.217783e-001 -7.732053e+000 120 89 48
-6.050161e-001 8.045761e-001 -7.775350e+000 179 143 89
1.812979e+000 8.716510e-001 -8.651528e+000 145 84 68
2.393905e+000 8.691428e-001 -8.876112e+000 126 105 78
-1.285417e+000 5.419188e-001 -7.694193e+000 212 181 124
-1.230500e+000 5.405804e-001 -7.636934e+000 205 176 130
-4.295031e-001 6.942558e-001 -7.702450e+000 188 121 80
-4.295031e-001 6.942558e-001 -7.702450e+000 188 121 80
2.001481e+000 8.357277e-001 -8.682311e+000 75 34 29
2.624712e+000 8.685516e-001 -8.955147e+000 68 24 21
-2.954079e-001 6.225339e-001 -7.750196e+000 142 125 29
7.558653e-001 6.322510e-001 -8.054034e+000 166 148 32
1.035323e+000 6.515737e-001 -8.191755e+000 171 140 101
1.035323e+000 6.515737e-001 -8.191755e+000 171 140 101
3.528424e+000 6.829099e-001 -9.151936e+000 174 90 33
3.938419e+000 7.689721e-001 -9.384337e+000 129 29 29
3.940388e+000 7.672768e-001 -9.387936e+000 129 29 29
4.073254e-001 5.751749e-001 -7.875337e+000 21 45 22
1.067969e+000 5.853786e-001 -8.144145e+000 163 149 97
2.017663e+000 5.928404e-001 -8.519290e+000 71 24 24
2.702857e+000 6.242257e-001 -8.785063e+000 52 16 18
3.046950e+000 5.753640e-001 -8.898378e+000 26 14 24
2.473488e+000 4.838498e-001 -8.642747e+000 131 85 30
2.701191e+000 4.700144e-001 -8.717324e+000 173 119 56
1.455576e+000 -4.700217e-001 -8.706250e+000 52 44 38
2.707058e+000 -4.091408e+000 -1.273683e+001 64 58 59
4.606080e+000 -4.730607e-001 -8.513634e+000 38 29 25
4.221999e+000 -1.537024e+000 -9.472663e+000 52 35 31
3.781320e+000 -3.045286e+000 -1.041057e+001 154 136 114
4.878553e+000 -5.653804e-001 -7.869249e+000 159 133 116
7.454553e-001 1.406806e+000 -8.953576e+000 169 137 95
1.014557e+000 1.471622e+000 -9.178210e+000 165 136 96
1.897800e+000 1.481775e+000 -9.532027e+000 16 56 72
1.968648e+000 1.546614e+000 -9.601437e+000 12 53 75
2.303350e+000 1.463475e+000 -9.597681e+000 155 112 61
1.399382e+000 1.217585e+000 -8.929757e+000 11 55 71
1.401278e+000 1.216081e+000 -8.933767e+000 11 55 71
-7.059791e-001 9.550538e-001 -7.923577e+000 157 25 32
2.503381e+000 1.233652e+000 -8.897431e+000 100 75 69
-5.251832e-001 8.705519e-001 -7.898157e+000 179 147 93
-1.538057e+000 5.154796e-001 -7.872150e+000 167 134 89
-5.850849e-001 7.830948e-001 -7.739711e+000 170 147 80
1.537876e+000 9.363711e-001 -8.643624e+000 19 56 74
-4.754719e-001 7.085606e-001 -7.692421e+000 159 34 37
-4.754719e-001 7.085606e-001 -7.692421e+000 159 34 37
1.720081e+000 7.560153e-001 -8.555373e+000 164 88 52
1.856718e+000 7.750237e-001 -8.585448e+000 159 89 74
2.118306e+000 8.203374e-001 -8.721433e+000 145 119 104
2.336904e+000 6.934240e-001 -8.696229e+000 170 127 103
3.974381e+000 7.725197e-001 -9.400482e+000 170 130 86
4.172445e+000 7.561370e-001 -9.503300e+000 132 54 28
-3.006896e-001 5.532004e-001 -7.562023e+000 57 86 83
-3.023428e-001 5.460188e-001 -7.572663e+000 57 86 83
1.639754e+000 5.472246e-001 -8.342865e+000 173 129 69
2.050037e+000 5.207404e-001 -8.521441e+000 169 129 85
3.260082e+000 6.421238e-001 -8.982788e+000 162 125 73
3.405422e+000 4.478303e-001 -8.991471e+000 148 49 19
2.560616e+000 1.836169e-001 -8.721954e+000 162 19 28
1.269545e+000 1.384503e-001 -8.202496e+000 25 73 101
1.317499e+000 -5.791258e-002 -8.341018e+000 147 93 62
1.315525e+000 -5.632959e-002 -8.338665e+000 147 93 62
4.692862e+000 -6.526149e-001 -8.616653e+000 112 90 76
4.657461e+000 -1.251753e+000 -8.732468e+000 124 98 81
3.060887e+000 -4.819808e+000 -1.180124e+001 168 155 139
4.138149e+000 -2.524916e+000 -9.458751e+000 164 139 117
-1.308611e+000 1.400330e+000 -8.409030e+000 156 135 89
1.851233e-001 1.463657e+000 -8.920239e+000 52 58 30
1.850500e-001 1.463551e+000 -8.920417e+000 52 58 30
2.785484e+000 1.567919e+000 -1.012544e+001 107 57 20
2.863975e+000 1.550818e+000 -9.978998e+000 148 96 46
-1.171952e+000 1.158615e+000 -8.112419e+000 160 138 90
2.392465e+000 1.371325e+000 -9.456367e+000 68 14 6
-1.270655e+000 8.997732e-001 -7.860904e+000 200 177 125
-1.270655e+000 8.997732e-001 -7.860904e+000 200 177 125
-1.295749e+000 8.501150e-001 -7.840312e+000 200 172 121
2.465387e+000 1.136638e+000 -9.187230e+000 93 63 44
-6.353227e-001 9.085808e-001 -7.910313e+000 172 34 37
-6.353227e-001 9.085808e-001 -7.910313e+000 172 34 37
1.515773e-001 9.108678e-001 -8.164433e+000 162 142 27
1.622937e+000 9.882272e-001 -8.634761e+000 167 128 66
-1.243894e+000 7.004492e-001 -7.709174e+000 206 178 134
-1.244464e+000 6.996005e-001 -7.710477e+000 206 178 134
2.674065e+000 9.038695e-001 -9.004971e+000 80 54 56
2.629568e+000 1.042604e+000 -8.763680e+000 71 45 51
-1.166658e+000 6.652394e-001 -7.647061e+000 189 159 112
1.054135e+000 8.075971e-001 -8.324059e+000 160 147 96
3.454516e+000 7.162246e-001 -9.079199e+000 117 26 22
4.222749e+000 6.999398e-001 -9.537574e+000 122 48 22
4.043269e+000 6.359967e-001 -9.331658e+000 174 141 90
9.164193e-001 -8.744740e-002 -8.194120e+000 189 120 86
1.131017e+000 -5.328868e-002 -8.269439e+000 15 56 74
-1.243241e+000 -2.731325e-002 -7.092103e+000 149 126 92
4.327271e+000 -1.304900e+000 -9.278112e+000 49 39 38
4.490038e+000 -8.900439e-001 -8.912330e+000 53 37 37
3.361947e+000 -3.475797e+000 -1.120768e+001 153 137 117
3.573553e+000 -2.935048e+000 -1.069658e+001 151 141 122
3.612059e+000 -3.095994e+000 -1.057004e+001 160 142 118
4.723917e+000 -1.460012e+000 -8.486564e+000 108 87 68
1.822058e+000 1.508982e+000 -9.593199e+000 24 52 75
1.967049e+000 1.410777e+000 -9.403866e+000 16 55 73
6.033814e-001 1.281498e+000 -8.733111e+000 162 143 98
1.882964e+000 9.949905e-001 -8.828518e+000 68 45 48
2.083076e+000 1.010217e+000 -8.909830e+000 67 44 42
8.144396e-001 7.720321e-001 -8.206848e+000 168 23 23
-5.583015e-001 6.849578e-001 -7.627068e+000 164 41 40
3.490258e+000 7.345941e-001 -9.186914e+000 116 22 24
3.206726e+000 6.531426e-001 -8.950246e+000 25 70 94
1.273143e+000 1.003307e-001 -8.251553e+000 14 67 85
3.965437e+000 -1.968016e+000 -9.862809e+000 48 35 35
4.306141e+000 -1.478517e+000 -9.384609e+000 151 133 111
3.202148e+000 -3.897004e+000 -1.160283e+001 153 139 126
7.084916e-001 1.357176e+000 -8.865590e+000 160 140 93
2.416093e+000 1.365052e+000 -9.501231e+000 66 14 3
2.072791e+000 1.137169e+000 -9.064584e+000 125 95 69
-1.310215e+000 8.007855e-001 -7.844521e+000 201 174 126
2.689839e-001 7.774285e-001 -8.036679e+000 160 145 49
-1.540318e+000 -2.286286e-001 -7.963353e+000 153 134 94
1.331837e-001 1.703454e-001 -7.715143e+000 139 139 112
4.724124e+000 -2.854114e-001 -8.302664e+000 150 125 105
4.636410e+000 -5.306342e-001 -8.525961e+000 163 140 124
3.787761e+000 -2.406083e+000 -1.028231e+001 48 38 37
1.983021e+000 1.528717e+000 -9.868899e+000 141 102 61
2.654061e-002 1.360424e+000 -8.644388e+000 107 108 92
5.917514e-001 1.325588e+000 -8.797166e+000 163 87 69
1.327304e+000 1.354675e+000 -9.107927e+000 23 56 71
1.328036e+000 1.352815e+000 -9.110578e+000 23 56 71
6.287550e-001 1.196529e+000 -8.628491e+000 162 140 96
-6.397487e-001 9.398616e-001 -7.949550e+000 140 36 15
1.911099e-001 1.062350e+000 -8.327723e+000 33 49 31
3.544816e-001 1.084714e+000 -8.373696e+000 28 48 18
-1.226457e+000 6.351921e-001 -7.687319e+000 208 175 130
1.536989e+000 7.417428e-001 -8.480498e+000 27 57 84
3.898671e+000 7.885386e-001 -9.417221e+000 174 134 96
3.909306e+000 7.841266e-001 -9.428428e+000 174 134 96
3.546430e+000 7.900662e-001 -9.186586e+000 170 84 27
8.758525e-002 2.639911e-001 -7.684137e+000 88 117 115
3.207574e+000 1.185334e-001 -9.044478e+000 97 26 23
3.207574e+000 1.185334e-001 -9.044478e+000 97 26 23
4.035711e+000 2.344952e-001 -9.326605e+000 206 114 46
2.915999e+000 -4.806256e+000 -1.254345e+001 44 34 32
1.838605e-001 1.356618e+000 -8.714122e+000 157 142 81
7.314545e-001 1.006956e+000 -8.426659e+000 162 137 98
7.314545e-001 1.006956e+000 -8.426659e+000 162 137 98
9.245122e-001 1.003383e+000 -8.515260e+000 156 137 96
-1.699916e-001 8.576428e-001 -8.015019e+000 21 49 21
2.762489e-001 8.825793e-001 -8.148687e+000 163 143 88
2.762489e-001 8.825793e-001 -8.148687e+000 163 143 88
4.849177e-001 8.389888e-001 -8.159535e+000 32 51 32
4.849177e-001 8.389888e-001 -8.159535e+000 32 51 32
-5.525149e-001 7.625381e-001 -7.743733e+000 185 116 89
2.540158e+000 7.756981e-001 -8.901240e+000 128 91 71
2.423330e+000 4.998213e-001 -8.661564e+000 159 110 54
3.468747e+000 -1.601233e-001 -9.393905e+000 166 109 43
3.083899e+000 1.578819e+000 -1.020954e+001 129 87 39
-1.679617e-001 9.611846e-001 -8.126105e+000 27 52 28
2.345985e+000 9.940947e-001 -8.981878e+000 135 103 78
2.161457e-001 8.327796e-001 -8.080434e+000 24 47 19
2.675899e+000 9.656197e-001 -9.048741e+000 101 76 72
5.475709e-001 7.475201e-001 -8.086492e+000 158 141 95
2.473281e+000 3.866832e-001 -8.628017e+000 52 17 19
1.211103e+000 3.982713e-002 -8.249858e+000 18 63 83
2.319215e+000 8.090906e-001 -8.821430e+000 145 110 80
1.347032e+000 6.086243e-001 -8.285944e+000 151 28 31
1.347032e+000 6.086243e-001 -8.285944e+000 151 28 31
7.730741e-001 1.092312e+000 -8.575696e+000 157 138 98
4.241248e+000 1.553215e-001 -9.370673e+000 33 23 24
-3.489114e-001 1.130248e+000 -8.298268e+000 29 54 25
1.352533e+000 1.111464e+000 -8.662921e+000 29 40 51
1.352533e+000 1.111464e+000 -8.662921e+000 29 40 51
2.751110e+000 1.378032e+000 -9.618769e+000 155 113 65
-1.550447e-001 6.329444e-001 -7.862965e+000 29 51 30
3.943090e+000 5.384520e-001 -9.319327e+000 177 110 68
3.943090e+000 5.384520e-001 -9.319327e+000 177 110 68
1.937196e+000 1.499453e+000 -9.650106e+000 16 36 39
1.923224e+000 1.515859e+000 -9.606957e+000 16 36 39
1.938235e+000 1.501046e+000 -9.592266e+000 24 41 46
6.134659e-001 1.372535e+000 -8.895787e+000 111 26 21
2.045859e+000 1.482517e+000 -9.616889e+000 52 71 71
-2.113628e-001 1.060857e+000 -8.836096e+000 115 103 22
1.326408e+000 1.330203e+000 -9.064227e+000 9 42 50
1.355144e+000 1.331643e+000 -9.073961e+000 15 46 57
-6.028772e-001 1.052340e+000 -8.269550e+000 114 105 15
1.493690e+000 1.302543e+000 -9.050470e+000 117 46 27
1.698266e+000 1.267601e+000 -9.105248e+000 60 18 10
2.433355e+000 1.265464e+000 -9.357135e+000 104 57 47
-3.716779e-001 1.095641e+000 -8.215392e+000 107 98 11
1.132270e+000 1.104904e+000 -8.696321e+000 149 115 60
1.132012e+000 1.105175e+000 -8.695548e+000 149 115 60
1.701989e+000 1.192140e+000 -8.998762e+000 108 56 44
1.941620e+000 1.148224e+000 -9.030954e+000 53 34 29
2.431389e+000 1.221774e+000 -9.280947e+000 69 31 20
-1.217022e+000 8.631083e-001 -7.817751e+000 64 35 5
4.121422e-001 1.068956e+000 -8.386238e+000 33 36 2
1.195898e+000 1.048134e+000 -8.781397e+000 108 8 6
1.168017e+000 1.064932e+000 -8.657373e+000 107 21 17
2.134335e+000 1.136319e+000 -9.084333e+000 89 61 37
-1.298225e+000 7.217671e-001 -7.774940e+000 73 48 11
-1.226178e+000 7.884216e-001 -7.729145e+000 74 46 35
-1.229650e+000 7.757896e-001 -7.747886e+000 74 46 35
-1.200378e+000 8.370491e-001 -7.770881e+000 54 30 1
-1.191727e+000 8.094822e-001 -7.714817e+000 74 49 15
1.207408e+000 9.472989e-001 -8.530980e+000 147 106 71
1.326913e+000 1.003118e+000 -8.636272e+000 107 19 17
1.817696e+000 1.022482e+000 -8.836110e+000 65 24 16
-1.308816e+000 7.070969e-001 -7.758802e+000 162 140 91
-1.324121e+000 6.594249e-001 -7.767497e+000 162 138 92
-1.323469e+000 6.628620e-001 -7.762061e+000 162 138 92
-1.272719e+000 6.495869e-001 -7.721192e+000 165 140 98
-1.272719e+000 6.495869e-001 -7.721192e+000 165 140 98
-2.815371e-001 1.548734e+000 -6.675001e+000 115 106 29
5.310042e-001 8.028934e-001 -8.165479e+000 137 110 25
1.898485e+000 8.606232e-001 -8.684250e+000 61 19 13
2.302579e+000 9.350855e-001 -8.855921e+000 102 81 57
-2.075550e-001 8.079021e-001 -7.726667e+000 111 100 11
1.869788e+000 7.937114e-001 -8.608471e+000 61 13 2
2.298252e+000 7.452230e-001 -8.744820e+000 110 80 56
1.938344e+000 6.557775e-001 -8.509862e+000 114 58 50
1.938452e+000 6.553849e-001 -8.510425e+000 114 58 50
2.209100e+000 6.585173e-001 -8.617323e+000 43 8 4
2.209100e+000 6.585173e-001 -8.617323e+000 43 8 4
2.270731e+000 7.206562e-001 -8.673891e+000 88 50 42
2.650918e+000 7.131461e-001 -8.791139e+000 46 16 15
3.787673e+000 7.269587e-001 -9.306989e+000 119 75 34
3.876530e+000 7.225135e-001 -9.317793e+000 113 24 12
4.012035e+000 6.918447e-001 -9.372034e+000 117 18 7
-6.599254e-002 6.009226e-001 -7.659683e+000 118 101 14
2.514488e+000 5.960576e-001 -8.664110e+000 47 10 8
3.261993e+000 5.509308e-001 -8.970081e+000 10 45 55
3.982769e+000 6.102099e-001 -9.277142e+000 120 45 28
-8.588187e-002 5.276868e-001 -7.584412e+000 128 114 17
3.199888e+000 4.824660e-001 -8.905358e+000 144 102 52
4.223350e+000 -1.618367e+000 -9.444617e+000 101 82 65
4.756933e+000 -2.789450e-001 -8.269109e+000 92 71 50
2.950404e+000 1.547351e+000 -1.008870e+001 114 80 36
2.048123e+000 1.479547e+000 -9.534461e+000 35 54 48
1.899743e+000 1.183972e+000 -9.060220e+000 62 42 38
-1.254206e+000 8.681721e-001 -7.826972e+000 157 133 88
-1.254206e+000 8.681721e-001 -7.826972e+000 157 133 88
-6.032338e-001 9.540668e-001 -7.977966e+000 141 106 61
2.320147e+000 1.120758e+000 -9.135518e+000 22 3 1
1.917558e+000 1.016993e+000 -8.866626e+000 78 59 51
-5.162014e-001 7.793919e-001 -7.779350e+000 134 102 62
2.452341e+000 8.781731e-001 -8.890474e+000 108 81 60
2.015563e+000 8.316169e-001 -8.691950e+000 59 29 28
-4.882084e-001 6.969472e-001 -7.667512e+000 146 103 69
-3.226186e-001 5.603061e-001 -7.581832e+000 128 114 69
-1.547855e+000 -1.177855e-001 -7.985946e+000 153 123 81
3.359905e+000 4.626512e-001 -8.974040e+000 138 95 50
3.732010e+000 2.155152e-001 -9.174695e+000 152 127 89
2.251432e+000 -6.161456e-002 -8.727452e+000 160 109 68
8.449737e-001 -1.036983e-001 -8.163101e+000 117 28 21
3.752369e+000 -2.550092e+000 -1.040543e+001 31 21 19
4.373825e+000 -1.262470e+000 -9.040157e+000 130 108 84
3.242796e+000 1.583381e+000 -1.044490e+001 91 60 41
3.300434e+000 1.635399e+000 -1.030643e+001 36 5 2
2.027386e+000 1.114928e+000 -9.003276e+000 62 45 35
1.806034e+000 8.285335e-001 -8.602881e+000 68 21 16
1.879171e+000 8.443295e-001 -8.659928e+000 118 60 39
2.058312e+000 8.265670e-001 -8.710135e+000 59 37 26
9.699084e-001 6.964563e-001 -8.172271e+000 123 108 69
4.259775e+000 6.073731e-001 -9.443156e+000 115 47 33
8.656979e-001 -2.484563e-002 -8.121702e+000 120 29 22
1.561975e-001 -3.478262e-001 -8.044749e+000 114 111 54
8.903769e-001 -1.381684e-001 -8.207717e+000 153 88 65
3.695666e+000 -2.703500e+000 -1.055023e+001 36 26 24
4.569290e+000 -6.596797e-001 -8.701513e+000 42 28 27
4.813837e+000 -8.170951e-001 -8.133031e+000 138 116 95
4.826238e+000 -5.835785e-001 -7.972115e+000 115 93 72
1.956924e+000 1.476384e+000 -1.005234e+001 101 72 34
2.552311e-001 7.324499e-001 -8.110947e+000 128 107 32
3.106468e+000 8.579532e-001 -9.039086e+000 14 43 46
3.775575e-001 7.541189e-001 -7.903026e+000 126 106 35
3.775575e-001 7.541189e-001 -7.903026e+000 126 106 35
2.116059e+000 7.413975e-001 -8.593883e+000 58 23 21
1.976648e+000 5.309016e-001 -8.456828e+000 132 94 48
-2.090383e-002 -2.294983e-001 -7.863050e+000 112 114 63
4.518877e+000 -8.446829e-001 -8.807700e+000 127 105 84
4.642260e+000 -4.800442e-001 -8.395110e+000 93 76 56
4.816335e+000 -8.211981e-001 -8.137324e+000 138 116 95
2.311134e+000 1.429969e+000 -9.570343e+000 82 20 11
2.542294e+000 1.331005e+000 -9.493157e+000 47 30 27
2.081174e+000 1.000605e+000 -8.854182e+000 52 34 30
2.320264e+000 1.036394e+000 -8.998897e+000 101 74 54
2.845412e+000 5.998815e-001 -8.853980e+000 63 37 38
3.845948e+000 2.495662e-001 -9.213097e+000 141 119 79
1.020805e+000 1.310887e-001 -8.079599e+000 24 52 63
4.678556e+000 -3.476840e-001 -8.434128e+000 35 25 23
8.831172e-001 1.091115e+000 -8.929674e+000 130 104 70
-9.659825e-002 1.098890e+000 -8.267391e+000 24 40 15
-2.214668e-001 1.028309e+000 -8.185278e+000 20 38 23
-2.491885e-001 8.603935e-001 -7.983940e+000 16 42 18
9.346649e-001 9.976648e-001 -8.527012e+000 125 105 68
4.036998e+000 1.026812e+000 -9.801763e+000 114 62 33
5.268386e-001 7.173110e-001 -8.042107e+000 130 109 66
8.376527e-002 3.030432e-001 -7.635414e+000 74 90 81
1.438145e+000 2.164032e-002 -8.353184e+000 134 81 47
1.714785e-001 1.203033e+000 -8.501314e+000 21 37 24
6.424469e-001 1.198409e+000 -8.630423e+000 126 107 67
8.350334e-001 1.193895e+000 -8.718636e+000 125 109 71
-2.586333e-001 1.011598e+000 -8.318262e+000 25 37 23
2.258599e-001 7.377968e-001 -7.965883e+000 21 36 15
3.995232e+000 5.383917e-001 -9.301104e+000 145 111 67
2.979709e+000 3.481984e-001 -8.817453e+000 50 11 9
2.668429e-001 6.604056e-001 -7.915201e+000 22 37 16
2.659419e-001 6.694786e-001 -7.902817e+000 22 37 16
1.507700e+000 5.181145e-001 -8.265428e+000 128 113 72
1.477783e+000 1.469417e+000 -9.672612e+000 114 51 33
4.355782e+000 -1.153691e+000 -8.939483e+000 117 95 73
3.574587e+000 1.506535e+000 -1.022444e+001 115 79 43
3.633391e+000 1.465200e+000 -1.032884e+001 115 79 43
3.627742e+000 3.382248e-001 -9.215090e+000 147 76 14
1.950393e-002 1.218260e+000 -9.089614e+000 16 33 23
3.256064e+000 1.175915e+000 -9.721668e+000 117 82 45
3.256064e+000 1.175915e+000 -9.721668e+000 117 82 45
1.364188e-001 7.773445e-001 -7.993803e+000 162 143 85
1.364188e-001 7.773445e-001 -7.993803e+000 162 143 85
2.171446e+000 1.419011e+000 -9.508367e+000 36 5 8
2.488239e+000 1.431634e+000 -9.627082e+000 107 50 37
-1.382539e+000 9.274135e-001 -7.992826e+000 157 129 87
-1.381760e+000 9.285392e-001 -7.991452e+000 157 129 87
-1.257721e+000 9.666163e-001 -7.893933e+000 73 50 10
-1.257899e+000 9.655869e-001 -7.895586e+000 73 50 10
-7.629769e-001 1.068373e+000 -8.038539e+000 123 27 19
2.425928e+000 1.173258e+000 -9.247874e+000 127 90 64
2.594380e+000 1.183752e+000 -9.327814e+000 82 63 55
2.346742e+000 1.072140e+000 -9.090252e+000 97 74 52
-6.390510e-001 8.836146e-001 -7.862302e+000 124 21 20
9.699481e-001 1.015290e+000 -8.480380e+000 129 111 74
-5.249103e-001 7.613439e-001 -7.752395e+000 108 18 12
-5.249103e-001 7.613439e-001 -7.752395e+000 108 18 12
1.887053e+000 8.139945e-001 -8.617927e+000 110 64 49
1.968420e+000 8.026792e-001 -8.631509e+000 51 20 14
1.968420e+000 8.026792e-001 -8.631509e+000 51 20 14
-1.725836e-001 6.427180e-001 -7.700682e+000 117 102 15
1.918722e+000 6.379311e-001 -8.498952e+000 67 21 11
2.730180e+000 6.584868e-001 -8.829745e+000 74 44 43
-5.544073e-001 5.840354e-001 -7.510018e+000 129 109 74
2.633254e+000 6.402254e-001 -8.757059e+000 46 16 16
1.589672e+000 5.238802e-001 -8.292967e+000 118 53 25
4.094202e+000 -1.872990e+000 -9.678554e+000 98 79 61
2.968924e+000 1.545182e+000 -1.000439e+001 116 80 36
1.459603e+000 1.331706e+000 -9.109459e+000 96 23 19
2.163095e+000 1.349035e+000 -9.380338e+000 63 9 8
1.588030e+000 1.283312e+000 -9.090033e+000 53 35 44
-1.292593e+000 9.250357e-001 -7.897756e+000 156 132 91
1.278750e+000 9.469136e-001 -8.561130e+000 101 11 16
2.478393e+000 9.615989e-001 -9.171666e+000 97 75 54
-1.527256e+000 4.249661e-001 -7.843455e+000 125 95 55
-1.520328e+000 3.953795e-001 -7.824734e+000 136 108 68
-5.760203e-001 7.501576e-001 -7.711344e+000 139 107 69
1.864462e+000 7.503876e-001 -8.531044e+000 117 62 43
2.195241e+000 6.848962e-001 -8.615951e+000 52 16 16
-1.062832e-001 5.711129e-001 -7.682328e+000 123 104 22
-1.888085e-002 5.764114e-001 -7.718998e+000 129 110 27
3.501958e+000 6.188426e-001 -9.123648e+000 104 32 12
3.112334e+000 4.961768e-001 -8.894126e+000 15 43 58
4.710461e+000 -3.923662e-001 -8.334339e+000 88 71 51
4.770069e+000 -3.527186e-001 -8.152877e+000 129 107 84
4.687123e+000 -8.161329e-001 -8.363517e+000 107 84 68
1.232757e+000 1.113686e+000 -8.747118e+000 108 18 19
1.945284e+000 1.052372e+000 -8.931514e+000 59 40 36
4.048297e+000 1.065898e+000 -9.876304e+000 100 50 23
1.977747e+000 7.705022e-001 -8.605796e+000 51 23 19
1.978020e+000 7.693248e-001 -8.608963e+000 51 23 19
2.380808e+000 8.303274e-001 -8.839294e+000 104 79 54
3.007872e+000 8.304906e-001 -9.097917e+000 117 80 43
-9.406821e-002 6.139919e-001 -7.744783e+000 53 69 60
2.669855e+000 4.664454e-001 -8.723387e+000 95 51 6
3.594045e+000 -2.883740e+000 -1.072516e+001 40 32 29
4.822612e+000 -3.396755e-001 -8.050406e+000 90 69 50
-1.450667e+000 9.782359e-001 -8.106019e+000 158 129 85
1.442848e+000 1.127813e+000 -8.839049e+000 24 46 53
1.441916e+000 1.128767e+000 -8.838390e+000 24 46 53
-3.707536e-001 9.045081e-001 -8.010410e+000 49 70 66
1.687650e-001 8.193342e-001 -8.034518e+000 20 39 18
2.397804e+000 6.298058e-001 -8.689964e+000 54 18 18
2.963241e+000 -4.543456e+000 -1.218953e+001 122 110 90
4.605885e+000 -5.959953e-001 -8.581269e+000 111 94 76
3.754875e-001 1.115403e+000 -8.446350e+000 134 114 54
3.754875e-001 1.115403e+000 -8.446350e+000 134 114 54
-1.266707e+000 7.687340e-001 -7.768026e+000 162 135 88
1.199922e+000 1.002647e+000 -8.599540e+000 88 26 4
1.513982e+000 9.707629e-001 -8.666868e+000 58 77 55
9.177296e-001 7.040149e-001 -8.173719e+000 95 36 20
2.451892e+000 6.575051e-001 -8.714995e+000 97 67 51
6.444331e-001 1.358188e+000 -8.894210e+000 134 100 60
1.069420e+000 1.171367e+000 -8.826178e+000 104 13 11
-1.275473e+000 9.426111e-001 -7.891781e+000 157 132 89
3.230574e-001 1.170794e+000 -8.467437e+000 26 39 21
-1.383496e+000 8.183914e-001 -7.908985e+000 132 104 69
-1.382803e+000 8.180286e-001 -7.910055e+000 132 104 69
1.019994e-001 1.020052e+000 -8.307815e+000 28 42 15
1.623845e+000 8.934356e-001 -8.553891e+000 10 47 51
5.313593e-001 7.326863e-001 -8.035492e+000 123 109 66
-5.657051e-002 1.432037e+000 -8.735367e+000 116 102 25
-1.009649e-001 1.389400e+000 -8.676831e+000 17 29 14
-1.991896e-002 1.391024e+000 -8.574305e+000 123 108 30
1.989858e-001 1.387708e+000 -8.762372e+000 120 97 21
-3.379544e-001 1.288729e+000 -8.446804e+000 108 99 37
2.172923e+000 1.450486e+000 -9.555094e+000 105 19 22
-1.450796e+000 1.023023e+000 -8.146349e+000 161 132 88
-1.415614e+000 9.628824e-001 -8.059098e+000 161 133 92
-2.790764e-001 1.188015e+000 -8.352999e+000 119 104 21
-2.598272e-001 1.242540e+000 -8.419143e+000 116 98 27
1.354120e+000 1.306510e+000 -9.042263e+000 115 112 74
1.379096e+000 1.311599e+000 -9.043415e+000 117 114 80
-5.828805e-001 1.090933e+000 -8.153503e+000 43 56 34
-5.882537e-001 1.081576e+000 -8.132500e+000 135 113 68
-5.882537e-001 1.081576e+000 -8.132500e+000 135 113 68
1.353793e+000 1.252278e+000 -8.968572e+000 121 108 70
1.406286e+000 1.259102e+000 -8.982096e+000 111 112 86
1.678287e+000 1.280017e+000 -9.117452e+000 104 55 45
-1.308466e+000 9.321165e-001 -7.912425e+000 67 40 9
-1.118806e+000 1.557978e+000 -6.878738e+000 71 43 18
-1.266938e+000 9.511231e-001 -7.885530e+000 153 131 82
-5.957415e-001 1.039386e+000 -8.071361e+000 151 94 67
-5.959091e-001 1.035810e+000 -8.076344e+000 151 94 67
-5.334947e-001 1.057646e+000 -8.117331e+000 41 61 59
1.116176e+000 1.166457e+000 -8.767101e+000 100 17 13
1.116176e+000 1.166457e+000 -8.767101e+000 100 17 13
1.158985e+000 1.162212e+000 -8.794388e+000 100 10 4
1.158985e+000 1.162212e+000 -8.794388e+000 100 10 4
1.108381e+000 1.151416e+000 -8.749391e+000 138 105 68
1.382869e+000 1.198768e+000 -8.906779e+000 126 122 87
1.421018e+000 1.189353e+000 -8.901935e+000 14 44 51
1.427117e+000 1.185889e+000 -8.910084e+000 14 44 51
1.445109e+000 1.154757e+000 -8.865823e+000 115 104 77
1.538248e+000 1.192488e+000 -8.930576e+000 104 33 13
1.763741e+000 1.167891e+000 -8.999191e+000 99 59 53
1.763741e+000 1.167891e+000 -8.999191e+000 99 59 53
-1.327524e+000 7.578050e-001 -7.829983e+000 92 62 36
-1.274708e+000 8.735672e-001 -7.848137e+000 60 31 22
-1.274708e+000 8.735672e-001 -7.848137e+000 60 31 22
-1.266635e+000 8.397688e-001 -7.818313e+000 68 43 14
-1.254802e+000 8.014977e-001 -7.790017e+000 61 35 16
7.346999e-001 1.040709e+000 -8.488564e+000 116 21 14
1.157673e+000 1.047705e+000 -8.640577e+000 160 106 72
1.436954e+000 1.083255e+000 -8.778055e+000 118 108 76
2.487099e+000 1.184774e+000 -9.303948e+000 100 52 42
-1.298081e+000 7.213180e-001 -7.775488e+000 70 39 9
1.265211e+000 9.703805e-001 -8.577981e+000 155 101 78
1.264459e+000 9.715159e-001 -8.576184e+000 155 101 78
1.456747e+000 1.047192e+000 -8.736729e+000 127 111 80
1.493875e+000 1.043917e+000 -8.729368e+000 107 111 87
1.990237e+000 1.040050e+000 -8.901102e+000 52 33 28
-1.150086e+000 7.427544e-001 -7.663453e+000 62 36 8
1.583638e+000 8.319691e-001 -8.542200e+000 121 109 88
1.842512e+000 8.634008e-001 -8.653549e+000 58 14 7
2.395131e+000 8.676869e-001 -8.878341e+000 93 78 67
-4.816933e-001 6.783567e-001 -7.657891e+000 121 22 23
-4.816933e-001 6.783567e-001 -7.657891e+000 121 22 23
-4.663913e-001 6.872136e-001 -7.675436e+000 150 95 64
1.924565e+000 7.899266e-001 -8.626951e+000 64 16 7
2.078147e+000 7.821728e-001 -8.669337e+000 107 83 72
2.077764e+000 6.156049e-001 -8.555222e+000 57 16 14
-1.219331e-001 4.854572e-001 -7.622053e+000 120 107 14
2.345824e+000 5.496114e-001 -8.613370e+000 138 95 52
2.661304e+000 5.782357e-001 -8.758843e+000 42 9 5
2.718447e+000 5.730379e-001 -8.785901e+000 36 7 10
4.510595e+000 -2.183777e+000 -8.876007e+000 94 74 47
4.600655e+000 -2.117352e+000 -8.890533e+000 98 78 53
7.422176e-001 1.410253e+000 -8.949614e+000 130 95 61
2.756646e+000 1.497565e+000 -9.871169e+000 86 44 6
-3.270282e-001 1.199881e+000 -8.352833e+000 61 71 46
-7.061050e-001 1.034767e+000 -8.017592e+000 139 106 61
1.241702e+000 1.183189e+000 -8.837001e+000 138 58 47
-6.779232e-001 9.523819e-001 -7.946881e+000 140 108 63
1.199220e+000 1.108375e+000 -8.725597e+000 149 106 65
2.306168e+000 1.103013e+000 -9.112450e+000 102 77 57
-1.293604e+000 7.044937e-001 -7.759971e+000 157 131 87
-6.431484e-001 9.125711e-001 -7.902002e+000 119 14 17
2.210656e+000 1.073434e+000 -9.043951e+000 105 83 57
1.207287e+000 9.475360e-001 -8.530318e+000 144 116 67
1.882521e+000 8.911118e-001 -8.694719e+000 67 23 20
1.784533e+000 7.998938e-001 -8.562302e+000 122 60 39
-5.315567e-001 5.597515e-001 -7.515095e+000 123 16 23
-5.308143e-001 5.563415e-001 -7.519167e+000 123 16 23
-1.484120e-001 5.715405e-001 -7.661363e+000 117 102 22
-3.230553e-002 5.794255e-001 -7.704395e+000 119 102 12
1.845350e+000 6.172674e-001 -8.463922e+000 134 89 47
3.811086e+000 7.069840e-001 -9.290251e+000 144 100 65
3.835265e+000 6.577290e-001 -9.278330e+000 147 107 65
3.468959e+000 5.313914e-001 -9.056778e+000 112 46 18
4.132039e+000 -1.920722e+000 -9.673046e+000 116 100 74
4.230639e+000 -1.632303e+000 -9.452563e+000 95 78 58
4.606932e+000 -7.420484e-001 -8.674363e+000 82 61 40
4.330091e+000 -1.837189e+000 -9.198276e+000 92 72 47
3.761346e+000 1.654922e+000 -1.042778e+001 120 81 42
-1.503789e+000 9.776665e-001 -8.191044e+000 158 130 81
-1.498964e+000 9.840659e-001 -8.182020e+000 158 130 81
-1.133791e+000 1.096579e+000 -8.010493e+000 118 97 58
1.597078e+000 1.247966e+000 -9.031306e+000 59 36 29
1.989966e+000 1.082874e+000 -8.944959e+000 55 36 30
1.828828e+000 9.210941e-001 -8.713900e+000 60 35 32
-2.075475e-001 7.188151e-001 -7.807197e+000 48 68 53
1.584153e+000 8.095486e-001 -8.520469e+000 19 44 51
1.811716e+000 8.234360e-001 -8.612467e+000 68 21 17
2.056508e+000 8.265989e-001 -8.706743e+000 74 48 35
-5.590365e-001 6.427918e-001 -7.615644e+000 118 23 24
9.761389e-001 7.025035e-001 -8.201660e+000 125 103 64
1.904000e+000 7.782420e-001 -8.602607e+000 113 57 45
2.009649e+000 7.858936e-001 -8.664687e+000 88 59 50
2.010985e+000 7.835049e-001 -8.666077e+000 88 59 50
2.335007e+000 6.959049e-001 -8.691683e+000 125 89 67
2.458575e+000 4.570410e-001 -8.646150e+000 130 85 46
2.741251e+000 4.503408e-001 -8.756035e+000 138 96 46
3.467520e+000 -3.391205e+000 -1.104651e+001 95 80 59
4.062841e+000 -2.038363e+000 -9.804445e+000 96 75 52
4.134884e+000 -1.832098e+000 -9.691420e+000 115 95 72
4.588405e+000 -1.174538e+000 -8.623851e+000 98 78 54
3.760786e+000 1.696260e+000 -1.045875e+001 26 14 16
7.058011e-001 1.373252e+000 -8.922406e+000 119 104 63
-2.801707e-001 1.236826e+000 -8.399113e+000 15 39 18
-2.801707e-001 1.236826e+000 -8.399113e+000 15 39 18
2.168741e+000 1.183877e+000 -9.171332e+000 66 44 30
-5.051251e-001 9.034702e-001 -7.904418e+000 129 24 23
1.059178e+000 8.940345e-001 -8.415413e+000 119 25 24
1.059527e+000 8.933307e-001 -8.416309e+000 119 25 24
1.834175e+000 6.380210e-001 -8.492052e+000 135 91 44
1.483905e+000 5.696792e-001 -8.295637e+000 99 10 11
3.443503e+000 -3.413456e+000 -1.114667e+001 117 101 78
4.175104e+000 -1.722982e+000 -9.586070e+000 114 98 72
4.083963e+000 -2.731200e+000 -9.797606e+000 130 110 81
4.839380e+000 -3.596074e-001 -8.062049e+000 84 59 40
4.305563e+000 -2.533778e+000 -9.262543e+000 100 79 55
1.881221e+000 1.531649e+000 -9.600287e+000 13 36 46
6.827152e-001 1.388978e+000 -8.957627e+000 123 104 64
-1.727758e-001 1.121230e+000 -8.311641e+000 128 106 16
-6.358880e-001 1.052876e+000 -8.082380e+000 124 19 23
-6.358880e-001 1.052876e+000 -8.082380e+000 124 19 23
2.592442e+000 1.051400e+000 -9.115814e+000 50 30 29
-5.820518e-001 7.270338e-001 -7.682919e+000 112 19 16
-5.591568e-001 6.747278e-001 -7.641346e+000 120 25 25
4.635143e+000 -4.871987e-001 -8.562924e+000 38 27 23
1.455654e+000 1.248376e+000 -8.974015e+000 17 39 51
1.455654e+000 1.248376e+000 -8.974015e+000 17 39 51
-1.308283e+000 8.045124e-001 -7.841335e+000 162 131 86
1.183422e+000 9.132565e-001 -8.496469e+000 106 13 17
2.933141e+000 1.567817e+000 -1.017045e+001 27 9 12
1.005572e-001 1.238879e+000 -8.533035e+000 124 106 38
1.345899e+000 1.155108e+000 -8.883746e+000 15 42 53
-2.851392e-001 1.013297e+000 -8.148922e+000 131 109 32
1.391642e+000 1.054359e+000 -8.718541e+000 16 43 54
-1.887703e-001 8.192955e-001 -7.927004e+000 129 107 42
6.003618e-001 1.351631e+000 -8.805602e+000 114 50 36
9.076377e-001 1.004405e+000 -8.505808e+000 123 105 68
-3.228410e-001 7.101038e-001 -7.788944e+000 34 61 56
9.645053e-002 6.751164e-001 -7.822645e+000 20 38 19
1.151745e+000 6.990226e-001 -8.289561e+000 127 110 67
-1.253746e+000 7.170913e-001 -7.736713e+000 159 134 80
3.104228e+000 -5.982731e-002 -9.248920e+000 153 106 54
8.629335e-001 1.455106e+000 -9.323220e+000 117 97 60
2.744604e+000 1.385036e+000 -9.606473e+000 112 74 37
4.235898e+000 7.877745e-001 -9.449823e+000 32 22 23
3.755453e+000 1.651136e+000 -1.052155e+001 70 19 6
1.948092e+000 1.485453e+000 -9.551562e+000 19 37 37
1.977879e+000 1.487940e+000 -9.546785e+000 46 59 52
2.024266e+000 1.468424e+000 -9.589520e+000 20 40 39
2.019061e+000 1.476777e+000 -9.577373e+000 20 40 39
-3.716365e-001 1.221453e+000 -8.368705e+000 121 99 9
-2.720613e-001 1.203710e+000 -8.367562e+000 60 71 24
-1.406664e+000 9.386173e-001 -8.015287e+000 153 128 87
-1.257945e+000 9.678675e-001 -7.892675e+000 69 43 17
2.584497e+000 1.205120e+000 -9.363858e+000 75 57 47
-1.402886e+000 7.902443e-001 -7.901997e+000 100 75 45
-3.491137e-001 9.455435e-001 -8.068204e+000 107 101 9
-1.306474e+000 7.700829e-001 -7.803086e+000 152 125 78
1.907401e+000 1.040240e+000 -8.881520e+000 54 35 31
1.907401e+000 1.040240e+000 -8.881520e+000 54 35 31
-1.296341e+000 6.516011e-001 -7.751585e+000 162 135 95
-3.291393e-001 1.109709e+000 -7.585760e+000 109 97 17
-2.207039e-001 8.769589e-001 -7.853062e+000 120 104 38
1.518335e+000 9.116627e-001 -8.619583e+000 110 110 80
1.518335e+000 9.116627e-001 -8.619583e+000 110 110 80
8.197272e-001 7.969230e-001 -8.238164e+000 119 107 56
8.197272e-001 7.969230e-001 -8.238164e+000 119 107 56
2.325921e+000 8.931684e-001 -8.886251e+000 93 72 52
2.350492e+000 8.641531e-001 -8.876398e+000 101 79 60
2.202740e+000 8.043787e-001 -8.720976e+000 52 19 17
3.281722e+000 7.189904e-001 -9.120611e+000 90 18 19
-4.556863e-001 6.511491e-001 -7.632658e+000 120 25 21
-4.556863e-001 6.511491e-001 -7.632658e+000 120 25 21
-4.335954e-001 6.008298e-001 -7.604408e+000 117 25 19
-4.335954e-001 6.008298e-001 -7.604408e+000 117 25 19
3.150097e+000 6.442994e-001 -9.002611e+000 10 39 52
3.466249e+000 6.154717e-001 -9.109117e+000 134 86 45
1.608473e+000 5.562933e-001 -8.343478e+000 23 30 34
2.730081e+000 4.779125e-001 -8.777074e+000 104 58 10
3.897876e+000 5.621692e-001 -9.237957e+000 136 68 32
4.097220e+000 -1.872838e+000 -9.680513e+000 94 77 55
1.972087e+000 1.495144e+000 -9.633438e+000 56 68 65
2.057634e+000 1.432601e+000 -9.486048e+000 17 42 48
-2.722076e-001 1.236130e+000 -8.397398e+000 15 33 6
2.156408e+000 1.238780e+000 -9.163152e+000 119 94 64
-1.215162e+000 7.628521e-001 -7.734025e+000 157 132 91
2.537223e+000 1.049040e+000 -9.137851e+000 96 73 53
-1.234332e+000 6.806486e-001 -7.698391e+000 161 136 84
1.881278e+000 8.935592e-001 -8.692667e+000 69 26 22
2.738919e+000 8.691321e-001 -9.048522e+000 83 61 48
3.157231e+000 8.209331e-001 -9.126164e+000 13 38 57
-2.328102e-001 6.839095e-001 -7.773196e+000 109 96 25
3.949899e+000 7.969502e-001 -9.461157e+000 117 92 53
4.128222e+000 8.080260e-001 -9.486287e+000 97 42 29
1.906272e+000 6.130153e-001 -8.482262e+000 125 68 48
3.979494e+000 -2.223612e+000 -9.993180e+000 95 80 57
4.419534e+000 -1.800836e+000 -9.015137e+000 128 106 82
4.249746e+000 -2.838732e+000 -9.293602e+000 102 85 57
4.801139e+000 -1.106031e+000 -8.129619e+000 116 96 72
3.147743e+000 1.444431e+000 -9.903620e+000 85 44 14
-2.693489e-001 1.107151e+000 -8.237263e+000 21 35 20
-1.354632e+000 8.340265e-001 -7.895868e+000 132 105 75
-1.218075e+000 8.048864e-001 -7.759562e+000 155 133 86
1.027278e+000 8.724744e-001 -8.390053e+000 123 100 64
1.026411e+000 8.736972e-001 -8.388508e+000 123 100 64
-4.935565e-001 7.659866e-001 -7.767007e+000 124 20 23
1.991921e+000 8.487835e-001 -8.707723e+000 82 50 40
2.744574e+000 4.447439e-001 -8.761623e+000 141 97 37
3.522045e+000 -3.056498e+000 -1.081691e+001 125 111 86
4.061654e+000 -1.878940e+000 -9.788895e+000 44 35 23
3.267795e+000 1.606377e+000 -1.025466e+001 108 74 37
1.271042e+000 1.043877e+000 -8.676273e+000 104 14 15
1.339096e+000 9.789322e-001 -8.626192e+000 111 33 23
4.077469e+000 9.231012e-001 -9.669221e+000 108 63 28
2.027908e+000 8.646966e-001 -8.728174e+000 52 23 17
-1.514210e+000 -1.341734e-001 -7.887858e+000 27 21 25
1.974422e+000 6.537554e-001 -8.533210e+000 57 20 17
-3.599874e-001 5.770308e-001 -7.592834e+000 125 24 24
4.005441e+000 -2.028787e+000 -9.942366e+000 35 28 23
4.208975e+000 -1.555446e+000 -9.506519e+000 45 35 30
4.463419e+000 -9.661627e-001 -8.913680e+000 112 94 74
2.783317e+000 1.553940e+000 -9.979733e+000 70 32 12
2.783986e+000 1.511594e+000 -9.880602e+000 90 46 18
7.900271e-001 1.324230e+000 -8.867957e+000 127 84 59
-1.483808e+000 8.829455e-001 -8.045868e+000 158 127 83
2.640741e+000 9.383526e-001 -9.023044e+000 55 36 29
9.621481e-001 5.674993e-001 -8.101692e+000 114 51 33
4.746123e+000 -1.843171e-001 -8.213511e+000 125 103 82
2.021503e+000 1.520138e+000 -9.635885e+000 18 39 48
-1.229044e+000 6.339382e-001 -7.683931e+000 161 138 90
-1.275848e+000 9.459508e-001 -7.889483e+000 148 127 85
4.244591e+000 3.071285e-001 -9.297456e+000 29 22 19
1.829983e-001 1.358051e+000 -8.712697e+000 115 102 57
2.181541e-001 8.303708e-001 -8.082506e+000 22 34 21
2.497814e+000 8.069893e-001 -8.848257e+000 94 66 44
3.727266e+000 -4.902324e+000 -1.055602e+001 125 109 74
2.212214e+000 1.498928e+000 -9.618506e+000 117 79 40
3.052829e+000 1.636568e+000 -1.011819e+001 90 56 20
4.155127e-001 1.264850e+000 -8.622845e+000 119 103 60
4.971617e-001 1.111630e+000 -8.474132e+000 124 105 62
4.388354e+000 -1.175878e+000 -8.985209e+000 109 89 64
2.025859e+000 6.898999e-001 -8.509116e+000 77 40 35
-3.542935e-001 1.151643e+000 -8.270338e+000 26 39 19
-3.520526e-001 1.142990e+000 -8.280303e+000 26 39 19
3.306702e+000 1.072509e+000 -9.772451e+000 114 79 41
-1.285326e+001 -3.367685e+001 -4.538349e+001 128 109 104
-1.215901e+001 -3.410847e+001 -4.547801e+001 158 139 137
-1.302819e+001 -3.427053e+001 -4.657650e+001 132 113 107
-1.126347e+001 -3.759864e+001 -4.263668e+001 67 60 72
-1.864942e+001 -3.619521e+001 -4.635758e+001 125 106 109
-1.829662e+001 -3.761700e+001 -4.430996e+001 147 131 136
-2.005195e+001 -3.735538e+001 -4.581090e+001 143 126 144
-1.794215e+001 -3.589369e+001 -4.470250e+001 59 60 101
-1.959530e+001 -3.645365e+001 -4.259399e+001 254 254 253
-1.849318e+001 -3.920994e+001 -4.469350e+001 144 127 135
-1.611623e+001 -3.510533e+001 -4.381283e+001 253 254 254
-1.925473e+001 -3.694994e+001 -4.546707e+001 151 128 132
-1.994312e+001 -3.702320e+001 -4.432838e+001 76 81 136
-1.352311e+001 -3.935695e+001 -3.995281e+001 54 66 115
-1.629111e+001 -3.575564e+001 -3.402797e+001 254 254 254
7.419204e-001 1.409988e+000 -8.982353e+000 138 92 65
1.453082e+000 1.202246e+000 -8.910309e+000 22 39 51
2.541175e+000 1.006539e+000 -9.078386e+000 87 62 39
2.697666e+000 8.442955e-001 -8.972757e+000 52 26 20
4.244867e+000 -2.260813e+000 -9.408130e+000 101 80 53
-3.185808e-001 1.225927e+000 -8.384475e+000 23 34 20
2.022004e+000 1.403572e+000 -9.419400e+000 49 60 56
-2.240942e-001 1.123692e+000 -8.306502e+000 118 104 15
1.970524e+000 1.021529e+000 -8.893448e+000 99 77 64
1.970524e+000 1.021529e+000 -8.893448e+000 99 77 64
-5.899219e-001 8.169585e-001 -7.800881e+000 119 11 9
2.730757e+000 8.598887e-001 -8.990855e+000 82 63 51
1.906067e+000 6.693421e-001 -8.498601e+000 57 16 12
4.823211e+000 -8.472930e-001 -8.051456e+000 122 101 80
4.668943e+000 -1.634081e+000 -8.432016e+000 129 105 79
2.156454e+000 1.477366e+000 -9.580677e+000 114 82 44
8.295115e-001 7.968748e-001 -8.235119e+000 123 103 59
-6.923424e+000 -2.392543e+001 -2.961697e+001 58 61 91
7.947405e-001 1.290812e+000 -8.820198e+000 122 102 60
2.401908e+000 7.705967e-001 -8.781619e+000 101 73 50
1.668016e+000 1.159616e+000 -8.972818e+000 59 36 39
-1.764632e+001 -4.104188e+001 -3.940987e+001 52 52 88
2.356014e-001 1.117093e+000 -8.401583e+000 125 105 51
6.489535e-001 1.364817e+000 -8.890480e+000 122 100 64
6.489535e-001 1.364817e+000 -8.890480e+000 122 100 64
-3.433973e-001 1.220986e+000 -8.360706e+000 112 100 18
-2.285639e-001 1.276593e+000 -8.433040e+000 121 103 27
6.360575e-001 1.337463e+000 -8.807881e+000 129 93 66
6.378509e-001 1.324629e+000 -8.823109e+000 129 93 66
1.385956e+000 1.299834e+000 -9.062274e+000 123 106 74
2.748757e-001 1.562283e+000 -8.054291e+000 131 109 32
1.507223e+000 1.234451e+000 -8.999785e+000 132 78 44
-4.124091e-001 1.079235e+000 -8.125802e+000 104 106 12
1.244324e+000 1.175647e+000 -8.846188e+000 143 67 58
1.437476e+000 1.198367e+000 -8.934171e+000 119 112 80
-5.347212e-001 8.924255e-001 -7.951643e+000 145 93 64
-5.347212e-001 8.924255e-001 -7.951643e+000 145 93 64
1.185997e+000 9.834809e-001 -8.591163e+000 147 112 60
2.387256e+000 9.209806e-001 -8.931773e+000 23 6 3
-5.351216e-001 7.915720e-001 -7.786562e+000 117 15 15
-5.347020e-001 7.929762e-001 -7.785412e+000 117 15 15
-5.070553e-001 7.426337e-001 -7.717115e+000 105 19 10
3.036564e-002 7.461174e-001 -8.054782e+000 17 30 15
7.228244e-001 8.139984e-001 -8.223472e+000 118 16 17
1.328257e-002 6.487834e-001 -7.788775e+000 131 104 25
4.186426e+000 5.787124e-001 -9.335194e+000 94 26 6
4.186426e+000 5.787124e-001 -9.335194e+000 94 26 6
6.389570e-001 1.368130e+000 -8.882660e+000 127 96 62
2.518804e+000 1.439040e+000 -9.653057e+000 111 56 36
1.588489e+000 1.219458e+000 -8.978238e+000 130 74 46
2.481591e+000 1.283211e+000 -9.391422e+000 115 79 61
2.542361e+000 1.222178e+000 -9.370782e+000 57 38 30
2.548395e+000 1.205001e+000 -9.329492e+000 53 30 26
-6.992486e-001 9.979873e-001 -7.994383e+000 140 102 57
-5.750193e-001 8.905907e-001 -7.927222e+000 142 95 59
2.329932e+000 1.056187e+000 -9.040616e+000 96 77 55
2.516263e+000 8.250838e-001 -8.887856e+000 103 75 53
-1.194436e-001 7.364524e-001 -7.849242e+000 20 33 22
2.140558e+000 5.986115e-001 -8.595032e+000 56 18 15
4.125783e+000 -1.913312e+000 -9.666018e+000 110 92 68
4.155616e+000 -2.542743e+000 -9.492321e+000 128 108 81
-1.140358e+000 1.152038e+000 -7.993223e+000 113 95 59
1.921519e+000 1.187604e+000 -9.064035e+000 53 34 28
-1.355235e+000 8.347651e-001 -7.894892e+000 132 105 75
-1.289047e+000 7.652211e-001 -7.814999e+000 159 131 86
1.413397e-001 8.467238e-001 -8.065525e+000 119 99 15
1.413397e-001 8.467238e-001 -8.065525e+000 119 99 15
-5.004547e-001 6.310733e-001 -7.592682e+000 122 16 20
4.294909e+000 -1.356086e+000 -9.261826e+000 122 105 80
4.463345e+000 -1.057224e+000 -8.935018e+000 95 77 55
1.498959e+000 1.318130e+000 -9.117416e+000 62 12 15
1.426989e+000 1.163063e+000 -8.872692e+000 47 40 19
2.154962e+000 1.286061e+000 -9.230714e+000 113 88 58
2.596100e+000 1.440261e+000 -9.708314e+000 88 39 19
1.198394e+000 1.004009e+000 -8.598546e+000 95 25 15
1.181225e+000 1.050263e+000 -8.663812e+000 120 58 38
9.457203e-001 9.999793e-001 -8.528000e+000 120 99 65
2.918800e+000 1.545084e+000 -9.994176e+000 92 52 16
2.934335e+000 1.531034e+000 -1.001927e+001 92 52 16
1.976737e+000 1.524995e+000 -9.684514e+000 10 32 31
5.631451e-002 1.436348e+000 -8.788751e+000 111 103 23
1.955243e+000 1.475381e+000 -9.616760e+000 12 34 40
-3.881828e-002 1.363465e+000 -8.609770e+000 29 32 12
2.819293e+000 1.483239e+000 -9.840119e+000 77 38 10
-3.252774e-001 1.200707e+000 -8.352828e+000 58 74 40
-2.709154e-001 1.198997e+000 -8.371056e+000 65 72 50
2.402390e+000 1.345166e+000 -9.485551e+000 51 12 5
1.358097e+000 1.249714e+000 -8.970184e+000 118 119 91
2.549002e+000 1.269147e+000 -9.395524e+000 68 46 41
-2.129344e-001 1.085447e+000 -8.272873e+000 82 81 67
1.418754e+000 1.189534e+000 -8.901276e+000 16 45 49
1.432992e+000 1.174218e+000 -8.889629e+000 111 108 83
1.759345e+000 1.169236e+000 -8.997142e+000 102 60 51
1.759345e+000 1.169236e+000 -8.997142e+000 102 60 51
2.301424e+000 1.065898e+000 -9.069639e+000 98 76 67
2.606584e+000 1.156297e+000 -9.286332e+000 74 54 49
2.606584e+000 1.156297e+000 -9.286332e+000 74 54 49
1.953998e+000 1.004492e+000 -8.868136e+000 50 31 27
2.454899e+000 9.824197e-001 -9.037344e+000 95 72 54
-1.152412e+000 7.439160e-001 -7.664759e+000 85 62 27
1.918903e+000 8.741478e-001 -8.706127e+000 102 62 52
1.918903e+000 8.741478e-001 -8.706127e+000 102 62 52
-4.964852e-001 8.060888e-001 -7.778511e+000 116 20 17
1.056931e+000 8.136756e-001 -8.330377e+000 127 104 68
-4.893264e-001 6.372343e-001 -7.594873e+000 130 22 25
-3.328421e-001 6.275670e-001 -7.568063e+000 129 115 80
-3.328421e-001 6.275670e-001 -7.568063e+000 129 115 80
2.817947e+000 5.802971e-001 -8.798501e+000 133 102 56
4.333231e+000 5.401174e-001 -9.388527e+000 31 17 17
4.273878e+000 -1.391775e+000 -9.245038e+000 102 85 62
4.924006e+000 3.455954e-001 -7.710632e+000 78 59 52
9.761318e-001 1.455310e+000 -9.539116e+000 103 26 21
3.222882e+000 1.522614e+000 -1.053415e+001 95 63 43
2.821588e+000 1.495519e+000 -9.906014e+000 84 42 17
6.416281e-001 1.365562e+000 -8.883417e+000 125 101 65
6.416281e-001 1.365562e+000 -8.883417e+000 125 101 65
2.014607e+000 1.439028e+000 -9.537556e+000 49 67 70
2.014607e+000 1.439028e+000 -9.537556e+000 49 67 70
3.034511e+000 1.496279e+000 -9.952272e+000 57 21 25
2.151294e+000 1.330551e+000 -9.352388e+000 116 88 64
1.401654e+000 1.217457e+000 -8.932895e+000 15 38 53
-7.570474e-001 1.083619e+000 -8.078712e+000 125 69 57
2.604906e+000 1.170517e+000 -9.339894e+000 74 50 45
-1.324054e+000 8.512505e-001 -7.888710e+000 159 137 100
-6.770057e-001 9.538747e-001 -7.945931e+000 130 111 65
1.934195e+000 1.054905e+000 -8.949845e+000 47 27 28
2.627037e+000 1.107711e+000 -9.193711e+000 71 52 46
2.341899e-001 9.909396e-001 -8.257592e+000 20 37 17
1.913865e+000 1.022945e+000 -8.861414e+000 71 52 46
1.930950e+000 9.832723e-001 -8.811550e+000 69 50 44
-4.849723e-001 8.053403e-001 -7.821257e+000 145 89 59
-4.849723e-001 8.053403e-001 -7.821257e+000 145 89 59
-3.192798e-001 8.503995e-001 -7.919324e+000 107 95 13
-2.968152e-001 8.322460e-001 -7.912745e+000 20 33 17
1.260502e+000 9.407995e-001 -8.529644e+000 145 100 61
2.710895e+000 9.128535e-001 -9.027929e+000 75 55 49
-1.273115e+000 5.233756e-001 -7.663584e+000 166 142 98
-1.272746e+000 5.232842e-001 -7.663156e+000 166 142 98
-1.231433e+000 5.272678e-001 -7.640571e+000 168 144 100
-5.173289e-001 7.772199e-001 -7.780097e+000 139 110 70
-3.070858e-001 7.976558e-001 -7.880193e+000 111 106 25
2.566921e+000 6.916521e-001 -8.768692e+000 62 25 19
2.690938e+000 7.570672e-001 -8.891875e+000 47 18 14
4.043718e+000 6.742513e-001 -9.350353e+000 143 104 68
-2.814907e-001 6.718749e-001 -7.670273e+000 20 35 16
2.075708e+000 6.540688e-001 -8.558530e+000 75 34 31
-2.420453e-001 5.020386e-001 -7.595199e+000 18 38 23
4.804653e+000 -5.565935e-002 -8.107552e+000 120 103 86
4.984906e+000 3.831966e-001 -7.592447e+000 119 100 86
1.309161e+000 1.478609e+000 -9.690641e+000 81 20 15
2.821898e+000 1.598553e+000 -1.018164e+001 84 49 22
2.068656e+000 1.408273e+000 -9.438523e+000 10 38 45
2.593847e+000 1.449914e+000 -9.627155e+000 114 79 41
-3.679380e-001 1.193006e+000 -8.349747e+000 50 68 64
-1.329943e+000 9.052602e-001 -7.905488e+000 154 132 90
2.003497e+000 1.168494e+000 -9.045974e+000 59 40 33
-1.267334e+000 9.033226e-001 -7.860777e+000 154 133 87
-1.267111e+000 9.059364e-001 -7.858869e+000 154 133 87
2.068614e+000 1.123998e+000 -9.066709e+000 98 75 54
2.673143e+000 1.102047e+000 -9.243297e+000 50 32 31
-1.538301e+000 5.236259e-001 -7.868464e+000 139 109 71
2.033907e+000 9.755291e-001 -8.858810e+000 54 34 33
-1.251522e+000 6.963056e-001 -7.724547e+000 163 139 101
1.774191e+000 8.975935e-001 -8.660655e+000 57 17 21
7.496134e-001 7.815815e-001 -8.195211e+000 119 110 75
2.037582e+000 8.039878e-001 -8.673573e+000 55 31 29
