ply
format ascii 1.0
element face 0
property list uchar int vertex_indices
element vertex 882
property float x
property float y
property float z
property uchar diffuse_red
property uchar diffuse_green
property uchar diffuse_blue
end_header
-2.156436e-002 -1.782314e-001 -7.884083e+000 159 162 24
2.713725e-001 -7.708846e-002 -7.931619e+000 29 57 34
2.484247e-001 -2.015613e-001 -8.013857e+000 22 56 37
2.484247e-001 -2.015613e-001 -8.013857e+000 22 56 37
-2.434430e-001 -2.475062e-001 -7.851503e+000 29 60 41
-7.465676e-002 -3.281796e-001 -7.968030e+000 147 144 43
2.294674e+000 -5.410163e-004 -8.763421e+000 193 141 109
-5.146842e-001 -3.448238e-001 -7.805120e+000 23 50 23
3.268180e+000 -8.825594e-003 -9.128209e+000 134 48 51
2.884995e+000 -3.454036e-001 -9.269238e+000 195 134 114
-2.953171e-001 -5.155102e-001 -8.101784e+000 30 67 35
-2.156436e-002 -1.782314e-001 -7.884083e+000 159 162 24
1.454032e+000 -8.156211e-003 -8.366693e+000 186 128 109
-1.168618e-002 -5.026184e-001 -8.163896e+000 125 139 68
-1.338567e-001 -2.203235e-001 -7.867885e+000 26 56 27
-1.338567e-001 -2.203235e-001 -7.867885e+000 26 56 27
3.012046e+000 1.043942e-001 -8.904441e+000 196 137 107
3.425040e+000 -1.550370e-002 -9.197274e+000 194 139 93
1.636019e+000 -4.283235e-002 -8.485003e+000 190 125 105
2.294674e+000 -5.410163e-004 -8.763421e+000 193 141 109
2.899805e+000 -7.602502e-002 -9.029940e+000 139 96 84
-2.861008e-001 -2.274827e-001 -7.819246e+000 135 136 74
8.838088e-001 -1.949826e-001 -8.274798e+000 174 114 81
2.863356e+000 -3.883690e-001 -9.297834e+000 188 126 107
1.669802e-001 -3.146723e-001 -8.041982e+000 150 152 62
1.676135e-001 -3.166492e-001 -8.065891e+000 150 152 62
1.148175e+000 -3.858275e-001 -8.518954e+000 17 56 92
-3.534125e-001 -7.845513e-001 -8.417651e+000 143 154 67
-2.407131e-001 -7.192633e-001 -8.362722e+000 114 137 124
2.053407e-003 -7.253168e-001 -8.477111e+000 35 58 41
1.197807e+000 8.659436e-002 -8.137359e+000 17 85 134
4.208568e+000 2.970363e-001 -9.319366e+000 161 98 58
3.764618e+000 2.344911e-001 -9.192745e+000 90 65 61
3.464909e+000 1.202758e-001 -9.092764e+000 190 82 42
1.387823e+000 3.525120e-002 -8.327050e+000 187 130 105
2.899805e+000 -7.602502e-002 -9.029940e+000 139 96 84
3.784022e+000 3.790247e-002 -9.319262e+000 185 162 144
2.417653e+000 1.773102e-001 -8.642917e+000 169 33 48
1.099093e+000 -1.034007e-001 -8.298143e+000 14 59 83
5.607222e-001 -4.433677e-001 -8.323473e+000 131 88 79
3.923538e-002 -4.540615e-001 -8.085336e+000 33 60 32
4.432290e-001 -4.768135e-001 -8.431189e+000 161 107 104
2.930100e+000 1.780266e-002 -8.972958e+000 195 144 124
2.479608e-001 -2.801574e-002 -7.887074e+000 147 156 129
3.895001e+000 3.599820e-001 -9.178864e+000 34 18 32
3.819365e+000 2.786146e-001 -9.187420e+000 184 159 142
1.402504e+000 -3.995972e-002 -8.355621e+000 114 59 63
1.923280e-002 -2.746124e-001 -7.976643e+000 24 53 30
3.524219e+000 -4.295814e-001 -9.716528e+000 172 146 128
-1.000411e-001 -6.157493e-001 -8.278507e+000 28 55 40
5.381442e-001 -3.762841e-001 -8.237787e+000 173 156 133
1.473891e+000 -6.716820e-001 -9.016332e+000 140 80 70
1.007222e-001 2.852796e-001 -7.682933e+000 160 158 137
4.237358e+000 1.995049e-001 -9.407685e+000 159 92 46
4.062945e+000 2.870696e-001 -9.248267e+000 183 100 52
2.643408e+000 1.755473e-001 -8.741155e+000 170 34 47
3.074347e+000 5.238343e-001 -8.867631e+000 22 20 44
3.824474e+000 3.425332e-001 -9.152775e+000 37 17 19
3.868176e+000 3.170156e-001 -9.183930e+000 186 159 138
3.838193e+000 1.925205e-001 -9.254330e+000 190 173 145
2.912555e+000 -3.607931e-002 -8.990704e+000 199 145 114
3.353512e+000 -6.867806e-002 -9.222879e+000 193 129 58
-6.225861e-003 -2.479719e-001 -7.936029e+000 174 163 47
1.367623e+000 -4.888666e-002 -8.374449e+000 187 128 110
4.117079e+000 7.437929e-002 -9.493674e+000 174 106 40
1.442740e+000 -5.605089e-002 -8.387335e+000 197 132 112
2.018093e-001 -7.414391e-001 -8.599810e+000 33 63 19
2.018093e-001 -7.414391e-001 -8.599810e+000 33 63 19
1.105596e+000 -5.169910e-001 -8.672867e+000 18 65 112
1.585138e+000 5.610596e-001 -8.326045e+000 167 165 135
1.959783e+000 6.419400e-001 -8.486474e+000 164 91 90
2.336088e+000 -4.162048e-002 -8.752042e+000 186 129 102
3.551385e+000 -3.044749e-001 -9.556304e+000 188 153 126
3.466289e+000 2.029383e-002 -9.186628e+000 104 37 11
-2.337557e-001 -3.875505e-001 -7.932286e+000 47 105 123
3.572063e+000 -2.324754e-001 -9.486239e+000 189 162 126
3.448072e+000 -5.513241e-001 -9.810564e+000 166 139 117
3.477900e+000 1.813324e-001 -9.096669e+000 209 121 71
8.066553e-001 -5.787225e-001 -8.563341e+000 130 32 68
-1.831062e-001 -6.514104e-001 -8.301270e+000 150 153 39
3.429628e+000 2.317198e-001 -9.050023e+000 186 92 29
9.884911e-001 6.457559e-002 -8.119975e+000 102 22 57
3.184679e+000 2.857748e-001 -8.898526e+000 101 23 37
1.925643e+000 6.833290e-001 -8.507716e+000 93 29 30
2.779021e+000 6.062233e-001 -8.800722e+000 65 32 41
3.007485e+000 6.911678e-001 -8.926799e+000 31 27 55
3.013644e+000 6.555392e-001 -8.906991e+000 35 30 51
1.644206e+000 5.608534e-001 -8.338547e+000 187 149 99
1.959783e+000 6.419400e-001 -8.486474e+000 164 91 90
2.566840e+000 5.962015e-001 -8.696003e+000 68 21 32
2.648643e+000 5.978842e-001 -8.747222e+000 82 35 41
2.501313e+000 4.418430e-001 -8.633896e+000 46 14 25
2.530935e+000 -8.296824e-002 -8.855234e+000 186 70 74
4.157649e-001 5.533673e-001 -7.865485e+000 36 59 48
1.933473e+000 5.833149e-001 -8.466603e+000 121 53 64
3.876969e+000 1.510282e-001 -9.282762e+000 33 17 31
1.738775e+000 -5.383286e-002 -8.552573e+000 195 134 99
2.777094e-002 -2.466977e-001 -7.958313e+000 178 173 28
3.528978e+000 -3.720364e-001 -9.630560e+000 191 158 138
-3.300832e-001 -4.957535e-001 -8.015717e+000 152 158 40
1.809318e-001 6.138703e-001 -7.811147e+000 167 151 91
2.940266e+000 7.473228e-001 -8.974188e+000 155 121 97
2.322543e+000 -7.857609e-002 -8.771829e+000 192 135 105
4.549737e-001 -5.130917e-001 -8.357935e+000 163 164 146
4.375868e-002 -7.162912e-001 -8.489628e+000 160 160 43
8.594310e-001 -2.725479e-001 -8.314333e+000 200 140 104
3.860183e+000 -5.724293e-001 -1.006176e+001 132 112 103
4.113308e+000 -2.083426e+000 -9.944351e+000 136 120 122
2.388435e+000 6.350232e-001 -8.656846e+000 73 26 37
2.562716e+000 5.190178e-001 -8.674936e+000 152 107 55
3.253245e+000 5.715724e-001 -8.965349e+000 14 61 103
4.024717e+000 -1.393160e-001 -9.646851e+000 178 146 125
3.049513e+000 3.455047e-001 -8.848040e+000 68 18 27
9.162230e-002 4.939477e-002 -7.776847e+000 62 111 141
5.262940e-001 -3.824463e-001 -8.247024e+000 160 141 125
-7.126961e-001 1.082708e+000 -8.111793e+000 167 39 46
-6.642175e-001 1.086466e+000 -8.129237e+000 176 27 44
1.277567e+000 1.146942e+000 -8.793645e+000 196 93 85
2.073853e+000 8.640440e-001 -8.709729e+000 120 88 89
-3.830329e-001 5.593998e-001 -7.568544e+000 158 157 138
2.361069e+000 7.200205e-001 -8.694118e+000 164 126 113
2.986477e+000 7.484565e-001 -8.944296e+000 28 28 56
2.119186e+000 5.781043e-001 -8.523974e+000 84 32 36
2.646119e+000 3.892190e-001 -8.692623e+000 137 83 51
-7.458150e-001 8.985717e-001 -7.836295e+000 176 38 46
1.086106e+000 8.159564e-001 -8.309870e+000 181 46 41
1.573185e+000 1.024558e+000 -8.689187e+000 16 78 121
1.557717e+000 5.847596e-001 -8.309891e+000 69 41 59
2.272002e+000 5.857271e-001 -8.584026e+000 62 26 24
3.500866e+000 5.568021e-001 -9.007791e+000 138 51 67
3.486784e+000 8.607967e-002 -9.153020e+000 131 49 26
1.006627e+000 -4.066563e-002 -8.240166e+000 12 84 124
-2.170519e-001 -2.589846e-001 -7.868247e+000 22 50 39
-3.304467e-001 -4.451733e-001 -7.957734e+000 159 153 46
-2.792168e-001 -3.932132e-001 -7.925125e+000 40 58 26
7.083957e-001 6.832177e-001 -8.064147e+000 29 55 20
7.083957e-001 6.832177e-001 -8.064147e+000 29 55 20
9.025142e-001 7.183824e-001 -8.172848e+000 165 88 78
2.863090e+000 8.038578e-001 -8.966614e+000 76 46 59
-1.376298e+000 6.027007e-001 -7.698397e+000 195 171 145
4.374819e+000 4.671659e-001 -9.312756e+000 199 104 52
2.553337e+000 -7.741223e-003 -8.823311e+000 202 86 93
2.669939e+000 -1.396792e-001 -8.991868e+000 201 96 93
2.697992e+000 -2.320013e-001 -9.049702e+000 200 86 96
2.884053e+000 -3.454217e-001 -9.268423e+000 195 134 114
-2.252051e-001 -4.431753e-001 -7.990703e+000 44 108 125
-3.824454e-001 9.255338e-001 -8.022265e+000 163 153 112
-1.651607e-001 9.176249e-001 -8.075288e+000 168 152 97
1.489992e-001 8.617407e-001 -8.033969e+000 32 61 33
1.041617e+000 8.782046e-001 -8.345256e+000 179 46 47
2.940266e+000 7.473228e-001 -8.974188e+000 155 121 97
2.935499e+000 -1.190765e-001 -9.072238e+000 194 143 116
2.895211e+000 -2.632085e-001 -9.177582e+000 196 141 110
1.904868e+000 -4.328796e-001 -8.905146e+000 189 131 117
4.549737e-001 -5.130917e-001 -8.357935e+000 163 164 146
2.689046e+000 -5.958269e-001 -9.538771e+000 194 128 113
2.328658e+000 8.617036e-001 -8.825148e+000 144 119 97
1.545609e+000 7.691433e-001 -8.501768e+000 21 78 107
2.659624e+000 7.886155e-001 -8.853339e+000 73 30 40
9.112777e-001 -1.953036e-002 -8.111772e+000 144 21 24
2.942277e+000 -5.002992e-002 -9.011608e+000 193 138 106
3.510581e+000 -1.613221e-001 -9.361273e+000 172 81 47
4.236559e+000 -1.658635e+000 -9.589966e+000 44 32 44
4.171454e-001 7.061769e-001 -7.964042e+000 30 57 36
-3.873757e-001 5.018307e-001 -7.513651e+000 48 99 123
3.363827e-001 -4.888823e-002 -7.939811e+000 163 164 144
-3.408254e-001 -4.728165e-001 -7.995816e+000 90 118 87
1.805228e+000 6.474731e-001 -8.455162e+000 181 143 96
1.530250e+000 5.297529e-001 -8.282332e+000 167 161 134
1.756632e-001 -4.683775e-001 -8.178214e+000 39 62 47
1.067716e-001 5.612001e-001 -7.735145e+000 31 58 40
3.065096e+000 -1.771817e-001 -9.189930e+000 193 143 108
1.139400e+000 7.272994e-001 -8.269742e+000 170 159 132
-1.714747e-001 3.061223e-001 -7.638185e+000 28 91 126
2.535130e+000 3.760543e-001 -8.672228e+000 41 16 27
5.268409e-001 -3.846512e-001 -8.270244e+000 160 141 125
-5.583447e-002 4.062783e-001 -7.639887e+000 155 148 122
3.581788e+000 -5.673514e-001 -9.897087e+000 103 86 79
4.080449e+000 5.109938e-001 -9.613558e+000 174 102 39
-5.718749e-001 6.070707e-001 -7.543700e+000 180 154 112
1.562861e+000 8.894374e-001 -8.547296e+000 26 78 122
1.879450e+000 8.788941e-001 -8.645092e+000 162 94 93
1.876982e+000 8.483394e-001 -8.634234e+000 90 27 35
2.616856e+000 8.112295e-001 -8.840416e+000 79 29 35
2.892827e+000 8.085494e-001 -8.936539e+000 129 43 51
2.011703e+000 6.369681e-001 -8.506236e+000 163 99 101
2.444786e+000 6.210021e-001 -8.664719e+000 117 69 69
2.695470e+000 6.007090e-001 -8.758429e+000 62 24 32
3.211948e+000 6.837654e-001 -8.961137e+000 18 54 96
1.601440e+000 5.209872e-001 -8.308753e+000 175 87 71
2.740629e+000 5.201288e-001 -8.724605e+000 119 75 32
2.541897e+000 1.075513e-001 -8.743752e+000 157 30 37
2.462173e+000 5.471202e-002 -8.717810e+000 159 26 40
5.765328e-001 1.403201e+000 -8.819872e+000 155 93 75
9.556856e-001 7.137435e-001 -8.188014e+000 179 151 126
1.847964e+000 7.640275e-001 -8.522867e+000 102 36 45
3.527312e+000 7.800304e-001 -9.166904e+000 108 27 27
4.166740e+000 3.221940e-001 -9.286475e+000 51 21 20
2.447606e+000 1.399646e-001 -8.680870e+000 192 74 81
2.494701e+000 -1.361536e-001 -8.894915e+000 156 24 37
2.745764e+000 -1.996488e-001 -9.046836e+000 160 34 45
3.388337e+000 -2.240547e-001 -9.398697e+000 188 97 69
1.900268e+000 -6.454168e-001 -9.208148e+000 186 125 110
3.477404e-001 7.232486e-001 -7.960768e+000 164 156 54
3.477404e-001 7.232486e-001 -7.960768e+000 164 156 54
2.049700e+000 8.971580e-001 -8.722636e+000 80 39 48
2.390188e+000 9.455062e-001 -8.909160e+000 31 14 22
2.390188e+000 9.455062e-001 -8.909160e+000 31 14 22
2.366586e+000 9.546982e-002 -8.706569e+000 190 139 111
1.857199e+000 -4.805721e-002 -8.554542e+000 95 46 39
-6.075143e-001 6.311579e-001 -7.559197e+000 164 37 38
-4.566202e-001 6.432068e-001 -7.628957e+000 179 33 47
9.420031e-001 5.844974e-001 -8.055350e+000 166 83 72
2.018179e+000 5.849585e-001 -8.495007e+000 111 52 58
1.342024e+000 3.834021e-002 -8.281598e+000 104 53 42
1.343964e+000 3.787694e-002 -8.295879e+000 104 53 42
9.457662e-001 -1.122069e-001 -8.231206e+000 140 31 48
-9.731469e-002 1.162343e+000 -8.349081e+000 171 150 121
7.457384e-001 8.442322e-001 -8.235583e+000 171 35 36
1.624744e+000 9.094618e-001 -8.556573e+000 9 72 119
2.869629e+000 6.304063e-001 -8.826974e+000 83 53 65
3.979315e+000 7.540491e-001 -9.341563e+000 161 73 66
-2.925816e-001 -4.149011e-001 -7.915953e+000 31 63 36
-3.209038e-002 1.111451e+000 -8.337456e+000 163 150 117
1.060136e+000 9.880358e-001 -8.475974e+000 168 149 125
1.233453e+000 1.718283e-002 -8.275438e+000 23 69 105
2.549210e+000 -4.466070e-001 -9.323009e+000 172 29 47
2.549210e+000 -4.466070e-001 -9.323009e+000 172 29 47
4.023697e+000 -2.474194e+000 -1.006559e+001 160 141 145
7.908278e-002 7.584346e-001 -7.902095e+000 165 152 118
2.299221e+000 -1.021964e-001 -8.803361e+000 196 139 112
3.236569e+000 -4.243968e-001 -9.527969e+000 160 121 95
1.644739e+000 6.424540e-001 -8.377206e+000 17 81 123
1.249442e+000 -3.400511e-001 -8.589863e+000 201 122 116
-8.283590e-002 -4.065592e-001 -8.064574e+000 69 105 132
1.427216e+000 1.215269e+000 -8.880180e+000 141 141 131
1.902700e+000 8.107000e-001 -8.586401e+000 165 97 83
2.693086e+000 9.391213e-001 -8.960587e+000 76 52 58
1.945826e+000 7.790112e-001 -8.584987e+000 88 26 31
1.909065e+000 7.389896e-001 -8.529951e+000 93 29 25
1.911761e+000 6.366639e-001 -8.461892e+000 168 99 92
1.976413e+000 7.697756e-001 -8.592494e+000 169 105 95
2.666178e+000 4.359891e-001 -8.690385e+000 156 104 68
4.166989e+000 2.248261e-001 -9.367510e+000 58 18 9
1.750778e+000 9.051039e-001 -8.613998e+000 183 140 75
2.449902e+000 9.194483e-001 -8.897249e+000 36 16 16
-3.831901e-001 5.593908e-001 -7.568607e+000 158 157 138
3.425040e+000 -1.550370e-002 -9.197274e+000 194 139 93
-1.628721e+000 -1.588522e-001 -7.822695e+000 186 165 148
2.701325e+000 -2.835228e-001 -9.130120e+000 195 78 85
-1.353701e+000 7.024958e-001 -7.733405e+000 197 177 149
-6.579453e-001 7.366322e-001 -7.644459e+000 169 31 43
2.648979e+000 8.699801e-001 -8.916848e+000 88 50 50
3.868472e+000 6.760743e-001 -9.160807e+000 181 143 116
2.385655e+000 4.862869e-001 -8.632131e+000 116 59 30
2.907630e+000 -2.215258e-001 -9.138924e+000 193 139 111
2.961978e+000 -3.770111e-001 -9.333510e+000 203 136 109
1.745119e+000 1.046483e+000 -8.775372e+000 68 42 57
1.605073e+000 9.662653e-001 -8.642272e+000 19 76 128
2.866491e+000 3.900416e-002 -8.952138e+000 197 140 111
4.174441e+000 -2.088227e+000 -9.652201e+000 151 132 130
1.421185e+000 1.071037e+000 -8.837918e+000 13 76 112
1.594982e+000 1.194338e+000 -8.932230e+000 186 136 92
-2.298157e-001 6.021672e-001 -7.664252e+000 82 108 101
4.321401e+000 -1.457568e+000 -9.416636e+000 57 46 54
3.869522e+000 -2.677498e+000 -1.062001e+001 56 45 54
-6.945413e-001 1.251457e+000 -8.248650e+000 115 126 124
2.200963e-001 -3.067899e-001 -8.062771e+000 30 59 44
4.316710e+000 -1.540380e+000 -9.422761e+000 132 116 117
3.195932e+000 -2.806805e-001 -9.356486e+000 163 56 36
1.733366e-001 1.472934e+000 -8.824814e+000 56 53 7
1.733366e-001 1.472934e+000 -8.824814e+000 56 53 7
1.544176e+000 1.411967e+000 -9.187428e+000 100 13 21
1.932141e+000 1.426947e+000 -9.346437e+000 104 28 29
2.027302e+000 1.484576e+000 -9.446456e+000 79 115 131
2.112735e+000 1.431101e+000 -9.404701e+000 85 19 32
2.924959e+000 1.562368e+000 -9.890780e+000 95 46 22
-6.452239e-001 1.107471e+000 -8.165095e+000 159 150 124
-6.452239e-001 1.107471e+000 -8.165095e+000 159 150 124
1.118425e+000 1.204674e+000 -8.764662e+000 194 143 110
1.151516e+000 1.176813e+000 -8.748692e+000 158 31 38
2.190572e+000 1.240163e+000 -9.177500e+000 105 79 73
2.541357e+000 1.438449e+000 -9.599674e+000 151 110 90
-7.090540e-001 1.001732e+000 -7.991117e+000 174 31 39
-7.090540e-001 1.001732e+000 -7.991117e+000 174 31 39
-6.582935e-001 9.897581e-001 -7.961578e+000 157 40 31
1.205794e+000 1.035728e+000 -8.590400e+000 206 148 115
-7.171470e-001 8.788943e-001 -7.846007e+000 187 145 102
7.985769e-001 8.241948e-001 -8.240544e+000 165 156 129
1.013513e+000 9.025546e-001 -8.382798e+000 172 150 117
1.197073e+000 9.814843e-001 -8.531283e+000 188 151 114
1.197073e+000 9.814843e-001 -8.531283e+000 188 151 114
1.810046e+000 9.413571e-001 -8.687032e+000 140 83 66
-4.936919e-001 6.362543e-001 -7.607019e+000 194 142 109
-4.936919e-001 6.362543e-001 -7.607019e+000 194 142 109
1.625087e+000 7.869890e-001 -8.481859e+000 154 166 131
1.593673e+000 7.485707e-001 -8.433938e+000 179 173 141
1.593673e+000 7.485707e-001 -8.433938e+000 179 173 141
1.827782e+000 8.231653e-001 -8.590817e+000 92 32 35
1.827782e+000 8.231653e-001 -8.590817e+000 92 32 35
2.283867e+000 7.765796e-001 -8.713019e+000 68 29 34
2.315513e+000 7.871090e-001 -8.737831e+000 137 108 97
2.519806e+000 8.985928e-001 -8.905417e+000 36 11 13
2.519806e+000 8.985928e-001 -8.905417e+000 36 11 13
2.706715e+000 9.059925e-001 -9.010369e+000 152 114 111
2.754729e+000 7.596583e-001 -8.873112e+000 124 86 94
2.755343e+000 7.596538e-001 -8.870950e+000 124 86 94
2.972755e+000 7.907378e-001 -8.973491e+000 26 18 40
-3.623887e-001 5.709075e-001 -7.560584e+000 66 86 63
1.053921e+000 5.993016e-001 -8.117616e+000 169 166 128
1.932513e+000 6.608009e-001 -8.501641e+000 96 31 36
1.993971e+000 7.143974e-001 -8.552206e+000 167 98 103
1.993971e+000 7.143974e-001 -8.552206e+000 167 98 103
1.973538e+000 6.900262e-001 -8.526834e+000 93 33 37
2.011703e+000 6.369681e-001 -8.506236e+000 163 99 101
2.316379e+000 5.980746e-001 -8.585862e+000 123 74 72
2.399168e+000 7.390164e-001 -8.684866e+000 144 108 104
3.903840e+000 7.254277e-001 -9.288473e+000 157 28 63
3.903840e+000 7.254277e-001 -9.288473e+000 157 28 63
3.013051e+000 5.707899e-001 -8.838870e+000 27 30 65
-2.095486e+000 1.768524e-001 -7.648862e+000 181 27 39
4.180228e+000 3.224499e-001 -9.314419e+000 51 21 20
2.477559e+000 1.213804e-001 -8.696666e+000 163 31 41
2.484598e+000 9.476823e-002 -8.756152e+000 161 30 39
2.702980e+000 -1.524351e-001 -9.001372e+000 166 28 44
2.681405e+000 -1.822067e-001 -9.013678e+000 149 23 37
3.564094e+000 -2.703345e-001 -9.537559e+000 179 145 107
1.790448e+000 -4.543252e-001 -8.863117e+000 191 130 111
2.181938e+000 -4.482696e-001 -9.011359e+000 139 83 74
1.567560e+000 -6.801743e-001 -9.089173e+000 141 80 72
2.412659e-001 1.360835e+000 -8.684067e+000 38 52 37
2.614774e+000 1.517073e+000 -9.715070e+000 118 55 22
2.529979e+000 1.470386e+000 -9.603313e+000 86 28 19
3.180187e+000 1.586722e+000 -1.000861e+001 43 8 2
2.738477e-001 1.121232e+000 -8.407577e+000 29 56 43
1.429457e+000 1.216042e+000 -8.884927e+000 141 141 131
2.193354e+000 1.278867e+000 -9.217285e+000 163 132 119
-6.578483e-001 9.652106e-001 -7.983637e+000 179 42 51
1.244017e+000 1.121184e+000 -8.743595e+000 158 31 44
1.485591e+000 1.092366e+000 -8.751282e+000 141 149 138
1.995893e+000 1.175466e+000 -9.017174e+000 120 98 100
1.995893e+000 1.175466e+000 -9.017174e+000 120 98 100
1.948023e+000 1.094402e+000 -8.922317e+000 92 68 83
-5.855358e-001 8.289201e-001 -7.849870e+000 172 38 33
1.135365e-001 8.408142e-001 -8.032835e+000 18 49 27
1.929215e+000 8.817040e-001 -8.656351e+000 168 99 94
2.413771e+000 9.835115e-001 -8.926374e+000 145 124 116
-5.978109e-001 6.669945e-001 -7.592770e+000 184 149 118
2.050616e-001 7.754014e-001 -8.014746e+000 30 46 30
1.957153e+000 8.086727e-001 -8.593916e+000 153 85 82
1.956765e+000 8.088045e-001 -8.596957e+000 153 85 82
2.927601e+000 8.390667e-001 -8.974250e+000 156 119 78
-1.385786e+000 5.092131e-001 -7.683968e+000 191 170 143
1.926266e+000 6.834374e-001 -8.508836e+000 93 29 30
2.098978e+000 6.093593e-001 -8.533441e+000 141 85 89
3.705722e+000 9.001615e-002 -9.259546e+000 212 134 59
3.688685e+000 9.099825e-002 -9.217593e+000 212 134 59
2.112432e+000 1.045489e-002 -8.635004e+000 192 141 114
2.504095e+000 4.980064e-002 -8.766714e+000 187 75 74
4.010327e+000 -2.474899e-001 -9.779408e+000 150 119 109
-2.170519e-001 -2.589846e-001 -7.868247e+000 22 50 39
2.344581e+000 -3.394983e-001 -8.993577e+000 192 78 78
1.633549e-001 -3.799935e-001 -8.122470e+000 29 60 43
5.919346e-001 -4.429516e-001 -8.289918e+000 163 161 150
1.754115e+000 -4.826861e-001 -8.925797e+000 140 82 71
3.444902e+000 -5.034542e-001 -9.708241e+000 171 148 127
3.631122e+000 -4.876110e-001 -9.805366e+000 137 120 109
3.909020e+000 -4.518048e-001 -9.931493e+000 163 143 134
-3.055789e-001 -6.127339e-001 -8.257794e+000 74 116 116
1.473891e+000 -6.716820e-001 -9.016332e+000 140 80 70
2.736548e+000 -5.801712e-001 -9.503303e+000 124 63 57
2.736548e+000 -5.801712e-001 -9.503303e+000 124 63 57
2.841711e+000 -5.596059e-001 -9.513116e+000 151 95 79
4.303312e+000 -1.562257e+000 -9.453111e+000 140 124 124
4.357324e+000 -2.074760e+000 -9.365112e+000 133 115 115
-2.741043e-001 1.331454e+000 -8.484767e+000 38 53 34
-1.984504e-001 1.131531e+000 -8.291431e+000 34 54 42
2.543981e+000 1.437618e+000 -9.525220e+000 157 118 77
-1.480254e+000 9.629428e-001 -8.015412e+000 188 169 139
-1.502567e+000 8.983057e-001 -7.945098e+000 188 166 142
-7.721318e-001 9.500708e-001 -7.894545e+000 168 44 51
-7.721318e-001 9.500708e-001 -7.894545e+000 168 44 51
-7.458150e-001 8.985717e-001 -7.836295e+000 176 38 46
1.332381e+000 1.021517e+000 -8.637139e+000 182 87 75
2.347885e+000 1.082315e+000 -9.042686e+000 138 114 104
-1.415231e+000 8.769147e-001 -7.856818e+000 195 175 148
8.563873e-002 9.071752e-001 -8.103058e+000 31 54 58
1.355316e+000 9.654468e-001 -8.570489e+000 169 71 62
1.915421e+000 9.925697e-001 -8.788183e+000 87 60 79
-6.560106e-001 7.365110e-001 -7.641473e+000 169 31 43
-6.342134e-001 6.877842e-001 -7.606893e+000 174 40 49
-5.342639e-001 7.213096e-001 -7.701996e+000 169 42 34
1.469254e-001 7.746982e-001 -7.988165e+000 28 53 28
1.034653e+000 8.238728e-001 -8.297061e+000 170 153 128
9.556856e-001 7.137435e-001 -8.188014e+000 179 151 126
1.086106e+000 8.159564e-001 -8.309870e+000 181 46 41
-5.874741e-001 5.761255e-001 -7.493620e+000 171 35 47
9.731216e-001 6.492840e-001 -8.121716e+000 170 153 133
2.611538e+000 7.144833e-001 -8.755438e+000 77 35 45
2.571392e+000 6.764372e-001 -8.731757e+000 79 38 44
2.848740e+000 7.400332e-001 -8.860845e+000 70 39 42
5.263144e-002 3.353530e-001 -7.669862e+000 121 126 122
4.272326e+000 2.493624e-001 -9.395721e+000 158 98 34
1.002016e+000 1.267306e-001 -8.105060e+000 51 54 96
2.716943e+000 1.161420e-001 -8.803097e+000 190 69 80
2.716943e+000 1.161420e-001 -8.803097e+000 190 69 80
3.361659e+000 1.730276e-001 -9.047375e+000 194 91 50
3.161240e+000 -1.884813e-001 -9.257405e+000 158 85 49
3.932581e+000 -1.370496e-001 -9.561310e+000 185 154 134
1.596594e-002 -3.322667e-001 -8.014069e+000 138 145 61
1.596594e-002 -3.322667e-001 -8.014069e+000 138 145 61
2.895211e+000 -2.632085e-001 -9.177582e+000 196 141 110
2.982185e+000 -2.868874e-001 -9.228296e+000 197 131 104
-9.292623e-002 -3.766283e-001 -7.981595e+000 56 105 122
9.358116e-001 -4.830067e-001 -8.585837e+000 11 59 105
1.813317e+000 -4.034870e-001 -8.813794e+000 192 131 110
2.185519e+000 -3.882160e-001 -8.983567e+000 195 132 115
-5.809108e-002 -5.816444e-001 -8.237616e+000 133 138 34
-5.809108e-002 -5.816444e-001 -8.237616e+000 133 138 34
1.205639e+000 -5.119557e-001 -8.708367e+000 137 82 80
4.425439e+000 -1.224551e+000 -9.127818e+000 155 137 137
4.479425e+000 -1.832530e+000 -9.019529e+000 159 141 141
-1.160787e+000 1.182966e+000 -8.004392e+000 127 131 130
6.967695e-001 1.357579e+000 -8.803601e+000 167 146 119
3.886451e+000 1.728230e+000 -1.057844e+001 148 116 79
-8.290298e-001 1.077281e+000 -8.052373e+000 170 33 43
-8.290298e-001 1.077281e+000 -8.052373e+000 170 33 43
-1.599823e-001 1.209833e+000 -8.380678e+000 27 61 44
1.483763e+000 1.262802e+000 -9.007012e+000 24 79 104
-7.407118e-001 9.647817e-001 -7.954950e+000 165 104 80
1.237774e+000 1.070568e+000 -8.622664e+000 160 31 43
2.085432e+000 1.188109e+000 -9.065892e+000 133 106 93
2.282056e+000 1.115305e+000 -9.044366e+000 33 15 13
2.282056e+000 1.115305e+000 -9.044366e+000 33 15 13
4.627571e-001 8.621409e-001 -8.156052e+000 29 50 26
4.627571e-001 8.621409e-001 -8.156052e+000 29 50 26
1.232798e+000 9.835093e-001 -8.535071e+000 197 147 111
2.049989e+000 8.972746e-001 -8.723106e+000 80 39 48
2.499007e+000 9.398532e-001 -8.936641e+000 145 122 106
-6.362186e-001 6.877931e-001 -7.614225e+000 174 40 49
-6.067412e-001 6.314489e-001 -7.562224e+000 164 37 38
1.000937e+000 7.252262e-001 -8.203997e+000 154 78 62
1.085105e+000 8.166398e-001 -8.304202e+000 182 47 41
1.085105e+000 8.166398e-001 -8.304202e+000 182 47 41
2.725470e+000 8.372038e-001 -8.925257e+000 133 98 96
-1.376298e+000 6.027007e-001 -7.698397e+000 195 171 145
9.420031e-001 5.844974e-001 -8.055350e+000 166 83 72
3.811467e+000 1.496333e-001 -9.255626e+000 40 23 35
1.540930e+000 -5.143333e-002 -8.460053e+000 185 124 103
1.998355e+000 -2.791403e-002 -8.597569e+000 193 142 111
-2.861008e-001 -2.274827e-001 -7.819246e+000 135 136 74
2.274194e+000 -3.380051e-001 -9.028454e+000 194 132 105
8.071574e-001 -4.820046e-001 -8.482033e+000 198 132 110
2.990876e+000 -6.250763e-001 -9.691772e+000 146 115 95
3.065072e+000 -6.663401e-001 -9.795049e+000 184 150 123
-4.762993e-001 -6.518355e-001 -8.196073e+000 34 64 39
6.884481e-001 -7.426355e-001 -8.789090e+000 193 130 119
4.277592e+000 -1.667872e+000 -9.559380e+000 154 140 139
4.109704e+000 -2.170584e+000 -1.007136e+001 142 126 128
-9.168528e-002 1.353241e+000 -8.555444e+000 31 54 25
1.348308e+000 1.356034e+000 -9.051416e+000 96 115 113
1.348308e+000 1.356034e+000 -9.051416e+000 96 115 113
1.378430e+000 1.293593e+000 -8.973315e+000 108 122 134
1.378430e+000 1.293593e+000 -8.973315e+000 108 122 134
1.453305e+000 1.343440e+000 -9.086615e+000 38 40 63
1.613416e+000 1.313356e+000 -9.068483e+000 88 62 81
2.141371e+000 1.267398e+000 -9.196811e+000 99 78 95
-3.561262e-001 1.043874e+000 -8.146403e+000 172 157 72
-3.592147e-001 1.046328e+000 -8.167460e+000 172 157 72
1.180014e-001 1.036087e+000 -8.259771e+000 162 156 81
1.180014e-001 1.036087e+000 -8.259771e+000 162 156 81
2.406715e+000 1.227687e+000 -9.225761e+000 145 113 99
-2.522837e-001 8.365894e-001 -7.918525e+000 171 154 96
-2.540039e-001 8.374845e-001 -7.928956e+000 171 154 96
-7.902405e-002 9.136129e-001 -8.075170e+000 34 54 28
6.758532e-002 8.612807e-001 -8.054080e+000 174 155 62
-4.566202e-001 6.432068e-001 -7.628957e+000 179 33 47
9.025142e-001 7.183824e-001 -8.172848e+000 165 88 78
2.586919e+000 8.947999e-001 -8.916071e+000 140 110 102
-1.342612e+000 5.634812e-001 -7.663221e+000 148 123 101
1.028649e+000 6.305815e-001 -8.134536e+000 157 85 70
2.869629e+000 6.304063e-001 -8.826974e+000 83 53 65
3.542459e+000 1.010797e-001 -9.170225e+000 185 87 31
1.123366e+000 -6.625477e-002 -8.315691e+000 15 59 92
-2.948227e-002 -3.482477e-001 -8.044735e+000 27 58 30
8.158915e-001 -4.349380e-001 -8.404380e+000 153 88 60
1.515483e+000 -5.364354e-001 -8.882429e+000 197 132 114
6.810395e-002 -6.851473e-001 -8.438333e+000 155 152 136
5.942420e-001 -8.512507e-001 -8.959375e+000 167 46 61
4.358972e+000 -1.389196e+000 -9.371434e+000 60 50 59
4.371236e+000 -1.396078e+000 -9.281917e+000 138 121 121
4.208575e+000 -1.739570e+000 -9.554051e+000 135 122 122
4.176573e+000 -2.024713e+000 -9.933853e+000 136 119 125
4.029685e+000 -2.337044e+000 -1.021036e+001 149 130 133
3.931171e+000 -2.540156e+000 -1.037937e+001 143 127 130
3.882471e+000 -2.615434e+000 -1.043657e+001 147 131 134
-1.327629e-001 1.272667e+000 -8.474471e+000 170 157 113
-4.536904e-002 1.231469e+000 -8.463082e+000 36 60 30
1.127142e-001 1.223939e+000 -8.466844e+000 29 51 30
1.122735e-001 1.225189e+000 -8.475822e+000 29 51 30
1.531280e+000 1.322746e+000 -9.059955e+000 180 127 96
1.532709e+000 1.324306e+000 -9.071084e+000 180 127 96
1.499830e+000 1.206286e+000 -8.883635e+000 30 76 112
1.594982e+000 1.194338e+000 -8.932230e+000 186 136 92
-4.373356e-001 1.056211e+000 -8.177519e+000 30 53 24
-3.796327e-001 9.246640e-001 -8.012519e+000 163 153 112
-2.443348e-001 9.986492e-001 -8.096007e+000 35 55 39
-1.957194e-001 1.057150e+000 -8.213190e+000 171 154 111
-1.957194e-001 1.057150e+000 -8.213190e+000 171 154 111
2.830177e-001 1.045444e+000 -8.312725e+000 167 149 115
2.830177e-001 1.045444e+000 -8.312725e+000 167 149 115
2.306393e-001 9.843306e-001 -8.226653e+000 37 60 43
2.324768e-001 9.820420e-001 -8.204648e+000 37 60 43
-3.358086e-001 8.616448e-001 -7.998950e+000 32 60 31
-1.443841e-001 7.950665e-001 -7.865274e+000 38 64 45
-8.940464e-002 8.451522e-001 -7.977867e+000 168 155 110
-8.940464e-002 8.451522e-001 -7.977867e+000 168 155 110
7.457384e-001 8.442322e-001 -8.235583e+000 171 35 36
9.692909e-001 9.273860e-001 -8.381204e+000 163 156 131
9.692909e-001 9.273860e-001 -8.381204e+000 163 156 131
1.459099e+000 9.535302e-001 -8.616847e+000 6 77 115
2.209339e+000 1.044935e+000 -8.955478e+000 130 101 93
1.250912e-001 6.997555e-001 -7.877966e+000 161 155 93
1.250912e-001 6.997555e-001 -7.877966e+000 161 155 93
4.016857e-001 7.610624e-001 -8.054730e+000 28 53 26
4.016857e-001 7.610624e-001 -8.054730e+000 28 53 26
1.505018e+000 8.629979e-001 -8.561937e+000 26 74 118
1.763231e+000 7.560170e-001 -8.500182e+000 176 114 89
2.485151e+000 7.604164e-001 -8.769252e+000 92 53 58
2.905063e+000 8.655247e-001 -9.000951e+000 158 118 83
4.036032e+000 5.866311e-001 -9.259720e+000 176 141 126
3.392491e+000 3.781570e-001 -8.992439e+000 125 27 47
3.392491e+000 3.781570e-001 -8.992439e+000 125 27 47
2.492222e-002 -2.003257e-001 -7.951729e+000 23 61 45
6.036668e-002 -2.650622e-001 -7.962034e+000 93 116 116
-2.961173e-001 -5.960941e-001 -8.159059e+000 78 113 131
1.810495e+000 -5.391078e-001 -9.006171e+000 194 131 113
1.901505e+000 -5.448832e-001 -9.065413e+000 193 134 112
-6.172558e-001 -8.155788e-001 -8.331974e+000 39 67 47
7.378998e-001 -8.407187e-001 -9.038530e+000 20 76 127
1.874962e-001 1.174118e+000 -8.430621e+000 169 153 109
1.874962e-001 1.174118e+000 -8.430621e+000 169 153 109
2.843718e-001 1.222372e+000 -8.518234e+000 39 55 23
-1.055486e-001 1.052158e+000 -8.221063e+000 35 61 30
3.722329e-001 1.034737e+000 -8.320275e+000 34 57 28
2.171360e+000 1.144901e+000 -9.050277e+000 150 124 109
-6.368979e-001 8.067797e-001 -7.785042e+000 154 58 55
-4.731088e-001 8.861932e-001 -7.959266e+000 44 95 121
-6.259288e-004 8.356176e-001 -7.958492e+000 35 60 36
-5.369340e-001 6.362494e-001 -7.588332e+000 168 122 89
-5.369340e-001 6.362494e-001 -7.588332e+000 168 122 89
4.977290e-001 7.685018e-001 -8.076679e+000 163 152 122
7.039033e-001 7.656224e-001 -8.144935e+000 162 150 126
3.293253e+000 9.053872e-001 -9.201707e+000 154 118 87
3.381504e+000 8.316291e-001 -9.124386e+000 132 24 40
-3.748309e-001 5.763598e-001 -7.569270e+000 96 120 118
-2.801487e-001 5.503613e-001 -7.576151e+000 26 56 29
3.948544e+000 8.180810e-001 -9.416766e+000 168 138 114
3.788353e+000 6.482944e-001 -9.212887e+000 169 85 38
3.389123e+000 -4.600409e-002 -9.185131e+000 183 125 68
3.399102e+000 -4.721668e-002 -9.213219e+000 183 125 68
-2.274776e-001 -4.057095e-001 -7.937066e+000 66 110 108
1.706592e+000 -5.715949e-001 -9.014042e+000 193 130 112
7.720158e-002 7.588698e-001 -7.909252e+000 165 152 118
2.936113e-001 7.597964e-001 -7.995562e+000 160 151 110
-1.355582e+000 5.213948e-001 -7.658194e+000 151 126 104
2.562716e+000 5.190178e-001 -8.674936e+000 152 107 55
-8.283590e-002 -4.065592e-001 -8.064574e+000 69 105 132
4.107441e+000 -5.409639e-001 -1.022145e+001 30 19 27
3.207736e+000 7.938696e-001 -9.088504e+000 17 58 109
3.760790e+000 9.745218e-001 -9.487031e+000 141 25 37
3.760790e+000 9.745218e-001 -9.487031e+000 141 25 37
9.719807e-001 6.403448e-001 -8.150538e+000 174 156 134
2.703177e+000 6.742673e-001 -8.747194e+000 53 19 23
-5.583447e-002 4.062783e-001 -7.639887e+000 155 148 122
2.898416e+000 5.208632e-001 -8.779511e+000 156 116 80
2.898416e+000 5.208632e-001 -8.779511e+000 156 116 80
2.974262e-001 -4.549906e-001 -8.181134e+000 156 156 144
-4.815865e-001 3.765339e-001 -7.468225e+000 93 121 135
2.180764e+000 -2.086086e-001 -8.826362e+000 194 140 112
-6.441883e-001 -5.055987e-001 -7.898225e+000 197 114 104
3.777470e+000 -1.021728e-001 -9.414266e+000 112 68 38
6.752671e-001 -2.656973e-001 -8.154735e+000 164 160 141
2.594344e+000 -1.937143e-002 -8.874980e+000 171 33 46
4.165664e+000 1.335553e+000 -9.814259e+000 40 32 43
1.048363e+000 -6.413138e-002 -8.067426e+000 99 130 151
2.071999e+000 -8.122494e-002 -9.614201e+000 129 80 75
2.033374e+000 1.161305e+000 -9.000725e+000 93 71 74
7.963827e-001 8.247119e-001 -8.237848e+000 165 156 129
2.522500e+000 1.067329e+000 -9.083278e+000 136 102 101
-4.548187e-001 6.012786e-001 -7.580581e+000 195 131 110
1.759236e+000 6.609518e-001 -8.450167e+000 189 151 89
1.892959e+000 7.146138e-001 -8.512258e+000 167 100 71
2.764414e+000 6.863649e-001 -8.826290e+000 106 67 75
2.893993e+000 6.730853e-001 -8.806410e+000 162 120 98
4.018966e+000 6.696833e-001 -9.317859e+000 148 67 50
2.251264e+000 5.595204e-001 -8.564509e+000 160 125 80
4.094260e+000 5.838311e-001 -9.261548e+000 168 134 118
2.413229e+000 3.793133e-001 -8.642956e+000 102 43 26
1.561402e+000 1.810698e-001 -8.311310e+000 177 157 138
2.714075e+000 -1.779039e-001 -9.019646e+000 188 72 77
-7.218983e-001 1.139660e+000 -8.134582e+000 51 88 127
-5.969064e-001 1.054904e+000 -8.121402e+000 55 92 117
2.528552e+000 1.204461e+000 -9.245503e+000 140 92 84
1.797491e+000 9.128508e-001 -8.680206e+000 75 13 16
2.012018e+000 8.248362e-001 -8.633443e+000 127 93 92
1.845912e+000 7.106215e-001 -8.429359e+000 95 32 43
1.884472e+000 6.189780e-001 -8.452352e+000 96 31 39
2.473371e+000 5.930442e-001 -8.663983e+000 64 16 27
3.963430e+000 2.622407e-001 -9.289009e+000 184 162 139
2.288145e+000 4.152952e-002 -8.673691e+000 191 140 112
-1.429883e-001 -2.720102e-001 -7.898064e+000 55 100 125
-6.513579e-001 -3.926280e-001 -7.800369e+000 172 167 136
3.873211e-001 -5.074667e-001 -8.351809e+000 167 158 149
2.584371e+000 1.224739e+000 -9.311237e+000 88 57 72
-6.944840e-001 7.895497e-001 -7.743500e+000 167 44 49
2.141766e+000 7.422337e-001 -8.622323e+000 92 41 49
2.766890e+000 4.402398e-001 -8.759546e+000 131 77 37
3.483314e+000 4.616063e-001 -9.042844e+000 135 45 53
3.519355e+000 4.515406e-001 -9.024194e+000 178 101 45
1.678520e+000 -4.512420e-002 -8.474920e+000 136 77 68
1.678520e+000 -4.512420e-002 -8.474920e+000 136 77 68
1.768807e+000 -7.500027e-002 -8.575067e+000 153 101 89
1.296205e+000 -5.041976e-001 -8.743986e+000 147 91 78
4.442684e+000 -1.640344e+000 -9.096976e+000 154 132 140
4.149496e+000 -2.089021e+000 -9.890478e+000 123 107 108
4.405563e+000 -1.886024e+000 -9.242260e+000 107 87 91
2.461013e+000 1.281351e+000 -9.287865e+000 132 80 78
7.039434e-001 8.553560e-001 -8.231245e+000 177 37 44
3.456010e+000 3.765106e-001 -8.990629e+000 182 106 42
4.396671e+000 3.519435e-001 -9.359763e+000 35 22 40
3.936208e+000 1.229191e-001 -9.313086e+000 187 105 49
2.368586e+000 -1.201656e-001 -8.849601e+000 153 13 31
4.406862e+000 -1.326391e+000 -9.228795e+000 140 124 124
4.173277e+000 -2.087270e+000 -9.650305e+000 151 132 130
-3.339670e-001 1.320276e+000 -8.431239e+000 118 122 103
6.179394e-001 1.067880e+000 -8.477407e+000 172 41 47
-7.716076e-002 9.130481e-001 -8.077203e+000 34 54 28
4.348797e+000 -1.472112e+000 -9.356691e+000 143 125 125
3.909312e+000 -2.565959e+000 -1.050951e+001 47 39 46
1.186250e+000 9.270257e-001 -8.498834e+000 158 30 35
1.710096e+000 9.685088e-001 -8.713353e+000 178 138 91
1.710096e+000 9.685088e-001 -8.713353e+000 178 138 91
2.539717e+000 9.691608e-001 -8.911032e+000 136 107 101
-3.088563e-001 6.220218e-001 -7.692937e+000 27 56 32
2.637114e+000 -1.780402e-001 -9.100627e+000 172 30 47
1.031721e-001 1.438778e+000 -8.726953e+000 169 162 56
2.029408e+000 1.589901e+000 -9.686457e+000 27 60 87
-7.948145e-001 1.055141e+000 -8.020300e+000 204 159 117
2.583999e+000 1.387547e+000 -9.381804e+000 165 131 86
-7.010783e-001 1.029689e+000 -8.007563e+000 197 144 112
-6.769144e-001 9.819187e-001 -7.956159e+000 195 152 106
1.183844e+000 1.156383e+000 -8.724946e+000 194 142 116
1.176035e+000 1.096466e+000 -8.623880e+000 205 146 103
1.297311e+000 1.087328e+000 -8.677360e+000 161 33 37
-1.330768e+000 8.682510e-001 -7.807644e+000 205 183 148
-6.049555e-001 8.721521e-001 -7.844963e+000 162 39 31
-6.049555e-001 8.721521e-001 -7.844963e+000 162 39 31
-5.574449e-001 8.167153e-001 -7.828484e+000 203 136 105
-5.574449e-001 8.167153e-001 -7.828484e+000 203 136 105
1.543763e+000 9.342868e-001 -8.640847e+000 19 70 107
2.082646e+000 9.130968e-001 -8.781660e+000 66 30 37
-1.309751e+000 7.396054e-001 -7.699801e+000 209 186 153
-6.623415e-001 7.899181e-001 -7.723479e+000 191 161 97
-6.244048e-001 7.192928e-001 -7.640452e+000 196 156 117
-6.244048e-001 7.192928e-001 -7.640452e+000 196 156 117
-5.904594e-001 6.915964e-001 -7.616235e+000 169 33 35
-5.458756e-001 7.534368e-001 -7.755149e+000 171 26 24
-5.064193e-001 6.958270e-001 -7.640785e+000 176 47 41
1.102204e+000 8.380780e-001 -8.238575e+000 167 157 122
1.838444e+000 8.732639e-001 -8.622786e+000 171 95 95
1.957500e+000 8.412534e-001 -8.663599e+000 161 91 89
1.874510e+000 8.256550e-001 -8.581783e+000 96 40 31
1.874510e+000 8.256550e-001 -8.581783e+000 96 40 31
1.983101e+000 8.395429e-001 -8.649644e+000 71 15 16
1.976580e+000 7.697311e-001 -8.593173e+000 165 99 81
2.807793e+000 8.984099e-001 -9.132815e+000 125 95 99
3.883552e+000 8.378973e-001 -9.364812e+000 157 94 64
-6.753219e-001 6.613547e-001 -7.571468e+000 37 82 100
-4.850519e-001 6.745870e-001 -7.642337e+000 193 158 115
1.883611e+000 6.416227e-001 -8.473485e+000 89 29 35
1.933270e+000 6.602923e-001 -8.508597e+000 95 29 33
2.228822e+000 6.774202e-001 -8.605978e+000 71 27 32
2.379896e+000 7.440487e-001 -8.717307e+000 133 92 82
2.725375e+000 6.836819e-001 -8.811335e+000 65 23 31
2.789852e+000 7.111654e-001 -8.866376e+000 61 20 24
2.789852e+000 7.111654e-001 -8.866376e+000 61 20 24
3.937544e+000 6.916074e-001 -9.379944e+000 193 148 107
-6.106295e-001 5.475914e-001 -7.480988e+000 184 158 117
-6.106295e-001 5.475914e-001 -7.480988e+000 184 158 117
4.561716e-001 5.853234e-001 -7.850701e+000 176 161 78
3.095853e+000 5.952680e-001 -8.911242e+000 33 26 64
4.073856e+000 6.343598e-001 -9.333022e+000 168 51 44
4.073856e+000 6.343598e-001 -9.333022e+000 168 51 44
3.813578e+000 2.675549e-001 -9.200726e+000 189 167 149
1.268577e+000 1.420068e-001 -8.178042e+000 9 75 112
4.239358e+000 1.352005e-001 -9.515169e+000 164 101 45
2.358995e+000 3.876437e-002 -8.720798e+000 198 134 108
2.382859e+000 -2.525168e-001 -8.986353e+000 188 66 67
2.468612e+000 -1.535124e-001 -8.927005e+000 202 85 79
2.385909e+000 -1.916499e-001 -8.904457e+000 192 84 82
2.446165e+000 -1.860213e-001 -8.925108e+000 191 75 75
2.534722e+000 -1.276094e-001 -8.925530e+000 206 91 90
-1.789281e+000 -3.317120e-001 -8.172417e+000 241 213 211
6.507444e-002 -2.681558e-001 -7.979006e+000 82 109 122
4.854065e-001 -3.580950e-001 -8.235167e+000 145 54 54
2.940109e+000 -3.533379e-001 -9.333687e+000 135 73 64
-1.057845e+000 -4.721126e-001 -7.740130e+000 25 99 139
-5.156165e-001 -3.428816e-001 -7.797218e+000 27 55 31
-3.256193e-001 -4.369153e-001 -7.925923e+000 150 160 47
-2.516308e-001 -4.917820e-001 -8.045747e+000 148 152 39
3.914890e-002 -4.035987e-001 -8.072511e+000 175 163 40
3.914890e-002 -4.035987e-001 -8.072511e+000 175 163 40
1.512432e+000 -6.013408e-001 -8.952137e+000 128 70 50
-5.738441e-001 -5.124566e-001 -7.958549e+000 189 29 44
-6.739413e-001 -6.138547e-001 -8.005989e+000 201 141 124
-6.739413e-001 -6.138547e-001 -8.005989e+000 201 141 124
-3.169250e-001 -5.519709e-001 -8.055463e+000 147 155 31
-1.069940e-001 -6.572166e-001 -8.304125e+000 155 157 36
-1.534281e-001 1.375763e+000 -8.549599e+000 156 157 32
-1.534281e-001 1.375763e+000 -8.549599e+000 156 157 32
6.480928e-001 1.457123e+000 -8.920379e+000 174 161 129
6.480928e-001 1.457123e+000 -8.920379e+000 174 161 129
3.707993e+000 1.724649e+000 -1.058315e+001 149 115 88
-4.656922e-001 1.249419e+000 -8.326960e+000 72 105 122
1.940550e+000 1.509404e+000 -9.451284e+000 119 138 134
1.940550e+000 1.509404e+000 -9.451284e+000 119 138 134
-8.118691e-001 1.114452e+000 -8.032219e+000 177 151 114
-8.686714e-001 1.106616e+000 -8.030538e+000 192 147 130
1.149689e+000 1.176883e+000 -8.748261e+000 168 41 42
2.515545e+000 1.376382e+000 -9.517533e+000 160 122 113
2.515545e+000 1.376382e+000 -9.517533e+000 160 122 113
2.544964e+000 1.399071e+000 -9.493495e+000 84 52 53
2.557469e+000 1.253356e+000 -9.269945e+000 87 57 71
1.269096e+000 1.030542e+000 -8.585546e+000 152 28 32
1.462163e+000 1.141010e+000 -8.803094e+000 136 144 132
2.058349e+000 1.109126e+000 -8.911416e+000 96 70 74
-1.427831e+000 7.708810e-001 -7.798631e+000 121 95 68
-6.241149e-001 9.160640e-001 -7.873552e+000 161 23 23
1.012042e+000 9.029173e-001 -8.375626e+000 169 163 131
2.641151e+000 1.059211e+000 -9.258582e+000 143 112 92
4.171763e+000 1.163428e+000 -1.000457e+001 32 23 37
4.099241e+000 1.117039e+000 -9.744922e+000 38 24 30
-1.920552e+000 6.678711e-001 -8.392592e+000 194 110 96
-1.278130e+000 7.577014e-001 -7.657181e+000 207 185 146
-6.576485e-001 7.120203e-001 -7.651463e+000 181 35 39
-5.605409e-001 7.840931e-001 -7.754389e+000 179 39 40
8.035836e-001 8.235112e-001 -8.195322e+000 170 154 131
8.956712e-001 7.547256e-001 -8.183100e+000 166 165 129
1.036998e+000 8.301651e-001 -8.301745e+000 172 160 123
1.930017e+000 8.815969e-001 -8.657981e+000 164 92 84
1.959721e+000 9.041259e-001 -8.705837e+000 79 39 44
1.959721e+000 9.041259e-001 -8.705837e+000 79 39 44
2.013508e+000 7.695690e-001 -8.624213e+000 71 29 39
4.239041e+000 8.940790e-001 -9.726525e+000 157 87 45
-2.370323e-001 5.760449e-001 -7.627173e+000 166 156 32
9.680937e-001 6.872074e-001 -8.175446e+000 175 159 126
9.680937e-001 6.872074e-001 -8.175446e+000 175 159 126
1.890374e+000 7.592010e-001 -8.578890e+000 172 93 80
2.055625e+000 6.596600e-001 -8.544613e+000 86 31 34
2.679709e+000 6.533399e-001 -8.794624e+000 79 32 42
3.992786e+000 7.738435e-001 -9.200801e+000 179 148 109
-1.378483e+000 5.103592e-001 -7.661206e+000 211 185 152
1.940155e+000 5.645498e-001 -8.491866e+000 94 27 34
2.101182e+000 6.086098e-001 -8.541895e+000 141 83 83
4.122244e+000 6.354655e-001 -9.362780e+000 184 154 130
2.492049e+000 4.725450e-001 -8.659574e+000 163 108 69
3.492294e+000 5.091607e-001 -9.007968e+000 145 59 28
2.957732e+000 3.311761e-001 -8.801428e+000 177 116 57
3.782322e+000 2.970921e-001 -9.164375e+000 70 38 31
3.991129e+000 2.664308e-001 -9.275506e+000 48 13 20
2.862359e+000 1.809113e-001 -8.838043e+000 198 136 104
3.485382e+000 1.158350e-001 -9.148827e+000 195 88 42
-1.685820e+000 -1.495173e-001 -8.001207e+000 185 161 135
3.022418e-001 1.068162e-002 -7.868339e+000 70 94 52
3.022418e-001 1.068162e-002 -7.868339e+000 70 94 52
1.805743e+000 -7.531723e-002 -8.576500e+000 193 139 105
1.866303e+000 -5.643964e-002 -8.601139e+000 117 71 71
2.272082e+000 -3.008438e-002 -8.743370e+000 189 141 110
2.960319e+000 -8.105609e-002 -9.069488e+000 203 150 119
-1.761225e+000 -2.526015e-001 -8.238430e+000 196 174 157
5.697249e-002 -1.597405e-001 -7.913579e+000 135 145 50
3.604935e+000 -2.764912e-001 -9.556630e+000 92 71 65
-1.094103e-001 -3.239340e-001 -7.951873e+000 32 55 46
2.280949e-002 -2.713566e-001 -7.962582e+000 29 56 41
5.812481e-001 -3.390379e-001 -8.229392e+000 134 75 65
5.812481e-001 -3.390379e-001 -8.229392e+000 134 75 65
9.798459e-001 -3.210814e-001 -8.376360e+000 19 66 106
-5.864727e-001 -4.219480e-001 -7.821582e+000 182 49 49
-2.357866e-001 -3.958097e-001 -7.965171e+000 52 106 120
1.442935e-001 -4.367242e-001 -8.148862e+000 34 53 35
1.442935e-001 -4.367242e-001 -8.148862e+000 34 53 35
4.918868e-001 -3.916254e-001 -8.250623e+000 164 156 136
2.219083e+000 -5.353453e-001 -9.166764e+000 160 34 42
2.210685e+000 -6.066789e-001 -9.297256e+000 155 35 38
-7.624284e-001 -6.358093e-001 -8.009839e+000 189 38 38
-6.181426e-001 -6.150150e-001 -8.011491e+000 182 42 50
-6.181426e-001 -6.150150e-001 -8.011491e+000 182 42 50
-3.185638e-001 -6.342658e-001 -8.194770e+000 142 154 62
5.452649e-001 -5.723566e-001 -8.472616e+000 159 159 149
4.668830e+000 -9.820836e-001 -8.653559e+000 153 129 125
4.259547e+000 -1.652100e+000 -9.529504e+000 150 129 124
-7.172429e-002 1.414412e+000 -8.623507e+000 122 118 37
-7.172429e-002 1.414412e+000 -8.623507e+000 122 118 37
-1.687476e-002 1.271839e+000 -8.503307e+000 30 56 48
6.685683e-001 1.421662e+000 -8.897537e+000 182 154 124
2.610896e+000 1.516453e+000 -9.698957e+000 136 65 32
-6.780788e-001 1.178485e+000 -8.178435e+000 27 48 10
2.482915e-001 1.183471e+000 -8.441510e+000 29 56 18
2.482915e-001 1.183471e+000 -8.441510e+000 29 56 18
1.199932e+000 1.199273e+000 -8.785661e+000 156 30 34
-1.459771e+000 9.204925e-001 -7.937707e+000 201 178 143
-5.786057e-001 9.129918e-001 -7.907205e+000 175 42 38
1.047204e+000 9.206920e-001 -8.457968e+000 177 34 43
-1.344592e+000 7.053507e-001 -7.699173e+000 207 183 149
-5.321752e-001 7.216407e-001 -7.676091e+000 174 41 44
-4.663503e-001 7.004925e-001 -7.661897e+000 180 41 42
7.917617e-001 7.953092e-001 -8.194151e+000 173 42 37
2.801335e+000 8.511403e-001 -8.896127e+000 79 49 69
-5.699288e-001 6.079789e-001 -7.534984e+000 194 164 119
2.049735e+000 7.322285e-001 -8.616097e+000 83 32 41
-1.604784e+000 2.105135e-001 -7.759667e+000 190 163 124
1.428293e+000 6.085714e-002 -8.315970e+000 154 98 82
2.008377e+000 -3.253980e-002 -8.641833e+000 195 142 111
2.228102e+000 -4.965746e-002 -8.727131e+000 135 80 59
2.228102e+000 -4.965746e-002 -8.727131e+000 135 80 59
2.399107e+000 -7.315905e-002 -8.877980e+000 166 22 38
3.193325e+000 3.725314e-003 -9.049791e+000 193 132 87
3.211640e+000 -6.028643e-002 -9.163522e+000 181 148 92
9.228677e-001 -1.653064e-001 -8.178405e+000 160 37 55
2.862400e+000 -2.105649e-001 -9.122428e+000 127 80 60
2.862400e+000 -2.105649e-001 -9.122428e+000 127 80 60
3.609824e+000 -1.841419e-001 -9.469668e+000 197 171 124
-6.788470e-001 -4.236600e-001 -7.795574e+000 193 44 49
8.502495e-002 -5.016889e-001 -8.188887e+000 173 165 93
1.263553e-001 -4.846004e-001 -8.192060e+000 177 169 66
8.329857e-001 -5.203587e-001 -8.509719e+000 121 41 64
1.472790e+000 -5.530721e-001 -8.852842e+000 193 132 104
1.771890e+000 -5.510777e-001 -9.022778e+000 200 136 111
5.122188e-001 -5.475018e-001 -8.403189e+000 147 118 113
6.401418e-001 -7.459429e-001 -8.803907e+000 162 38 54
7.714687e-001 -5.653269e-001 -8.572485e+000 194 125 118
8.319643e-001 -6.843637e-001 -8.764869e+000 20 64 98
-6.947889e-001 -7.787674e-001 -8.229406e+000 177 42 33
4.488801e+000 -1.882973e+000 -9.095728e+000 132 111 111
4.557514e+000 -1.682003e+000 -8.583718e+000 125 104 104
4.250859e+000 -2.202528e+000 -9.489369e+000 130 110 108
4.250859e+000 -2.202528e+000 -9.489369e+000 130 110 108
3.847067e+000 1.752985e+000 -1.071744e+001 158 117 89
-6.700964e-001 1.177477e+000 -8.189671e+000 41 63 34
-2.404916e-001 1.157655e+000 -8.301305e+000 181 165 42
8.420523e-001 1.244191e+000 -8.712416e+000 173 149 123
-7.263513e-001 9.644394e-001 -7.917761e+000 156 72 51
1.097687e+000 1.104297e+000 -8.702722e+000 164 30 37
1.549883e+000 1.099576e+000 -8.823740e+000 21 73 114
-1.457404e+000 8.030208e-001 -7.832538e+000 210 186 149
3.007809e+000 8.417538e-001 -9.062514e+000 26 25 50
-1.531038e-001 6.125071e-001 -7.711065e+000 74 108 115
2.598752e+000 5.589217e-001 -8.693213e+000 179 129 75
2.420348e+000 1.756795e-001 -8.665094e+000 160 29 42
1.428528e+000 6.083779e-002 -8.316274e+000 155 99 83
2.974606e+000 -1.112753e-003 -9.016470e+000 202 146 110
2.740427e-001 -7.727599e-002 -7.932408e+000 24 57 20
-1.760836e+000 -3.236680e-001 -8.221855e+000 70 46 42
8.467478e-001 -3.505813e-001 -8.363596e+000 175 110 83
-4.026843e-001 -4.839060e-001 -7.966941e+000 34 64 35
-4.026843e-001 -4.839060e-001 -7.966941e+000 34 64 35
-4.704723e-002 -6.833907e-001 -8.378988e+000 146 148 131
-4.704723e-002 -6.833907e-001 -8.378988e+000 146 148 131
-7.797164e-001 -7.601963e-001 -8.170444e+000 188 122 104
4.608517e+000 -8.754766e-001 -8.842268e+000 164 143 139
4.554154e+000 -1.145101e+000 -8.823962e+000 153 135 132
4.143425e+000 -1.926777e+000 -9.849698e+000 53 43 47
4.175633e+000 -1.854804e+000 -9.688600e+000 146 126 125
-4.025851e-001 1.296254e+000 -8.395894e+000 32 56 30
3.029477e+000 1.581868e+000 -9.968325e+000 81 34 27
-6.480817e-001 1.119820e+000 -8.142944e+000 155 147 117
-1.853049e-001 1.127442e+000 -8.302969e+000 30 61 26
5.189834e-001 1.266106e+000 -8.642570e+000 193 36 48
8.920750e-001 1.219541e+000 -8.679348e+000 187 35 37
2.183269e+000 1.367835e+000 -9.322971e+000 161 130 110
6.748557e-001 1.042626e+000 -8.415856e+000 169 149 124
