ply
format ascii 1.0
element face 0
property list uchar int vertex_indices
element vertex 886
property float x
property float y
property float z
property uchar diffuse_red
property uchar diffuse_green
property uchar diffuse_blue
end_header
1.453878e-001 5.073827e-001 -7.735463e+000 24 43 16
3.280655e-001 6.121091e-001 -7.837200e+000 63 66 19
3.583001e+000 4.535733e-001 -9.100264e+000 128 73 38
3.690133e-001 1.360959e+000 -8.701485e+000 122 107 68
2.969305e+000 1.233578e+000 -9.823967e+000 112 77 45
2.969305e+000 1.233578e+000 -9.823967e+000 112 77 45
4.036854e+000 6.238907e-001 -9.270954e+000 125 69 36
4.036854e+000 6.238907e-001 -9.270954e+000 125 69 36
2.454485e+000 1.429893e+000 -1.009128e+001 101 72 42
-8.099244e-001 1.133024e+000 -8.854980e+000 91 88 68
2.029087e+000 1.531855e+000 -9.586688e+000 23 41 45
2.045679e+000 1.511924e+000 -9.534954e+000 18 37 42
2.045679e+000 1.511924e+000 -9.534954e+000 18 37 42
5.526518e-001 1.368595e+000 -8.785724e+000 132 98 73
6.208463e-001 1.389284e+000 -8.853261e+000 129 97 57
6.208463e-001 1.389284e+000 -8.853261e+000 129 97 57
-3.578944e-001 1.213633e+000 -8.333169e+000 110 104 35
-6.296542e-001 1.060438e+000 -8.078051e+000 116 29 18
-1.426799e+000 8.097944e-001 -7.819527e+000 153 128 92
-1.307269e+000 8.841131e-001 -7.750405e+000 154 131 91
1.183740e+000 1.103328e+000 -8.662640e+000 102 19 15
1.184132e+000 1.071330e+000 -8.658326e+000 156 104 82
1.476145e+000 1.049295e+000 -8.712783e+000 107 103 76
2.041883e+000 1.025016e+000 -8.898881e+000 44 24 20
2.048471e+000 1.014705e+000 -8.866768e+000 53 34 32
2.051890e+000 1.008468e+000 -8.872093e+000 53 34 32
-1.306011e+000 5.043364e-001 -7.576819e+000 170 145 104
-1.267100e+000 4.936158e-001 -7.561014e+000 170 146 101
2.027405e+000 9.310108e-001 -8.762202e+000 51 33 31
2.118094e+000 6.712356e-001 -8.566913e+000 89 48 45
4.741174e+000 -1.332709e+000 -8.587129e+000 129 111 87
5.139784e+000 3.516495e-001 -7.607658e+000 78 61 44
1.976257e+000 1.549797e+000 -9.646635e+000 41 55 57
1.972712e+000 1.556218e+000 -9.641126e+000 41 55 57
3.261456e+000 1.640154e+000 -1.035311e+001 93 58 39
2.072534e+000 1.517866e+000 -9.593925e+000 48 66 67
1.386016e+000 1.288498e+000 -8.973585e+000 15 40 46
5.930607e-001 1.034464e+000 -8.372082e+000 126 108 74
1.218047e+000 1.037876e+000 -8.607413e+000 105 18 17
2.655795e+000 1.154775e+000 -9.155069e+000 79 58 57
-5.860032e-001 8.400681e-001 -7.820841e+000 115 29 24
1.258217e+000 9.615748e-001 -8.530016e+000 144 96 59
2.463844e+000 1.052463e+000 -9.024458e+000 101 79 58
2.526408e+000 9.611063e-001 -9.053047e+000 103 80 65
-5.967450e-001 7.490248e-001 -7.700858e+000 147 104 70
2.517824e+000 8.607196e-001 -8.887973e+000 104 79 63
2.685641e+000 8.661721e-001 -8.939268e+000 56 26 16
2.171622e+000 8.049827e-001 -8.706675e+000 102 82 68
2.169117e+000 8.096971e-001 -8.703425e+000 102 82 68
3.035940e+000 7.757459e-001 -8.988383e+000 77 69 55
3.951486e+000 8.268402e-001 -9.443599e+000 119 59 25
4.004307e+000 8.234592e-001 -9.466834e+000 127 63 31
1.853379e+000 6.991027e-001 -8.490504e+000 129 78 51
1.959981e+000 6.266765e-001 -8.491377e+000 59 14 7
2.059133e+000 6.326269e-001 -8.533061e+000 50 15 13
2.272046e+000 6.260344e-001 -8.621693e+000 49 13 12
3.084895e+000 6.424097e-001 -8.920585e+000 93 82 76
3.962829e+000 6.686734e-001 -9.295921e+000 114 43 16
1.012934e+000 5.518008e-001 -8.080545e+000 138 115 83
4.470952e+000 2.984349e-001 -9.368236e+000 34 20 16
9.649558e-001 1.574246e+000 -9.305628e+000 97 21 20
1.807904e-001 1.455375e+000 -8.835540e+000 112 96 36
7.247035e-001 1.340315e+000 -8.826585e+000 123 107 71
2.531195e+000 1.471959e+000 -9.664319e+000 71 23 4
2.522681e+000 1.439599e+000 -9.614771e+000 97 37 29
2.912208e+000 1.529289e+000 -9.885353e+000 96 55 30
-4.097473e-001 1.208415e+000 -8.306080e+000 49 75 59
1.218891e+000 1.174430e+000 -8.760559e+000 97 14 11
-1.289023e+000 7.983487e-001 -7.693638e+000 157 133 95
-1.289615e+000 8.011687e-001 -7.691742e+000 157 133 95
-1.326681e+000 6.757969e-001 -7.665515e+000 161 138 97
1.166583e-001 9.034693e-001 -8.112830e+000 121 105 12
-6.608303e-001 7.244878e-001 -7.662987e+000 125 25 27
-6.608303e-001 7.244878e-001 -7.662987e+000 125 25 27
1.032602e+000 8.625294e-001 -8.356700e+000 128 112 75
1.674547e+000 5.185618e-001 -8.306340e+000 139 99 52
4.313179e+000 -1.829078e+000 -9.597420e+000 113 99 83
4.412520e+000 -1.521255e+000 -9.325121e+000 117 100 78
4.848807e+000 -3.292149e-001 -8.280950e+000 118 102 87
5.022191e+000 1.440639e-001 -7.901771e+000 34 21 19
5.169204e+000 4.240960e-001 -7.512282e+000 87 69 57
3.454194e+000 1.656963e+000 -1.034849e+001 96 65 36
3.174677e+000 1.487541e+000 -9.882058e+000 81 41 15
1.848792e+000 1.005503e+000 -8.769626e+000 95 52 46
1.850085e+000 1.005197e+000 -8.770185e+000 95 52 46
-6.353104e-001 7.013138e-001 -7.624330e+000 121 17 20
-5.725058e-001 5.410933e-001 -7.466758e+000 125 25 25
4.642160e+000 -9.790490e-001 -8.917886e+000 38 30 27
4.772937e+000 -6.812074e-001 -8.574729e+000 121 105 90
5.180002e+000 3.650005e-001 -7.683892e+000 40 29 27
9.743925e-001 1.505399e+000 -9.553845e+000 85 26 18
1.467577e+000 1.525064e+000 -9.745433e+000 80 17 10
1.000340e+000 1.484840e+000 -9.186987e+000 115 96 65
1.889857e+000 1.490720e+000 -9.423992e+000 11 37 50
1.826484e+000 1.447471e+000 -9.336392e+000 76 14 15
1.791101e+000 1.499441e+000 -9.282257e+000 76 14 15
2.462569e+000 1.307489e+000 -9.379391e+000 90 46 33
3.922374e+000 1.204970e+000 -9.824204e+000 113 80 49
2.312218e+000 1.064769e+000 -9.027582e+000 20 9 13
4.210724e+000 8.757483e-001 -9.615783e+000 108 59 25
4.169505e+000 6.374570e-001 -9.344848e+000 138 102 70
3.333815e+000 5.392635e-001 -8.984185e+000 13 50 69
4.417523e+000 -1.448937e+000 -9.348903e+000 41 35 36
4.535953e+000 -1.333524e+000 -9.234037e+000 32 27 23
5.169723e+000 5.245595e-001 -7.557181e+000 45 31 31
5.176849e+000 3.355988e-001 -7.501997e+000 114 92 78
1.380640e+000 1.554364e+000 -9.610522e+000 95 43 32
1.895479e+000 1.553409e+000 -9.603005e+000 16 40 51
3.379267e+000 1.646614e+000 -1.038476e+001 45 17 15
9.422672e-001 1.007793e+000 -8.489128e+000 122 106 72
-1.385401e+000 5.980813e-001 -7.689363e+000 135 111 75
2.468258e+000 5.825175e-001 -8.661125e+000 69 28 28
4.906662e+000 -2.979220e+000 -8.549758e+000 129 108 80
-1.319895e+000 8.387697e-001 -7.772630e+000 154 130 91
-5.012005e-001 9.531580e-001 -8.008474e+000 33 62 60
7.893665e-002 9.728105e-001 -8.174462e+000 25 36 19
1.726300e+000 9.310322e-001 -8.687493e+000 133 95 48
1.726300e+000 9.310322e-001 -8.687493e+000 133 95 48
1.832323e-002 5.728855e-001 -7.722986e+000 126 113 68
1.370189e+000 5.237232e-001 -8.257529e+000 115 11 18
1.370189e+000 5.237232e-001 -8.257529e+000 115 11 18
-1.403445e+000 9.590056e-001 -7.911931e+000 156 133 91
-6.976429e-001 1.018463e+000 -7.910920e+000 124 26 25
3.270352e+000 1.522963e+000 -1.109869e+001 28 22 26
-5.777150e-001 1.221679e+000 -9.326762e+000 92 88 53
-5.777150e-001 1.221679e+000 -9.326762e+000 92 88 53
-1.081235e+000 1.320604e+000 -8.960933e+000 98 30 20
-9.370974e-001 1.297577e+000 -9.043379e+000 103 96 43
-9.370974e-001 1.297577e+000 -9.043379e+000 103 96 43
5.433553e-001 1.364649e+000 -9.676384e+000 121 70 51
6.640308e-001 1.382933e+000 -9.695426e+000 95 49 32
9.202479e-001 1.549996e+000 -9.580161e+000 103 50 32
1.015188e+000 1.554100e+000 -9.560477e+000 86 22 13
3.624761e+000 1.487410e+000 -1.087844e+001 70 58 46
1.005977e+000 1.510494e+000 -9.247632e+000 123 32 29
1.953832e+000 1.572878e+000 -9.664645e+000 17 41 57
2.023984e+000 1.500587e+000 -9.559604e+000 50 73 76
2.036652e+000 1.478295e+000 -9.423484e+000 55 77 73
2.632585e+000 1.538697e+000 -9.633870e+000 133 89 50
-4.132989e-001 1.246068e+000 -8.341417e+000 13 33 18
1.316196e+000 1.367114e+000 -9.056348e+000 134 124 82
-1.427766e+000 8.060456e-001 -7.820991e+000 178 156 113
-1.372021e+000 9.316694e-001 -7.834218e+000 172 154 104
-4.595126e-001 1.081830e+000 -8.106887e+000 124 122 24
1.544340e+000 1.037883e+000 -8.745582e+000 24 54 75
-1.285659e+000 7.484550e-001 -7.670317e+000 178 159 119
-6.343297e-001 9.008982e-001 -7.852742e+000 158 126 85
1.224114e+000 9.296440e-001 -8.507624e+000 160 123 87
2.003919e+000 9.844977e-001 -8.863701e+000 57 37 39
2.017052e+000 9.979153e-001 -8.809367e+000 51 30 29
2.060123e+000 9.353876e-001 -8.801901e+000 69 47 50
2.538079e+000 1.234306e+000 -8.808866e+000 87 66 61
-2.006874e-001 5.923008e-001 -7.949418e+000 129 119 19
1.834177e+000 9.060413e-001 -8.663665e+000 121 76 74
1.932846e+000 8.129865e-001 -8.691695e+000 120 67 62
2.100892e+000 8.736403e-001 -8.735553e+000 48 20 17
-5.487217e-001 7.300859e-001 -7.686810e+000 146 118 70
2.074558e+000 7.257098e-001 -8.594140e+000 124 93 89
3.598973e+000 7.020494e-001 -9.130683e+000 148 75 33
2.127700e+000 5.704653e-001 -8.542057e+000 75 31 28
-3.713796e-001 5.564509e-001 -7.514490e+000 142 134 89
-6.380253e-001 1.345403e+000 -9.148280e+000 85 81 33
2.975754e-001 1.426140e+000 -9.456198e+000 82 18 18
9.498996e-001 1.432612e+000 -9.711202e+000 104 83 59
1.992247e+000 1.536802e+000 -9.618362e+000 48 68 68
3.843125e+000 1.691122e+000 -1.055085e+001 63 15 11
2.848496e+000 1.494702e+000 -9.866240e+000 122 80 42
2.992794e+000 1.584496e+000 -9.978145e+000 123 77 42
1.975128e+000 1.508498e+000 -9.371794e+000 17 45 58
1.381213e+000 1.297249e+000 -8.967262e+000 24 55 80
2.516850e+000 1.173137e+000 -9.503121e+000 136 102 75
-6.818992e-001 1.121222e+000 -7.955526e+000 140 27 31
1.049041e+000 9.849499e-001 -8.805771e+000 137 127 89
2.034267e+000 9.236385e-001 -8.789420e+000 68 44 54
2.051674e+000 8.940277e-001 -8.765994e+000 68 48 48
2.019758e+000 9.453066e-001 -8.732504e+000 68 48 48
3.171766e+000 8.599558e-001 -9.107435e+000 142 104 57
1.942441e+000 6.970210e-001 -8.522556e+000 71 17 16
1.980941e+000 5.903087e-001 -8.511924e+000 74 21 15
2.322637e+000 5.302384e-001 -8.585821e+000 63 28 34
2.781139e+000 3.956444e-001 -8.733973e+000 124 78 27
3.223808e+000 4.711851e-001 -8.912206e+000 16 59 82
-2.197324e-001 5.451229e-001 -7.593958e+000 131 122 32
-2.282014e-001 5.820767e-001 -7.577997e+000 131 122 32
-5.007657e-001 1.249870e+000 -9.330526e+000 86 87 54
1.221770e+000 1.297550e+000 -1.008497e+001 79 20 15
2.824553e+000 1.633130e+000 -1.013676e+001 81 43 22
-1.931165e+000 3.441381e-001 -8.680404e+000 123 104 81
6.853874e-001 1.521536e+000 -8.966612e+000 131 115 81
2.134805e+000 1.574344e+000 -9.510384e+000 133 97 47
2.210295e+000 1.519023e+000 -9.416068e+000 128 28 33
-1.382651e+000 8.569173e-001 -7.805269e+000 171 153 108
-1.146650e+000 1.004472e+000 -7.822449e+000 88 91 70
2.732076e+000 1.013057e+000 -9.108158e+000 86 65 62
2.806073e+000 9.877028e-001 -9.176167e+000 57 40 44
-1.634912e+000 2.903986e-002 -7.729583e+000 171 55 42
-5.161142e-001 6.991721e-001 -7.633269e+000 142 30 27
-5.152436e-001 6.941720e-001 -7.635277e+000 142 30 27
8.755843e-001 8.013941e-001 -8.107717e+000 139 130 91
2.890048e+000 6.997337e-001 -8.872969e+000 66 41 37
3.408845e+000 6.404291e-001 -9.110628e+000 140 97 62
4.233625e+000 7.558707e-001 -9.336328e+000 117 55 34
5.088437e+000 1.276823e-004 -7.938735e+000 126 110 96
9.556683e-001 1.441575e+000 -9.754932e+000 70 16 14
3.816962e+000 1.626029e+000 -1.075309e+001 118 68 33
1.012724e+000 1.518513e+000 -9.304567e+000 117 23 21
3.163043e+000 1.624904e+000 -1.019368e+001 95 61 24
-7.625126e-001 9.566623e-001 -7.917017e+000 133 27 24
2.501885e+000 7.000858e-001 -8.738415e+000 61 24 18
4.475340e+000 1.569875e-001 -9.410659e+000 30 21 22
-1.410756e-001 1.207727e+000 -9.533782e+000 98 89 69
-1.036309e+000 1.284196e+000 -8.984098e+000 112 98 69
-6.874653e-001 1.338503e+000 -9.117809e+000 30 34 14
-6.842828e-001 1.326966e+000 -9.127264e+000 30 34 14
1.304120e+000 1.107741e+000 -1.032786e+001 100 81 59
-9.565770e-001 1.250472e+000 -8.140527e+000 28 61 68
1.508890e+000 1.230577e+000 -9.232908e+000 22 36 55
7.845862e-001 1.334622e+000 -8.847476e+000 142 105 83
-1.342707e+000 7.505140e-001 -7.698013e+000 178 156 110
4.071652e+000 1.115609e+000 -9.747967e+000 133 78 44
2.162617e+000 9.451078e-001 -8.873982e+000 50 32 32
2.153687e+000 9.482882e-001 -8.713768e+000 77 58 64
-4.378276e-001 6.108530e-001 -7.574796e+000 139 25 28
4.167148e+000 3.105130e-001 -9.238010e+000 33 22 26
9.860894e-001 1.285691e+000 -1.001852e+001 118 75 58
1.239237e+000 1.438374e+000 -9.884279e+000 81 19 20
1.205105e+000 1.516993e+000 -9.719602e+000 101 60 39
1.205105e+000 1.516993e+000 -9.719602e+000 101 60 39
1.379743e+000 1.553138e+000 -9.611466e+000 119 62 50
-1.141995e+000 1.143053e+000 -7.946866e+000 114 109 89
6.154450e-001 1.201071e+000 -8.593747e+000 141 119 86
6.157739e-001 1.214566e+000 -8.588072e+000 141 119 86
8.483142e-001 1.202787e+000 -8.700775e+000 139 118 83
-7.730234e-003 1.040609e+000 -8.238373e+000 142 134 59
-7.730234e-003 1.040609e+000 -8.238373e+000 142 134 59
7.034796e-001 1.031651e+000 -8.369708e+000 132 119 84
7.034796e-001 1.031651e+000 -8.369708e+000 132 119 84
6.831809e-001 9.496031e-001 -8.335265e+000 142 32 29
-2.234422e-001 7.988109e-001 -7.878551e+000 134 124 68
-1.673552e-001 8.463330e-001 -7.897745e+000 27 42 23
2.127977e+000 1.102308e+000 -1.057862e+001 63 29 19
9.839941e-001 1.480414e+000 -9.197350e+000 128 113 82
6.335218e-001 1.208891e+000 -8.599470e+000 138 121 85
3.437751e-001 1.100214e+000 -8.330407e+000 31 44 26
4.061447e+000 1.054284e+000 -9.648885e+000 128 79 34
1.977390e+000 1.598636e+000 -9.743673e+000 104 73 43
-6.574680e-001 1.196992e+000 -8.229572e+000 86 97 89
2.567739e+000 9.151116e-001 -8.919122e+000 119 93 70
-5.242600e-001 6.207281e-001 -7.544143e+000 159 115 78
1.708905e+000 5.629100e-001 -8.395642e+000 17 57 82
2.278037e+000 1.493550e+000 -9.658180e+000 131 96 55
3.180660e+000 1.528667e+000 -1.002190e+001 32 17 17
2.531567e+000 1.428985e+000 -9.621973e+000 112 48 36
2.531567e+000 1.428985e+000 -9.621973e+000 112 48 36
1.382753e-002 9.350128e-001 -8.100723e+000 140 125 84
1.170696e+000 6.747396e-001 -8.255973e+000 145 130 91
1.675738e+000 5.687927e-001 -8.384552e+000 17 58 80
2.976142e+000 1.552537e+000 -1.050892e+001 89 58 37
3.146355e+000 1.652288e+000 -1.015118e+001 98 64 27
2.013001e+000 2.276482e-001 -8.503282e+000 158 123 70
2.937599e+000 4.173223e-001 -1.179394e+001 37 31 31
1.848841e+000 1.478659e+000 -9.856831e+000 67 12 21
4.155270e+000 5.168820e-001 -9.376873e+000 142 62 38
-2.217946e+001 -3.186580e+001 -4.847943e+001 175 156 149
-2.289767e+001 -3.478158e+001 -5.122319e+001 159 144 145
-2.281305e+001 -3.361195e+001 -4.997688e+001 66 60 112
-1.601084e+001 -3.909837e+001 -4.223213e+001 118 181 227
-1.927305e+001 -3.784058e+001 -4.606607e+001 124 104 95
-1.798765e+001 -3.725690e+001 -4.548600e+001 247 254 252
-1.492958e+001 -3.974024e+001 -4.256541e+001 212 255 254
-1.861896e+001 -4.109970e+001 -3.990974e+001 253 255 255
-1.416342e+001 -3.936403e+001 -4.084195e+001 33 34 64
-1.577597e+001 -3.851254e+001 -4.227614e+001 209 255 255
-1.795536e+001 -3.717915e+001 -4.541186e+001 250 254 255
-1.653703e+001 -5.537199e+001 -3.252365e+001 157 124 80
-1.917380e+001 -4.587760e+001 -4.332451e+001 119 103 97
-6.004461e+000 -5.645344e+001 -3.235468e+001 130 106 60
-5.944915e+000 -5.583046e+001 -3.119985e+001 145 114 68
-5.789985e+000 -5.831323e+001 -3.271494e+001 167 140 93
-5.636310e+000 -5.591742e+001 -3.027102e+001 144 116 68
-5.795820e+000 -5.435701e+001 -3.314589e+001 82 62 29
-5.672335e+000 -5.686455e+001 -3.319911e+001 73 55 25
-5.063087e+000 -5.858359e+001 -3.153419e+001 132 104 65
-1.934380e+000 -3.615834e+001 -2.383947e+001 123 106 77
-6.593701e+000 -5.280334e+001 -3.467476e+001 57 44 27
2.489829e+000 1.351490e+000 -9.451548e+000 77 46 28
1.970134e+000 1.036633e+000 -8.872917e+000 53 37 31
-6.451647e-001 7.934607e-001 -7.748377e+000 111 33 19
1.344522e+000 9.960334e-001 -8.623411e+000 99 18 15
3.804111e+000 1.636895e+000 -1.080061e+001 22 10 11
-6.431187e-001 9.228386e-001 -7.890091e+000 133 96 54
2.036582e+000 1.074723e+000 -8.953563e+000 62 44 40
2.011445e+000 9.731126e-001 -8.822214e+000 53 35 33
1.561867e+000 8.614516e-001 -8.547498e+000 91 98 83
1.561867e+000 8.614516e-001 -8.547498e+000 91 98 83
-5.328263e-001 6.686464e-001 -7.613912e+000 139 102 60
1.649946e+000 7.468567e-001 -8.456903e+000 111 110 90
2.222432e+000 6.999095e-001 -8.624629e+000 55 20 17
-5.739304e+000 -5.679759e+001 -3.262341e+001 147 124 80
4.754393e+000 -8.216892e-001 -8.650205e+000 89 73 63
2.990946e+000 1.599962e+000 -1.005663e+001 109 73 41
3.323480e-001 1.120857e+000 -8.402994e+000 125 110 30
3.323480e-001 1.120857e+000 -8.402994e+000 125 110 30
-5.507960e-001 7.027398e-001 -7.642110e+000 142 96 63
2.198527e+000 7.354234e-001 -8.645853e+000 102 73 64
4.167682e+000 6.290522e-001 -9.343189e+000 141 110 76
-5.461268e+000 -6.196203e+001 -2.773937e+001 49 35 21
-5.056791e+000 -6.160834e+001 -2.763510e+001 76 61 46
2.064658e+000 6.884474e-001 -8.572029e+000 54 21 17
-5.152387e+000 -6.052658e+001 -2.834905e+001 118 97 76
-5.215519e+000 -6.178888e+001 -2.829687e+001 58 42 24
-7.363093e+000 -6.365793e+001 -2.602117e+001 31 21 20
-7.504853e+000 -5.997301e+001 -2.163911e+001 116 82 40
-4.961351e+000 -6.049088e+001 -2.877484e+001 95 77 52
4.714913e+000 -8.134079e-001 -8.698863e+000 99 83 64
-8.160992e+000 -5.906249e+001 -2.438644e+001 130 103 72
-1.303573e+001 -5.993114e+001 -2.662447e+001 166 128 81
-9.457543e+000 -6.150686e+001 -2.630200e+001 106 80 48
-7.204497e+000 -6.071763e+001 -2.653694e+001 131 107 73
-1.092873e+001 -5.899141e+001 -2.782268e+001 179 140 87
-1.002022e+001 -6.005144e+001 -2.796274e+001 117 89 52
-9.557639e+000 -6.023563e+001 -3.032994e+001 170 140 90
5.073013e-001 1.403764e+000 -9.607534e+000 103 53 33
1.935560e+000 1.446837e+000 -1.016207e+001 96 63 46
1.423813e+000 1.564506e+000 -9.644500e+000 84 23 14
1.530947e+000 1.551332e+000 -9.556336e+000 132 76 60
1.533683e+000 1.548005e+000 -9.518083e+000 108 31 23
3.211143e+000 1.632957e+000 -1.022640e+001 112 77 39
-4.712036e-002 1.391119e+000 -8.631597e+000 124 121 21
8.875702e-001 1.479293e+000 -9.044452e+000 114 11 22
1.978234e+000 1.512792e+000 -9.549595e+000 20 47 64
1.984238e+000 1.507621e+000 -9.510006e+000 17 40 46
-4.245650e-001 1.283823e+000 -8.379501e+000 30 36 16
5.689870e-001 1.331714e+000 -8.759952e+000 136 120 73
5.688127e-001 1.332138e+000 -8.759296e+000 136 120 73
1.321845e+000 1.352406e+000 -9.066503e+000 134 124 82
-1.334974e+000 8.825970e-001 -7.795152e+000 173 155 107
-6.377654e-001 9.618046e-001 -7.942623e+000 135 27 27
-6.377654e-001 9.618046e-001 -7.942623e+000 135 27 27
-6.152375e-001 9.163819e-001 -7.888633e+000 136 19 26
-6.105722e-001 8.921608e-001 -7.900076e+000 136 19 26
1.848837e+000 7.903817e-001 -8.556035e+000 70 15 13
4.015195e-002 6.112536e-001 -7.765764e+000 10 37 11
-3.598088e-001 5.123335e-001 -7.535243e+000 142 134 89
4.746930e+000 -7.009450e-001 -8.607117e+000 130 117 101
4.745103e+000 -7.207032e-001 -8.579494e+000 105 87 73
4.776095e+000 -1.167276e+000 -8.511845e+000 105 88 64
4.776095e+000 -1.167276e+000 -8.511845e+000 105 88 64
1.565263e+000 1.547601e+000 -9.585184e+000 101 12 16
1.218459e+000 1.053520e+000 -8.633390e+000 160 125 80
-7.022011e-001 8.728471e-001 -7.833125e+000 152 127 79
2.026507e+000 9.933043e-001 -8.844894e+000 97 76 72
1.195974e-001 8.361286e-001 -8.019839e+000 127 114 10
1.195974e-001 8.361286e-001 -8.019839e+000 127 114 10
1.580918e+000 8.481391e-001 -8.524451e+000 19 53 72
4.307933e+000 7.348216e-001 -9.525164e+000 101 49 35
3.139054e+000 1.648539e+000 -1.033394e+001 85 50 30
3.542684e+000 1.693755e+000 -1.038843e+001 113 78 50
2.217164e+000 1.198489e+000 -9.159711e+000 75 57 48
1.898592e+000 1.049601e+000 -8.893319e+000 63 47 50
-5.749913e-001 8.630020e-001 -7.843077e+000 165 121 79
8.906162e-001 8.578729e-001 -8.295309e+000 137 123 88
2.065995e+000 8.578613e-001 -8.703484e+000 50 20 16
3.326429e+000 7.390909e-001 -9.089795e+000 93 17 28
4.532276e+000 -1.264638e+000 -9.095775e+000 131 116 93
4.656357e+000 -9.963995e-001 -8.920924e+000 46 38 31
3.153969e+000 1.562786e+000 -1.052918e+001 102 62 30
9.013173e-001 1.587656e+000 -9.346794e+000 117 98 71
3.259588e+000 1.593865e+000 -1.049676e+001 90 62 43
7.178605e-001 1.428864e+000 -8.985420e+000 107 33 24
7.178605e-001 1.428864e+000 -8.985420e+000 107 33 24
2.218165e+000 1.189899e+000 -9.163832e+000 74 56 49
-4.120344e-001 8.933151e-001 -7.955468e+000 49 75 81
2.503913e+000 6.971202e-001 -8.739144e+000 61 24 18
2.292512e-001 6.062068e-001 -7.828433e+000 23 37 25
2.218348e-001 6.207248e-001 -7.821628e+000 23 37 25
4.550367e+000 -1.139108e+000 -9.068530e+000 41 32 32
4.576567e+000 -1.181478e+000 -9.020725e+000 138 120 97
4.661947e+000 -8.616050e-001 -8.832172e+000 41 30 24
4.660768e+000 -7.792726e-001 -8.759836e+000 48 38 34
4.697292e+000 -8.512013e-001 -8.596343e+000 140 124 101
4.863721e+000 -1.656040e+000 -8.331131e+000 141 123 99
4.878621e+000 -1.672362e+000 -8.337636e+000 141 123 99
5.066742e+000 -1.238536e+000 -7.916112e+000 119 101 81
3.360293e+000 1.458812e+000 -9.985529e+000 122 89 53
-7.268324e-001 1.274212e+000 -9.143786e+000 116 116 59
-7.268324e-001 1.274212e+000 -9.143786e+000 116 116 59
-3.853274e-001 1.285941e+000 -9.315759e+000 38 44 18
3.060971e-001 1.162527e+000 -9.808261e+000 122 69 55
3.004660e-001 1.181570e+000 -9.794637e+000 122 69 55
9.530132e-001 1.504163e+000 -9.572431e+000 112 41 35
6.511358e-001 1.360519e+000 -8.828218e+000 163 149 110
6.511358e-001 1.360519e+000 -8.828218e+000 163 149 110
1.353521e+000 1.368003e+000 -9.045479e+000 21 67 95
-3.620307e-001 1.179693e+000 -8.301787e+000 164 154 38
2.521130e+000 1.280349e+000 -9.420688e+000 94 50 39
1.402785e+000 1.198940e+000 -8.892121e+000 152 157 134
2.488559e+000 1.227952e+000 -9.284448e+000 105 49 48
2.294071e+000 1.029728e+000 -9.006148e+000 123 101 90
-2.800125e-001 7.395863e-001 -7.776089e+000 156 145 44
2.001048e+000 8.311736e-001 -8.671861e+000 101 52 53
3.691136e-001 6.653113e-001 -7.902078e+000 20 52 29
3.310909e+000 7.025161e-001 -9.046840e+000 30 65 101
4.778659e+000 -5.573069e-001 -8.413714e+000 124 109 103
5.036373e+000 6.415208e-002 -7.958035e+000 54 47 50
3.757238e-001 1.364139e+000 -9.577994e+000 121 68 54
-1.954417e+000 5.089433e-001 -8.565070e+000 151 130 112
3.325875e+000 1.654742e+000 -1.028236e+001 135 97 67
-4.571810e-001 1.305839e+000 -8.398888e+000 56 93 100
-3.314119e-001 1.267406e+000 -8.392888e+000 141 134 28
2.150751e+000 1.449969e+000 -9.502493e+000 17 62 87
2.632925e+000 1.459627e+000 -9.669354e+000 95 37 15
1.288713e+000 9.485842e-001 -8.526199e+000 146 25 33
2.761940e+000 1.024143e+000 -9.095919e+000 80 53 63
2.132884e+000 8.738795e-001 -8.718336e+000 130 105 105
1.847975e+000 7.034963e-001 -8.493347e+000 171 108 71
4.604877e+000 -1.133665e+000 -8.927639e+000 124 111 99
4.911113e+000 -1.304674e-001 -8.109527e+000 146 132 125
-1.288993e+000 1.191231e+000 -8.986292e+000 34 63 87
-5.959733e-001 1.232381e+000 -9.271673e+000 33 46 29
1.629645e+000 1.523621e+000 -9.838918e+000 88 18 24
1.844830e+000 1.520901e+000 -9.561132e+000 21 58 82
2.637585e+000 1.425676e+000 -9.632776e+000 146 113 67
-1.406065e+000 7.671028e-001 -7.788600e+000 199 180 142
1.640961e+000 1.228995e+000 -9.033018e+000 79 61 74
-1.442043e+000 6.717884e-001 -7.759915e+000 203 183 146
-1.442043e+000 6.717884e-001 -7.759915e+000 203 183 146
-1.359943e+000 7.862549e-001 -7.748742e+000 200 181 139
-1.359943e+000 7.862549e-001 -7.748742e+000 200 181 139
-6.879015e-001 9.658993e-001 -7.943454e+000 175 39 33
-6.879015e-001 9.658993e-001 -7.943454e+000 175 39 33
1.795102e+000 1.121535e+000 -8.932368e+000 89 67 80
2.077549e+000 1.094575e+000 -8.901898e+000 79 58 68
-6.701138e-001 7.585039e-001 -7.693636e+000 164 36 47
1.062933e+000 8.922950e-001 -8.379439e+000 157 31 34
2.573935e+000 7.125191e-001 -8.748743e+000 151 119 105
2.573935e+000 7.125191e-001 -8.748743e+000 151 119 105
2.789016e+000 5.798814e-001 -8.778707e+000 72 33 34
3.591094e+000 6.603912e-001 -9.135550e+000 146 53 45
4.506719e+000 -1.213657e+000 -9.132330e+000 47 38 38
4.637044e+000 -8.909434e-001 -8.788942e+000 156 142 132
4.655764e+000 -8.178328e-001 -8.724555e+000 154 140 131
4.877271e+000 -2.051035e-001 -8.173684e+000 151 141 139
4.964010e+000 -1.213992e+000 -7.923816e+000 164 147 131
4.964010e+000 -1.213992e+000 -7.923816e+000 164 147 131
5.084665e+000 4.080693e-001 -7.626243e+000 148 134 131
5.114279e+000 5.783294e-001 -7.478774e+000 146 135 129
-7.513873e-001 1.151379e+000 -9.326171e+000 36 47 22
1.929865e+000 1.430255e+000 -9.448551e+000 17 56 83
8.452111e-001 7.280365e-001 -8.137645e+000 159 148 122
3.955164e+000 7.551423e-001 -9.347040e+000 171 144 110
5.100801e+000 1.223762e-001 -7.587602e+000 152 135 127
2.123213e-001 1.231308e+000 -9.673539e+000 104 34 32
2.713520e-001 1.410452e+000 -9.474627e+000 108 31 37
2.835556e+000 1.548322e+000 -9.884611e+000 116 66 32
7.870993e-001 1.331602e+000 -8.848676e+000 168 132 106
-1.428690e+000 8.751793e-001 -7.882541e+000 195 177 141
1.478180e+000 1.106047e+000 -8.778635e+000 126 131 124
9.584806e-001 1.000134e+000 -8.500140e+000 162 146 112
3.056850e+000 8.545068e-001 -9.075251e+000 161 129 93
3.390791e+000 1.641083e+000 -1.048948e+001 92 51 31
3.390556e+000 1.643204e+000 -1.048845e+001 92 51 31
-1.404080e-001 1.170598e+000 -8.346547e+000 29 59 28
-4.151059e-002 9.322560e-001 -8.088942e+000 159 144 112
1.060293e+000 8.486246e-001 -8.312834e+000 171 38 41
2.501436e+000 9.792828e-001 -8.985847e+000 128 106 93
3.282830e+000 5.120788e-001 -8.967604e+000 27 77 115
3.131651e+000 1.618511e+000 -1.026679e+001 128 95 63
-8.789263e-003 1.364713e+000 -8.615359e+000 102 115 112
-8.789263e-003 1.364713e+000 -8.615359e+000 102 115 112
3.169771e-001 1.186385e+000 -8.521755e+000 33 59 30
2.195535e+000 1.166328e+000 -9.194112e+000 90 70 80
3.095188e-001 7.281124e-001 -7.958689e+000 155 148 102
5.327436e-001 7.200859e-001 -8.044943e+000 154 147 109
3.758338e-001 1.288202e+000 -8.575361e+000 158 148 113
2.950916e+000 8.923031e-001 -9.077596e+000 159 123 87
2.950916e+000 8.923031e-001 -9.077596e+000 159 123 87
-1.100351e+000 1.262167e+000 -8.152640e+000 128 129 115
-5.918980e-001 1.043852e+000 -8.517452e+000 94 113 109
-1.205854e+000 9.534549e-001 -9.341343e+000 116 37 30
-1.167011e+000 9.613596e-001 -9.355143e+000 12 47 72
-1.657811e+000 8.894377e-001 -9.101884e+000 36 68 100
-1.297065e+000 9.860198e-001 -9.207832e+000 113 22 27
-1.267619e+000 1.099395e+000 -9.104387e+000 129 29 29
-1.267619e+000 1.099395e+000 -9.104387e+000 129 29 29
-6.794088e-001 1.090651e+000 -9.427045e+000 37 37 27
5.218958e-001 1.103047e+000 -9.961245e+000 112 56 41
8.530298e-001 1.137016e+000 -1.012546e+001 86 25 24
-4.175100e-001 1.331063e+000 -9.215758e+000 35 36 13
-4.207128e-001 1.329972e+000 -9.215064e+000 35 36 13
3.354243e+000 1.351876e+000 -1.090339e+001 28 33 26
1.259773e+000 1.533278e+000 -9.666420e+000 126 61 57
3.381055e+000 1.592739e+000 -1.036073e+001 67 24 19
2.062224e+000 1.490918e+000 -9.582850e+000 19 53 67
2.014556e+000 1.457158e+000 -9.459110e+000 26 55 84
-2.173796e+000 6.713448e-001 -7.817040e+000 168 16 34
7.720276e-001 1.272535e+000 -8.758066e+000 169 29 36
2.409032e+000 1.368564e+000 -9.461049e+000 91 8 15
-1.747743e+000 9.813077e-001 -7.750310e+000 181 103 83
1.368548e+000 1.262674e+000 -8.952489e+000 151 139 112
1.426326e+000 1.223040e+000 -8.920435e+000 25 66 96
1.395956e+000 1.208162e+000 -8.887936e+000 148 147 122
2.234613e+000 1.225928e+000 -9.221038e+000 156 130 108
-7.548813e-001 9.828949e-001 -7.944901e+000 183 153 107
-1.637321e+000 1.017104e-001 -7.671505e+000 189 46 45
-6.973197e-001 8.919911e-001 -7.850818e+000 171 37 37
1.190976e+000 9.943749e-001 -8.551085e+000 184 145 99
1.183281e+000 1.007232e+000 -8.546230e+000 184 145 99
1.231500e+000 1.010408e+000 -8.566403e+000 179 128 94
2.084167e+000 1.003100e+000 -8.864656e+000 119 98 97
-1.322938e+000 5.617479e-001 -7.607596e+000 211 191 158
-5.861819e-001 8.481017e-001 -7.821931e+000 161 27 24
-2.398040e-001 7.291120e-001 -7.769680e+000 154 149 34
-5.408385e-001 6.939307e-001 -7.607068e+000 186 142 100
2.735795e+000 -3.719739e+000 -1.430966e+001 68 66 69
-1.333526e+000 9.378958e-001 -9.282709e+000 110 16 30
-9.861762e-001 9.796809e-001 -9.404137e+000 42 50 30
-9.610291e-002 1.139888e+000 -9.650517e+000 78 47 39
5.260552e-001 1.159378e+000 -9.868801e+000 131 78 64
2.163303e+000 1.242115e+000 -1.054468e+001 79 39 31
1.014975e+000 1.339589e+000 -9.888464e+000 120 68 59
3.603254e+000 1.307939e+000 -1.104811e+001 98 72 71
-1.568066e+000 9.606118e-001 -8.135520e+000 191 169 132
2.062097e+000 1.420814e+000 -9.419271e+000 80 104 113
2.550676e+000 1.447155e+000 -9.639529e+000 132 65 51
2.543190e+000 1.449423e+000 -9.635395e+000 132 65 51
-1.625338e+000 4.867560e-001 -7.819368e+000 171 152 113
-4.546736e-001 1.087846e+000 -8.170122e+000 89 120 130
-1.366567e+000 8.631025e-001 -7.813899e+000 197 180 136
3.339259e-001 1.101787e+000 -8.383164e+000 19 46 35
2.113712e+000 1.117153e+000 -9.039382e+000 128 105 89
-1.263678e+000 7.340724e-001 -7.635688e+000 206 186 153
2.590914e+000 1.059752e+000 -9.123309e+000 130 101 93
1.885067e+000 8.207733e-001 -8.588208e+000 88 33 38
1.941154e+000 7.739239e-001 -8.577601e+000 155 90 84
2.032821e+000 8.468661e-001 -8.686983e+000 132 99 92
2.261058e+000 8.708718e-001 -8.716367e+000 145 122 105
2.484979e+000 7.372618e-001 -8.777416e+000 141 110 91
9.826291e-001 6.302846e-001 -8.083833e+000 166 151 118
1.973300e+000 6.435823e-001 -8.463661e+000 150 84 69
1.973300e+000 6.435823e-001 -8.463661e+000 150 84 69
-5.312053e-001 5.551578e-001 -7.476205e+000 165 28 36
4.915900e+000 -3.326060e-001 -7.995229e+000 124 106 92
-1.048007e+000 9.250331e-001 -9.433478e+000 25 39 22
-9.402380e-001 1.104756e+000 -9.275693e+000 105 99 42
-6.246470e-001 1.294728e+000 -9.185620e+000 102 102 48
2.356899e+000 1.316678e+000 -1.057948e+001 113 75 66
2.250768e+000 1.360496e+000 -1.045505e+001 98 67 54
2.275549e+000 1.331292e+000 -1.047641e+001 98 67 54
-1.979947e+000 3.617486e-001 -8.701496e+000 34 19 23
-3.009879e-001 1.087624e+000 -8.210144e+000 17 52 33
-7.493439e-001 9.193040e-001 -7.868099e+000 171 34 35
2.522007e+000 7.454870e-001 -8.765471e+000 71 32 25
2.522007e+000 7.454870e-001 -8.765471e+000 71 32 25
3.983117e+000 7.806069e-001 -9.377107e+000 177 140 107
1.830326e+000 6.716880e-001 -8.420542e+000 175 133 87
2.034073e+000 7.356132e-001 -8.557044e+000 77 28 28
4.697241e+000 -6.930511e-001 -8.616627e+000 142 129 124
4.740581e+000 -6.474198e-001 -8.560733e+000 142 128 119
4.752683e+000 -6.421325e-001 -8.501774e+000 125 107 97
4.801904e+000 -3.597756e-001 -8.325855e+000 146 129 122
-9.334049e-001 1.008293e+000 -9.431964e+000 26 38 23
-8.514656e-001 1.041347e+000 -9.382699e+000 125 115 62
-8.115266e-001 1.107331e+000 -9.327249e+000 132 112 75
-8.109056e-001 1.106675e+000 -9.327830e+000 132 112 75
-6.403640e-001 1.132911e+000 -9.396026e+000 36 43 35
-1.029724e+000 1.230433e+000 -9.022093e+000 130 105 49
-9.218232e-001 1.264906e+000 -9.069442e+000 116 105 77
-9.218232e-001 1.264906e+000 -9.069442e+000 116 105 77
3.065922e-001 1.182298e+000 -9.724964e+000 128 81 63
1.351960e+000 1.180304e+000 -1.023968e+001 112 59 45
3.050003e-001 1.440405e+000 -9.499088e+000 130 82 67
1.242977e+000 1.384070e+000 -9.965304e+000 99 29 31
2.897263e+000 1.613221e+000 -1.021584e+001 104 63 38
3.035247e+000 1.541944e+000 -9.955746e+000 52 11 29
-8.953833e-001 1.321906e+000 -8.286378e+000 61 90 96
2.455034e+000 1.371925e+000 -9.491122e+000 79 22 15
-1.363191e+000 5.569370e-001 -7.642530e+000 212 192 159
1.899089e+000 1.048166e+000 -8.862196e+000 85 62 74
-1.307771e+000 6.191624e-001 -7.623359e+000 208 190 152
-6.171801e-001 6.741719e-001 -7.568240e+000 156 32 37
1.912302e+000 5.915533e-001 -8.417778e+000 116 52 55
-1.133057e+000 9.431220e-001 -9.368235e+000 28 58 81
-9.873506e-001 1.084145e+000 -9.263209e+000 31 40 27
-7.160292e-001 1.053159e+000 -9.444437e+000 105 104 57
-7.550837e-001 1.152170e+000 -9.325853e+000 33 41 36
-5.896676e-001 1.207675e+000 -9.282586e+000 34 42 33
-4.400474e-001 1.257296e+000 -9.329663e+000 27 40 21
3.430036e+000 1.447913e+000 -1.084396e+001 23 31 28
3.243159e+000 1.575598e+000 -1.056552e+001 28 35 33
3.509298e+000 1.639380e+000 -1.044445e+001 49 13 24
-1.524402e+000 9.217304e-001 -8.021825e+000 116 95 70
2.142480e-003 1.222567e+000 -8.454166e+000 41 56 33
1.204417e-001 8.846891e-001 -8.060875e+000 33 52 32
2.425831e+000 9.029365e-001 -8.879239e+000 26 17 22
3.236879e-001 8.152650e-001 -7.997813e+000 155 148 71
7.252173e-001 6.657291e-001 -8.029529e+000 28 53 20
7.252173e-001 6.657291e-001 -8.029529e+000 28 53 20
2.459588e+000 6.181603e-001 -8.652730e+000 84 40 38
-9.817007e-001 1.272793e+000 -9.033024e+000 24 40 31
-6.850797e-001 1.173023e+000 -9.299487e+000 109 104 76
-6.850797e-001 1.173023e+000 -9.299487e+000 109 104 76
9.203796e-001 1.278897e+000 -9.930909e+000 108 47 50
2.549291e-001 1.314616e+000 -8.643165e+000 26 49 20
6.781049e-001 1.295127e+000 -8.769798e+000 153 142 109
5.974752e-001 1.134411e+000 -8.548638e+000 171 38 42
1.501854e+000 8.564605e-001 -8.513294e+000 15 69 102
1.648229e+000 8.636361e-001 -8.528139e+000 21 73 107
2.514752e-002 5.991629e-001 -7.719031e+000 166 157 92
1.219462e+000 1.205736e+000 -1.011376e+001 86 24 26
1.272084e+000 1.387401e+000 -9.914121e+000 93 24 28
2.240897e+000 1.139319e+000 -9.097340e+000 140 112 90
-5.295450e-001 6.354649e-001 -7.543265e+000 180 144 108
4.074017e+000 5.356960e-001 -9.266166e+000 185 151 118
2.260893e+000 1.490862e+000 -9.633704e+000 145 112 69
2.260893e+000 1.490862e+000 -9.633704e+000 145 112 69
1.884854e-001 8.182812e-001 -8.037441e+000 30 60 32
2.103223e+000 6.310561e-001 -8.533864e+000 104 50 54
5.794797e-001 4.617230e-001 -7.875161e+000 165 155 127
1.822451e+000 1.494257e+000 -9.818522e+000 85 18 27
-1.143099e+000 1.316816e+000 -8.862560e+000 125 114 93
-8.395717e-001 1.165646e+000 -8.154065e+000 16 73 102
3.690102e+000 1.485935e+000 -1.023507e+001 142 106 82
5.650994e-001 1.398782e+000 -8.953111e+000 147 136 106
-7.827744e-001 1.070157e+000 -7.969891e+000 172 150 135
-1.286323e+000 7.773516e-001 -7.640659e+000 189 172 144
-4.867557e-001 6.669288e-001 -7.585442e+000 181 30 37
2.205991e+000 5.981358e-001 -8.554410e+000 118 68 76
-1.609917e+000 4.076191e-001 -7.757159e+000 170 145 115
-1.609917e+000 4.076191e-001 -7.757159e+000 170 145 115
3.122846e+000 5.375984e-001 -8.892888e+000 149 141 153
3.556632e+000 5.731978e-001 -9.093283e+000 162 113 86
4.291587e+000 2.085658e-001 -9.377383e+000 158 98 40
4.233171e+000 2.031739e-001 -9.352627e+000 150 91 54
4.281046e+000 1.854056e-001 -9.404911e+000 58 14 4
1.012167e+000 1.214330e-001 -8.051727e+000 162 170 144
1.102822e+000 1.043684e-001 -8.100940e+000 25 81 116
2.514524e+000 8.462129e-002 -8.701057e+000 163 31 41
3.367844e+000 1.045176e-001 -9.059683e+000 89 18 27
3.502652e+000 2.699780e-002 -9.146321e+000 183 88 51
3.921263e+000 3.258107e-002 -9.339984e+000 46 20 30
3.921651e+000 3.322907e-002 -9.341746e+000 46 20 30
4.223524e+000 1.215956e-001 -9.449276e+000 62 19 11
4.233036e+000 9.368655e-002 -9.469319e+000 164 94 52
3.460929e-001 -3.520078e-002 -7.847171e+000 168 162 142
9.571650e-001 -3.265423e-002 -8.108859e+000 196 152 117
9.234567e-001 -6.382973e-002 -8.117816e+000 197 165 131
3.539810e+000 -1.037663e-001 -9.281620e+000 194 132 77
3.786557e+000 -1.315491e-001 -9.422536e+000 163 148 115
8.897749e-001 -1.872296e-001 -8.190763e+000 208 161 134
8.889872e-001 -1.875536e-001 -8.187318e+000 208 161 134
2.748540e+000 -2.193558e-001 -9.003132e+000 188 72 77
2.891336e+000 -2.709711e-001 -9.132889e+000 118 66 51
3.241114e+000 -2.255256e-001 -9.236069e+000 207 141 93
3.481270e+000 -2.516999e-001 -9.361731e+000 188 95 53
-4.860475e-001 -3.393638e-001 -7.721878e+000 142 157 34
5.734689e-001 -3.720310e-001 -8.193042e+000 158 142 124
8.615929e-001 -3.617317e-001 -8.307745e+000 197 152 115
3.443340e+000 -2.988443e-001 -9.410740e+000 129 50 17
-4.935815e-001 -4.229779e-001 -7.782535e+000 173 158 144
8.157099e-001 -4.518406e-001 -8.345392e+000 200 157 123
8.259783e-001 -4.527946e-001 -8.362003e+000 200 157 123
-6.469173e-001 -4.967900e-001 -7.781115e+000 219 157 116
-3.100374e-001 -5.983178e-001 -8.008313e+000 42 62 48
-1.005117e-001 -6.183990e-001 -8.148989e+000 21 59 41
3.998775e-001 -6.166325e-001 -8.373073e+000 128 48 54
4.674682e-001 -6.169500e-001 -8.398075e+000 158 153 143
5.145435e-001 -6.232700e-001 -8.438066e+000 144 113 110
3.446777e+000 -7.947141e-001 -1.006315e+001 114 95 89
-1.152753e-001 -6.636423e-001 -8.209679e+000 34 54 50
1.293771e+000 -7.702599e-001 -8.975156e+000 148 90 84
2.030704e+000 -7.471632e-001 -9.279662e+000 148 89 93
2.072971e+000 -7.539771e-001 -9.327827e+000 184 126 118
2.188473e+000 -7.643172e-001 -9.451266e+000 163 42 51
-7.685517e-001 -8.128326e-001 -8.127672e+000 196 152 127
-1.274629e+000 -9.933538e-001 -8.317736e+000 160 158 163
1.802007e+000 8.930822e-001 -8.644104e+000 91 34 38
2.244004e+000 8.438683e-001 -8.774947e+000 86 63 74
-5.934163e-001 5.260444e-001 -7.421357e+000 168 150 117
3.947150e+000 6.551171e-001 -9.288039e+000 182 149 114
3.423768e+000 2.522205e-001 -9.041293e+000 129 34 27
4.269909e+000 2.812055e-001 -9.325686e+000 41 11 18
4.236693e+000 1.496363e-001 -9.398859e+000 170 102 65
4.237059e+000 1.495915e-001 -9.399102e+000 170 102 65
1.969222e+000 -1.060822e-001 -8.591031e+000 127 78 62
2.594853e+000 -1.016143e-002 -8.787286e+000 202 89 95
2.966918e+000 -2.249861e-002 -8.961355e+000 195 144 124
3.238586e+000 -2.352823e-002 -9.035268e+000 186 127 91
2.519717e+000 -1.431822e-001 -8.822609e+000 165 35 48
2.966578e+000 -2.242875e-001 -9.120925e+000 193 142 113
3.957015e+000 -2.834615e-001 -9.684745e+000 76 56 57
-1.181302e-001 -2.972032e-001 -7.845074e+000 55 100 125
2.426471e+000 -3.598497e-001 -8.994072e+000 159 31 45
3.147653e+000 -4.154161e-001 -9.403971e+000 146 41 22
3.598065e+000 -3.519629e-001 -9.563363e+000 188 153 126
-6.229365e-001 -4.179454e-001 -7.727345e+000 172 167 136
-5.223321e-001 -4.448379e-001 -7.777434e+000 181 42 33
6.359660e-001 -3.893484e-001 -8.191037e+000 164 160 148
2.885873e+000 -4.914922e-001 -9.372662e+000 194 135 119
-6.868665e-001 -5.440072e-001 -7.833549e+000 184 46 57
-3.025627e-001 -5.196935e-001 -7.939626e+000 152 158 40
-3.118145e-001 -5.514004e-001 -7.976010e+000 23 59 39
9.114210e-001 -6.031300e-001 -8.561712e+000 20 76 111
1.915833e+000 -7.182255e-001 -9.218147e+000 187 134 118
-5.909285e-001 -6.408963e-001 -7.959114e+000 183 47 56
-5.927255e-001 -6.397319e-001 -7.969119e+000 183 47 56
5.576062e-002 -7.090236e-001 -8.340746e+000 48 63 34
1.620792e+000 -7.548083e-001 -9.116737e+000 186 126 112
-7.795573e-001 -7.894354e-001 -8.101329e+000 176 44 53
-7.832867e-001 -7.897649e-001 -8.099276e+000 176 44 53
-7.986764e-001 -8.287665e-001 -8.144131e+000 184 51 56
4.388111e+000 -1.539692e+000 -9.433451e+000 45 35 39
6.335618e-001 1.301934e+000 -8.732363e+000 166 152 120
-8.402607e-001 1.068587e+000 -7.982207e+000 170 135 122
-5.478389e-001 8.690883e-001 -7.805063e+000 168 40 44
-1.294966e-001 5.866014e-001 -7.651914e+000 65 99 108
2.171932e+000 6.042758e-001 -8.542270e+000 69 24 31
3.495456e+000 4.184678e-001 -8.966978e+000 135 45 53
2.069552e+000 -5.439013e-002 -8.580660e+000 153 107 84
2.069552e+000 -5.439013e-002 -8.580660e+000 153 107 84
2.157264e+000 -9.800416e-002 -8.667897e+000 164 118 103
3.933331e+000 -2.966489e-002 -9.414063e+000 186 158 147
3.043269e-002 -3.004615e-001 -7.921913e+000 24 53 30
3.023405e+000 -3.236453e-001 -9.209241e+000 197 131 104
3.654012e+000 -3.207761e-001 -9.534187e+000 82 69 75
-6.473259e-001 -4.452936e-001 -7.741396e+000 196 40 57
-6.472053e-001 -4.452327e-001 -7.741461e+000 196 40 57
-5.661123e-001 -4.474639e-001 -7.765935e+000 186 45 46
-2.018428e-001 -4.691610e-001 -7.972727e+000 44 108 125
5.055745e-001 -4.220061e-001 -8.198496e+000 164 154 142
9.746943e-001 -4.452720e-001 -8.409221e+000 6 54 92
1.268777e+000 -4.464320e-001 -8.542409e+000 118 69 53
1.355591e+000 -4.249317e-001 -8.567720e+000 172 110 97
4.179465e-002 -7.165967e-001 -8.353569e+000 36 64 42
6.837521e-001 -7.240706e-001 -8.656250e+000 168 29 46
-6.628133e-001 -7.963506e-001 -8.139690e+000 190 46 56
-5.179560e-001 -8.184760e-001 -8.242401e+000 142 144 89
2.528103e+000 7.961628e-001 -8.821312e+000 128 97 94
3.442865e+000 2.057608e-001 -9.034425e+000 196 104 33
4.453445e+000 2.401150e-001 -9.476580e+000 30 18 30
1.559794e+000 -8.459183e-002 -8.408217e+000 185 124 103
1.935795e+000 -7.295683e-002 -8.566935e+000 189 140 110
9.514809e-001 -2.087332e-001 -8.216411e+000 151 35 36
2.136244e-001 -4.016139e-001 -8.031279e+000 25 62 31
2.065891e-001 -3.970105e-001 -8.049366e+000 25 62 31
7.967309e-001 -5.904267e-001 -8.475246e+000 182 110 94
-3.807868e-001 -6.566953e-001 -8.079352e+000 123 134 65
6.610284e-001 -7.770316e-001 -8.743102e+000 151 35 42
-6.332704e-001 -8.147298e-001 -8.216808e+000 143 141 101
-2.052480e-001 -8.016603e-001 -8.378390e+000 139 147 59
4.222331e+000 -2.006271e+000 -9.800984e+000 142 128 129
2.166536e+000 5.616637e-001 -8.505638e+000 84 37 43
2.454825e+000 1.407497e-001 -8.646408e+000 169 33 48
4.012512e+000 -3.611451e-002 -9.464536e+000 137 84 43
1.033863e-001 -1.785019e-001 -7.837851e+000 100 119 137
1.033863e-001 -1.785019e-001 -7.837851e+000 100 119 137
4.023855e+000 -3.361241e-001 -9.780201e+000 156 125 114
-4.511664e-001 -4.494684e-001 -7.808548e+000 11 85 134
-1.484059e-001 -4.296687e-001 -7.914143e+000 21 55 33
8.078561e-001 -4.075255e-001 -8.323204e+000 152 28 38
2.530523e+000 -5.520281e-001 -9.324708e+000 168 31 40
2.530523e+000 -5.520281e-001 -9.324708e+000 168 31 40
2.990125e+000 -5.902033e-001 -9.571088e+000 189 138 116
2.990125e+000 -5.902033e-001 -9.571088e+000 189 138 116
-3.144590e-001 -4.953752e-001 -7.898192e+000 90 118 87
1.312205e-001 -5.146264e-001 -8.131495e+000 159 170 103
7.093438e-002 -5.630685e-001 -8.175347e+000 30 66 45
-3.312640e-001 -6.827031e-001 -8.186673e+000 32 68 39
-7.257529e-001 -7.871885e-001 -8.111819e+000 205 148 129
4.240091e+000 -1.894801e+000 -9.781991e+000 50 38 53
4.102937e+000 -2.283316e+000 -1.004740e+001 146 132 132
-2.140181e-001 5.731285e-001 -7.590587e+000 82 108 101
4.225062e-002 5.856420e-001 -7.725173e+000 163 148 120
3.687438e-002 5.833415e-001 -7.708089e+000 163 148 120
2.568941e+000 5.815784e-001 -8.680689e+000 68 22 32
4.094769e+000 1.289198e-001 -9.319457e+000 187 104 52
2.332633e+000 -4.240728e-001 -9.003145e+000 180 57 68
3.156529e+000 -5.781002e-001 -9.644530e+000 140 106 81
1.455959e+000 -5.962102e-001 -8.797612e+000 193 131 110
-2.102124e-001 -7.377130e-001 -8.238730e+000 114 137 124
-1.391277e-001 -7.531891e-001 -8.361930e+000 31 61 39
-4.169681e-002 -7.153270e-001 -8.309459e+000 137 148 142
1.775545e-002 8.061688e-001 -7.942135e+000 35 60 36
3.680360e+000 -2.235895e-001 -9.443675e+000 197 167 143
-1.240164e-001 -5.806411e-001 -8.046723e+000 79 114 133
2.716215e+000 -8.235848e-001 -9.865133e+000 201 140 139
2.434601e+000 7.675012e-001 -8.802966e+000 136 108 97
3.441488e+000 6.607837e-001 -9.079889e+000 156 116 81
1.370165e+000 -2.663398e-001 -8.469512e+000 193 128 108
1.497473e-001 -2.381287e-001 -7.925689e+000 23 59 30
1.784587e+000 -5.244121e-001 -9.221672e+000 188 127 108
1.285309e+000 5.866014e-001 -8.167675e+000 155 22 24
4.068032e+000 2.234640e-001 -9.271159e+000 204 117 46
2.573459e+000 6.954497e-002 -8.731118e+000 157 24 27
2.454565e+000 -3.751097e-002 -8.739499e+000 194 92 88
2.489759e+000 -5.851839e-002 -8.775149e+000 166 32 36
2.489759e+000 -5.851839e-002 -8.775149e+000 166 32 36
3.235870e+000 5.015803e-003 -9.007086e+000 188 121 77
5.311066e-001 -3.740050e-001 -8.174154e+000 176 153 131
2.672268e+000 -3.760105e-001 -9.096057e+000 160 30 38
2.808761e+000 -5.190678e-001 -9.340459e+000 139 80 66
2.905255e+000 -5.236835e-001 -9.402737e+000 138 80 60
1.398395e+000 -7.444797e-001 -8.995590e+000 142 80 65
-5.648054e-002 -8.336188e-001 -8.487948e+000 68 81 35
4.145076e+000 -2.218510e+000 -9.962402e+000 152 134 130
2.446646e+000 4.651117e-001 -8.602551e+000 181 129 83
3.616895e+000 -2.813479e-001 -9.491975e+000 180 148 111
-5.616783e-001 -4.468837e-001 -7.767653e+000 182 49 49
-1.247187e-001 -3.907028e-001 -7.908587e+000 171 156 30
3.874563e+000 -7.185494e-001 -1.013529e+001 149 110 102
4.360061e+000 -1.615258e+000 -9.507801e+000 62 43 52
1.866073e+000 6.400395e-001 -8.466110e+000 185 140 84
4.046968e+000 1.283691e-001 -9.312369e+000 198 108 45
1.448791e+000 2.895076e-002 -8.273010e+000 154 98 82
-2.235478e-001 -3.172540e-001 -7.813500e+000 105 104 24
4.175372e+000 -2.216820e+000 -9.857697e+000 153 135 133
4.254380e+000 -2.164701e+000 -9.687440e+000 143 125 121
4.042118e+000 5.836691e-001 -9.266205e+000 189 154 125
1.128864e+000 1.330700e-001 -8.112468e+000 168 163 140
2.584249e+000 6.871639e-001 -8.749155e+000 145 114 96
1.307701e+000 -1.800311e-001 -8.416960e+000 189 119 103
4.169914e+000 -2.219518e+000 -9.956907e+000 131 113 111
4.119066e+000 1.607950e-001 -9.329987e+000 191 99 42
1.028827e+000 -2.563440e-001 -8.293336e+000 27 78 112
2.732175e+000 -3.247923e-001 -9.093731e+000 197 79 76
3.502973e+000 4.622280e-001 -9.020496e+000 175 118 83
3.899381e+000 -2.833034e+000 -1.049922e+001 115 97 97
4.445959e+000 -1.463567e+000 -9.304483e+000 160 139 134
1.201703e+000 -2.505983e-001 -8.337377e+000 17 66 96
-6.978046e+000 -5.126710e+001 -3.511725e+001 48 34 21
-4.880969e+000 -5.971857e+001 -1.786068e+001 140 117 83
-7.769212e+000 -6.428735e+001 -2.005106e+001 72 60 48
-4.119821e+000 -6.053264e+001 -1.695044e+001 48 40 37
-3.817950e+000 -6.319283e+001 -1.567163e+001 134 113 83
-2.415315e+000 -5.683012e+001 -2.626264e+001 143 129 102
-2.415315e+000 -5.683012e+001 -2.626264e+001 143 129 102
-2.105702e+000 -5.737346e+001 -2.545224e+001 129 108 81
-2.105702e+000 -5.737346e+001 -2.545224e+001 129 108 81
-4.494867e+000 -6.008938e+001 -1.766687e+001 130 122 113
-3.610845e+000 -5.964270e+001 -1.770574e+001 58 57 63
-3.610845e+000 -5.964270e+001 -1.770574e+001 58 57 63
-5.403869e+000 -6.206519e+001 -1.675935e+001 166 128 85
-8.278208e+000 -6.228429e+001 -2.138989e+001 41 27 18
-8.667259e+000 -6.567171e+001 -2.080924e+001 60 47 38
-2.154473e+000 -5.861962e+001 -1.791228e+001 56 51 47
2.508132e+000 -5.883528e+001 -1.824405e+001 24 14 15
2.508132e+000 -5.883528e+001 -1.824405e+001 24 14 15
-7.110239e+000 -7.424809e+001 -1.697551e+001 135 104 62
-6.460863e+000 -7.019142e+001 -1.688779e+001 202 166 113
-8.740733e+000 -6.216067e+001 -2.083694e+001 174 144 94
-4.797150e+000 -5.965803e+001 -1.954625e+001 23 17 19
-8.452278e+000 -2.675240e+001 -2.132428e+001 186 149 97
-5.820142e+000 -5.888753e+001 -1.703027e+001 40 29 21
-7.797945e+000 -6.319961e+001 -2.320844e+001 190 158 107
-8.308136e+000 -6.813544e+001 -2.136668e+001 64 51 41
-8.308136e+000 -6.813544e+001 -2.136668e+001 64 51 41
2.581547e+000 1.413018e+000 -9.571969e+000 153 118 77
1.951474e+000 1.431200e+000 -9.396188e+000 24 63 94
-7.417416e-001 1.046995e+000 -8.022493e+000 157 30 41
-3.744870e-001 -6.644248e+001 -1.526240e+001 98 77 60
-7.252021e-001 -6.557466e+001 -1.499519e+001 91 78 60
-6.909798e-001 -6.661801e+001 -1.513696e+001 91 78 60
2.227699e+000 1.428654e+000 -9.492953e+000 53 15 16
-4.564135e+000 -6.155617e+001 -1.727655e+001 46 37 36
4.810085e+000 -1.046098e+000 -8.415850e+000 139 123 107
4.810085e+000 -1.046098e+000 -8.415850e+000 139 123 107
-4.782750e+000 -5.883029e+001 -1.817948e+001 173 150 117
-4.503500e+000 -6.039746e+001 -1.771371e+001 147 145 143
-3.985684e+000 -6.064025e+001 -1.741519e+001 24 18 28
-4.049853e+000 -6.626433e+001 -1.565185e+001 92 88 59
-3.405762e+000 -6.717770e+001 -1.541934e+001 159 152 126
-2.491922e+000 -6.708200e+001 -1.495376e+001 136 134 119
-1.125168e+000 -6.572331e+001 -1.505879e+001 133 127 105
-7.341955e+000 -7.647286e+001 -1.334800e+001 111 83 57
1.832194e-001 -4.630156e+001 -1.765975e+001 204 188 149
-8.110449e+000 -7.626454e+001 -1.303306e+001 85 63 45
-2.531941e+000 -6.833020e+001 -1.315407e+001 192 172 139
-1.232918e+000 -6.822128e+001 -1.365302e+001 187 177 145
1.342014e+000 1.372377e+000 -9.094556e+000 26 73 96
-4.328271e+000 -6.079026e+001 -1.854808e+001 29 22 30
-1.506656e+000 -6.736477e+001 -1.441046e+001 58 70 71
-8.406201e-001 -6.829325e+001 -1.382205e+001 173 163 127
-8.458801e-001 -6.886151e+001 -1.289771e+001 57 83 70
-3.021179e+000 -6.855827e+001 -1.422371e+001 54 74 68
-2.027124e+000 -6.865402e+001 -1.342497e+001 186 167 136
-2.216413e+000 -6.930524e+001 -1.237920e+001 62 95 86
