ply
format ascii 1.0
element face 0
property list uchar int vertex_indices
element vertex 886
property float x
property float y
property float z
property uchar diffuse_red
property uchar diffuse_green
property uchar diffuse_blue
end_header
3.146414e+000 1.549068e+000 -1.021578e+001 112 77 39
1.492313e-002 1.313392e+000 -8.724059e+000 124 121 21
9.124588e-001 1.398703e+000 -9.109198e+000 114 11 22
1.960267e+000 1.432242e+000 -9.580977e+000 20 47 64
1.965623e+000 1.427280e+000 -9.543068e+000 17 40 46
-3.483272e-001 1.210417e+000 -8.486899e+000 30 36 16
6.051821e-001 1.257190e+000 -8.840458e+000 136 120 73
6.050037e-001 1.257583e+000 -8.839837e+000 136 120 73
1.327916e+000 1.277893e+000 -9.125785e+000 134 124 82
-1.224600e+000 8.261278e-001 -7.937190e+000 173 155 107
-5.563439e-001 9.020661e-001 -8.071389e+000 135 27 27
-5.563439e-001 9.020661e-001 -8.071389e+000 135 27 27
-5.353401e-001 8.586682e-001 -8.019506e+000 136 19 26
-5.308050e-001 8.357308e-001 -8.030288e+000 136 19 26
1.826975e+000 7.410947e-001 -8.632090e+000 70 15 13
9.004276e-002 5.678025e-001 -7.895075e+000 10 37 11
-2.946484e-001 4.729683e-001 -7.678606e+000 142 134 89
4.600558e+000 -6.811015e-001 -8.649834e+000 130 117 101
4.598288e+000 -6.997914e-001 -8.623282e+000 105 87 73
4.627569e+000 -1.127072e+000 -8.558034e+000 105 88 64
4.627569e+000 -1.127072e+000 -8.558034e+000 105 88 64
1.565673e+000 1.465086e+000 -9.619202e+000 101 12 16
1.224832e+000 9.919899e-001 -8.712620e+000 160 125 80
-6.190542e-001 8.169080e-001 -7.967321e+000 152 127 79
1.999660e+000 9.353480e-001 -8.906533e+000 97 76 72
1.683950e-001 7.827397e-001 -8.137325e+000 127 114 10
1.683950e-001 7.827397e-001 -8.137325e+000 127 114 10
1.570378e+000 7.960789e-001 -8.604625e+000 19 53 72
4.189120e+000 6.914602e-001 -9.533393e+000 101 49 35
3.078613e+000 1.563854e+000 -1.031947e+001 85 50 30
3.465270e+000 1.607773e+000 -1.036743e+001 113 78 50
2.184954e+000 1.131936e+000 -9.205576e+000 75 57 48
1.877599e+000 9.892547e-001 -8.954002e+000 63 47 50
-4.973122e-001 8.076828e-001 -7.975500e+000 165 121 79
9.081995e-001 8.045095e-001 -8.392725e+000 137 123 88
2.035853e+000 8.061098e-001 -8.770679e+000 50 20 16
3.245457e+000 6.941901e-001 -9.127065e+000 93 17 28
4.399842e+000 -1.220118e+000 -9.119098e+000 131 116 93
4.516951e+000 -9.636572e-001 -8.950782e+000 46 38 31
3.094610e+000 1.482321e+000 -1.050577e+001 102 62 30
9.284714e-001 1.502553e+000 -9.398043e+000 117 98 71
3.195332e+000 1.512180e+000 -1.047371e+001 90 62 43
7.496518e-001 1.350298e+000 -9.054487e+000 107 33 24
7.496518e-001 1.350298e+000 -9.054487e+000 107 33 24
2.186041e+000 1.123628e+000 -9.209591e+000 74 56 49
-3.404063e-001 8.368132e-001 -8.081334e+000 49 75 81
2.455234e+000 6.528560e-001 -8.800291e+000 61 24 18
2.714508e-001 5.631496e-001 -7.953066e+000 23 37 25
2.641371e-001 5.770525e-001 -7.946573e+000 23 37 25
4.417635e+000 -1.101143e+000 -9.093441e+000 41 32 32
4.441695e+000 -1.140990e+000 -9.047057e+000 138 120 97
4.521412e+000 -8.348998e-001 -8.865931e+000 41 30 24
4.518855e+000 -7.555007e-001 -8.796434e+000 48 38 34
4.552134e+000 -8.243151e-001 -8.639517e+000 140 124 101
4.709295e+000 -1.594387e+000 -8.383677e+000 141 123 99
4.724356e+000 -1.610278e+000 -8.390036e+000 141 123 99
4.899799e+000 -1.194583e+000 -7.984792e+000 119 101 81
3.286811e+000 1.382578e+000 -9.983857e+000 122 89 53
-6.295576e-001 1.200613e+000 -9.221103e+000 116 116 59
-6.295576e-001 1.200613e+000 -9.221103e+000 116 116 59
-3.018688e-001 1.213320e+000 -9.381187e+000 38 44 18
3.640577e-001 1.095907e+000 -9.845117e+000 122 69 55
3.584632e-001 1.114155e+000 -9.832083e+000 122 69 55
9.803830e-001 1.422632e+000 -9.613423e+000 112 41 35
6.844471e-001 1.284705e+000 -8.904925e+000 163 149 110
6.844471e-001 1.284705e+000 -8.904925e+000 163 149 110
1.358141e+000 1.292564e+000 -9.105511e+000 21 67 95
-2.892067e-001 1.110730e+000 -8.412016e+000 164 154 38
2.478328e+000 1.210592e+000 -9.452113e+000 94 50 39
1.403656e+000 1.131155e+000 -8.958191e+000 152 157 134
2.445599e+000 1.160704e+000 -9.321959e+000 105 49 48
2.257150e+000 9.705015e-001 -9.057983e+000 123 101 90
-2.159234e-001 6.899417e-001 -7.908370e+000 156 145 44
1.973717e+000 7.801782e-001 -8.741319e+000 101 52 53
4.058844e-001 6.197246e-001 -8.022080e+000 20 52 29
3.230079e+000 6.593215e-001 -9.086063e+000 30 65 101
4.628059e+000 -5.429556e-001 -8.464142e+000 124 109 103
4.869956e+000 5.213694e-002 -8.025781e+000 54 47 50
4.285105e-001 1.288247e+000 -9.624568e+000 121 68 54
-1.809864e+000 4.695760e-001 -8.679012e+000 151 130 112
3.256504e+000 1.570448e+000 -1.026795e+001 135 97 67
-3.792642e-001 1.231353e+000 -8.505818e+000 56 93 100
-2.589155e-001 1.194206e+000 -8.499051e+000 141 134 28
2.124747e+000 1.372474e+000 -9.534081e+000 17 62 87
2.587654e+000 1.382314e+000 -9.688797e+000 95 37 15
1.291057e+000 8.916301e-001 -8.609416e+000 146 25 33
2.705356e+000 9.660228e-001 -9.138843e+000 80 53 63
2.100196e+000 8.212483e-001 -8.784375e+000 130 105 105
1.825455e+000 6.581331e-001 -8.572031e+000 171 108 71
4.468379e+000 -1.095881e+000 -8.958043e+000 124 111 99
4.751868e+000 -1.344794e-001 -8.172030e+000 146 132 125
-1.169143e+000 1.122508e+000 -9.075169e+000 34 63 87
-5.035185e-001 1.161592e+000 -9.341471e+000 33 46 29
1.629803e+000 1.442283e+000 -9.861191e+000 88 18 24
1.832835e+000 1.439849e+000 -9.593374e+000 21 58 82
2.591564e+000 1.350128e+000 -9.653579e+000 146 113 67
-1.292670e+000 7.150856e-001 -7.931802e+000 199 180 142
1.632751e+000 1.160249e+000 -9.090425e+000 79 61 74
-1.327443e+000 6.247702e-001 -7.904351e+000 203 183 146
-1.327443e+000 6.247702e-001 -7.904351e+000 203 183 146
-1.248938e+000 7.334359e-001 -7.893229e+000 200 181 139
-1.248938e+000 7.334359e-001 -7.893229e+000 200 181 139
-6.013093e-001 8.964841e-001 -8.074034e+000 175 39 33
-6.013093e-001 8.964841e-001 -8.074034e+000 175 39 33
1.779152e+000 1.057707e+000 -8.992560e+000 89 67 80
2.048912e+000 1.032334e+000 -8.960458e+000 79 58 68
-5.897606e-001 7.079199e-001 -7.833411e+000 164 36 47
1.073695e+000 8.376084e-001 -8.471350e+000 157 31 34
2.522256e+000 6.677112e-001 -8.808721e+000 151 119 105
2.522256e+000 6.677112e-001 -8.808721e+000 151 119 105
2.728336e+000 5.411542e-001 -8.835092e+000 72 33 34
3.499001e+000 6.194804e-001 -9.167955e+000 146 53 45
4.375947e+000 -1.171963e+000 -9.154560e+000 47 38 38
4.496665e+000 -8.627321e-001 -8.824590e+000 156 142 132
4.514601e+000 -7.932184e-001 -8.763159e+000 154 140 131
4.719564e+000 -2.053960e-001 -8.233519e+000 151 141 139
4.800956e+000 -1.170815e+000 -7.993113e+000 164 147 131
4.800956e+000 -1.170815e+000 -7.993113e+000 164 147 131
4.911467e+000 3.823031e-001 -7.707650e+000 148 134 131
4.939193e+000 5.444249e-001 -7.566633e+000 146 135 129
-6.518008e-001 1.084711e+000 -9.394677e+000 36 47 22
1.912996e+000 1.353285e+000 -9.484779e+000 17 56 83
8.631672e-001 6.804121e-001 -8.242305e+000 159 148 122
3.849490e+000 7.106155e-001 -9.366532e+000 171 144 110
4.927724e+000 1.081895e-001 -7.670661e+000 152 135 127
2.819012e-001 1.148533e+000 -9.723747e+000 104 34 32
3.278551e-001 1.332151e+000 -9.526977e+000 108 31 37
2.783557e+000 1.467573e+000 -9.892570e+000 116 66 32
8.146183e-001 1.257203e+000 -8.923081e+000 168 132 106
-1.313421e+000 8.182287e-001 -8.021964e+000 195 177 141
1.474571e+000 1.042529e+000 -8.848795e+000 126 131 124
9.752491e-001 9.402076e-001 -8.588111e+000 162 146 112
2.987253e+000 8.043115e-001 -9.115924e+000 161 129 93
3.320971e+000 1.557239e+000 -1.046565e+001 92 51 31
3.320746e+000 1.559246e+000 -1.046470e+001 92 51 31
-7.678718e-002 1.101895e+000 -8.452690e+000 29 59 28
1.520033e-002 8.743310e-001 -8.205192e+000 159 144 112
1.070505e+000 7.958791e-001 -8.407663e+000 171 38 41
2.455230e+000 9.226310e-001 -9.036356e+000 128 106 93
3.202547e+000 4.770956e-001 -9.010532e+000 27 77 115
3.070514e+000 1.535499e+000 -1.025501e+001 128 95 63
5.155324e-002 1.287920e+000 -8.708277e+000 102 115 112
5.155324e-002 1.287920e+000 -8.708277e+000 102 115 112
3.621349e-001 1.117606e+000 -8.615437e+000 33 59 30
2.164775e+000 1.100961e+000 -9.238823e+000 90 70 80
3.493552e-001 6.797233e-001 -8.076816e+000 155 148 102
5.638021e-001 6.720751e-001 -8.157117e+000 154 147 109
4.189007e-001 1.215014e+000 -8.666122e+000 158 148 113
2.885994e+000 8.402377e-001 -9.119324e+000 159 123 87
2.885994e+000 8.402377e-001 -9.119324e+000 159 123 87
-9.965012e-001 1.188231e+000 -8.277292e+000 128 129 115
-5.068331e-001 9.806725e-001 -8.620547e+000 94 113 109
-1.085645e+000 8.928664e-001 -9.415112e+000 116 37 30
-1.048361e+000 9.005114e-001 -9.427885e+000 12 47 72
-1.520333e+000 8.305725e-001 -9.191034e+000 36 68 100
-1.174168e+000 9.237642e-001 -9.288434e+000 113 22 27
-1.146988e+000 1.032195e+000 -9.189218e+000 129 29 29
-1.146988e+000 1.032195e+000 -9.189218e+000 129 29 29
-5.812071e-001 1.024827e+000 -9.491553e+000 37 37 27
5.719581e-001 1.039161e+000 -9.989255e+000 112 56 41
8.944747e-001 1.065899e+000 -1.014593e+001 86 25 24
-3.329100e-001 1.254761e+000 -9.286877e+000 35 36 13
-3.383649e-001 1.265134e+000 -9.281700e+000 35 36 13
3.290457e+000 1.280576e+000 -1.086203e+001 28 33 26
1.274469e+000 1.450969e+000 -9.700049e+000 126 61 57
3.310708e+000 1.510631e+000 -1.034279e+001 67 24 19
2.040807e+000 1.411656e+000 -9.611819e+000 19 53 67
1.993984e+000 1.379275e+000 -9.493970e+000 26 55 84
-2.027030e+000 6.206810e-001 -7.967110e+000 168 16 34
7.991862e-001 1.200953e+000 -8.836492e+000 169 29 36
2.371367e+000 1.294967e+000 -9.491805e+000 91 8 15
-1.619717e+000 9.180843e-001 -7.899081e+000 181 103 83
1.371427e+000 1.192146e+000 -9.016249e+000 151 139 112
1.426336e+000 1.154352e+000 -8.984977e+000 25 66 96
1.396835e+000 1.140328e+000 -8.954112e+000 148 147 122
2.201951e+000 1.158590e+000 -9.263887e+000 156 130 108
-6.682485e-001 9.215622e-001 -8.074863e+000 183 153 107
-1.515209e+000 7.723201e-002 -7.821853e+000 189 46 45
-6.141813e-001 8.349939e-001 -7.984205e+000 171 37 37
1.197662e+000 9.355239e-001 -8.634157e+000 184 145 99
1.190196e+000 9.479548e-001 -8.629554e+000 184 145 99
1.236486e+000 9.510565e-001 -8.648338e+000 179 128 94
2.054625e+000 9.452138e-001 -8.924616e+000 119 98 97
-1.214872e+000 5.178729e-001 -7.757840e+000 211 191 158
-5.082637e-001 7.930867e-001 -7.955396e+000 161 27 24
-1.775318e-001 6.798825e-001 -7.901821e+000 154 149 34
-4.669292e-001 6.457391e-001 -7.749395e+000 186 142 100
2.734622e+000 -3.572429e+000 -1.412792e+001 68 66 69
-1.208191e+000 8.778033e-001 -9.360455e+000 110 16 30
-8.749590e-001 9.184286e-001 -9.472751e+000 42 50 30
-2.173104e-002 1.073300e+000 -9.698727e+000 78 47 39
5.750138e-001 1.092972e+000 -9.900837e+000 131 78 64
2.147140e+000 1.174395e+000 -1.053049e+001 79 39 31
1.042860e+000 1.265382e+000 -9.914967e+000 120 68 59
3.530268e+000 1.238907e+000 -1.099802e+001 98 72 71
-1.444055e+000 8.991340e-001 -8.265553e+000 191 169 132
2.039084e+000 1.344501e+000 -9.455401e+000 80 104 113
2.508397e+000 1.370660e+000 -9.660909e+000 132 65 51
2.501181e+000 1.372829e+000 -9.657032e+000 132 65 51
-1.502083e+000 4.454458e-001 -7.963522e+000 171 152 113
-3.788908e-001 1.022300e+000 -8.287232e+000 89 120 130
-1.254637e+000 8.061379e-001 -7.955748e+000 197 180 136
3.769425e-001 1.036774e+000 -8.482695e+000 19 46 35
2.084522e+000 1.054437e+000 -9.091379e+000 128 105 89
-1.157844e+000 6.827447e-001 -7.784244e+000 206 186 153
2.541605e+000 1.000364e+000 -9.166599e+000 130 101 93
1.861569e+000 7.705842e-001 -8.662293e+000 88 33 38
1.915095e+000 7.258823e-001 -8.651539e+000 155 90 84
2.003664e+000 7.959381e-001 -8.755131e+000 132 99 92
2.222348e+000 8.190590e-001 -8.780926e+000 145 122 105
2.437082e+000 6.916933e-001 -8.836885e+000 141 110 91
9.939310e-001 5.873588e-001 -8.189372e+000 166 151 118
1.944690e+000 6.014592e-001 -8.542163e+000 150 84 69
1.944690e+000 6.014592e-001 -8.542163e+000 150 84 69
-4.590585e-001 5.131335e-001 -7.624013e+000 165 28 36
4.755515e+000 -3.278974e-001 -8.062522e+000 124 106 92
-9.337242e-001 8.662092e-001 -9.501452e+000 25 39 22
-8.321750e-001 1.038087e+000 -9.349484e+000 105 99 42
-5.311995e-001 1.219820e+000 -9.260207e+000 102 102 48
2.332618e+000 1.245988e+000 -1.056182e+001 113 75 66
2.229872e+000 1.287655e+000 -1.044393e+001 98 67 54
2.253871e+000 1.259585e+000 -1.046419e+001 98 67 54
-1.832751e+000 3.249967e-001 -8.811253e+000 34 19 23
-2.316030e-001 1.022251e+000 -8.323899e+000 17 52 33
-6.637648e-001 8.608424e-001 -8.001295e+000 171 34 35
2.472273e+000 6.996772e-001 -8.825036e+000 71 32 25
2.472273e+000 6.996772e-001 -8.825036e+000 71 32 25
3.875642e+000 7.358924e-001 -9.394590e+000 177 140 107
1.807558e+000 6.281359e-001 -8.502444e+000 175 133 87
2.003708e+000 6.895059e-001 -8.630866e+000 77 28 28
4.551550e+000 -6.724255e-001 -8.658930e+000 142 129 124
4.592409e+000 -6.286536e-001 -8.605006e+000 142 128 119
4.603415e+000 -6.235815e-001 -8.548474e+000 125 107 97
4.649750e+000 -3.541931e-001 -8.380098e+000 146 129 122
-8.240327e-001 9.457570e-001 -9.498937e+000 26 38 23
-7.463605e-001 9.776462e-001 -9.450792e+000 125 115 62
-7.085006e-001 1.040527e+000 -9.397542e+000 132 112 75
-7.080064e-001 1.040148e+000 -9.397952e+000 132 112 75
-5.441771e-001 1.065255e+000 -9.461492e+000 36 43 35
-9.202733e-001 1.157917e+000 -9.107980e+000 130 105 49
-8.128976e-001 1.186428e+000 -9.153322e+000 116 105 77
-8.128976e-001 1.186428e+000 -9.153322e+000 116 105 77
3.640208e-001 1.114275e+000 -9.765791e+000 128 81 63
1.368194e+000 1.114154e+000 -1.024697e+001 112 59 45
3.600884e-001 1.361070e+000 -9.549803e+000 130 82 67
1.213260e+000 1.372399e+000 -9.955516e+000 99 29 31
2.845712e+000 1.530194e+000 -1.020862e+001 104 63 38
2.974999e+000 1.462234e+000 -9.958356e+000 52 11 29
-7.990017e-001 1.245296e+000 -8.403147e+000 61 90 96
2.415657e+000 1.298267e+000 -9.520086e+000 79 22 15
-1.253022e+000 5.131521e-001 -7.791679e+000 212 192 159
1.877621e+000 9.880812e-001 -8.924202e+000 85 62 74
-1.200181e+000 5.727790e-001 -7.772815e+000 208 190 152
-5.403095e-001 6.267255e-001 -7.713028e+000 156 32 37
1.885917e+000 5.516595e-001 -8.498898e+000 116 52 55
-1.015601e+000 8.831328e-001 -9.440106e+000 28 58 81
-8.774371e-001 1.018249e+000 -9.338027e+000 31 40 27
-6.160535e-001 9.889502e-001 -9.508559e+000 105 104 57
-6.545436e-001 1.083467e+000 -9.395623e+000 33 41 36
-4.970582e-001 1.137102e+000 -9.352271e+000 34 42 33
-3.430772e-001 1.171207e+000 -9.399937e+000 27 40 21
3.361740e+000 1.373212e+000 -1.080394e+001 23 31 28
3.180119e+000 1.494939e+000 -1.053953e+001 28 35 33
3.433437e+000 1.556299e+000 -1.042102e+001 49 13 24
-1.403458e+000 8.618082e-001 -8.156353e+000 116 95 70
6.046941e-002 1.151971e+000 -8.554033e+000 41 56 33
1.696678e-001 8.291824e-001 -8.176608e+000 33 52 32
2.381308e+000 8.501845e-001 -8.934855e+000 26 17 22
3.632977e-001 7.631322e-001 -8.114147e+000 155 148 71
7.473633e-001 6.208601e-001 -8.140167e+000 28 53 20
7.473633e-001 6.208601e-001 -8.140167e+000 28 53 20
2.411571e+000 5.778177e-001 -8.717855e+000 84 40 38
-8.742476e-001 1.198509e+000 -9.117927e+000 24 40 31
-5.880976e-001 1.103809e+000 -9.369455e+000 109 104 76
-5.880976e-001 1.103809e+000 -9.369455e+000 109 104 76
9.528359e-001 1.207343e+000 -9.956461e+000 108 47 50
3.040815e-001 1.239986e+000 -8.732255e+000 26 49 20
7.097438e-001 1.222052e+000 -8.848858e+000 153 142 109
6.305146e-001 1.068276e+000 -8.638190e+000 171 38 42
1.494531e+000 8.040551e-001 -8.594730e+000 15 69 102
1.634437e+000 8.113627e-001 -8.607310e+000 21 73 107
7.520288e-002 5.561374e-001 -7.850533e+000 166 157 92
1.240267e+000 1.138241e+000 -1.012792e+001 86 24 26
1.288578e+000 1.311840e+000 -9.936580e+000 93 24 28
2.206698e+000 1.075820e+000 -9.145485e+000 140 112 90
-4.567810e-001 5.898780e-001 -7.688207e+000 180 144 108
3.961494e+000 5.018500e-001 -9.287399e+000 185 151 118
2.231230e+000 1.411974e+000 -9.658362e+000 145 112 69
2.231230e+000 1.411974e+000 -9.658362e+000 145 112 69
2.344204e-001 7.657318e-001 -8.153441e+000 30 60 32
2.069602e+000 5.896789e-001 -8.607919e+000 104 50 54
6.065871e-001 4.256306e-001 -7.993965e+000 165 155 127
1.813881e+000 1.414563e+000 -9.839640e+000 85 18 27
-1.030218e+000 1.240207e+000 -8.956698e+000 125 114 93
-7.469876e-001 1.096072e+000 -8.275937e+000 16 73 102
3.605232e+000 1.408843e+000 -1.021941e+001 142 106 82
6.033311e-001 1.321365e+000 -9.025161e+000 147 136 106
-6.951779e-001 1.005675e+000 -8.098595e+000 172 150 135
-1.179452e+000 7.250331e-001 -7.789385e+000 189 172 144
-4.152165e-001 6.201083e-001 -7.728665e+000 181 30 37
2.168768e+000 5.573924e-001 -8.627213e+000 118 68 76
-1.487411e+000 3.712360e-001 -7.904052e+000 170 145 115
-1.487411e+000 3.712360e-001 -7.904052e+000 170 145 115
3.049097e+000 5.005940e-001 -8.941411e+000 149 141 153
3.466120e+000 5.351921e-001 -9.128450e+000 162 113 86
4.173160e+000 1.873351e-001 -9.393044e+000 158 98 40
4.116833e+000 1.820447e-001 -9.369770e+000 150 91 54
4.163232e+000 1.651238e-001 -9.419224e+000 58 14 4
1.022839e+000 1.001543e-001 -8.158998e+000 162 170 144
1.110001e+000 8.395361e-002 -8.205210e+000 25 81 116
2.465734e+000 6.668656e-002 -8.764354e+000 163 31 41
3.285603e+000 8.671639e-002 -9.098632e+000 89 18 27
3.415472e+000 1.271983e-002 -9.179983e+000 183 88 51
3.818114e+000 1.853041e-002 -9.360841e+000 46 20 30
3.818544e+000 1.916914e-002 -9.362615e+000 46 20 30
4.108517e+000 1.040431e-001 -9.462064e+000 62 19 11
4.117821e+000 7.735449e-002 -9.481071e+000 164 94 52
3.842259e-001 -5.033981e-002 -7.970343e+000 168 162 142
9.709022e-001 -4.726995e-002 -8.213954e+000 196 152 117
9.387896e-001 -7.709094e-002 -8.222906e+000 197 165 131
3.452527e+000 -1.122723e-001 -9.308935e+000 194 132 77
3.690151e+000 -1.385577e-001 -9.441175e+000 163 148 115
9.074651e-001 -1.950448e-001 -8.293184e+000 208 161 134
9.065392e-001 -1.954268e-001 -8.289540e+000 208 161 134
2.692836e+000 -2.236878e-001 -9.050709e+000 188 72 77
2.830817e+000 -2.728715e-001 -9.173326e+000 118 66 51
3.166348e+000 -2.290290e-001 -9.268394e+000 207 141 93
3.397189e+000 -2.541296e-001 -9.385406e+000 188 95 53
-4.121852e-001 -3.420019e-001 -7.859256e+000 142 157 34
6.051304e-001 -3.721149e-001 -8.298295e+000 158 142 124
8.817834e-001 -3.619327e-001 -8.405108e+000 197 152 115
3.361767e+000 -2.989230e-001 -9.433352e+000 129 50 17
-4.186768e-001 -4.218987e-001 -7.917390e+000 173 158 144
8.384165e-001 -4.481055e-001 -8.441691e+000 200 157 123
8.482459e-001 -4.490825e-001 -8.457073e+000 200 157 123
-5.650927e-001 -4.926125e-001 -7.917647e+000 219 157 116
-2.409467e-001 -5.893635e-001 -8.130402e+000 42 62 48
-3.928432e-002 -6.083327e-001 -8.263119e+000 21 59 41
4.433459e-001 -6.058516e-001 -8.473631e+000 128 48 54
5.061259e-001 -6.063300e-001 -8.495397e+000 158 153 143
5.515113e-001 -6.123080e-001 -8.532879e+000 144 113 110
3.372043e+000 -7.731315e-001 -1.005653e+001 114 95 89
-5.358602e-002 -6.517156e-001 -8.320453e+000 34 54 50
1.301961e+000 -7.520225e-001 -9.038440e+000 148 90 84
2.009640e+000 -7.291224e-001 -9.322029e+000 148 89 93
2.050485e+000 -7.356327e-001 -9.367514e+000 184 126 118
2.162303e+000 -7.453472e-001 -9.484611e+000 163 42 51
-6.777419e-001 -7.944545e-001 -8.250531e+000 196 152 127
-1.159808e+000 -9.680171e-001 -8.435036e+000 160 158 163
1.783060e+000 8.390682e-001 -8.716531e+000 91 34 38
2.207082e+000 7.925417e-001 -8.837335e+000 86 63 74
-5.186110e-001 4.851989e-001 -7.573053e+000 168 150 117
3.841758e+000 6.140576e-001 -9.310440e+000 182 149 114
3.338818e+000 2.280440e-001 -9.080474e+000 129 34 27
4.151728e+000 2.567196e-001 -9.343614e+000 41 11 18
4.120750e+000 1.308885e-001 -9.414043e+000 170 102 65
4.121112e+000 1.308337e-001 -9.414262e+000 170 102 65
1.943379e+000 -1.162586e-001 -8.664671e+000 127 78 62
2.543523e+000 -2.383910e-002 -8.846060e+000 202 89 95
2.901120e+000 -3.521524e-002 -9.008524e+000 195 144 124
3.161714e+000 -3.590255e-002 -9.076498e+000 186 127 91
2.472133e+000 -1.511163e-001 -8.880563e+000 165 35 48
2.902579e+000 -2.281526e-001 -9.161075e+000 193 142 113
3.856181e+000 -2.836451e-001 -9.690110e+000 76 56 57
-5.935146e-002 -3.013100e-001 -7.973105e+000 55 100 125
2.384896e+000 -3.583656e-001 -9.045329e+000 159 31 45
3.078824e+000 -4.106885e-001 -9.429808e+000 146 41 22
3.511445e+000 -3.495428e-001 -9.577727e+000 188 153 126
-5.427958e-001 -4.172021e-001 -7.866110e+000 172 167 136
-4.462090e-001 -4.428879e-001 -7.912527e+000 181 42 33
6.650066e-001 -3.885705e-001 -8.296043e+000 164 160 148
2.828212e+000 -4.837308e-001 -9.402401e+000 194 135 119
-6.028132e-001 -5.378466e-001 -7.967788e+000 184 46 57
-2.344521e-001 -5.142856e-001 -8.065064e+000 152 158 40
-2.429971e-001 -5.445144e-001 -8.099589e+000 23 59 39
9.321681e-001 -5.926323e-001 -8.647212e+000 20 76 111
1.899176e+000 -7.015608e-001 -9.264537e+000 187 134 118
-5.111682e-001 -6.294685e-001 -8.098019e+000 183 47 56
-5.109638e-001 -6.293643e-001 -8.096637e+000 183 47 56
1.120259e-001 -6.947977e-001 -8.444489e+000 48 63 34
1.616059e+000 -7.368710e-001 -9.170482e+000 186 126 112
-6.883408e-001 -7.725408e-001 -8.224441e+000 176 44 53
-6.922486e-001 -7.728750e-001 -8.221961e+000 176 44 53
-7.062304e-001 -8.106272e-001 -8.264301e+000 184 51 56
4.267624e+000 -1.485209e+000 -9.444999e+000 45 35 39
6.661891e-001 1.228965e+000 -8.811888e+000 166 152 120
-7.500141e-001 1.004034e+000 -8.110469e+000 170 135 122
-4.718100e-001 8.134915e-001 -7.938914e+000 168 40 44
-7.295420e-002 5.436514e-001 -7.788469e+000 65 99 108
2.136070e+000 5.632215e-001 -8.615931e+000 69 24 31
3.406412e+000 3.870684e-001 -9.008420e+000 135 45 53
2.039169e+000 -6.673535e-002 -8.653835e+000 153 107 84
2.039169e+000 -6.673535e-002 -8.653835e+000 153 107 84
2.123940e+000 -1.083224e-001 -8.736238e+000 164 118 103
3.830500e+000 -4.095074e-002 -9.431595e+000 186 158 147
8.335050e-002 -3.042456e-001 -8.044987e+000 24 53 30
2.957831e+000 -3.231150e-001 -9.244814e+000 197 131 104
3.564558e+000 -3.196499e-001 -9.549225e+000 82 69 75
-5.658188e-001 -4.436215e-001 -7.879178e+000 196 40 57
-5.659874e-001 -4.433250e-001 -7.879576e+000 196 40 57
-4.881767e-001 -4.454494e-001 -7.901886e+000 186 45 46
-1.379876e-001 -4.657790e-001 -8.095764e+000 44 108 125
5.402943e-001 -4.199796e-001 -8.304157e+000 164 154 142
9.910228e-001 -4.416477e-001 -8.501125e+000 6 54 92
1.273522e+000 -4.424315e-001 -8.625386e+000 118 69 53
1.356732e+000 -4.217754e-001 -8.648473e+000 172 110 97
9.808631e-002 -7.000299e-001 -8.460149e+000 36 64 42
7.155272e-001 -7.084993e-001 -8.739922e+000 168 29 46
-5.759453e-001 -7.779587e-001 -8.262638e+000 190 46 56
-4.371701e-001 -8.000400e-001 -8.356246e+000 142 144 89
2.479301e+000 7.472411e-001 -8.878893e+000 128 97 94
3.356973e+000 1.835995e-001 -9.073504e+000 196 104 33
4.329068e+000 2.176679e-001 -9.485931e+000 30 18 30
1.550102e+000 -9.617494e-002 -8.494203e+000 185 124 103
1.911193e+000 -8.469208e-002 -8.641819e+000 189 140 110
9.667270e-001 -2.155419e-001 -8.317113e+000 151 35 36
2.613089e-001 -4.005023e-001 -8.149040e+000 25 62 31
2.531215e-001 -3.963603e-001 -8.165000e+000 25 62 31
8.216489e-001 -5.806121e-001 -8.565989e+000 182 110 94
-3.084839e-001 -6.455821e-001 -8.198186e+000 123 134 65
6.945169e-001 -7.588069e-001 -8.823100e+000 151 35 42
-5.477868e-001 -7.965859e-001 -8.332693e+000 143 141 101
-1.384117e-001 -7.867720e-001 -8.476923e+000 139 147 59
4.113091e+000 -1.931697e+000 -9.797886e+000 142 128 129
2.130553e+000 5.223843e-001 -8.580655e+000 84 37 43
2.408109e+000 1.200999e-001 -8.712322e+000 169 33 48
3.906835e+000 -4.703232e-002 -9.479044e+000 137 84 43
1.521529e-001 -1.875945e-001 -7.963928e+000 100 119 137
1.521529e-001 -1.875945e-001 -7.963928e+000 100 119 137
3.921168e+000 -3.339296e-001 -9.780727e+000 156 125 114
-3.778953e-001 -4.472434e-001 -7.941243e+000 11 85 134
-8.758523e-002 -4.279537e-001 -8.039400e+000 21 55 33
8.305508e-001 -4.058019e-001 -8.420272e+000 152 28 38
2.487928e+000 -5.419869e-001 -9.360172e+000 168 31 40
2.487928e+000 -5.419869e-001 -9.360172e+000 168 31 40
2.930062e+000 -5.780051e-001 -9.591045e+000 189 138 116
2.930062e+000 -5.780051e-001 -9.591045e+000 189 138 116
-2.463157e-001 -4.909740e-001 -8.025676e+000 90 118 87
1.816952e-001 -5.092152e-001 -8.243272e+000 159 170 103
1.247964e-001 -5.552482e-001 -8.286658e+000 30 66 45
-2.594597e-001 -6.700479e-001 -8.301204e+000 32 68 39
-6.375001e-001 -7.688118e-001 -8.239723e+000 205 148 129
4.130556e+000 -1.825330e+000 -9.781286e+000 50 38 53
4.002750e+000 -2.197399e+000 -1.003703e+001 146 132 132
-1.542983e-001 5.306698e-001 -7.730858e+000 82 108 101
9.191071e-002 5.429045e-001 -7.856566e+000 163 148 120
8.666834e-002 5.407235e-001 -7.840492e+000 163 148 120
2.517129e+000 5.419856e-001 -8.744234e+000 68 22 32
3.983978e+000 1.108541e-001 -9.339472e+000 187 104 52
2.295292e+000 -4.198759e-001 -9.054918e+000 180 57 68
3.090008e+000 -5.662547e-001 -9.659638e+000 140 106 81
1.455116e+000 -5.854130e-001 -8.867094e+000 193 131 110
-1.431671e-001 -7.225123e-001 -8.349808e+000 114 137 124
-7.456004e-002 -7.416409e-001 -8.456478e+000 31 61 39
1.857609e-002 -7.009276e-001 -8.415743e+000 137 148 142
7.033840e-002 7.538803e-001 -8.063927e+000 35 60 36
3.588802e+000 -2.266584e-001 -9.462525e+000 197 167 143
-6.276082e-002 -5.722667e-001 -8.165283e+000 79 114 133
2.671244e+000 -8.014628e-001 -9.874682e+000 201 140 139
2.389682e+000 7.196469e-001 -8.861910e+000 136 108 97
3.355818e+000 6.188450e-001 -9.116865e+000 156 116 81
1.369555e+000 -2.701971e-001 -8.554476e+000 193 128 108
1.974479e-001 -2.445308e-001 -8.047440e+000 23 59 30
1.773528e+000 -5.163394e-001 -9.269215e+000 188 127 108
1.284686e+000 5.453068e-001 -8.267126e+000 155 22 24
3.957827e+000 2.012755e-001 -9.293636e+000 204 117 46
2.522468e+000 5.236141e-002 -8.792652e+000 157 24 27
2.408931e+000 -5.015230e-002 -8.801712e+000 194 92 88
2.442981e+000 -7.018190e-002 -8.835521e+000 166 32 36
2.442981e+000 -7.018190e-002 -8.835521e+000 166 32 36
3.158895e+000 -8.603591e-003 -9.049627e+000 188 121 77
5.644162e-001 -3.740591e-001 -8.280646e+000 176 153 131
2.620981e+000 -3.735489e-001 -9.140296e+000 160 30 38
2.755861e+000 -5.091246e-001 -9.375337e+000 139 80 66
2.847123e+000 -5.143928e-001 -9.431233e+000 138 80 60
1.402178e+000 -7.272364e-001 -9.056950e+000 142 80 65
6.844741e-003 -8.139673e-001 -8.586691e+000 68 81 35
4.040939e+000 -2.134816e+000 -9.952779e+000 152 134 130
2.399513e+000 4.304477e-001 -8.670634e+000 181 129 83
3.528614e+000 -2.819811e-001 -9.509250e+000 180 148 111
-4.839944e-001 -4.448860e-001 -7.903076e+000 182 49 49
-6.500113e-002 -3.907000e-001 -8.033835e+000 171 156 30
3.782256e+000 -6.998549e-001 -1.012159e+001 149 110 102
4.241550e+000 -1.557518e+000 -9.516274e+000 62 43 52
1.842872e+000 5.971291e-001 -8.546400e+000 185 140 84
3.938148e+000 1.102868e-001 -9.333167e+000 198 108 45
1.442537e+000 1.225715e-002 -8.366232e+000 154 98 82
-1.604624e-001 -3.205613e-001 -7.944118e+000 105 104 24
4.068935e+000 -2.133208e+000 -9.852421e+000 153 135 133
4.143770e+000 -2.083844e+000 -9.690652e+000 143 125 121
3.932519e+000 5.458244e-001 -9.288684e+000 189 154 125
1.134971e+000 1.114417e-001 -8.215847e+000 168 163 140
2.532428e+000 6.430410e-001 -8.809438e+000 145 114 96
1.309240e+000 -1.876695e-001 -8.505019e+000 189 119 103
4.065013e+000 -2.135971e+000 -9.947842e+000 131 113 111
4.007320e+000 1.413807e-001 -9.349222e+000 191 99 42
1.041365e+000 -2.610463e-001 -8.389447e+000 27 78 112
2.678235e+000 -3.245140e-001 -9.137347e+000 197 79 76
3.414183e+000 4.289831e-001 -9.059593e+000 175 118 83
3.812023e+000 -2.723211e+000 -1.046870e+001 115 97 97
4.321658e+000 -1.412375e+000 -9.321134e+000 160 139 134
1.207167e+000 -2.553154e-001 -8.430088e+000 17 66 96
-6.443867e+000 -4.975444e+001 -3.446649e+001 48 34 21
-4.589389e+000 -5.807263e+001 -1.771601e+001 140 117 83
-7.388136e+000 -6.262250e+001 -1.989199e+001 72 60 48
-3.858845e+000 -5.886764e+001 -1.682318e+001 48 40 37
-3.581056e+000 -6.150718e+001 -1.558125e+001 134 113 83
-2.103579e+000 -5.513605e+001 -2.582172e+001 143 129 102
-2.103579e+000 -5.513605e+001 -2.582172e+001 143 129 102
-1.811420e+000 -5.566514e+001 -2.503269e+001 129 108 81
-1.811420e+000 -5.566514e+001 -2.503269e+001 129 108 81
-4.215928e+000 -5.843185e+001 -1.752320e+001 130 122 113
-3.354718e+000 -5.797195e+001 -1.754814e+001 58 57 63
-3.354718e+000 -5.797195e+001 -1.754814e+001 58 57 63
-5.113628e+000 -6.041305e+001 -1.665723e+001 166 128 85
-7.866035e+000 -6.063727e+001 -2.119495e+001 41 27 18
-8.259446e+000 -6.400508e+001 -2.064527e+001 60 47 38
-1.936037e+000 -5.693515e+001 -1.772766e+001 56 51 47
2.591177e+000 -5.705180e+001 -1.798621e+001 24 14 15
2.591177e+000 -5.705180e+001 -1.798621e+001 24 14 15
-6.799679e+000 -7.257678e+001 -1.691408e+001 135 104 62
-6.156660e+000 -6.850072e+001 -1.681030e+001 202 166 113
-8.322739e+000 -6.052445e+001 -2.066296e+001 174 144 94
-4.489755e+000 -5.799342e+001 -1.935008e+001 23 17 19
-7.964191e+000 -2.581127e+001 -2.103302e+001 186 149 97
-5.511800e+000 -5.727659e+001 -1.692052e+001 40 29 21
-7.380143e+000 -6.152621e+001 -2.295932e+001 190 158 107
-7.908127e+000 -6.644125e+001 -2.119025e+001 64 51 41
-7.908127e+000 -6.644125e+001 -2.119025e+001 64 51 41
2.537385e+000 1.337881e+000 -9.595994e+000 153 118 77
1.933151e+000 1.354194e+000 -9.434478e+000 24 63 94
-6.549692e-001 9.831590e-001 -8.148959e+000 157 30 41
-2.343260e-001 -6.466569e+001 -1.514506e+001 98 77 60
-5.785702e-001 -6.379325e+001 -1.488614e+001 91 78 60
-5.437485e-001 -6.484211e+001 -1.502693e+001 91 78 60
2.198233e+000 1.352222e+000 -9.524129e+000 53 15 16
-4.288992e+000 -5.987870e+001 -1.714650e+001 46 37 36
4.658538e+000 -1.010786e+000 -8.465649e+000 139 123 107
4.658538e+000 -1.010786e+000 -8.465649e+000 139 123 107
-4.489229e+000 -5.718925e+001 -1.802225e+001 173 150 117
-4.224075e+000 -5.873266e+001 -1.756887e+001 147 145 143
-3.723376e+000 -5.896279e+001 -1.727227e+001 24 18 28
-3.810204e+000 -6.454469e+001 -1.556787e+001 92 88 59
-3.185544e+000 -6.543768e+001 -1.533456e+001 159 152 126
-2.299567e+000 -6.532569e+001 -1.486980e+001 136 134 119
-9.671230e-001 -6.394841e+001 -1.495317e+001 133 127 105
-7.068998e+000 -7.481008e+001 -1.337379e+001 111 83 57
3.298754e-001 -4.478401e+001 -1.742757e+001 204 188 149
-7.825484e+000 -7.462506e+001 -1.307514e+001 85 63 45
-2.358200e+000 -6.658540e+001 -1.312018e+001 192 172 139
-1.087107e+000 -6.644484e+001 -1.359023e+001 187 177 145
1.347531e+000 1.296928e+000 -9.152431e+000 26 73 96
-4.045130e+000 -5.910809e+001 -1.837693e+001 29 22 30
-1.345636e+000 -6.560776e+001 -1.433134e+001 58 70 71
-7.032803e-001 -6.650583e+001 -1.375000e+001 173 163 127
-7.179433e-001 -6.708235e+001 -1.285117e+001 57 83 70
-2.824309e+000 -6.681180e+001 -1.416774e+001 54 74 68
-1.863555e+000 -6.689464e+001 -1.337825e+001 186 167 136
-2.059389e+000 -6.755890e+001 -1.236270e+001 62 95 86
-7.483977e+000 -6.598283e+001 -1.809548e+001 201 173 126
-3.831773e+000 -6.995395e+001 -1.274109e+001 213 187 150
-3.831773e+000 -6.995395e+001 -1.274109e+001 213 187 150
-4.741301e+000 -6.291356e+001 -1.507295e+001 213 185 138
-1.043386e+000 1.088100e+000 -9.172640e+000 119 42 36
9.330400e-001 1.116255e+000 -1.007980e+001 88 30 28
2.831792e+000 1.423935e+000 -9.862408e+000 110 58 32
1.314832e+000 1.265418e+000 -9.108679e+000 21 67 96
-1.387995e+000 7.151702e-001 -8.013897e+000 194 172 135
-6.146975e-001 9.422967e-001 -8.116233e+000 166 28 43
-5.693669e-001 8.377657e-001 -8.005940e+000 164 32 29
2.228562e+000 1.016868e+000 -9.087369e+000 138 118 104
1.120225e+000 7.885138e-001 -8.393528e+000 161 151 120
-4.539499e-001 6.439366e-001 -7.774194e+000 172 33 38
-1.046356e+000 1.008852e+000 -9.286856e+000 135 39 38
3.462397e+000 1.560921e+000 -1.047473e+001 98 59 55
2.200101e-001 1.363693e+000 -8.910718e+000 153 139 44
1.865313e+000 1.431521e+000 -9.570149e+000 133 129 107
2.911881e+000 1.442384e+000 -9.904910e+000 87 38 24
-2.271038e-001 1.139126e+000 -8.482630e+000 30 44 24
-2.271038e-001 1.139126e+000 -8.482630e+000 30 44 24
2.513783e+000 1.182535e+000 -9.390938e+000 138 84 74
2.513783e+000 1.182535e+000 -9.390938e+000 138 84 74
1.942722e+000 1.116415e+000 -9.107222e+000 81 55 67
1.983985e+000 1.118827e+000 -9.119089e+000 122 97 101
-1.857862e-001 6.606016e-001 -7.884189e+000 79 109 120
3.229308e+000 1.419065e+000 -1.069591e+001 41 43 38
3.229308e+000 1.419065e+000 -1.069591e+001 41 43 38
2.650949e+000 1.360347e+000 -9.706252e+000 152 118 81
-2.309439e-001 1.022355e+000 -8.324172e+000 17 52 33
1.214850e+000 1.023249e+000 -8.743146e+000 143 24 27
1.214850e+000 1.023249e+000 -8.743146e+000 143 24 27
1.861942e-001 7.539668e-001 -8.104440e+000 19 47 14
-9.190335e-002 1.027747e+000 -9.688051e+000 106 104 86
4.054566e+000 8.562345e-001 -9.602271e+000 140 77 43
1.986332e+000 1.464552e+000 -9.764968e+000 129 91 67
9.520149e-001 1.403874e+000 -9.281670e+000 138 129 100
-1.151750e+000 8.835143e-001 -9.385826e+000 109 14 29
-8.624745e-001 9.209065e-001 -9.501408e+000 104 106 54
-1.137097e+000 9.711064e-001 -9.281304e+000 129 26 46
-1.085780e+000 8.905746e-001 -9.347087e+000 123 37 44
-1.059051e+000 1.067521e+000 -9.215875e+000 105 26 27
-5.254603e-001 9.872074e-001 -9.592253e+000 113 113 32
-5.235453e-001 1.004447e+000 -9.531042e+000 110 106 39
-5.233353e-001 1.006999e+000 -9.530678e+000 110 106 39
-6.438447e-002 1.078943e+000 -9.680080e+000 83 23 29
8.887757e-001 1.082429e+000 -1.011260e+001 133 73 66
8.703400e-001 1.093793e+000 -1.007731e+001 94 15 21
9.089597e-001 1.114264e+000 -1.009740e+001 89 23 24
1.507850e+000 1.078679e+000 -1.039481e+001 118 85 70
-1.091066e+000 1.135421e+000 -9.098840e+000 143 108 78
-1.063153e+000 9.837100e-001 -9.146514e+000 143 108 78
-1.075308e+000 1.173037e+000 -9.056990e+000 139 120 83
-1.057719e+000 1.192414e+000 -9.039626e+000 110 21 31
-1.057719e+000 1.192414e+000 -9.039626e+000 110 21 31
-9.523200e-001 1.162892e+000 -9.123539e+000 126 116 103
-5.475399e-001 1.124349e+000 -9.384383e+000 31 39 29
1.075520e+000 1.335507e+000 -9.905334e+000 124 65 60
1.052801e+000 1.310830e+000 -9.857511e+000 122 61 61
1.135958e+000 1.364260e+000 -9.900677e+000 122 59 59
1.207110e+000 1.312391e+000 -9.959755e+000 107 46 45
1.225777e+000 1.328078e+000 -9.933096e+000 118 51 58
1.912057e+000 1.374349e+000 -1.018872e+001 77 25 27
1.816214e+000 1.524682e+000 -9.989116e+000 104 72 57
1.440634e+000 1.463503e+000 -9.687892e+000 104 31 33
1.578760e+000 1.455035e+000 -9.852136e+000 91 19 24
3.213900e+000 1.571664e+000 -1.032034e+001 65 19 22
3.782813e+000 1.645631e+000 -1.057961e+001 34 21 26
9.538723e-001 1.388293e+000 -9.201662e+000 150 144 108
2.059802e+000 1.496786e+000 -9.640231e+000 22 54 58
3.102929e+000 1.437985e+000 -9.963566e+000 46 11 21
1.326758e+000 1.279788e+000 -9.125346e+000 151 146 112
-5.844487e-001 1.035743e+000 -8.248429e+000 153 148 15
-1.271114e+000 8.215396e-001 -7.975229e+000 112 90 67
-9.192552e-002 1.050408e+000 -8.381233e+000 30 45 29
1.129941e+000 1.087200e+000 -8.803326e+000 177 144 92
2.442834e+000 1.127728e+000 -9.224867e+000 98 67 63
2.442834e+000 1.127728e+000 -9.224867e+000 98 67 63
-1.174349e+000 7.311341e-001 -7.841390e+000 204 182 146
-5.900984e-001 9.876373e-001 -8.104285e+000 174 27 46
1.838475e+000 7.953785e-001 -8.686100e+000 156 91 85
4.652998e+000 -5.702467e-001 -8.468642e+000 128 112 102
4.870560e+000 2.452658e-001 -7.829317e+000 133 118 117
4.877920e+000 3.828563e-001 -7.771039e+000 61 51 52
4.903561e+000 3.378478e-001 -7.690064e+000 87 73 72
5.298996e+000 -1.658170e+000 -7.197299e+000 29 19 28
-1.193573e+000 8.992047e-001 -9.324131e+000 124 29 34
-1.193573e+000 8.992047e-001 -9.324131e+000 124 29 34
-1.153331e+000 8.998078e-001 -9.353086e+000 123 66 55
-7.169752e-001 9.762581e-001 -9.495288e+000 119 104 33
-3.154911e-002 1.006016e+000 -9.783540e+000 112 106 90
3.065432e-001 9.532954e-001 -9.991002e+000 123 67 59
3.730665e-001 1.071212e+000 -9.893866e+000 133 79 67
5.230648e-001 9.987672e-001 -1.005098e+001 96 37 27
6.147035e-001 1.010080e+000 -1.005980e+001 102 44 33
6.134749e-001 1.009952e+000 -1.005950e+001 102 44 33
1.394984e+000 1.079496e+000 -1.037332e+001 100 74 56
-1.127975e+000 1.068294e+000 -9.148017e+000 109 26 30
-1.115137e+000 1.111099e+000 -9.108086e+000 110 21 34
-9.985657e-001 1.119946e+000 -9.167343e+000 134 26 44
-3.774543e-001 1.125461e+000 -9.446569e+000 22 37 41
4.821781e-001 1.257453e+000 -9.704741e+000 109 56 45
4.786579e-001 1.252354e+000 -9.664059e+000 126 71 59
6.765527e-001 1.282466e+000 -9.737522e+000 128 71 60
7.045209e-001 1.319818e+000 -9.722841e+000 110 50 44
3.230328e+000 1.484374e+000 -1.061652e+001 73 74 67
3.230328e+000 1.484374e+000 -1.061652e+001 73 74 67
1.407311e+000 1.455022e+000 -9.683897e+000 128 74 56
1.404602e+000 1.457088e+000 -9.682158e+000 128 74 56
1.401295e+000 1.440348e+000 -9.777220e+000 101 25 29
1.664961e+000 1.459071e+000 -9.882461e+000 77 12 22
1.900527e+000 1.454962e+000 -9.939265e+000 112 78 61
1.373967e+000 1.472008e+000 -9.544699e+000 117 26 31
1.484699e+000 1.473835e+000 -9.613364e+000 141 62 57
1.496741e+000 1.478395e+000 -9.466744e+000 149 61 54
3.174062e+000 1.521584e+000 -1.018327e+001 151 110 78
3.176179e+000 1.488009e+000 -1.002281e+001 149 98 65
-5.741872e-001 1.067253e+000 -8.263176e+000 30 55 29
3.626040e-001 1.200589e+000 -8.646238e+000 157 150 43
2.632858e+000 1.209060e+000 -9.439096e+000 163 128 91
-1.287943e+000 7.891673e-001 -7.974918e+000 202 182 143
-1.287702e+000 7.837060e-001 -7.975257e+000 202 182 143
-6.153975e-001 9.733913e-001 -8.131413e+000 185 140 113
2.253920e+000 1.133457e+000 -9.225696e+000 141 112 99
1.984375e+000 8.369697e-001 -8.785463e+000 125 90 88
2.770635e+000 8.289925e-001 -9.059477e+000 74 47 48
8.512458e-001 7.026009e-001 -8.272576e+000 179 39 38
2.536195e+000 6.593509e-001 -8.821165e+000 152 117 108
2.342130e+000 6.421780e-001 -8.737326e+000 172 128 116
4.860104e+000 1.346608e-001 -7.765793e+000 147 129 124
4.906030e+000 4.342630e-001 -7.716862e+000 60 51 60
-1.252144e+000 8.542916e-001 -9.346906e+000 19 53 80
-8.001653e-001 8.294957e-001 -9.598060e+000 74 81 64
-8.338113e-001 9.012357e-001 -9.535603e+000 23 36 18
-5.155515e-001 9.269799e-001 -9.657472e+000 27 41 20
-5.945403e-001 1.050297e+000 -9.444946e+000 126 107 38
-3.160015e-001 1.089200e+000 -9.536742e+000 28 35 15
-3.160015e-001 1.089200e+000 -9.536742e+000 28 35 15
2.632325e-001 1.042984e+000 -9.902233e+000 123 73 63
3.879363e-001 1.133959e+000 -9.838912e+000 128 74 62
1.097056e+000 1.016845e+000 -1.022229e+001 123 73 62
-1.224490e+000 1.217042e+000 -8.969263e+000 48 68 77
-9.688734e-001 1.210525e+000 -9.077012e+000 134 31 37
-9.688734e-001 1.210525e+000 -9.077012e+000 134 31 37
4.603359e-001 1.074042e+000 -9.878831e+000 113 55 44
4.369473e-001 1.136457e+000 -9.798247e+000 134 80 68
4.369473e-001 1.136457e+000 -9.798247e+000 134 80 68
4.302905e-001 1.290825e+000 -9.671334e+000 133 80 67
1.065195e+000 1.362891e+000 -9.813443e+000 129 72 65
2.706305e+000 1.282198e+000 -1.070128e+001 102 68 56
1.321983e+000 1.422137e+000 -9.735177e+000 96 22 18
1.358527e+000 1.435850e+000 -9.733400e+000 117 59 45
2.810624e+000 1.536546e+000 -1.024109e+001 83 41 22
2.766101e+000 1.537506e+000 -1.007300e+001 86 40 20
1.523131e+000 1.263496e+000 -9.166192e+000 85 13 16
-5.709989e-001 1.068972e+000 -8.265055e+000 34 46 9
-5.668143e-001 1.061977e+000 -8.267465e+000 34 46 9
1.237260e+000 9.704289e-001 -8.684332e+000 139 19 30
1.237260e+000 9.704289e-001 -8.684332e+000 139 19 30
4.125620e+000 7.965596e-001 -9.637366e+000 143 83 43
4.012563e+000 6.367441e-001 -9.344590e+000 169 135 104
1.075773e+000 4.964499e-001 -8.197146e+000 166 115 87
-3.305648e-001 5.113887e-001 -7.681715e+000 180 40 38
4.676192e+000 -3.209501e-001 -8.395648e+000 48 36 40
4.986317e+000 -4.943719e-001 -7.540467e+000 159 141 131
4.921529e+000 4.800590e-001 -7.682875e+000 55 47 59
-4.325477e-001 9.604288e-001 -9.655942e+000 107 104 55
-8.323795e-001 1.047879e+000 -9.347070e+000 109 96 53
3.386992e-001 1.077350e+000 -9.812841e+000 130 80 65
2.009623e+000 1.273570e+000 -1.038681e+001 77 30 27
2.078192e+000 1.278460e+000 -1.041540e+001 100 62 51
1.002268e+000 1.420138e+000 -9.324403e+000 144 126 107
2.382974e+000 1.331327e+000 -9.552526e+000 135 53 43
1.899179e+000 9.181798e-001 -8.840160e+000 84 58 71
3.312394e-001 6.409218e-001 -8.028431e+000 164 152 79
3.312394e-001 6.409218e-001 -8.028431e+000 164 152 79
5.089523e+000 -1.375383e+000 -7.428966e+000 157 140 120
-7.103561e-001 9.202754e-001 -9.571292e+000 25 39 24
-6.050226e-001 9.254747e-001 -9.606973e+000 26 40 26
-7.646226e-001 1.107757e+000 -9.326271e+000 32 35 27
-6.173203e-001 9.913259e-001 -9.507772e+000 110 106 75
-4.875278e-001 1.022803e+000 -9.583011e+000 24 35 27
1.310648e+000 1.250336e+000 -1.010807e+001 116 60 47
3.623034e-001 1.306323e+000 -9.605471e+000 129 72 63
3.143362e+000 1.380254e+000 -1.069667e+001 28 31 22
2.605857e+000 1.389188e+000 -9.731078e+000 116 44 26
8.808746e-001 1.141762e+000 -8.786271e+000 161 145 115
4.022829e+000 9.407246e-001 -9.724052e+000 161 100 59
2.383403e+000 8.475139e-001 -8.935267e+000 32 16 31
-1.352435e-001 6.513457e-001 -7.890829e+000 158 149 47
4.639843e+000 -1.531032e-001 -8.314081e+000 61 50 51
4.661103e+000 1.472893e-001 -8.093136e+000 56 43 50
-1.109443e+000 1.042621e+000 -9.218882e+000 126 67 57
3.584522e+000 1.393847e+000 -1.084635e+001 82 52 44
2.489016e+000 1.242894e+000 -9.477076e+000 149 115 99
2.202588e+000 1.080777e+000 -9.144461e+000 137 112 90
1.985277e-001 9.371329e-001 -8.324831e+000 172 152 89
1.402585e+000 1.008782e+000 -8.804344e+000 15 64 99
7.779760e-001 7.614911e-001 -8.288072e+000 177 42 49
4.674938e+000 -6.994277e-001 -8.706375e+000 51 42 47
2.786994e+000 1.433938e+000 -1.011705e+001 132 92 65
-7.886083e-001 1.058860e+000 -8.185862e+000 28 82 112
-1.594624e-001 1.134572e+000 -8.490050e+000 144 136 67
-3.001762e-001 8.848932e-001 -8.184459e+000 33 58 39
5.428153e-001 6.990542e-001 -8.149949e+000 155 146 112
3.725224e+000 4.892179e-001 -9.204050e+000 182 104 38
-4.915819e-002 1.161117e+000 -9.570483e+000 109 103 88
-1.139303e+000 1.180716e+000 -8.978114e+000 126 113 95
3.382136e+000 1.486112e+000 -1.065329e+001 20 29 23
1.504200e+000 1.451379e+000 -9.775111e+000 110 27 35
1.504200e+000 1.451379e+000 -9.775111e+000 110 27 35
3.212785e+000 1.523443e+000 -1.042621e+001 93 56 47
2.155204e-001 1.156676e+000 -8.432686e+000 169 151 117
-4.316556e-001 8.903961e-001 -9.636033e+000 28 44 35
1.141910e+000 1.407641e+000 -9.561155e+000 117 27 32
1.933608e+000 1.299666e+000 -9.363092e+000 95 19 29
1.095162e+000 1.320819e+000 -9.027614e+000 146 23 34
-6.963848e-001 5.853341e-001 -9.816915e+000 39 59 59
-1.140767e+000 7.863392e-001 -9.504728e+000 96 104 67
-4.551292e-001 8.162246e-001 -9.774317e+000 106 117 83
-4.551292e-001 8.162246e-001 -9.774317e+000 106 117 83
3.044049e-001 6.144259e-001 -1.023135e+001 120 72 75
3.044049e-001 6.144259e-001 -1.023135e+001 120 72 75
2.374968e-001 7.607584e-001 -1.012050e+001 119 66 73
3.339835e+000 4.493206e-001 -1.164814e+001 24 18 30
3.232955e+000 5.847394e-001 -1.153870e+001 115 66 59
-1.503734e+000 8.643431e-001 -9.217458e+000 14 43 72
-3.869272e-001 9.921218e-001 -9.722555e+000 115 119 116
-6.801150e-002 9.691925e-001 -9.807678e+000 82 28 32
1.566850e-001 9.596798e-001 -9.934246e+000 96 31 35
8.245503e-001 1.030242e+000 -1.015829e+001 82 21 20
2.195323e+000 7.619670e-001 -1.091960e+001 93 64 59
3.029831e+000 9.458560e-001 -1.115445e+001 45 55 46
-1.024578e+000 1.002486e+000 -9.307541e+000 134 120 108
-1.049386e+000 1.088885e+000 -9.194593e+000 112 34 31
-1.011946e+000 1.106303e+000 -9.196853e+000 117 25 27
-5.442891e-002 1.038294e+000 -9.742476e+000 76 21 27
-2.052646e-002 1.095358e+000 -9.682053e+000 85 33 39
5.246514e-001 1.075990e+000 -9.991050e+000 107 48 40
3.145695e+000 9.767877e-001 -1.114607e+001 26 32 28
-1.080022e+000 1.156299e+000 -9.081573e+000 101 21 16
-1.079563e+000 1.164804e+000 -9.079158e+000 101 21 16
-4.657007e-001 1.172393e+000 -9.356118e+000 101 96 58
9.378710e-001 1.210297e+000 -9.998195e+000 84 22 20
1.288887e+000 1.199278e+000 -1.012346e+001 129 66 56
-1.891998e+000 1.153179e+000 -8.544292e+000 126 63 56
9.887996e-001 1.431208e+000 -9.506396e+000 126 39 42
-2.118537e+000 6.751984e-001 -8.209969e+000 160 20 31
3.269071e+000 1.519044e+000 -1.037220e+001 106 62 56
1.808959e+000 1.453859e+000 -9.556986e+000 23 59 82
1.992564e+000 1.432588e+000 -9.585180e+000 71 100 109
1.366066e+000 1.274708e+000 -9.116623e+000 25 60 81
2.052622e+000 1.328175e+000 -9.461235e+000 68 101 113
2.263838e+000 1.185498e+000 -9.300927e+000 132 105 84
2.553639e+000 1.202402e+000 -9.510164e+000 138 109 93
2.345193e+000 1.046954e+000 -9.172832e+000 40 17 10
-4.625452e-001 8.469945e-001 -8.068288e+000 166 156 117
-4.625452e-001 8.469945e-001 -8.068288e+000 166 156 117
1.195205e+000 9.397831e-001 -8.634082e+000 187 134 94
2.005849e+000 8.749318e-001 -8.851056e+000 87 64 70
1.903855e+000 7.773947e-001 -8.710451e+000 158 101 85
3.939471e+000 7.151617e-001 -9.398464e+000 147 52 37
3.939471e+000 7.151617e-001 -9.398464e+000 147 52 37
-5.324622e-001 6.497634e-001 -7.743180e+000 188 153 109
-5.112625e-001 6.867023e-001 -7.810665e+000 192 148 104
8.436831e-001 7.318547e-001 -8.293077e+000 164 147 115
8.436831e-001 7.318547e-001 -8.293077e+000 164 147 115
2.551529e+000 6.429829e-001 -8.824696e+000 150 113 97
5.170977e+000 -2.029457e+000 -7.468050e+000 66 60 62
-6.755156e-001 3.362090e-001 -9.940980e+000 59 91 137
1.409270e+000 7.819660e-001 -1.063578e+001 93 63 61
3.175038e-001 9.661445e-001 -1.001769e+001 150 97 101
3.336419e-001 1.007295e+000 -9.976718e+000 130 81 67
4.756920e-001 9.644466e-001 -1.009756e+001 119 64 67
8.165249e-001 1.069963e+000 -1.019473e+001 88 27 32
1.523794e+000 8.233722e-001 -1.059998e+001 93 62 57
1.763925e+000 8.928517e-001 -1.066597e+001 98 63 61
1.857323e+000 8.751381e-001 -1.074314e+001 96 66 64
-7.968524e-001 1.061538e+000 -9.332978e+000 108 105 28
4.031072e-002 1.018818e+000 -9.725896e+000 108 95 79
9.854587e-001 1.072377e+000 -1.007438e+001 86 20 24
1.182144e+000 1.251330e+000 -1.015292e+001 110 102 74
2.698980e+000 1.005864e+000 -1.089601e+001 79 40 34
-1.159153e+000 1.160196e+000 -9.057343e+000 40 59 67
-1.080161e+000 1.182694e+000 -9.056475e+000 138 109 81
5.081150e-001 1.211666e+000 -9.719971e+000 99 39 36
9.333605e-001 1.191527e+000 -9.946299e+000 96 31 27
5.168674e-001 1.294772e+000 -9.691869e+000 133 77 64
5.168674e-001 1.294772e+000 -9.691869e+000 133 77 64
6.463925e-001 1.236020e+000 -9.759668e+000 112 58 48
6.699488e-001 1.294897e+000 -9.733484e+000 127 73 61
1.023421e+000 1.373064e+000 -9.869330e+000 101 41 36
4.011644e+000 1.455144e+000 -1.057541e+001 29 19 28
2.787594e+000 1.447768e+000 -9.989111e+000 139 99 66
-1.470226e+000 9.408563e-001 -8.275230e+000 190 167 133
2.266988e+000 1.315586e+000 -9.606872e+000 153 28 42
-6.155424e-001 1.115750e+000 -8.248938e+000 149 140 27
1.601911e+000 1.228382e+000 -9.123873e+000 79 57 72
1.652552e+000 1.139910e+000 -9.095145e+000 78 56 68
-1.240760e+000 8.847665e-001 -7.947053e+000 203 185 143
1.247278e+000 1.075901e+000 -8.847236e+000 148 22 35
1.181079e+000 1.072888e+000 -8.792750e+000 147 19 27
2.600302e+000 1.093272e+000 -9.343285e+000 72 51 58
2.791812e+000 8.885280e-001 -9.203989e+000 69 52 53
-5.017909e-001 8.234005e-001 -7.977084e+000 193 148 109
1.398556e+000 8.317202e-001 -8.616557e+000 170 65 62
1.591833e+000 8.004529e-001 -8.613428e+000 17 70 88
2.147228e+000 7.439053e-001 -8.766129e+000 144 112 107
4.090003e+000 5.596021e-001 -9.360764e+000 180 130 98
-5.246618e-001 5.172336e-001 -7.792454e+000 191 36 40
-5.623141e-001 6.495128e-001 -7.737865e+000 178 44 51
-1.729243e-001 5.201883e-001 -7.951091e+000 34 52 31
1.052369e+000 5.673586e-001 -8.216971e+000 155 100 79
2.939377e+000 5.332800e-001 -8.911335e+000 168 138 99
2.939377e+000 5.332800e-001 -8.911335e+000 168 138 99
4.070009e+000 3.967480e-001 -9.256447e+000 46 25 32
4.354282e+000 4.883994e-001 -9.404236e+000 30 19 14
4.699663e+000 -3.327856e-001 -8.340113e+000 135 121 116
4.652768e+000 -7.899187e-002 -8.235142e+000 62 51 52
4.741888e+000 -3.190532e-001 -8.059712e+000 131 115 99
4.808711e+000 1.727851e-001 -7.967466e+000 49 37 38
2.637981e-001 5.643933e-001 -1.017172e+001 138 93 99
2.813773e-001 1.073889e+000 -9.924810e+000 102 48 36
9.723402e-001 9.413053e-001 -1.023906e+001 123 68 67
9.783364e-001 9.763781e-001 -1.026227e+001 106 42 43
1.681210e+000 9.753944e-001 -1.054758e+001 98 60 46
1.739538e+000 9.532369e-001 -1.059504e+001 123 93 85
