ply
format ascii 1.0
element face 0
property list uchar int vertex_indices
element vertex 875
property float x
property float y
property float z
property uchar diffuse_red
property uchar diffuse_green
property uchar diffuse_blue
end_header
-1.766175e-001 -4.571992e-001 -8.007888e+000 42 85 86
2.620679e+000 -3.561067e-001 -9.109470e+000 188 77 76
3.446821e+000 -3.499037e-001 -9.477614e+000 181 99 57
3.997294e+000 -2.890415e-001 -9.754050e+000 169 128 111
4.758163e-001 -5.185726e-001 -8.339480e+000 163 143 106
3.197223e+000 -4.132134e-001 -9.440157e+000 188 85 46
3.413192e+000 -3.570943e-001 -9.509346e+000 182 98 60
3.379453e+000 -4.384474e-001 -9.563505e+000 160 114 81
3.968338e+000 -3.322649e-001 -9.793465e+000 158 123 102
-5.069275e-001 -4.188707e-001 -8.119864e+000 171 27 32
-3.432112e-001 -5.911025e-001 -8.080323e+000 25 69 65
-3.432112e-001 -5.911025e-001 -8.080323e+000 25 69 65
4.550652e-001 -5.702957e-001 -8.403139e+000 159 145 106
5.819795e-001 -5.548145e-001 -8.427318e+000 135 68 65
5.819795e-001 -5.548145e-001 -8.427318e+000 135 68 65
5.672413e-001 -5.613978e-001 -8.455620e+000 150 136 109
3.237913e+000 -4.683837e-001 -9.540233e+000 175 129 96
3.117217e+000 -4.914463e-001 -9.525658e+000 179 136 101
3.928456e+000 -4.605049e-001 -9.926459e+000 158 126 104
1.803101e+000 -6.356727e-001 -9.080614e+000 115 68 60
3.187944e+000 -5.934498e-001 -9.665449e+000 168 124 90
-6.482295e-001 -7.070409e-001 -8.120547e+000 192 147 108
-5.517345e-001 -7.013829e-001 -8.081929e+000 172 27 36
8.566605e-001 -6.719890e-001 -8.748050e+000 25 70 100
1.875405e+000 -6.768390e-001 -9.168421e+000 97 60 45
1.875405e+000 -6.768390e-001 -9.168421e+000 97 60 45
2.262216e+000 -6.925592e-001 -9.387384e+000 153 14 35
2.331951e+000 -6.640374e-001 -9.356008e+000 146 16 29
2.555347e+000 -6.460790e-001 -9.475038e+000 150 25 33
3.023754e+000 -6.925228e-001 -9.729943e+000 172 128 98
3.794908e+000 -5.697118e-001 -1.001292e+001 94 75 64
3.922459e+000 -5.973530e-001 -1.002863e+001 92 31 24
-5.276685e-001 -7.742777e-001 -8.271976e+000 147 140 24
1.376078e-001 -7.605528e-001 -8.506887e+000 163 150 42
1.019124e+000 -1.961048e-001 -9.625024e+000 27 76 112
1.019124e+000 -1.961048e-001 -9.625024e+000 27 76 112
1.585714e+000 -7.298308e-001 -9.114276e+000 119 68 70
1.916225e+000 -7.802421e-001 -9.334574e+000 112 69 62
1.916225e+000 -7.802421e-001 -9.334574e+000 112 69 62
2.469741e+000 -7.350815e-001 -9.519516e+000 147 30 31
3.385744e+000 -7.185808e-001 -9.964668e+000 188 154 124
-2.750019e-001 -8.192426e-001 -8.448583e+000 156 152 32
4.514858e-002 -7.982585e-001 -8.553885e+000 157 151 21
1.446350e+000 -8.301266e-001 -9.213024e+000 116 65 59
2.395621e+000 -8.068812e-001 -9.635363e+000 156 22 37
2.395339e+000 -8.071798e-001 -9.634796e+000 156 22 37
3.768479e+000 -8.727243e-001 -1.020654e+001 74 9 23
1.515986e+000 -8.804134e-001 -9.497058e+000 164 26 37
1.482429e+000 -9.101973e-001 -9.481171e+000 172 35 50
1.655434e+000 -8.922376e-001 -9.536108e+000 174 34 47
3.449957e+000 1.002778e-001 -9.121720e+000 210 109 48
3.786355e+000 2.538099e-001 -9.245053e+000 77 46 26
1.971265e+000 -4.772009e-002 -8.615560e+000 117 74 62
2.435978e+000 -5.312627e-005 -8.781427e+000 163 39 47
2.997421e+000 -1.102392e-001 -9.078998e+000 106 49 28
3.333649e+000 -1.400351e-001 -9.253668e+000 185 117 46
3.595702e+000 -1.153558e-001 -9.330251e+000 214 131 65
3.595702e+000 -1.153558e-001 -9.330251e+000 214 131 65
-9.063974e-002 -3.210957e-001 -7.949738e+000 49 87 80
-4.786779e-001 -4.531210e-001 -7.902426e+000 175 26 30
2.301727e-001 -4.544583e-001 -8.170740e+000 165 156 13
2.301727e-001 -4.544583e-001 -8.170740e+000 165 156 13
-2.398629e-001 -1.464297e+000 -7.000605e+000 43 84 89
-2.398629e-001 -1.464297e+000 -7.000605e+000 43 84 89
2.152833e+000 -4.549569e-001 -9.015563e+000 96 45 34
2.343195e+000 -4.077946e-001 -9.041655e+000 202 81 86
2.706721e+000 -3.929755e-001 -9.183132e+000 147 8 28
2.895349e+000 -4.421441e-001 -9.331746e+000 122 69 64
3.963086e+000 -3.674449e-001 -9.839583e+000 169 140 124
-9.819909e-001 -5.611806e-001 -7.805363e+000 26 99 124
4.897261e-001 -5.502553e-001 -8.377400e+000 154 144 117
8.214424e-001 -5.600943e-001 -8.544095e+000 153 25 35
-2.812857e-001 -6.177218e-001 -8.126087e+000 21 45 24
4.887858e-001 -6.277337e-001 -8.490101e+000 146 141 117
3.858314e+000 -5.599242e-001 -9.900742e+000 158 128 107
-2.489404e-001 -6.740130e-001 -8.260160e+000 153 139 22
-2.489404e-001 -6.740130e-001 -8.260160e+000 153 139 22
-5.146254e-002 -6.911291e-001 -8.354261e+000 163 149 20
1.896101e+000 -7.157284e-001 -9.232740e+000 184 114 82
2.697883e+000 -6.791181e-001 -9.547079e+000 137 78 74
3.430485e+000 -6.149242e-001 -9.832947e+000 187 152 118
-6.222964e-001 -7.421684e-001 -8.173464e+000 177 36 45
1.465604e+000 -7.933944e-001 -9.150825e+000 99 49 35
1.465668e+000 -7.934191e-001 -9.150831e+000 99 49 35
2.360292e+000 -7.553582e-001 -9.538291e+000 146 16 28
1.764776e+000 -8.022731e-001 -9.415275e+000 188 125 113
2.400770e+000 -7.982040e-001 -9.584865e+000 153 22 38
2.111677e+000 -8.947553e-001 -9.590546e+000 175 131 100
3.844077e+000 -8.613074e-001 -1.051793e+001 190 162 112
-1.217948e+000 -1.019623e+000 -8.414902e+000 161 155 152
1.907700e+000 -8.182044e-002 -8.598486e+000 183 121 81
2.174015e+000 -9.134974e-002 -8.680246e+000 185 123 82
1.811664e+000 -1.275505e-001 -8.585169e+000 188 128 73
1.808876e+000 -1.323756e-001 -8.579936e+000 188 128 73
-5.188768e-001 -4.570591e-001 -7.892891e+000 170 28 32
-5.219570e-001 -4.653455e-001 -7.884212e+000 170 28 32
-1.457060e+000 -4.026386e-001 -7.652626e+000 188 156 117
3.241116e+000 -8.567288e-002 -9.784517e+000 189 117 89
1.814007e+000 -4.970381e-001 -8.913375e+000 182 111 84
9.200958e-001 -6.118134e-001 -8.655871e+000 15 49 74
1.831200e+000 -6.719926e-001 -9.124461e+000 177 114 82
1.831200e+000 -6.719926e-001 -9.124461e+000 177 114 82
1.919213e+000 -6.770463e-001 -9.189149e+000 182 113 90
1.919469e+000 -6.774167e-001 -9.189034e+000 182 113 90
1.350855e+000 -7.509461e-001 -9.071302e+000 186 116 95
1.789033e+000 -7.540161e-001 -9.251988e+000 179 118 95
1.305241e+000 -8.362451e-001 -9.178617e+000 179 117 96
1.306088e+000 -8.344804e-001 -9.180424e+000 179 117 96
1.978264e+000 -7.579869e-001 -9.490767e+000 182 121 102
4.293208e+000 1.496964e-001 -9.397756e+000 29 24 33
4.093883e+000 -5.004740e-003 -9.516762e+000 159 82 33
4.087899e+000 -6.474820e-003 -9.513066e+000 159 82 33
1.447755e+000 -5.257020e-001 -8.793262e+000 179 113 86
2.152031e+000 -6.691446e-001 -9.288824e+000 182 115 89
2.212275e+000 -6.536888e-001 -9.323459e+000 158 25 38
1.823751e+000 -8.838882e-001 -9.510374e+000 154 32 44
3.877187e+000 -3.052611e-001 -9.695425e+000 93 67 68
3.831544e+000 -6.653626e-001 -1.010008e+001 125 99 77
1.761065e+000 -8.443962e-001 -9.450010e+000 186 121 104
1.564728e+000 -9.137048e-001 -9.470588e+000 181 99 81
1.975145e-001 -3.033615e-003 -7.793344e+000 150 143 115
3.413477e+000 -5.749240e-002 -9.174043e+000 160 62 34
3.593635e+000 -2.466754e-001 -9.464002e+000 193 152 119
-9.540718e-001 -4.486699e-001 -7.811879e+000 28 87 117
-9.774036e-001 -5.537301e-001 -7.857622e+000 19 87 111
-4.572469e-001 -8.180840e-001 -8.346954e+000 118 121 103
1.367450e+000 -8.754199e-001 -9.277276e+000 188 122 105
1.465420e+000 -8.674207e-001 -9.320054e+000 194 127 112
3.053602e+000 -2.478924e-001 -9.245935e+000 180 123 81
-8.169450e-002 -5.621021e-001 -8.249133e+000 78 106 107
1.915716e+000 -5.926027e-001 -9.066006e+000 178 111 84
1.568407e+000 -8.408512e-001 -9.765351e+000 189 93 94
3.597387e-001 -4.821376e-001 -8.281644e+000 152 144 116
2.112482e+000 -5.864453e-001 -9.212998e+000 189 119 86
1.108706e+000 -4.305138e-002 -8.364752e+000 147 160 142
1.096732e+000 -7.946184e-002 -8.321020e+000 147 160 142
2.063805e+000 3.166375e-001 -8.813321e+000 187 123 85
3.177997e+000 -6.956174e-001 -1.004243e+001 173 130 98
1.492767e+000 -9.719949e-001 -8.660370e+000 134 68 41
-1.782758e+001 2.074966e+001 -3.835035e+001 75 60 53
1.592010e+000 2.046840e-001 -8.318602e+000 191 144 98
2.385381e-002 -2.125604e-001 -7.904818e+000 137 143 21
1.027682e-002 -2.447230e-001 -7.941347e+000 19 41 23
3.287272e+000 -1.649028e-001 -9.247909e+000 124 55 6
-1.148440e-001 -2.903053e-001 -7.897886e+000 155 154 29
8.775049e-001 -3.186951e-001 -8.353785e+000 191 160 121
2.383130e+000 -2.202761e-001 -8.902477e+000 193 83 78
2.022619e-001 -3.576060e-001 -8.116143e+000 102 126 119
-9.842588e-001 -5.401205e-001 -7.815307e+000 20 91 138
4.787242e-001 -6.691080e-001 -8.232881e+000 155 169 143
5.187484e-001 -6.012890e-001 -8.473381e+000 169 157 145
-2.239358e-001 -6.815626e-001 -8.250747e+000 155 154 27
-1.320728e-001 -7.279256e-001 -8.362668e+000 159 161 30
6.514300e-002 -6.770659e-001 -8.379768e+000 21 55 20
-6.500001e-001 -7.514887e-001 -8.178395e+000 196 150 113
-5.570436e-001 -8.035526e-001 -8.292741e+000 173 171 53
-1.555444e-001 -7.807729e-001 -8.430248e+000 170 160 46
4.128769e-002 -8.032261e-001 -8.544622e+000 170 172 51
-1.392040e-001 -8.260786e-001 -8.496100e+000 166 165 43
2.668117e+000 -1.678758e-001 -8.983354e+000 202 92 85
2.666352e+000 -1.691882e-001 -8.981073e+000 202 92 85
3.423669e+000 -2.701701e-001 -9.397265e+000 184 85 43
-1.567206e+000 -9.166195e-002 -8.020413e+000 177 150 121
1.803315e-001 -5.111128e-001 -8.196230e+000 165 155 21
2.437982e+000 -4.841776e-001 -9.148675e+000 205 93 85
2.540960e+000 -5.807713e-001 -9.342712e+000 201 84 81
2.088127e+000 -7.611618e-001 -9.352481e+000 137 87 76
-9.877617e+000 3.302548e+001 -3.887456e+001 100 86 83
-5.883870e-001 -5.307503e-001 -7.920601e+000 182 29 41
-5.883870e-001 -5.307503e-001 -7.920601e+000 182 29 41
1.395512e+000 -7.521620e-001 -9.058739e+000 126 77 73
1.396103e+000 -7.511243e-001 -9.059886e+000 126 77 73
2.063320e+000 -7.374670e-001 -9.339094e+000 199 134 112
3.234023e+000 -6.979870e-001 -9.820703e+000 141 106 87
2.543906e+000 -7.843689e-001 -9.615548e+000 159 21 34
-6.211572e-001 -8.335411e-001 -8.297233e+000 195 39 40
1.356133e+000 -2.600425e-002 -8.344886e+000 91 47 43
-9.438401e+000 3.499642e+001 -3.627682e+001 109 94 90
-1.012596e+001 3.328130e+001 -3.805409e+001 112 92 89
4.393856e-001 -8.644539e-002 -8.010709e+000 163 153 128
-1.584047e+001 2.100595e+001 -3.719527e+001 119 100 85
3.596781e-001 -6.348648e-002 -7.938245e+000 167 152 116
1.925784e-001 -1.208265e-001 -7.923120e+000 26 48 23
9.281069e-001 -6.649333e-002 -8.189833e+000 195 141 101
1.710880e+000 2.059049e+000 -1.047254e+001 144 23 21
3.758855e+000 1.091683e-002 -9.313963e+000 183 151 122
1.087517e-001 -2.388606e-001 -7.949037e+000 150 143 33
9.167627e-001 -1.957846e-001 -8.274543e+000 146 13 29
9.298988e-001 -2.087488e-001 -8.288647e+000 195 133 105
3.287254e+000 -1.472292e-001 -9.223817e+000 128 60 26
3.287254e+000 -1.472292e-001 -9.223817e+000 128 60 26
3.710012e+000 -5.437970e-002 -9.343785e+000 55 22 15
-1.131757e-001 -3.207706e-001 -7.939539e+000 153 142 33
8.796565e-001 -2.982714e-001 -8.329689e+000 194 150 104
3.165851e+000 -2.301117e-001 -9.259129e+000 122 52 7
3.334194e+000 -1.819848e-001 -9.311337e+000 184 66 47
3.288886e+000 -2.617247e-001 -9.321242e+000 168 61 39
3.943203e+000 -1.230468e-001 -9.528697e+000 168 101 55
4.118308e+000 -1.056624e-001 -9.654259e+000 40 2 4
-1.544627e-001 -4.573453e-001 -8.017270e+000 148 137 12
4.814830e-001 -3.937117e-001 -8.226922e+000 117 30 22
4.814830e-001 -3.937117e-001 -8.226922e+000 117 30 22
8.669057e-001 -4.301886e-001 -8.419907e+000 137 10 4
3.208371e+000 -2.690765e-001 -9.301677e+000 106 24 18
-9.769243e-001 -5.152839e-001 -7.789283e+000 30 76 117
-5.024905e-001 -4.788153e-001 -7.908645e+000 205 135 95
-5.023758e-001 -4.837187e-001 -7.904217e+000 205 135 95
-2.555075e-001 1.035333e-001 -8.577602e+000 20 43 16
-3.623893e-001 -5.487047e-001 -7.994352e+000 21 46 29
4.709733e-001 -4.700776e-001 -8.294913e+000 130 20 19
5.341783e-001 -4.561110e-001 -8.304988e+000 157 146 119
8.638510e-001 -4.969143e-001 -8.480355e+000 191 140 108
8.635053e-001 -4.976758e-001 -8.479464e+000 191 140 108
8.572124e-001 -5.206227e-001 -8.507278e+000 189 146 101
2.316293e+000 -4.812316e-001 -9.100379e+000 185 64 71
2.375318e+000 -4.308914e-001 -9.108140e+000 143 19 22
2.609726e+000 -4.061764e-001 -9.158975e+000 186 68 72
2.739697e+000 -3.965085e-001 -9.216072e+000 195 123 83
3.214273e+000 -4.306494e-001 -9.460828e+000 117 44 18
3.258290e+000 -4.254009e-001 -9.511040e+000 161 116 83
3.534650e+000 -3.695716e-001 -9.576298e+000 184 155 127
3.898464e+000 -3.232770e-001 -9.722922e+000 41 13 11
-8.905926e-001 -5.459658e-001 -7.834749e+000 26 84 108
-6.559237e-001 -5.471938e-001 -7.913496e+000 187 137 99
-6.559237e-001 -5.471938e-001 -7.913496e+000 187 137 99
-6.188658e-001 -5.647909e-001 -7.956302e+000 187 145 105
-5.537186e-001 -5.500175e-001 -7.947676e+000 194 143 97
-1.132530e-001 -5.769426e-001 -8.117629e+000 160 149 34
2.875063e-002 -5.644842e-001 -8.196345e+000 156 146 19
5.269611e-001 -5.307324e-001 -8.376241e+000 114 15 19
5.269611e-001 -5.307324e-001 -8.376241e+000 114 15 19
8.475274e-001 -5.415785e-001 -8.531851e+000 183 144 107
1.307333e+000 -5.564568e-001 -8.754285e+000 169 113 98
2.617172e+000 -4.790436e-001 -9.260582e+000 146 16 28
2.644952e+000 -4.732018e-001 -9.260232e+000 185 66 64
3.206267e+000 -5.044760e-001 -9.549034e+000 173 129 93
3.411722e+000 -4.694553e-001 -9.611116e+000 166 123 90
-6.206259e-001 -6.076654e-001 -8.003003e+000 162 33 31
-6.612515e-001 -6.653376e-001 -8.059337e+000 186 147 108
-5.688235e-001 -6.679591e-001 -8.095772e+000 194 125 92
-5.689700e-001 -6.698719e-001 -8.093912e+000 194 125 92
-2.514052e-001 -6.070669e-001 -8.254627e+000 156 144 52
2.032852e-003 -6.293231e-001 -8.291830e+000 152 148 25
4.471617e-001 -6.312559e-001 -8.470965e+000 159 128 110
4.480965e-001 -6.281056e-001 -8.474856e+000 159 128 110
4.962710e-001 -6.023254e-001 -8.467432e+000 102 18 20
4.962710e-001 -6.023254e-001 -8.467432e+000 102 18 20
4.395232e-001 -6.555440e-001 -8.496869e+000 150 140 115
8.242990e-001 -5.994782e-001 -8.600050e+000 200 140 111
7.710330e-001 -6.617567e-001 -8.664973e+000 194 149 103
7.710330e-001 -6.617567e-001 -8.664973e+000 194 149 103
7.970039e-001 -6.618175e-001 -8.673730e+000 173 149 92
2.290182e+000 -6.208177e-001 -9.275588e+000 151 16 36
2.840193e+000 -6.033877e-001 -9.513926e+000 76 24 26
2.838384e+000 -6.053076e-001 -9.511265e+000 76 24 26
3.135853e+000 -5.671034e-001 -9.576711e+000 170 125 91
3.154093e+000 -5.479814e-001 -9.602436e+000 170 125 91
3.182774e+000 -6.075645e-001 -9.703292e+000 164 126 93
3.286901e+000 -6.247870e-001 -9.723190e+000 168 127 96
-6.095496e-001 -6.844978e-001 -8.104796e+000 191 133 103
-5.890806e-001 -6.816941e-001 -8.096600e+000 162 22 25
-6.007142e-001 -7.001317e-001 -8.145213e+000 171 30 39
-3.614099e-001 -6.809802e-001 -8.192701e+000 155 147 26
-4.177541e-001 -7.360471e-001 -8.247646e+000 75 93 70
7.776376e-001 -6.753581e-001 -8.683648e+000 146 10 22
7.776058e-001 -6.757606e-001 -8.683167e+000 146 10 22
1.506390e+000 -6.906593e-001 -9.024330e+000 172 115 90
2.361271e+000 -6.759284e-001 -9.385508e+000 175 61 54
2.292714e+000 -7.020845e-001 -9.403939e+000 184 71 71
2.515011e+000 -6.492571e-001 -9.431043e+000 180 60 67
2.527570e+000 -6.879860e-001 -9.490728e+000 142 15 25
3.293351e+000 -6.791866e-001 -9.869213e+000 166 126 100
3.430205e+000 -6.801465e-001 -9.905427e+000 41 23 35
3.850217e+000 -6.469177e-001 -1.011125e+001 159 134 115
7.654342e-001 -7.363105e-001 -8.761428e+000 192 142 113
7.409526e-001 -7.849619e-001 -8.815433e+000 188 147 104
1.559131e+000 -7.665304e-001 -9.157219e+000 180 119 93
1.830996e+000 -7.621615e-001 -9.272837e+000 188 121 94
1.830996e+000 -7.621615e-001 -9.272837e+000 188 121 94
3.836813e+000 -7.559069e-001 -1.023164e+001 169 131 105
-5.683573e-001 -8.226429e-001 -8.320355e+000 147 137 41
-5.800037e-001 -8.286115e-001 -8.371594e+000 142 143 35
7.042225e-001 -8.043057e-001 -8.834731e+000 180 153 114
1.605093e+000 -8.474537e-001 -9.321432e+000 181 124 98
2.322385e+000 -8.129558e-001 -9.618178e+000 142 15 27
3.373055e+000 -7.902619e-001 -1.005148e+001 38 17 17
3.741875e+000 -7.682672e-001 -1.020422e+001 31 11 4
1.205377e+000 -8.932888e-001 -9.291099e+000 180 52 56
1.381566e+000 -8.984410e-001 -9.352115e+000 166 47 49
2.969733e+000 -8.646111e-001 -1.017745e+001 151 85 61
4.219961e+000 2.354383e-001 -9.358378e+000 56 17 19
4.219961e+000 2.354383e-001 -9.358378e+000 56 17 19
2.472232e+000 3.905553e-002 -8.765583e+000 147 15 25
2.472232e+000 3.905553e-002 -8.765583e+000 147 15 25
3.730706e+000 1.197004e-001 -9.227258e+000 72 38 27
2.507572e+000 -8.739789e-002 -8.854047e+000 154 26 30
2.507572e+000 -8.739789e-002 -8.854047e+000 154 26 30
2.678669e+000 -8.266309e-002 -8.917451e+000 172 54 46
4.093887e+000 8.851660e-002 -9.446827e+000 182 101 43
4.183897e+000 9.179685e-002 -9.468833e+000 45 15 13
4.158666e+000 3.513212e-002 -9.511622e+000 46 14 12
2.489138e+000 -1.406870e-001 -8.872952e+000 151 21 29
2.502142e+000 -1.714483e-001 -8.946739e+000 150 20 28
3.349055e+000 -8.450776e-002 -9.217102e+000 177 104 43
4.142165e+000 -6.992677e-002 -9.548276e+000 138 72 38
-1.583398e-001 -3.083812e-001 -7.914580e+000 27 45 16
-1.583398e-001 -3.083812e-001 -7.914580e+000 27 45 16
3.617681e+000 -2.074668e-001 -9.440553e+000 202 134 82
4.145426e+000 -1.524458e-001 -9.633429e+000 28 12 23
3.334978e+000 -3.388315e-001 -9.422607e+000 182 72 39
-5.852674e-001 -4.983846e-001 -7.889263e+000 174 24 26
-5.852674e-001 -4.983846e-001 -7.889263e+000 174 24 26
-3.737200e-001 -4.255063e-001 -8.088749e+000 158 146 18
5.109418e-002 -5.193959e-001 -8.154919e+000 155 139 21
5.109418e-002 -5.193959e-001 -8.154919e+000 155 139 21
2.021735e-001 -5.263433e-001 -8.210181e+000 21 44 35
1.263564e+000 -4.744646e-001 -8.623305e+000 137 83 71
1.225908e+000 -5.093435e-001 -8.654914e+000 173 110 88
1.338909e+000 -4.786974e-001 -8.665039e+000 68 24 18
2.439033e+000 -4.863210e-001 -9.155739e+000 182 65 66
2.631620e+000 -3.911190e-001 -9.152045e+000 158 5 36
2.631574e+000 -4.210743e-001 -9.186287e+000 141 17 30
3.312252e+000 -5.040260e-001 -9.466199e+000 160 114 81
4.528430e-001 -5.307559e-001 -8.346979e+000 105 16 18
4.544498e-001 -5.715672e-001 -8.401169e+000 159 145 106
1.845133e+000 -5.052796e-001 -8.914419e+000 181 115 91
1.846170e+000 -5.049672e-001 -8.914926e+000 181 115 91
2.382876e+000 -5.359307e-001 -9.176287e+000 153 25 35
2.985460e+000 -4.827105e-001 -9.421003e+000 162 73 42
4.096833e+000 -3.722063e-001 -1.001544e+001 137 83 61
-6.663723e-001 -5.906880e-001 -8.024617e+000 170 31 38
2.810639e-002 -6.218436e-001 -8.263266e+000 154 145 28
2.515603e+000 -6.166726e-001 -9.378646e+000 195 71 79
2.848595e+000 -5.793054e-001 -9.485435e+000 103 55 40
3.240602e+000 -6.127746e-001 -9.721292e+000 169 128 96
-6.664740e-001 -6.811111e-001 -8.088694e+000 184 151 96
-6.060058e-001 -7.185808e-001 -8.147774e+000 173 25 33
1.788794e+000 -6.738419e-001 -9.120525e+000 108 60 55
1.788794e+000 -6.738419e-001 -9.120525e+000 108 60 55
2.324064e+000 -7.162551e-001 -9.413523e+000 152 15 34
2.553858e+000 -6.985684e-001 -9.495476e+000 181 65 66
2.761899e+000 -6.783469e-001 -9.596257e+000 184 116 90
3.269950e+000 -6.314845e-001 -9.772957e+000 71 33 14
3.269950e+000 -6.314845e-001 -9.772957e+000 71 33 14
3.848856e+000 -5.797383e-001 -1.002845e+001 160 131 113
-6.183569e-001 -7.734712e-001 -8.216863e+000 181 148 101
-5.636721e-001 -7.884310e-001 -8.271158e+000 77 98 93
-6.298652e-002 -7.586925e-001 -8.440015e+000 153 141 39
-6.298652e-002 -7.586925e-001 -8.440015e+000 153 141 39
1.393905e+000 -7.600597e-001 -9.068438e+000 129 75 75
1.493881e+000 -7.323882e-001 -9.075703e+000 102 54 50
1.646564e+000 -7.848644e-001 -9.223770e+000 108 57 35
1.649065e+000 -7.809716e-001 -9.229079e+000 108 57 35
2.244965e+000 -7.303587e-001 -9.444017e+000 153 17 38
2.376558e+000 -7.581950e-001 -9.507431e+000 196 78 87
2.484031e+000 -7.815003e-001 -9.599542e+000 161 25 45
2.671425e+000 -7.522928e-001 -9.648086e+000 59 17 28
2.075500e+000 -8.389045e-001 -9.489649e+000 183 116 99
2.197468e+000 -8.156523e-001 -9.545006e+000 151 28 38
3.906251e+000 1.561175e-001 -9.285759e+000 190 160 129
2.151201e+000 -4.508471e-002 -8.678150e+000 90 39 23
4.075109e+000 1.325891e-002 -9.494997e+000 184 92 32
1.940952e+000 -1.355975e-001 -8.648658e+000 114 76 53
2.419066e+000 -9.959330e-002 -8.833239e+000 154 40 39
3.962348e+000 -2.794690e-002 -9.446117e+000 149 73 19
-8.912343e-002 -3.224200e-001 -7.949056e+000 49 87 80
8.141941e-002 -2.931545e-001 -8.003607e+000 169 150 37
3.869831e+000 -1.659685e-001 -9.523222e+000 171 90 33
4.100414e+000 -2.178591e-001 -9.730775e+000 132 58 32
2.148166e+000 -4.608525e-001 -9.007146e+000 96 45 34
2.193871e+000 -4.527965e-001 -9.021027e+000 187 120 95
-1.745173e+000 4.516559e-001 -8.665556e+000 180 150 115
-5.895405e-001 -5.818990e-001 -7.978960e+000 168 27 31
-5.895405e-001 -5.818990e-001 -7.978960e+000 168 27 31
-2.306415e-001 -6.102809e-001 -8.142178e+000 56 97 87
5.252514e-001 -5.899910e-001 -8.458046e+000 156 140 114
1.219787e+000 -5.691116e-001 -8.723032e+000 100 47 39
2.109753e+000 -5.265788e-001 -9.074620e+000 124 82 70
3.967155e+000 -4.200452e-001 -9.820995e+000 102 35 19
-3.296348e-001 -6.454837e-001 -8.161757e+000 157 149 21
-4.768668e-004 -6.067757e-001 -8.261160e+000 156 141 34
4.878151e-001 -6.299192e-001 -8.488210e+000 146 141 117
2.542870e+000 -5.647028e-001 -9.312480e+000 170 55 60
2.539857e+000 -6.394962e-001 -9.401302e+000 151 23 30
3.459241e+000 -5.443308e-001 -9.750607e+000 188 155 122
3.440828e+000 -5.842947e-001 -9.797363e+000 192 154 117
-6.841948e-001 -6.738895e-001 -8.071351e+000 172 31 38
3.034678e+000 -6.407405e-001 -9.640641e+000 171 129 92
-6.234174e-001 -7.434149e-001 -8.172608e+000 177 36 45
1.031297e-001 -7.550159e-001 -8.497270e+000 159 142 28
1.036634e-001 -7.524573e-001 -8.499796e+000 159 142 28
1.964006e+000 -7.751088e-001 -9.276868e+000 186 123 92
-1.873994e-001 -8.220676e-001 -8.475187e+000 163 151 36
7.674267e-001 -8.637965e-001 -8.999233e+000 13 74 108
3.135111e+000 -8.783270e-001 -1.013234e+001 186 141 103
1.135580e+000 -9.195943e-001 -9.382955e+000 183 60 68
1.516221e+000 -6.752886e-002 -8.433724e+000 106 57 42
1.543303e+000 -1.268665e-001 -8.485971e+000 182 114 83
1.543303e+000 -1.268665e-001 -8.485971e+000 182 114 83
1.731091e+000 -1.178708e-001 -8.556672e+000 190 120 86
1.731091e+000 -1.178708e-001 -8.556672e+000 190 120 86
2.093508e+000 -7.175477e-002 -8.668182e+000 183 125 85
2.094002e+000 -9.552474e-002 -8.705026e+000 184 129 94
1.582408e+000 -1.429131e-001 -8.514451e+000 165 107 85
1.582408e+000 -1.429131e-001 -8.514451e+000 165 107 85
1.751011e-001 -2.873641e-001 -8.043825e+000 161 145 13
1.004897e+000 -3.312013e-001 -8.403698e+000 16 43 70
2.907585e+000 -2.602344e-001 -9.161638e+000 191 132 90
1.308084e+000 -4.596071e-001 -8.651735e+000 184 119 90
1.947664e+000 -4.842324e-001 -8.921487e+000 140 87 81
1.947664e+000 -4.842324e-001 -8.921487e+000 140 87 81
5.164292e-002 -5.604623e-001 -8.212645e+000 159 153 30
5.105640e-001 -6.526943e-001 -8.540288e+000 139 138 117
8.315360e-001 -6.614767e-001 -8.709167e+000 111 10 26
2.277491e+000 -6.564018e-001 -9.341500e+000 154 26 35
2.400670e+000 -6.785838e-001 -9.429496e+000 149 15 30
1.767403e+000 -8.061978e-001 -9.346806e+000 178 115 98
3.795846e+000 2.057881e-001 -9.192853e+000 156 122 92
2.307698e+000 -1.525914e-001 -8.808512e+000 187 122 82
4.078863e+000 -7.908511e-002 -9.588748e+000 159 87 29
2.801034e+000 -2.962763e-001 -9.186956e+000 192 126 81
-9.884110e-002 -5.817736e-001 -8.165390e+000 60 104 105
5.126084e-001 -5.541095e-001 -8.405960e+000 156 138 117
3.492563e+000 -4.923633e-001 -9.706129e+000 170 144 110
5.411035e-001 -6.367402e-001 -8.521044e+000 138 100 89
2.805550e+000 -5.726551e-001 -9.461055e+000 182 115 92
2.675687e+000 -6.361683e-001 -9.530219e+000 187 113 87
2.955912e+000 -7.042212e-001 -9.708854e+000 96 59 42
2.955904e+000 -7.054019e-001 -9.707730e+000 96 59 42
1.127071e+000 -8.050839e-001 -8.993904e+000 97 46 31
3.792629e+000 -8.162529e-001 -1.030769e+001 173 156 137
4.365844e-002 -3.169579e-001 -8.035738e+000 26 51 21
2.471741e-001 -7.708561e-001 -8.595061e+000 22 50 25
2.474504e-001 -7.681236e-001 -8.596476e+000 22 50 25
-1.675290e-001 -8.117170e-001 -8.469422e+000 129 129 82
3.683809e+000 -7.773146e-001 -1.020742e+001 153 135 133
3.673603e+000 2.095429e-002 -9.281592e+000 204 123 47
2.617937e+000 -2.032440e-001 -9.070283e+000 157 21 30
2.582175e+000 -3.052912e-001 -9.115855e+000 146 13 26
-4.082564e-001 -4.396839e-001 -7.949618e+000 19 76 102
2.109735e-001 -5.547895e-001 -8.158609e+000 28 47 28
2.927346e+000 -6.179790e-001 -9.586714e+000 176 123 84
1.593866e+000 -5.868086e-001 -8.930232e+000 179 110 79
2.810786e+000 -7.257006e-001 -9.645275e+000 187 117 91
2.030870e+000 -9.761015e-002 -8.647368e+000 171 120 101
-9.042047e-001 -4.822227e-001 -7.712375e+000 17 80 111
3.728599e+000 -8.017936e-001 -1.040389e+001 189 168 148
4.187854e+000 3.585725e-001 -9.402354e+000 183 95 34
2.671512e+000 4.245456e-002 -9.053835e+000 156 21 33
1.766791e-001 -2.047774e-001 -8.057283e+000 25 50 22
8.653533e-001 -7.738308e-001 -8.961551e+000 20 67 92
5.024704e-001 -4.394196e-001 -8.505674e+000 158 133 113
2.419592e+000 -6.826733e-002 -8.802049e+000 167 66 58
3.514304e+000 -1.346779e-001 -9.308937e+000 164 80 43
-1.600235e-001 -2.773177e-001 -7.884954e+000 133 129 40
-1.374439e-001 -2.921707e-001 -7.886292e+000 35 70 64
-7.998468e-002 -2.995892e-001 -7.934777e+000 147 144 35
3.913327e+000 -2.956308e-001 -9.701910e+000 37 18 13
-2.004128e-001 -4.764491e-001 -7.989621e+000 161 140 46
-1.644578e-001 -1.611503e-001 -8.548599e+000 48 88 111
8.352645e-001 -4.984433e-001 -8.475073e+000 188 150 114
5.045533e-001 -5.826972e-001 -8.438185e+000 121 27 43
2.358974e+000 -6.073813e-001 -9.294779e+000 137 13 23
3.372326e+000 -5.809329e-001 -9.735037e+000 170 131 100
2.129556e+000 -7.373072e-001 -9.355857e+000 190 121 89
2.269445e+000 -6.794732e-001 -9.363898e+000 154 19 34
3.166540e+000 -6.679856e-001 -9.774989e+000 172 135 103
2.476827e+000 -7.921476e-001 -9.643752e+000 165 26 34
3.170971e+000 3.965515e-002 -9.046319e+000 173 111 39
-2.678561e-002 -2.398325e-001 -7.910066e+000 154 147 33
3.370136e+000 -7.765979e-002 -9.197891e+000 122 26 4
-1.767941e-001 -4.534070e-001 -8.008786e+000 35 82 107
2.670898e+000 -4.044050e-001 -9.185693e+000 142 35 29
3.377277e+000 -3.331763e-001 -9.449050e+000 87 43 30
2.865634e+000 -6.029612e-001 -9.498404e+000 181 120 92
1.481658e+000 -7.624896e-001 -9.118838e+000 121 70 56
2.221255e+000 -7.107672e-001 -9.390519e+000 171 66 71
1.446852e+000 -8.284880e-001 -9.213555e+000 111 59 49
-1.035993e+001 3.305703e+001 -3.826035e+001 67 57 68
-9.590670e+000 3.391294e+001 -3.809544e+001 113 101 84
2.124973e+000 -1.280142e-001 -8.721228e+000 173 124 101
3.858526e+000 -5.932750e-002 -9.440672e+000 177 146 125
6.459828e-001 -4.061898e-001 -8.304047e+000 157 148 121
-5.263392e-001 -6.048888e-001 -8.026642e+000 171 34 42
1.221381e+000 -5.661988e-001 -8.726145e+000 109 65 61
-1.613995e+000 -2.984978e-001 -8.164867e+000 186 162 160
1.874921e+000 -6.919294e-001 -9.203617e+000 92 39 29
1.876101e+000 -6.901550e-001 -9.207687e+000 92 39 29
2.030023e+000 -7.997734e-001 -9.460548e+000 185 128 110
-1.155632e+000 -9.576372e-001 -8.256572e+000 140 128 123
-1.057896e+001 3.275646e+001 -3.719758e+001 107 90 77
-8.876942e+000 3.477722e+001 -3.568903e+001 63 52 64
1.202046e+000 -2.610507e-001 -8.443359e+000 6 49 73
-2.278102e-001 -6.017583e-001 -8.150178e+000 42 90 95
1.188098e+000 -8.246371e-001 -9.090918e+000 190 125 107
2.991607e+000 -5.042984e-001 -9.551116e+000 183 129 101
1.304366e+000 -2.212977e-001 -8.463035e+000 180 110 85
3.902385e+000 -4.796069e-001 -9.916186e+000 62 38 25
2.530145e+000 -5.280741e-001 -9.725484e+000 158 23 36
-7.665920e-001 -8.545941e-001 -8.714784e+000 158 156 157
2.408231e+000 1.334933e-001 -8.702361e+000 160 17 34
2.408231e+000 1.334933e-001 -8.702361e+000 160 17 34
4.162786e+000 1.431819e-001 -9.401014e+000 48 6 7
4.118274e+000 8.352291e-002 -9.435967e+000 43 7 22
4.122196e+000 8.808992e-002 -9.439403e+000 43 7 22
-1.326465e-001 -2.575638e-001 -7.909018e+000 52 85 84
9.175023e-001 -2.645315e-001 -8.325440e+000 200 145 98
4.177378e+000 8.518233e-002 -9.462582e+000 35 0 9
1.301993e-002 -4.565718e-001 -8.092477e+000 84 104 47
1.301993e-002 -4.565718e-001 -8.092477e+000 84 104 47
5.583466e-001 -4.049126e-001 -8.284709e+000 124 31 26
3.203299e+000 -1.810710e-001 -9.222650e+000 181 104 36
4.067282e+000 -5.549657e-002 -9.531054e+000 53 10 4
4.018661e+000 -7.444744e-002 -9.516310e+000 166 89 33
4.120092e+000 -1.041050e-001 -9.655594e+000 48 5 3
-5.703056e-001 -5.863604e-001 -7.959757e+000 201 155 112
-1.149305e-001 -4.497160e-001 -8.071796e+000 16 52 14
2.605260e-001 -4.778646e-001 -8.218416e+000 168 159 56
5.738990e-001 -4.442574e-001 -8.323929e+000 167 149 112
2.642337e+000 -3.605310e-001 -9.106154e+000 159 22 29
2.642337e+000 -3.605310e-001 -9.106154e+000 159 22 29
2.789947e+000 -3.754411e-001 -9.233764e+000 196 129 94
3.432377e+000 -2.498161e-001 -9.378204e+000 180 85 41
-5.360681e-001 -5.925219e-001 -8.000870e+000 196 119 79
8.302155e-001 -5.201944e-001 -8.497005e+000 199 164 114
8.322078e-001 -5.770309e-001 -8.572226e+000 207 154 115
1.244776e+000 -5.194018e-001 -8.675283e+000 83 32 15
-5.438329e-001 -1.053619e+000 -7.891524e+000 34 80 107
-5.155318e-001 -1.345883e+000 -7.726300e+000 52 93 102
-1.083633e-001 -6.836391e-001 -8.309509e+000 149 144 35
7.645965e-001 -6.533002e-001 -8.645021e+000 145 20 22
3.191658e+000 -4.884425e-001 -9.531615e+000 114 70 43
3.331600e+000 -4.775141e-001 -9.587575e+000 86 44 30
3.514293e+000 -4.658444e-001 -9.669517e+000 40 12 17
2.828116e+000 -5.868380e-001 -9.496825e+000 171 107 79
3.291719e+000 -5.813161e-001 -9.715346e+000 165 127 96
3.291719e+000 -5.813161e-001 -9.715346e+000 165 127 96
7.002889e-001 -7.751059e-001 -8.790523e+000 143 23 27
7.149622e-001 -7.823702e-001 -8.808393e+000 192 155 108
2.713752e+000 -6.543289e-001 -9.527801e+000 184 113 94
3.035343e+000 -6.719356e-001 -9.708853e+000 158 122 89
3.848959e+000 -5.792666e-001 -1.002886e+001 149 125 113
3.789215e+000 -6.442181e-001 -1.006603e+001 37 14 15
3.854807e+000 -6.419156e-001 -1.011730e+001 160 129 109
-5.662735e-002 -8.646046e-001 -8.594382e+000 145 140 39
6.763688e-001 -8.229214e-001 -8.852303e+000 184 153 113
7.116553e-001 -8.487763e-001 -8.909888e+000 200 149 119
7.116553e-001 -8.487763e-001 -8.909888e+000 200 149 119
-1.834378e+000 -5.988199e-002 -8.683080e+000 209 187 192
8.255636e-001 -9.134404e-001 -9.090454e+000 25 74 126
1.410297e+000 -9.007873e-001 -9.404401e+000 156 28 40
1.529474e+000 -8.933107e-001 -9.491126e+000 172 82 75
1.442765e+000 -9.178163e-001 -9.600850e+000 159 29 43
1.595799e+000 -9.068638e-001 -9.674285e+000 195 116 103
2.732745e+000 1.000081e-001 -8.856191e+000 208 89 75
4.079331e+000 4.826983e-002 -9.468637e+000 171 103 46
-2.706940e-001 -4.809315e-001 -7.998687e+000 163 153 38
2.651314e+000 -2.249640e-001 -9.013568e+000 191 67 66
2.765816e+000 -2.072824e-001 -9.080682e+000 170 18 32
3.753397e+000 -1.230944e-001 -9.424252e+000 190 162 117
-5.447246e-001 -5.144682e-001 -7.914001e+000 202 149 97
9.228238e-001 -5.222059e-001 -8.512293e+000 31 78 109
-2.266970e-001 -5.875158e-001 -8.129110e+000 160 148 30
2.235008e+000 -4.916422e-001 -9.075744e+000 200 121 84
2.646835e+000 -4.710152e-001 -9.262057e+000 193 69 66
3.192816e+000 -3.576673e-001 -9.409772e+000 106 15 3
3.231991e+000 -3.897559e-001 -9.432778e+000 124 25 4
3.321558e+000 -4.140015e-001 -9.519506e+000 152 110 72
3.991722e+000 -2.925267e-001 -9.752216e+000 158 121 89
-6.020921e-001 -6.958953e-001 -8.122059e+000 183 39 34
9.185585e-001 -6.525798e-001 -8.681033e+000 24 76 99
2.336147e+000 -5.221167e-001 -9.183679e+000 162 25 33
2.613627e+000 -5.614380e-001 -9.359866e+000 180 51 51
3.136523e+000 -4.412309e-001 -9.483477e+000 158 109 69
3.225454e+000 -4.838458e-001 -9.531165e+000 160 117 86
3.296995e+000 -4.733131e-001 -9.561779e+000 168 124 87
3.194849e+000 -5.878558e-001 -9.674069e+000 153 113 81
7.175397e-001 -7.617475e-001 -8.778130e+000 194 155 106
2.309141e+000 -7.289599e-001 -9.469106e+000 151 16 33
3.251343e+000 -6.605143e-001 -9.785517e+000 67 31 10
3.251343e+000 -6.605143e-001 -9.785517e+000 67 31 10
-6.054070e-001 -8.481768e-001 -8.320947e+000 165 152 111
1.826211e+000 -7.848123e-001 -9.308122e+000 121 68 54
1.710201e+000 -8.330710e-001 -9.330943e+000 121 69 52
1.709172e+000 -8.344684e-001 -9.329701e+000 121 69 52
2.214384e+000 -7.827146e-001 -9.457058e+000 153 15 31
2.339224e+000 -7.832331e-001 -9.542702e+000 150 22 31
2.331205e+000 -8.053663e-001 -9.583236e+000 138 12 24
2.357712e+000 -8.135671e-001 -9.580535e+000 196 82 89
8.017815e-001 -8.884826e-001 -9.023657e+000 24 67 96
1.639755e+000 -8.748979e-001 -9.436907e+000 167 32 37
2.969706e+000 -8.319449e-001 -1.015973e+001 158 95 42
2.913048e+000 -8.523489e-001 -1.024897e+001 76 20 11
3.318924e+000 -8.619566e-001 -1.032348e+001 139 66 42
3.317983e+000 -8.622997e-001 -1.032283e+001 139 66 42
3.802249e+000 2.660705e-001 -9.188199e+000 44 7 4
3.772227e+000 2.414232e-001 -9.213305e+000 113 84 75
1.882130e+000 -4.541791e-002 -8.576024e+000 135 79 51
1.970762e+000 -4.938961e-002 -8.611926e+000 134 77 54
3.198620e+000 3.637095e-002 -9.043365e+000 93 13 18
2.211102e+000 -1.258410e-001 -8.748266e+000 103 49 14
3.001565e+000 -1.045940e-001 -9.082699e+000 119 70 40
2.918757e+000 -2.098872e-001 -9.114595e+000 194 136 96
3.197825e+000 -2.329844e-001 -9.276388e+000 201 141 82
1.883592e+000 -4.513970e-001 -8.876456e+000 107 47 37
1.975990e+000 -4.424746e-001 -8.916258e+000 91 35 19
1.975990e+000 -4.424746e-001 -8.916258e+000 91 35 19
5.210823e-002 -5.591487e-001 -8.213389e+000 165 155 17
2.155724e+000 -5.138933e-001 -9.076422e+000 190 125 94
2.155188e+000 -5.144207e-001 -9.075933e+000 190 125 94
2.618303e+000 -4.631319e-001 -9.234318e+000 166 16 29
2.791109e+000 -4.631512e-001 -9.306488e+000 102 46 45
3.955153e+000 -3.709740e-001 -9.830185e+000 151 114 98
-6.899734e-001 -7.414373e-001 -8.147337e+000 195 142 95
2.284413e+000 -6.506818e-001 -9.347438e+000 164 27 34
2.274528e+000 -6.628160e-001 -9.334771e+000 164 27 34
2.721672e+000 -6.422126e-001 -9.507266e+000 96 38 34
2.068261e+000 -7.283054e-001 -9.348348e+000 192 125 96
3.226630e+000 -6.667100e-001 -9.805129e+000 162 121 85
9.675818e-001 -9.126526e-001 -9.128989e+000 16 80 116
2.008427e+000 -8.313358e-001 -9.472973e+000 190 126 100
2.142183e+000 -8.462768e-001 -9.649798e+000 176 138 105
1.162286e+000 -9.112018e-001 -9.250228e+000 161 147 140
3.897535e+000 -8.722205e-001 -1.048054e+001 136 25 41
-1.860816e+000 -2.142706e-001 -8.676084e+000 194 167 158
1.075613e+000 -9.281865e-001 -9.451190e+000 169 41 49
1.806695e+000 -8.297286e-001 -9.961634e+000 22 81 160
9.630078e-001 -1.781667e-001 -8.246978e+000 153 30 47
1.690348e+000 -1.027861e-001 -8.541988e+000 97 29 14
1.912746e+000 -7.289523e-002 -8.607727e+000 194 134 92
2.003141e+000 -7.354625e-002 -8.636835e+000 197 135 86
2.392524e+000 -3.856421e-002 -8.790000e+000 153 18 25
3.522292e+000 1.251348e-002 -9.215536e+000 201 97 35
5.215858e-001 -4.355857e-001 -8.293887e+000 165 158 119
8.934523e-001 -5.103421e-001 -8.482949e+000 118 17 47
1.612043e+000 -5.557666e-001 -8.850060e+000 195 126 97
1.653660e+000 -5.532340e-001 -8.885253e+000 166 108 86
1.702234e+000 -5.503339e-001 -8.884832e+000 194 125 93
1.742494e+000 -5.525767e-001 -8.916057e+000 99 41 22
1.805345e+000 -5.124860e-001 -8.945800e+000 195 127 92
1.919448e+000 -4.616311e-001 -8.912058e+000 197 128 92
1.919448e+000 -4.616311e-001 -8.912058e+000 197 128 92
1.989327e+000 -5.096402e-001 -9.009336e+000 196 130 95
2.094017e+000 -4.772230e-001 -9.019144e+000 194 125 92
2.072746e+000 -5.164632e-001 -9.029983e+000 192 125 98
3.909092e+000 -5.200112e-001 -9.997502e+000 156 120 97
7.988086e-001 -7.375772e-001 -8.796620e+000 92 19 32
8.686190e-001 -7.365040e-001 -8.808831e+000 9 52 71
2.439388e+000 -7.289150e-001 -9.489525e+000 162 26 36
1.763540e+000 -8.144721e-001 -9.341919e+000 187 123 95
3.407821e+000 -6.857829e-001 -9.932770e+000 160 125 93
1.903591e+000 -8.766478e-001 -9.537023e+000 134 23 34
2.805773e+000 1.280211e-001 -8.866083e+000 156 11 28
3.938840e+000 8.105850e-002 -9.359819e+000 185 91 34
8.782936e-001 -3.470432e-001 -8.345222e+000 186 84 65
1.921535e+000 -4.645173e-001 -8.966400e+000 193 129 96
1.673863e+000 -8.158046e-001 -9.312211e+000 184 124 98
1.673863e+000 -8.158046e-001 -9.312211e+000 184 124 98
4.198594e+000 2.602265e-001 -9.355216e+000 84 29 15
1.152990e-001 -4.240236e-001 -8.077743e+000 29 57 20
3.380439e+000 -7.551089e-001 -1.002130e+001 99 66 49
2.681598e+000 1.291373e-001 -8.828380e+000 167 26 34
2.573461e+000 -3.785759e-001 -9.190084e+000 173 21 36
2.508661e+000 -5.065064e-001 -9.286255e+000 170 20 32
2.508661e+000 -5.065064e-001 -9.286255e+000 170 20 32
-1.266740e-001 -6.980651e-001 -8.312057e+000 103 114 78
4.156590e+000 3.880892e-001 -9.347496e+000 196 101 41
-1.309324e-002 -4.467239e-001 -8.107789e+000 75 108 105
1.732190e+000 -5.471266e-001 -8.876473e+000 119 56 38
1.732190e+000 -5.471266e-001 -8.876473e+000 119 56 38
1.008074e+000 4.869720e-002 -8.213827e+000 173 28 37
7.187136e-001 -8.918518e-001 -8.981846e+000 160 25 40
3.965173e+000 -7.834638e-001 -1.036812e+001 28 15 21
-1.717892e+000 -1.861183e-001 -8.586692e+000 218 193 186
3.747968e+000 -7.794634e-001 -1.042953e+001 190 160 140
3.376471e+000 -6.597196e-002 -9.207711e+000 125 26 9
-1.864128e-001 -4.167166e-001 -7.992534e+000 44 82 70
-1.864128e-001 -4.167166e-001 -7.992534e+000 44 82 70
2.570599e+000 -5.103549e-001 -9.267198e+000 185 65 68
2.570599e+000 -5.103549e-001 -9.267198e+000 185 65 68
5.665993e-001 -6.311281e-001 -8.523901e+000 141 140 118
5.665993e-001 -6.311281e-001 -8.523901e+000 141 140 118
7.513696e-001 -7.099393e-001 -8.719606e+000 176 141 103
3.298625e-002 -7.628535e-001 -8.447062e+000 18 43 35
2.487534e+000 -7.668892e-001 -9.557756e+000 135 13 24
-1.866090e-001 -8.350219e-001 -8.494632e+000 28 51 29
1.414877e+000 -9.048443e-001 -9.365751e+000 160 40 46
-1.478176e+000 -4.120968e-001 -7.720379e+000 178 146 108
2.267555e+000 -8.027898e-001 -9.541882e+000 152 21 35
1.502516e+000 -9.010542e-001 -9.463402e+000 164 26 37
2.551398e+000 -5.479547e-002 -8.862092e+000 182 71 66
-3.989710e-002 -4.190375e-001 -8.027534e+000 61 97 95
1.264794e+000 -5.517402e-001 -8.725108e+000 175 114 88
3.234280e+000 -4.978740e-001 -9.587564e+000 162 119 77
-6.687030e-001 -6.239801e-001 -8.019900e+000 166 26 35
8.593081e-001 -1.963880e-001 -8.268935e+000 143 15 19
9.375881e-001 -3.302528e-001 -8.378099e+000 108 17 29
2.843528e+000 -2.933847e-001 -9.158305e+000 130 83 61
1.415772e+000 -1.140335e-001 -8.408899e+000 95 33 9
3.167440e+000 -6.029100e-002 -9.031192e+000 116 20 26
2.512928e+000 -8.291829e-002 -8.857749e+000 148 17 26
-1.991743e-002 -3.057575e-001 -8.081761e+000 73 99 66
-5.935737e-002 -4.650943e-001 -8.067829e+000 154 149 35
4.148169e+000 -2.324088e-002 -9.582740e+000 47 6 2
-5.551492e-001 -4.966864e-001 -7.900451e+000 178 34 35
-5.690232e-001 -5.338392e-001 -7.985866e+000 201 155 112
-8.012938e-002 -5.211735e-001 -8.132126e+000 163 154 39
4.733281e-001 -4.656541e-001 -8.297241e+000 138 35 33
5.022296e-001 -4.863113e-001 -8.319591e+000 169 159 118
8.572277e-001 -4.049001e-001 -8.417413e+000 202 152 79
2.371162e+000 -4.184705e-001 -9.060940e+000 165 25 33
3.217990e+000 -3.047749e-001 -9.321145e+000 181 67 43
3.403163e+000 -2.125236e-001 -9.415097e+000 188 86 43
3.542534e+000 -3.177466e-001 -9.531284e+000 187 148 107
-2.509397e-001 -5.865903e-001 -8.159080e+000 148 142 31
-5.131171e-002 -5.721872e-001 -8.192018e+000 151 151 26
1.636225e-001 -6.728702e-001 -8.180799e+000 29 52 26
1.483020e+000 -5.307185e-001 -8.802087e+000 192 130 96
2.020544e+000 -5.171017e-001 -9.011137e+000 195 128 105
2.362580e+000 -4.483030e-001 -9.068897e+000 159 23 29
2.675763e+000 -4.219203e-001 -9.247225e+000 203 81 75
2.899877e+000 -4.437994e-001 -9.363247e+000 187 123 86
3.301406e+000 -3.776401e-001 -9.472094e+000 146 67 26
1.513654e-001 -6.755477e-001 -8.346550e+000 167 156 17
2.838488e+000 -5.789020e-001 -9.446305e+000 192 121 88
3.190781e+000 -4.888104e-001 -9.530923e+000 114 70 43
-6.005839e-001 -7.285235e-001 -8.201709e+000 194 116 81
-6.005839e-001 -7.285235e-001 -8.201709e+000 194 116 81
-2.256196e-001 -7.269755e-001 -8.317940e+000 155 143 38
-2.356906e-001 -8.039267e-001 -8.315552e+000 158 156 40
-5.447723e-003 -6.924650e-001 -8.364729e+000 156 151 34
7.781724e-001 -6.743586e-001 -8.683994e+000 156 20 24
1.507153e+000 -6.899387e-001 -9.025058e+000 191 127 100
3.107403e+000 -6.169867e-001 -9.614376e+000 159 118 87
3.201454e+000 -5.679008e-001 -9.644081e+000 161 122 92
3.193544e+000 -5.779433e-001 -9.635568e+000 161 122 92
3.969953e+000 -5.426835e-001 -9.971503e+000 122 57 45
-5.049723e-001 -8.186539e-001 -8.348866e+000 33 54 22
-2.108648e-001 -8.699236e-001 -8.396274e+000 33 46 33
7.642540e-001 -7.368298e-001 -8.761169e+000 193 147 102
7.420231e-001 -7.848538e-001 -8.817163e+000 196 149 113
7.420231e-001 -7.848538e-001 -8.817163e+000 196 149 113
1.644799e+000 -7.314706e-001 -9.094441e+000 183 118 88
2.333492e+000 -6.728682e-001 -9.383112e+000 157 17 27
3.212838e+000 -6.683962e-001 -9.755212e+000 153 115 84
3.427576e+000 -6.836149e-001 -9.902645e+000 29 11 23
-5.915332e-002 -8.387586e-001 -8.587361e+000 26 45 32
6.720929e-001 -8.366938e-001 -8.842445e+000 184 153 113
1.362318e+000 -8.050137e-001 -9.103080e+000 180 118 99
3.296386e+000 -7.381776e-001 -9.871343e+000 169 129 92
3.296386e+000 -7.381776e-001 -9.871343e+000 169 129 92
6.741501e-001 -9.295349e-001 -9.024979e+000 139 8 21
7.212485e-001 -9.265340e-001 -9.066043e+000 146 148 143
1.389279e+000 -9.115213e-001 -9.368729e+000 205 108 100
1.442294e+000 -8.976501e-001 -9.389466e+000 178 83 69
3.397728e+000 -8.490195e-001 -1.029095e+001 182 128 112
1.493254e+000 -9.143485e-001 -9.587888e+000 179 91 89
1.542921e+000 -9.186139e-001 -9.557491e+000 178 101 93
2.870693e+000 -8.877949e-001 -1.013355e+001 145 75 28
1.515195e+000 -8.789083e-001 -9.752700e+000 178 74 78
1.836772e+000 -8.260719e-001 -1.000558e+001 111 143 202
1.956301e+000 -8.704830e-001 -9.928725e+000 86 135 189
1.843119e+000 -8.550656e-001 -9.942548e+000 28 80 153
1.988059e+000 -8.198550e-001 -1.004891e+001 94 133 199
2.391203e+000 -8.141504e-001 -1.021940e+001 181 143 131
4.115232e-001 -8.024578e-001 -9.559412e+000 162 107 117
1.776591e+000 -7.206413e-001 -1.014803e+001 107 22 33
-8.803375e-001 -3.962578e-001 -9.525784e+000 155 171 140
-8.010389e-001 -5.318382e-001 -9.382660e+000 34 50 28
-2.097118e-001 -5.504851e-001 -9.608472e+000 60 74 53
-1.758208e-001 -5.467104e-001 -9.613338e+000 164 167 90
-8.882533e-002 -5.307839e-001 -9.672545e+000 57 69 38
-1.137101e+000 -3.940821e-001 -9.453194e+000 202 140 142
-1.137101e+000 -3.940821e-001 -9.453194e+000 202 140 142
1.347042e+000 -4.908910e-002 -8.334591e+000 101 45 26
-1.975733e-001 -2.605969e-001 -7.870015e+000 35 53 7
2.317494e+000 2.022427e-002 -8.755706e+000 188 134 98
2.355283e+000 2.824243e-002 -8.717502e+000 193 126 94
2.516984e+000 7.284423e-002 -8.771527e+000 182 61 59
2.540708e+000 5.397795e-002 -8.793939e+000 163 32 38
2.551891e+000 1.350992e-002 -8.850483e+000 157 23 29
2.551891e+000 1.350992e-002 -8.850483e+000 157 23 29
2.721289e+000 8.309941e-002 -8.846168e+000 208 89 75
2.715443e+000 1.022625e-002 -8.912290e+000 210 95 92
3.512753e+000 7.035789e-002 -9.189982e+000 202 80 36
-1.604108e+000 4.933873e-001 -7.859479e+000 193 46 39
-4.467410e-001 -3.519245e-001 -7.838346e+000 167 157 30
-4.467410e-001 -3.519245e-001 -7.838346e+000 167 157 30
-2.140174e-001 -2.971278e-001 -7.886052e+000 31 54 26
8.174526e-001 -2.486675e-001 -8.320796e+000 172 152 116
1.954432e+000 -1.076728e-001 -8.665567e+000 112 57 25
2.912706e+000 -4.384384e-002 -8.996148e+000 195 135 89
2.895999e+000 -8.142903e-002 -9.034777e+000 195 134 88
3.017281e+000 -1.358626e-001 -9.104192e+000 202 140 100
3.742018e+000 -7.960206e-002 -9.391998e+000 191 163 120
3.862812e+000 -5.872420e-002 -9.441611e+000 185 151 115
-2.704207e-001 -4.785417e-001 -7.999708e+000 163 153 38
5.883028e-001 -4.128026e-001 -8.319109e+000 173 158 118
9.648866e-001 -3.789104e-001 -8.462654e+000 25 81 106
9.648866e-001 -3.789104e-001 -8.462654e+000 25 81 106
2.422147e+000 -2.487314e-001 -8.976059e+000 160 27 28
2.705725e+000 -2.673612e-001 -9.093078e+000 194 71 67
3.457697e+000 -1.525558e-001 -9.335548e+000 191 122 38
-2.959751e-001 -4.817543e-001 -8.002538e+000 156 147 20
-2.669675e-001 -5.354140e-001 -8.046233e+000 154 149 18
-1.856021e-001 -5.205119e-001 -8.083234e+000 162 149 21
5.047151e-002 -5.200814e-001 -8.156027e+000 162 148 31
5.047151e-002 -5.200814e-001 -8.156027e+000 162 148 31
3.435492e+000 -2.558673e-001 -9.408836e+000 181 87 36
3.360904e+000 -3.524328e-001 -9.434078e+000 109 56 33
3.917760e+000 -2.896406e-001 -9.639185e+000 119 89 78
4.561268e-001 -5.646550e-001 -8.405408e+000 180 157 120
2.403260e+000 -5.054630e-001 -9.197879e+000 166 22 32
2.288877e+000 -5.594547e-001 -9.225925e+000 187 65 60
2.571857e+000 -5.211250e-001 -9.303387e+000 187 61 61
2.989270e+000 -4.759125e-001 -9.427116e+000 158 62 24
3.138873e+000 -5.513724e-001 -9.567391e+000 159 119 84
3.139243e+000 -5.508404e-001 -9.567811e+000 159 119 84
3.264750e+000 -5.364258e-001 -9.613946e+000 159 119 79
-5.373123e-001 -7.209967e-001 -8.209714e+000 39 82 95
3.206442e+000 -6.093755e-001 -9.694178e+000 120 79 55
3.134248e+000 -7.031966e-001 -9.643844e+000 126 85 64
3.461481e+000 -6.046575e-001 -9.813761e+000 35 16 16
3.893637e+000 -4.722588e-001 -9.912095e+000 152 119 103
3.819445e+000 -5.609241e-001 -9.979949e+000 30 11 16
-6.130743e-002 -7.623566e-001 -8.437506e+000 155 150 47
-6.130743e-002 -7.623566e-001 -8.437506e+000 155 150 47
7.381756e-001 -7.407794e-001 -8.747903e+000 202 155 108
7.544040e-001 -7.633783e-001 -8.787541e+000 189 148 96
2.545652e+000 -6.576793e-001 -9.463498e+000 159 21 39
3.287252e+000 -6.739367e-001 -9.833626e+000 169 127 90
3.279493e+000 -6.901915e-001 -9.857772e+000 163 122 89
3.897910e+000 -5.831266e-001 -1.005651e+001 153 107 98
7.423803e-001 -9.697389e-001 -8.735895e+000 24 83 102
8.322143e-001 -7.098768e-001 -8.983360e+000 17 73 100
1.361518e+000 -8.242839e-001 -9.139505e+000 113 68 55
1.647616e+000 -7.840144e-001 -9.226870e+000 104 54 45
2.301474e+000 -7.488757e-001 -9.522870e+000 159 25 36
2.232943e+000 -8.118943e-001 -9.549423e+000 164 49 47
7.741773e-001 -8.542013e-001 -8.978429e+000 22 74 104
1.949786e+000 -8.815647e-001 -9.543103e+000 127 24 37
1.132296e+000 -9.349105e-001 -9.338188e+000 167 54 43
1.874779e-001 -9.483054e-001 -9.215859e+000 68 93 93
1.095690e+000 -7.164394e-001 -9.928414e+000 129 146 191
-5.394734e-001 -3.523266e-001 -9.711907e+000 38 58 39
-4.000666e-001 -5.728444e-001 -9.492880e+000 170 169 147
-2.602672e-001 -4.241155e-001 -9.739289e+000 37 63 35
6.856873e-001 -4.075932e-001 -1.013009e+001 185 132 132
-1.216343e+000 -4.066891e-001 -9.395550e+000 182 41 57
-1.216343e+000 -4.066891e-001 -9.395550e+000 182 41 57
-7.926321e-001 -3.461622e-001 -9.632854e+000 166 171 89
1.602046e+000 2.369892e-001 -8.405301e+000 176 162 114
3.023461e+000 3.467978e-001 -8.901309e+000 70 14 13
3.804490e+000 2.682684e-001 -9.188538e+000 44 7 4
1.629141e+000 -1.312466e-002 -8.497346e+000 120 55 34
2.252022e+000 -2.301445e-002 -8.721939e+000 117 68 32
2.594736e+000 9.639508e-002 -8.806433e+000 189 79 73
4.241774e+000 1.193084e-001 -9.473290e+000 157 84 41
-4.471041e-001 -3.782940e-001 -7.855638e+000 29 55 21
2.125781e+000 -1.265270e-001 -8.721889e+000 181 123 88
2.218067e+000 -1.134296e-001 -8.755811e+000 103 49 14
3.525443e+000 2.240849e-002 -9.227427e+000 188 84 18
3.965126e+000 -2.502059e-002 -9.449809e+000 152 85 30
2.918241e+000 -2.103143e-001 -9.114322e+000 194 136 96
3.843385e+000 -1.945271e-001 -9.504655e+000 172 94 27
-6.384990e-001 -5.547714e-001 -7.943302e+000 174 30 31
-1.637322e-001 -5.010985e-001 -8.063209e+000 48 93 101
-1.720380e-001 -5.548882e-001 -8.034778e+000 48 93 101
1.261332e+000 -4.749908e-001 -8.618831e+000 112 52 30
2.442457e+000 -3.533766e-001 -9.025893e+000 175 34 43
2.604881e+000 -3.791205e-001 -9.109640e+000 192 68 66
3.558919e+000 -2.901231e-001 -9.524574e+000 169 139 82
-2.257820e-001 -5.871754e-001 -8.157348e+000 66 95 96
1.516363e+000 -4.858383e-001 -8.763408e+000 99 52 31
-3.308677e-001 -6.535603e-001 -8.158380e+000 157 147 32
