ply
format ascii 1.0
element face 0
property list uchar int vertex_indices
element vertex 883
property float x
property float y
property float z
property uchar diffuse_red
property uchar diffuse_green
property uchar diffuse_blue
end_header
1.956949e+000 1.436925e+000 -9.410315e+000 119 138 134
1.960094e+000 1.437820e+000 -9.422743e+000 119 138 134
-7.533662e-001 1.063498e+000 -8.038727e+000 177 151 114
-8.084175e-001 1.059719e+000 -8.007573e+000 192 147 130
1.177653e+000 1.119730e+000 -8.720241e+000 168 41 42
2.512018e+000 1.307384e+000 -9.427697e+000 160 122 113
2.523968e+000 1.307620e+000 -9.478486e+000 160 122 113
2.553257e+000 1.330452e+000 -9.456283e+000 84 52 53
2.566820e+000 1.191092e+000 -9.239601e+000 87 57 71
1.299304e+000 9.789576e-001 -8.567670e+000 152 28 32
1.485417e+000 1.084534e+000 -8.775723e+000 136 144 132
2.073954e+000 1.053299e+000 -8.886031e+000 96 70 74
-1.356598e+000 7.321528e-001 -7.759726e+000 121 95 68
-5.726846e-001 8.706817e-001 -7.872827e+000 161 23 23
1.040778e+000 8.565092e-001 -8.353677e+000 169 163 131
2.608082e+000 1.005247e+000 -9.080025e+000 143 112 92
4.165369e+000 1.096368e+000 -9.968937e+000 32 23 37
4.166075e+000 1.053212e+000 -9.873263e+000 38 24 30
-1.820487e+000 6.240560e-001 -8.322098e+000 194 110 96
-1.213643e+000 7.210597e-001 -7.625197e+000 207 185 146
-6.064551e-001 6.763075e-001 -7.628828e+000 181 35 39
-5.103973e-001 7.457928e-001 -7.721207e+000 179 39 40
8.361314e-001 7.781365e-001 -8.201200e+000 170 154 131
9.251871e-001 7.126590e-001 -8.163455e+000 166 165 129
1.064966e+000 7.854454e-001 -8.281259e+000 172 160 123
1.949571e+000 8.329190e-001 -8.645267e+000 164 92 84
1.978110e+000 8.542086e-001 -8.687345e+000 79 39 44
1.976628e+000 8.544376e-001 -8.682815e+000 79 39 44
2.025239e+000 7.245848e-001 -8.575530e+000 71 29 39
4.191890e+000 8.386744e-001 -9.598322e+000 157 87 45
-1.936118e-001 5.432439e-001 -7.606544e+000 166 156 32
9.954329e-001 6.472004e-001 -8.144228e+000 175 159 126
9.965602e-001 6.464898e-001 -8.155385e+000 175 159 126
1.908592e+000 7.138464e-001 -8.553319e+000 172 93 80
2.068046e+000 6.180180e-001 -8.514270e+000 86 31 34
2.682914e+000 6.089959e-001 -8.753671e+000 79 32 42
4.000444e+000 7.231483e-001 -9.189516e+000 179 148 109
-1.308480e+000 4.794377e-001 -7.618903e+000 211 185 152
1.947328e+000 5.266989e-001 -8.427398e+000 94 27 34
2.106811e+000 5.686493e-001 -8.482206e+000 141 83 83
4.102113e+000 5.893081e-001 -9.293682e+000 184 154 130
2.502528e+000 4.311049e-001 -8.633267e+000 163 108 69
3.505391e+000 4.611688e-001 -9.007036e+000 145 59 28
2.977826e+000 2.893641e-001 -8.804562e+000 177 116 57
3.790712e+000 2.518813e-001 -9.148089e+000 70 38 31
3.989357e+000 2.228122e-001 -9.240735e+000 48 13 20
2.873980e+000 1.408201e-001 -8.817614e+000 198 136 104
3.492240e+000 7.393975e-002 -9.122208e+000 195 88 42
-1.601309e+000 -1.707756e-001 -7.945743e+000 185 161 135
3.395851e-001 -1.615389e-002 -7.844758e+000 70 94 52
3.404709e-001 -1.458198e-002 -7.838515e+000 70 94 52
1.824579e+000 -1.062319e-001 -8.538611e+000 193 139 105
1.879853e+000 -8.500988e-002 -8.545428e+000 117 71 71
2.287008e+000 -6.537227e-002 -8.716413e+000 189 141 110
2.968465e+000 -1.181842e-001 -9.033269e+000 203 150 119
-1.668503e+000 -2.727679e-001 -8.172234e+000 196 174 157
9.880995e-002 -1.782030e-001 -7.855703e+000 135 145 50
3.606726e+000 -3.155492e-001 -9.512540e+000 92 71 65
-6.241985e-002 -3.427784e-001 -7.910963e+000 32 55 46
6.806519e-002 -2.914693e-001 -7.923158e+000 29 56 41
6.167181e-001 -3.637191e-001 -8.200306e+000 134 75 65
6.167430e-001 -3.578467e-001 -8.173706e+000 134 75 65
1.010686e+000 -3.440807e-001 -8.331403e+000 19 66 106
-5.305399e-001 -4.378849e-001 -7.780500e+000 182 49 49
-1.821718e-001 -4.048854e-001 -7.897362e+000 52 106 120
1.896605e-001 -4.546119e-001 -8.102232e+000 34 53 35
1.896605e-001 -4.546119e-001 -8.102232e+000 34 53 35
5.309338e-001 -4.094306e-001 -8.194581e+000 164 156 136
2.232569e+000 -5.617550e-001 -9.107079e+000 160 34 42
2.223913e+000 -6.319584e-001 -9.231019e+000 155 35 38
-6.991080e-001 -6.481821e-001 -7.959727e+000 189 38 38
-5.579966e-001 -6.279272e-001 -7.962410e+000 182 42 50
-5.579966e-001 -6.279272e-001 -7.962410e+000 182 42 50
-2.621096e-001 -6.475640e-001 -8.140907e+000 142 154 62
5.857279e-001 -5.894152e-001 -8.416296e+000 159 159 149
4.692832e+000 -1.015429e+000 -8.648350e+000 153 129 125
4.272364e+000 -1.679844e+000 -9.498211e+000 150 129 124
-2.118252e-002 1.351492e+000 -8.587968e+000 122 118 37
-2.118252e-002 1.351492e+000 -8.587968e+000 122 118 37
3.138657e-002 1.213916e+000 -8.471042e+000 30 56 48
7.095953e-001 1.354362e+000 -8.838364e+000 182 154 124
2.633007e+000 1.443056e+000 -9.699703e+000 136 65 32
-6.191728e-001 1.126504e+000 -8.145016e+000 27 48 10
2.905383e-001 1.128822e+000 -8.413882e+000 29 56 18
2.905383e-001 1.128822e+000 -8.413882e+000 29 56 18
1.227752e+000 1.142702e+000 -8.754491e+000 156 30 34
-1.380883e+000 8.775942e-001 -7.876375e+000 201 178 143
-5.249142e-001 8.701547e-001 -7.876513e+000 175 42 38
1.072057e+000 8.734997e-001 -8.399995e+000 177 34 43
-1.277948e+000 6.690604e-001 -7.668618e+000 207 183 149
-4.838277e-001 6.852348e-001 -7.652089e+000 174 41 44
-4.194839e-001 6.648315e-001 -7.638283e+000 180 41 42
8.214096e-001 7.511350e-001 -8.173242e+000 173 42 37
2.811439e+000 8.014631e-001 -8.876437e+000 79 49 69
-5.220269e-001 5.754941e-001 -7.515281e+000 194 164 119
2.059444e+000 6.877261e-001 -8.571553e+000 83 32 41
-1.528745e+000 1.835658e-001 -7.715426e+000 190 163 124
1.451438e+000 2.999905e-002 -8.284237e+000 154 98 82
2.024917e+000 -6.512594e-002 -8.605237e+000 195 142 111
2.242436e+000 -8.303740e-002 -8.690690e+000 135 80 59
2.242436e+000 -8.303740e-002 -8.690690e+000 135 80 59
2.390174e+000 -1.011894e-001 -8.781095e+000 166 22 38
3.244834e+000 -5.608284e-002 -9.139693e+000 193 132 87
3.223502e+000 -1.008284e-001 -9.143662e+000 181 148 92
9.565857e-001 -2.035094e-001 -8.209271e+000 160 37 55
2.870888e+000 -2.479877e-001 -9.091415e+000 127 80 60
2.876936e+000 -2.488196e-001 -9.099978e+000 127 80 60
3.612718e+000 -2.242036e-001 -9.430159e+000 197 171 124
-6.214768e-001 -4.394148e-001 -7.754774e+000 193 44 49
1.322468e-001 -5.183256e-001 -8.139693e+000 173 165 93
1.727016e-001 -5.016368e-001 -8.143167e+000 177 169 66
8.677611e-001 -5.394535e-001 -8.455755e+000 121 41 64
1.497314e+000 -5.748047e-001 -8.793322e+000 193 132 104
1.791701e+000 -5.746288e-001 -8.960953e+000 200 136 111
5.556591e-001 -5.702658e-001 -8.381948e+000 147 118 113
6.815827e-001 -7.602076e-001 -8.733319e+000 162 38 54
8.079752e-001 -5.834656e-001 -8.514790e+000 194 125 118
8.687472e-001 -7.006063e-001 -8.698876e+000 20 64 98
-6.288707e-001 -7.887417e-001 -8.170716e+000 177 42 33
4.509148e+000 -1.910829e+000 -9.075599e+000 132 111 111
4.581941e+000 -1.710167e+000 -8.570350e+000 125 104 104
4.267907e+000 -2.226138e+000 -9.458289e+000 130 110 108
4.267907e+000 -2.226138e+000 -9.458289e+000 130 110 108
3.830707e+000 1.661055e+000 -1.064824e+001 158 117 89
-5.999507e-001 1.126186e+000 -8.163212e+000 41 63 34
-1.884666e-001 1.105123e+000 -8.286855e+000 181 165 42
8.751015e-001 1.185511e+000 -8.683520e+000 173 149 123
-6.700004e-001 9.205117e-001 -7.889248e+000 156 72 51
1.126358e+000 1.049045e+000 -8.674337e+000 164 30 37
1.563177e+000 1.047067e+000 -8.727308e+000 21 73 114
-1.384765e+000 7.631917e-001 -7.792319e+000 210 186 149
3.018127e+000 7.952169e-001 -9.026427e+000 26 25 50
-1.088620e-001 5.790732e-001 -7.674069e+000 74 108 115
2.615412e+000 5.154445e-001 -8.687200e+000 179 129 75
2.436190e+000 1.365819e-001 -8.651243e+000 160 29 42
1.449214e+000 3.157051e-002 -8.273254e+000 155 99 83
2.970748e+000 -3.695082e-002 -8.964041e+000 202 146 110
3.143810e-001 -9.985191e-002 -7.893860e+000 24 57 20
-1.668585e+000 -3.421908e-001 -8.156269e+000 70 46 42
8.784589e-001 -3.739586e-001 -8.321153e+000 175 110 83
-3.465538e-001 -4.958936e-001 -7.907180e+000 34 64 35
-3.481210e-001 -4.993996e-001 -7.921808e+000 34 64 35
5.835143e-003 -6.964969e-001 -8.319741e+000 146 148 131
5.835143e-003 -6.964969e-001 -8.319741e+000 146 148 131
-7.129533e-001 -7.704857e-001 -8.113876e+000 188 122 104
4.615185e+000 -9.039192e-001 -8.810282e+000 164 143 139
4.583817e+000 -1.182502e+000 -8.829045e+000 153 135 132
4.151938e+000 -1.949049e+000 -9.803488e+000 53 43 47
4.217589e+000 -1.905720e+000 -9.722058e+000 146 126 125
-3.417758e-001 1.237246e+000 -8.372831e+000 32 56 30
3.029466e+000 1.503519e+000 -9.920000e+000 81 34 27
-5.916341e-001 1.069458e+000 -8.113077e+000 155 147 117
-1.354909e-001 1.075228e+000 -8.272946e+000 30 61 26
5.612913e-001 1.207748e+000 -8.644707e+000 193 36 48
9.240620e-001 1.161991e+000 -8.651867e+000 187 35 37
2.206388e+000 1.303520e+000 -9.299748e+000 161 130 110
7.091410e-001 9.918664e-001 -8.391843e+000 169 149 124
1.146511e+000 1.003307e+000 -8.592627e+000 149 33 29
2.107742e+000 1.128011e+000 -9.055278e+000 135 109 94
1.179722e+000 9.407940e-001 -8.544443e+000 159 23 32
1.690583e+000 7.388838e-001 -8.445929e+000 20 71 108
1.690015e+000 7.391948e-001 -8.445228e+000 20 71 108
2.245821e+000 7.752298e-001 -8.692963e+000 89 45 54
2.511944e+000 7.853077e-001 -8.824686e+000 137 108 94
-1.273923e+000 5.313252e-001 -7.618598e+000 187 160 133
3.630114e+000 7.550991e-001 -9.224395e+000 177 85 31
4.158715e+000 3.496258e-001 -9.281024e+000 195 106 43
4.129306e+000 -5.101937e-002 -9.570567e+000 158 93 24
3.960289e+000 -4.848678e-001 -9.977247e+000 146 136 109
-1.035594e-001 -4.433404e-001 -7.942838e+000 33 58 44
-1.032357e-001 -4.454542e-001 -7.952539e+000 33 58 44
-2.986766e-001 -6.380146e-001 -8.106263e+000 37 60 40
-2.380245e-001 -5.219632e-001 -8.006804e+000 40 63 42
-1.681106e-001 -6.216800e-001 -8.142909e+000 34 58 34
-1.108498e-001 -7.274257e-001 -8.300452e+000 33 62 35
4.688749e+000 -7.239054e-001 -8.651012e+000 148 122 121
4.654313e+000 -7.897446e-001 -8.704304e+000 143 122 117
4.582929e+000 -9.798636e-001 -8.867613e+000 140 119 117
3.977373e+000 -2.423966e+000 -1.017591e+001 147 128 124
-8.200243e-002 1.373661e+000 -8.611440e+000 38 62 33
2.222918e+000 1.386749e+000 -9.434648e+000 76 25 26
2.220613e+000 1.386122e+000 -9.422706e+000 76 25 26
2.493657e+000 1.392074e+000 -9.582568e+000 103 25 23
2.482406e-001 1.172462e+000 -8.481658e+000 175 155 106
2.482639e-001 1.172548e+000 -8.481792e+000 175 155 106
1.069166e+000 8.321560e-001 -8.323302e+000 179 29 38
2.910811e+000 8.101276e-001 -8.995109e+000 161 126 81
1.921190e+000 6.228716e-001 -8.513607e+000 160 90 79
4.051389e+000 5.354035e-001 -9.263572e+000 190 154 123
3.907524e+000 2.408122e-001 -9.203413e+000 150 126 110
2.808173e+000 1.420341e-001 -8.781876e+000 158 17 33
2.808173e+000 1.420341e-001 -8.781876e+000 158 17 33
1.916998e+000 -5.652538e-001 -8.987311e+000 193 128 108
2.469127e+000 -6.604050e-001 -9.402530e+000 172 33 46
3.808581e+000 -7.716129e-001 -1.023044e+001 146 129 112
4.548488e-001 -5.897132e-001 -8.405690e+000 169 122 109
-1.782171e-001 -7.216119e-001 -8.256791e+000 123 136 134
4.472893e+000 -1.256855e+000 -9.111346e+000 146 125 123
-1.001313e+000 1.228285e+000 -8.076371e+000 119 127 125
-6.289487e-001 1.198874e+000 -8.206641e+000 107 126 121
1.230141e-002 1.058047e+000 -8.300360e+000 176 155 117
-4.227878e-001 8.493673e-001 -7.921847e+000 42 94 115
4.052013e+000 9.907504e-001 -9.680787e+000 162 93 48
2.234061e-001 7.069021e-001 -7.932083e+000 33 57 35
3.734991e-002 5.805040e-001 -7.728275e+000 167 156 115
3.734991e-002 5.805040e-001 -7.728275e+000 167 156 115
1.821951e+000 6.069693e-001 -8.421749e+000 184 137 90
-2.333811e-001 5.185762e-001 -7.556753e+000 26 59 35
-1.313089e-001 3.666512e-001 -7.577424e+000 48 103 124
1.473598e-001 1.299125e-001 -7.696646e+000 156 154 142
3.492194e+000 -2.940920e-002 -9.167266e+000 192 94 47
2.211116e-001 1.256553e+000 -8.547774e+000 136 130 30
4.378269e+000 4.101286e-001 -9.352861e+000 204 96 51
1.122960e+000 1.564429e-001 -8.116657e+000 171 160 140
3.847015e+000 1.580102e+000 -1.056652e+001 147 111 75
2.583943e+000 1.103916e+000 -9.037746e+000 87 59 72
3.481454e+000 7.987727e-001 -9.192465e+000 148 26 40
3.408608e+000 6.535029e-001 -9.066852e+000 168 127 83
-9.334212e-001 -3.830405e-001 -7.693662e+000 19 90 134
2.339891e+000 1.244148e+000 -9.440593e+000 147 116 96
2.806102e+000 1.416705e+000 -9.839989e+000 160 121 78
2.235330e+000 4.090271e-001 -8.485523e+000 177 138 99
-4.975934e-001 6.432347e-001 -7.547513e+000 199 161 124
2.853921e+000 3.830489e-001 -8.772058e+000 169 118 53
1.452323e+000 6.927636e-001 -8.308197e+000 159 24 30
2.185119e+000 2.794338e-001 -8.531217e+000 183 141 103
3.976035e+000 4.750545e-001 -9.327688e+000 194 111 40
2.663019e+000 1.209002e+000 -9.356991e+000 64 38 43
-5.563117e-001 9.932585e-001 -8.063929e+000 159 157 109
-5.563117e-001 9.932585e-001 -8.063929e+000 159 157 109
-3.815669e-001 9.153470e-001 -7.999208e+000 71 106 114
2.741840e+000 8.585126e-001 -8.975913e+000 75 45 49
2.538038e+000 5.322973e-001 -8.656243e+000 160 119 69
3.095452e+000 5.301006e-001 -8.880552e+000 149 141 153
4.032468e+000 5.828210e-001 -9.274282e+000 177 141 122
3.988367e+000 1.899298e-001 -9.260651e+000 68 34 40
1.038211e+000 -6.879769e-003 -8.130113e+000 21 82 117
2.497003e+000 8.580710e-001 -8.887148e+000 143 118 113
2.807827e+000 6.180305e-001 -8.808659e+000 66 26 35
2.557348e+000 2.084889e-002 -8.771833e+000 164 38 48
2.660751e+000 9.878968e-001 -9.061408e+000 64 39 52
-5.428043e-001 5.464816e-001 -7.469096e+000 171 35 47
2.711222e+000 1.235952e-004 -8.824156e+000 188 84 80
2.711222e+000 1.235952e-004 -8.824156e+000 188 84 80
2.962692e+000 2.751180e-001 -8.771532e+000 169 117 67
9.311942e-001 -1.003491e-001 -8.110187e+000 149 75 51
2.347707e-002 9.287633e-001 -8.101049e+000 163 152 106
3.063488e-002 9.284401e-001 -8.105220e+000 163 152 106
2.504848e+000 1.414631e+000 -9.622413e+000 140 61 48
-5.651708e-001 1.069090e+000 -8.125484e+000 65 102 112
1.951413e+000 1.179448e+000 -9.041834e+000 84 65 71
-6.463808e-001 9.811525e-001 -7.983706e+000 197 144 112
-6.261354e-001 9.911192e-001 -8.005169e+000 174 41 38
2.320578e+000 1.081973e+000 -9.070200e+000 24 8 12
-1.259410e+000 8.264831e-001 -7.738733e+000 205 183 148
1.564788e+000 8.605903e-001 -8.541875e+000 171 166 144
1.890667e+000 8.902075e-001 -8.684788e+000 143 88 93
2.480902e+000 1.000957e+000 -9.043840e+000 144 114 104
-4.960688e-001 6.828094e-001 -7.650288e+000 182 27 33
-4.960688e-001 6.828094e-001 -7.650288e+000 182 27 33
1.810312e+000 7.799794e-001 -8.562345e+000 178 87 64
1.883019e+000 7.586885e-001 -8.556176e+000 162 93 81
2.002022e+000 7.925066e-001 -8.634666e+000 71 15 16
2.166045e+000 7.760919e-001 -8.671536e+000 133 105 104
2.166652e+000 7.751733e-001 -8.675644e+000 133 105 104
-1.019992e-001 5.972465e-001 -7.677101e+000 79 112 113
1.770415e+000 6.257763e-001 -8.407492e+000 189 139 87
2.108888e+000 6.299758e-001 -8.542932e+000 129 69 71
3.286955e+000 6.692880e-001 -9.012763e+000 32 69 105
2.201846e+000 5.394484e-001 -8.532376e+000 82 26 33
2.728162e+000 4.380973e-001 -8.719159e+000 131 74 27
2.689039e+000 3.556496e-001 -8.690630e+000 142 86 35
4.821771e-001 -3.806223e-001 -8.164914e+000 133 46 42
-4.616283e-001 -4.167092e-001 -7.779709e+000 165 182 159
-7.534483e-001 1.067201e+000 -8.024117e+000 177 151 114
1.234063e+000 1.120739e+000 -8.692753e+000 156 25 30
1.974144e+000 1.041209e+000 -8.910990e+000 81 60 65
2.706034e+000 1.182069e+000 -9.304346e+000 172 131 97
2.211890e+000 9.311467e-001 -8.886965e+000 135 104 93
1.919979e+000 7.646001e-001 -8.562612e+000 162 94 82
-1.404654e+000 4.385907e-001 -7.254604e+000 178 147 117
1.517050e+000 5.408423e-001 -8.264370e+000 150 20 28
2.765338e+000 5.318340e-001 -8.756814e+000 171 130 79
3.552533e+000 4.812868e-001 -9.032079e+000 204 114 39
1.936329e-001 4.236260e-003 -7.770128e+000 95 125 132
1.936329e-001 4.236260e-003 -7.770128e+000 95 125 132
2.468059e+000 -1.333186e-002 -8.734590e+000 168 27 39
-1.375753e-001 -3.842913e-001 -7.905544e+000 170 165 24
4.489553e+000 -1.170961e+000 -9.060022e+000 149 127 129
1.962937e+000 6.732168e-001 -8.510917e+000 178 98 84
1.913765e+000 5.111777e-001 -8.428731e+000 181 138 96
4.555288e+000 -1.399154e+000 -8.883186e+000 131 107 105
4.691604e+000 -1.314932e+000 -8.601510e+000 161 135 139
1.536655e+000 9.570384e-001 -8.640601e+000 136 143 120
-1.692573e-001 6.935749e-001 -7.772434e+000 167 160 41
-1.689268e-001 6.942892e-001 -7.771617e+000 167 160 41
-9.811822e-001 -4.730551e-001 -7.679646e+000 28 97 141
6.565326e-001 1.015652e+000 -8.441858e+000 178 41 39
8.533306e-002 9.905982e-001 -8.206211e+000 33 61 34
4.558903e+000 -9.908567e-001 -8.848875e+000 154 131 129
7.509772e-001 1.397187e+000 -8.944071e+000 182 140 115
1.854317e+000 1.472185e+000 -9.516841e+000 30 67 91
1.930488e+000 1.481659e+000 -9.517716e+000 27 71 90
1.913710e+000 1.429348e+000 -9.398125e+000 28 67 93
2.614061e+000 1.479889e+000 -9.733832e+000 168 125 85
-6.501292e-001 1.142820e+000 -8.135459e+000 148 146 35
-6.501292e-001 1.142820e+000 -8.135459e+000 148 146 35
-3.892538e-001 1.246290e+000 -8.366247e+000 158 154 85
9.352837e-001 1.232189e+000 -8.771094e+000 165 160 124
1.599367e+000 1.283341e+000 -9.065411e+000 87 58 81
2.294747e+000 1.390288e+000 -9.511264e+000 157 38 37
2.479959e+000 1.333278e+000 -9.443174e+000 118 70 61
-7.116986e-001 9.965882e-001 -7.976932e+000 177 28 31
-6.282968e-001 1.078967e+000 -8.122727e+000 56 101 115
-6.170234e-001 1.014289e+000 -8.034880e+000 203 142 103
1.189072e+000 1.147757e+000 -8.748515e+000 187 141 98
1.189885e+000 1.147195e+000 -8.758985e+000 187 141 98
2.474785e+000 1.213532e+000 -9.293980e+000 109 45 37
2.539948e+000 1.237749e+000 -9.355457e+000 140 86 79
2.537036e+000 1.236564e+000 -9.340080e+000 140 86 79
-7.227650e-001 9.782530e-001 -7.954560e+000 192 156 118
-7.016762e-001 9.331544e-001 -7.904660e+000 188 146 106
-7.017929e-001 9.338148e-001 -7.898793e+000 188 146 106
-6.616815e-001 8.902409e-001 -7.863625e+000 171 20 27
1.210807e+000 1.100879e+000 -8.690844e+000 210 145 113
1.209911e+000 1.040872e+000 -8.634863e+000 198 158 100
1.340296e+000 9.934372e-001 -8.610718e+000 167 43 45
1.476472e+000 1.034741e+000 -8.713092e+000 166 167 149
1.476581e+000 1.035098e+000 -8.712090e+000 166 167 149
1.978120e+000 1.109033e+000 -8.973415e+000 84 61 69
2.214926e+000 1.024895e+000 -8.995307e+000 138 110 91
2.335260e+000 1.097783e+000 -9.098336e+000 133 115 100
2.356421e+000 1.112128e+000 -9.120200e+000 50 27 11
2.336364e+000 1.039774e+000 -9.029878e+000 31 12 12
2.539286e+000 1.134304e+000 -9.203751e+000 151 107 100
2.543160e+000 1.133049e+000 -9.214576e+000 151 107 100
-6.276301e-001 8.144573e-001 -7.775084e+000 204 155 123
-6.259376e-001 8.157848e-001 -7.767166e+000 204 155 123
-6.263882e-001 7.810379e-001 -7.732382e+000 204 146 107
-6.272518e-001 7.807421e-001 -7.732787e+000 204 146 107
-5.550003e-001 8.867203e-001 -7.891576e+000 191 129 89
-5.550003e-001 8.867203e-001 -7.891576e+000 191 129 89
-5.813697e-001 8.482231e-001 -7.844304e+000 182 159 116
1.492754e-001 8.261062e-001 -8.030894e+000 140 149 44
1.492754e-001 8.261062e-001 -8.030894e+000 140 149 44
1.273468e+000 9.197964e-001 -8.506249e+000 209 154 126
1.533426e+000 9.812184e-001 -8.673197e+000 38 81 117
1.531209e+000 9.806986e-001 -8.673332e+000 38 81 117
1.557410e+000 8.867039e-001 -8.577186e+000 13 63 111
1.872311e+000 9.425376e-001 -8.730461e+000 97 48 53
1.866080e+000 9.007883e-001 -8.708469e+000 100 56 67
2.052481e+000 9.322769e-001 -8.796174e+000 91 64 73
2.483203e+000 9.832912e-001 -8.995163e+000 146 113 101
2.471575e+000 9.915735e-001 -8.962722e+000 146 113 101
-5.863023e-001 7.402934e-001 -7.691848e+000 177 40 55
-5.962695e-001 7.243074e-001 -7.667947e+000 193 159 107
-5.674245e-001 7.646568e-001 -7.735685e+000 169 36 39
-5.672505e-001 7.648498e-001 -7.735789e+000 169 36 39
-5.640439e-001 7.477237e-001 -7.713499e+000 186 144 102
-5.204376e-001 7.720623e-001 -7.757847e+000 168 35 45
-5.185392e-001 7.261437e-001 -7.699429e+000 189 146 103
-2.605508e-001 7.351104e-001 -7.776904e+000 155 154 45
-2.175163e-001 6.972511e-001 -7.758765e+000 88 118 111
-2.175163e-001 6.972511e-001 -7.758765e+000 88 118 111
1.894234e+000 8.564660e-001 -8.659321e+000 156 91 85
1.920053e+000 8.243095e-001 -8.645811e+000 174 96 84
2.683013e+000 7.997481e-001 -8.915370e+000 83 38 42
-1.601296e+000 5.655844e-001 -7.777971e+000 191 176 136
-4.386013e-001 6.397353e-001 -7.618409e+000 192 157 117
1.852780e+000 6.873560e-001 -8.508601e+000 166 101 75
2.992017e+000 7.397279e-001 -8.980109e+000 36 23 37
3.294342e+000 6.818675e-001 -9.053054e+000 35 70 97
3.317050e+000 7.010201e-001 -9.060906e+000 169 128 90
3.826405e+000 7.939922e-001 -9.293424e+000 200 131 92
4.050999e+000 7.528166e-001 -9.401739e+000 176 145 121
-4.070547e-001 5.693331e-001 -7.553996e+000 215 153 116
-3.593802e-001 5.402018e-001 -7.540762e+000 187 37 36
-3.596422e-001 5.402834e-001 -7.540839e+000 187 37 36
1.969625e+000 6.318894e-001 -8.486863e+000 163 92 89
1.969625e+000 6.318894e-001 -8.486863e+000 163 92 89
2.781872e+000 6.375169e-001 -8.826121e+000 118 77 83
-8.704023e-002 4.620840e-001 -7.579145e+000 169 157 37
2.721936e+000 4.404270e-001 -8.701751e+000 134 73 27
3.108154e+000 5.090509e-001 -8.872177e+000 34 25 52
3.108154e+000 5.090509e-001 -8.872177e+000 34 25 52
3.990812e+000 5.173842e-001 -9.218836e+000 192 148 114
2.921112e+000 3.302472e-001 -8.727005e+000 160 88 25
3.480248e+000 7.616749e-002 -9.105990e+000 199 88 44
2.731228e+000 1.017894e-001 -8.703427e+000 167 22 39
1.007982e+000 -1.547723e-001 -8.218176e+000 27 83 111
-1.207973e+000 1.144818e+000 -8.090524e+000 171 151 121
-1.419282e+000 9.525260e-001 -7.990219e+000 203 179 145
-2.335522e-001 1.090369e+000 -8.252936e+000 100 126 112
2.440980e+000 1.282072e+000 -9.399376e+000 118 54 42
-6.613976e-001 8.900695e-001 -7.864104e+000 168 17 25
-1.256923e+000 7.798573e-001 -7.709677e+000 206 184 142
-1.256923e+000 7.798573e-001 -7.709677e+000 206 184 142
-6.868411e-001 8.244032e-001 -7.815780e+000 180 40 38
-6.595937e-001 8.397764e-001 -7.804398e+000 197 152 109
-5.459982e-001 8.485520e-001 -7.855519e+000 195 158 119
1.255574e+000 9.633323e-001 -8.558851e+000 157 24 41
2.007885e+000 9.600387e-001 -8.820211e+000 81 58 62
1.607016e+000 7.921209e-001 -8.494275e+000 20 68 109
1.606634e+000 7.923960e-001 -8.492579e+000 20 68 109
1.938993e+000 8.054059e-001 -8.620881e+000 105 45 52
2.382796e+000 8.544585e-001 -8.867717e+000 143 117 102
1.868629e+000 7.129171e-001 -8.508177e+000 96 27 26
1.963528e+000 7.327783e-001 -8.565744e+000 88 29 43
1.930564e+000 6.949003e-001 -8.520902e+000 89 28 24
2.087632e+000 7.407962e-001 -8.621033e+000 81 45 57
2.058347e+000 7.260217e-001 -8.587532e+000 129 94 88
2.736687e+000 7.649391e-001 -8.833698e+000 143 106 101
2.736789e+000 7.382092e-001 -8.885381e+000 74 29 37
2.720693e+000 6.722367e-001 -8.821883e+000 65 23 27
-1.307941e+000 4.800990e-001 -7.617907e+000 210 183 152
-1.935161e-001 5.435269e-001 -7.606048e+000 165 149 39
2.147024e+000 5.867954e-001 -8.492976e+000 85 27 40
2.652214e+000 5.523202e-001 -8.717518e+000 99 46 58
3.158566e+000 6.086568e-001 -8.963365e+000 15 64 109
3.316548e+000 6.226681e-001 -8.957403e+000 178 135 95
3.544500e+000 5.623675e-001 -9.070813e+000 155 55 43
2.772614e+000 4.338625e-001 -8.726206e+000 183 133 80
2.550372e+000 3.675707e-001 -8.637946e+000 100 35 33
2.691513e+000 3.580969e-001 -8.701223e+000 143 87 38
-1.551113e+000 -6.389797e-002 -7.783490e+000 189 166 134
1.786671e+000 -1.010451e-001 -8.516542e+000 117 64 50
2.990983e+000 -3.738143e-001 -9.268683e+000 202 124 96
-6.168274e-001 -4.226695e-001 -7.699297e+000 186 37 55
2.380596e-001 -4.147964e-001 -8.060168e+000 169 165 50
1.203305e+000 -4.672102e-001 -8.527173e+000 188 131 117
1.268377e+000 -4.314241e-001 -8.515737e+000 128 64 48
-5.725318e-001 -5.193229e-001 -7.809143e+000 190 129 101
4.505284e+000 -1.866020e+000 -9.009562e+000 160 136 136
3.673745e+000 -3.010893e+000 -1.076635e+001 54 42 47
3.956626e+000 1.608372e+000 -1.051854e+001 31 20 29
7.946453e-001 1.284424e+000 -8.793692e+000 175 157 124
1.611406e+000 1.318588e+000 -9.118683e+000 139 24 35
2.002840e+000 1.409818e+000 -9.393180e+000 24 69 103
2.420997e+000 1.394931e+000 -9.532341e+000 148 56 42
2.612723e+000 1.296418e+000 -9.457759e+000 86 58 56
3.938087e+000 1.165299e+000 -9.744148e+000 124 27 38
1.069965e+000 8.763098e-001 -8.388175e+000 182 42 52
-1.298822e+000 6.968692e-001 -7.711904e+000 207 184 147
-6.427295e-001 7.500264e-001 -7.728885e+000 187 36 50
-4.831911e-001 6.855757e-001 -7.651225e+000 179 32 35
3.264300e+000 8.134968e-001 -9.137418e+000 170 113 74
-5.445391e-001 6.332223e-001 -7.565203e+000 194 160 130
1.077976e+000 6.712037e-001 -8.177976e+000 182 156 127
2.198325e+000 6.579970e-001 -8.612523e+000 114 55 61
-5.521565e-001 5.774810e-001 -7.469479e+000 190 41 50
2.170472e+000 5.971095e-001 -8.578954e+000 92 35 47
2.857850e+000 1.559058e-001 -8.834955e+000 160 25 37
2.857850e+000 1.559058e-001 -8.834955e+000 160 25 37
1.363523e+000 1.294971e-002 -8.241934e+000 110 59 50
3.762404e+000 -7.252122e-002 -9.336925e+000 175 150 119
1.005172e-001 -1.689371e-001 -7.828540e+000 131 135 72
2.944887e-001 -5.953238e-002 -7.862233e+000 160 159 90
1.013007e+000 -3.062457e-001 -8.329017e+000 10 51 93
2.534483e+000 -4.343573e-001 -9.108293e+000 157 20 36
-3.848364e-002 -3.804717e-001 -7.890283e+000 64 108 121
4.612830e+000 -7.977807e-001 -8.751656e+000 47 31 37
3.841349e+000 -2.721488e+000 -1.045467e+001 143 127 125
2.718241e-001 1.298038e+000 -8.643403e+000 27 63 34
7.682452e-001 1.368265e+000 -8.909455e+000 168 106 88
7.683078e-001 1.368487e+000 -8.909242e+000 168 106 88
-5.994752e-001 1.125778e+000 -8.163566e+000 30 53 27
1.559896e+000 1.343692e+000 -9.150377e+000 92 25 39
2.275558e+000 1.358773e+000 -9.460516e+000 84 21 32
2.570647e+000 1.330308e+000 -9.496282e+000 90 55 67
-1.470751e+000 9.204389e-001 -8.024274e+000 154 130 96
-6.738877e-001 1.095573e+000 -8.082047e+000 23 84 114
-1.435795e+000 8.508509e-001 -7.916231e+000 203 176 146
-7.309633e-001 9.525187e-001 -7.926136e+000 171 33 33
-1.340571e+000 7.859965e-001 -7.786718e+000 206 182 148
-1.299495e+000 7.281090e-001 -7.710152e+000 206 183 146
-1.305993e+000 7.217882e-001 -7.744090e+000 206 183 146
-6.543133e-001 7.984161e-001 -7.754592e+000 177 33 49
-6.545823e-001 7.999870e-001 -7.743206e+000 177 33 49
-4.974894e-001 8.150024e-001 -7.805275e+000 184 42 43
-4.974894e-001 8.150024e-001 -7.805275e+000 184 42 43
-3.892058e-001 8.825393e-001 -8.035158e+000 69 107 124
1.535329e+000 9.546431e-001 -8.643806e+000 74 108 119
1.849690e+000 9.837816e-001 -8.784903e+000 128 63 63
2.159939e+000 9.219950e-001 -8.815365e+000 77 56 65
-6.035998e-001 6.991013e-001 -7.641513e+000 173 38 47
-5.800689e-001 6.546634e-001 -7.586925e+000 169 31 31
2.026732e+000 7.089911e-001 -8.548231e+000 88 39 45
-5.203541e-001 5.759125e-001 -7.512843e+000 195 160 125
9.546245e-001 6.139072e-001 -8.082996e+000 167 70 63
9.564480e-001 6.123974e-001 -8.093773e+000 167 70 63
2.008862e+000 6.344403e-001 -8.506485e+000 90 33 48
2.440538e+000 6.097124e-001 -8.666098e+000 70 19 27
2.771397e+000 5.673448e-001 -8.778955e+000 68 28 32
4.140128e+000 5.002370e-001 -9.278889e+000 185 69 41
9.767175e-001 -5.938282e-002 -8.070754e+000 125 22 38
8.889725e-001 -2.956497e-001 -8.269592e+000 191 122 103
4.203012e+000 -2.125504e+000 -9.647633e+000 155 134 131
3.787122e+000 -2.756257e+000 -1.045102e+001 143 128 128
1.424638e+000 1.343316e+000 -9.079935e+000 18 63 96
1.104394e+000 1.100481e+000 -8.698445e+000 161 29 36
1.739565e+000 1.255588e+000 -9.108685e+000 134 78 80
2.126232e+000 9.781958e-001 -8.892611e+000 81 53 72
1.940276e+000 8.798588e-001 -8.693453e+000 85 33 35
1.940276e+000 8.798588e-001 -8.693453e+000 85 33 35
2.201185e+000 8.386741e-001 -8.749515e+000 91 67 84
-5.545918e-001 5.993773e-001 -7.534637e+000 187 44 49
2.179471e+000 5.517177e-001 -8.535162e+000 116 56 64
2.753077e+000 -1.734767e-001 -8.975406e+000 168 27 34
2.174734e-001 -4.790417e-001 -8.116987e+000 35 56 42
4.651769e+000 -6.941433e-001 -8.676383e+000 52 41 50
4.677093e+000 -8.757531e-001 -8.616369e+000 150 126 124
4.523580e+000 -1.113777e+000 -8.986198e+000 155 135 127
4.103008e+000 -1.993637e+000 -9.832352e+000 59 45 54
4.539171e+000 -1.743363e+000 -8.890091e+000 150 130 129
4.035539e+000 -2.488316e+000 -1.000998e+001 168 144 142
-8.486181e-002 1.378532e+000 -8.609381e+000 29 55 26
7.891107e-002 1.177295e+000 -8.417407e+000 179 159 105
7.823259e-002 1.176549e+000 -8.417814e+000 179 159 105
1.475008e+000 1.279965e+000 -9.047830e+000 32 29 57
1.555656e+000 1.255299e+000 -9.020419e+000 184 129 96
-3.018845e-001 9.957874e-001 -8.111378e+000 176 167 85
1.982545e-001 1.033534e+000 -8.313131e+000 32 61 33
-1.332020e+000 6.107756e-001 -7.680882e+000 156 129 101
-1.332020e+000 6.107756e-001 -7.680882e+000 156 129 101
-2.034085e-001 7.965976e-001 -7.887543e+000 168 160 82
2.213310e-001 5.777395e-001 -7.793478e+000 175 161 76
9.134111e-002 1.221950e+000 -8.502637e+000 177 158 105
1.386756e+000 1.103898e+000 -8.811349e+000 16 70 100
1.066076e+000 8.339009e-001 -8.320101e+000 183 49 55
-1.812080e-001 5.734312e-001 -7.615395e+000 84 114 113
-6.267139e-001 1.202264e+000 -8.190359e+000 115 130 126
9.905716e-001 1.119777e+000 -8.603726e+000 173 156 126
1.107517e-001 7.186010e-001 -7.866332e+000 172 156 126
5.453764e-001 7.249584e-001 -8.054739e+000 170 156 128
4.683099e-001 6.570169e-001 -7.959956e+000 36 55 39
-1.291577e+000 4.852645e-001 -7.636678e+000 141 114 87
2.107347e-002 5.814697e-001 -7.725266e+000 166 158 125
4.074514e+000 -2.141157e+000 -9.824437e+000 133 112 109
2.956348e+000 1.654497e+000 -1.036268e+001 41 35 42
4.526425e-001 1.125096e+000 -8.424921e+000 174 158 125
2.566512e+000 1.231328e+000 -9.291820e+000 96 67 75
1.439728e+000 -6.863573e-001 -8.948803e+000 204 139 115
-3.690521e-001 1.083644e+000 -8.317453e+000 179 164 34
-6.580251e-001 8.988341e-001 -8.050452e+000 191 147 113
2.831415e-001 9.310095e-001 -8.261480e+000 31 58 27
2.143345e+000 6.291942e-001 -8.578659e+000 91 29 40
4.238355e+000 1.262885e+000 -9.868097e+000 40 30 38
3.939573e+000 4.924007e-001 -9.247827e+000 187 100 33
1.977786e+000 1.518347e+000 -9.537465e+000 85 105 109
2.010831e+000 1.476176e+000 -9.471553e+000 78 101 117
2.023691e+000 1.459427e+000 -9.470823e+000 84 109 123
2.023691e+000 1.459427e+000 -9.470823e+000 84 109 123
2.096396e+000 1.451541e+000 -9.504568e+000 83 104 121
2.171891e+000 1.434595e+000 -9.391633e+000 58 12 14
3.158701e+000 1.449138e+000 -9.856576e+000 115 68 38
1.378932e+000 1.268041e+000 -8.943494e+000 22 62 89
1.408827e+000 1.213169e+000 -8.888359e+000 20 70 104
1.408827e+000 1.213169e+000 -8.888359e+000 20 70 104
2.516231e+000 1.281894e+000 -9.365717e+000 166 113 100
2.516231e+000 1.281894e+000 -9.365717e+000 166 113 100
2.558170e+000 1.270579e+000 -9.403517e+000 89 60 66
1.197597e+000 9.788163e-001 -8.552707e+000 187 149 106
1.256981e+000 9.644085e-001 -8.556824e+000 149 22 40
1.562199e+000 9.225953e-001 -8.616325e+000 23 64 99
-1.399090e+000 7.000675e-001 -7.780584e+000 155 128 97
-1.399090e+000 7.000675e-001 -7.780584e+000 155 128 97
-1.342766e+000 7.104253e-001 -7.739227e+000 210 184 151
-1.253366e+000 7.364939e-001 -7.688664e+000 205 181 145
-5.345256e-001 7.561142e-001 -7.734481e+000 174 154 104
1.068398e+000 7.885635e-001 -8.294888e+000 171 153 120
1.071062e+000 7.921332e-001 -8.294824e+000 171 153 120
1.896158e+000 8.540609e-001 -8.667195e+000 153 92 87
2.056767e+000 8.917376e-001 -8.755776e+000 92 59 68
2.447318e+000 8.924221e-001 -8.899126e+000 151 127 108
-1.277886e+000 5.486608e-001 -7.620754e+000 216 192 156
-5.057454e-001 7.022765e-001 -7.671282e+000 186 145 106
-2.098942e-001 7.249027e-001 -7.748786e+000 147 148 38
-2.262084e-001 6.708391e-001 -7.745287e+000 155 145 50
1.866936e+000 7.890031e-001 -8.579423e+000 164 91 83
1.870477e+000 7.844195e-001 -8.590959e+000 164 91 83
1.995877e+000 7.262677e-001 -8.572923e+000 160 91 83
1.934567e+000 7.214001e-001 -8.542233e+000 162 90 91
3.884961e+000 7.634728e-001 -9.366438e+000 154 81 52
-1.265105e+000 5.044711e-001 -7.598087e+000 215 191 156
-4.933170e-001 5.900384e-001 -7.543084e+000 185 151 114
1.949414e+000 6.167242e-001 -8.476117e+000 88 29 32
2.202512e+000 5.820098e-001 -8.579460e+000 115 66 73
3.108076e+000 6.593508e-001 -8.888689e+000 33 72 96
1.614275e+000 4.832832e-001 -8.261803e+000 153 55 54
2.048507e+000 5.245208e-001 -8.477668e+000 81 26 30
3.223734e+000 -1.299794e-001 -9.173241e+000 187 132 91
2.999950e-001 -2.377421e-001 -8.007544e+000 45 48 43
4.771695e+000 -9.797327e-001 -8.605445e+000 162 139 135
1.764931e-001 1.467052e+000 -8.843513e+000 76 84 53
1.015707e+000 1.466860e+000 -9.171783e+000 169 154 117
2.560926e+000 1.436636e+000 -9.649409e+000 158 87 62
-1.154857e+000 1.146056e+000 -7.876538e+000 168 147 114
2.446500e+000 1.334382e+000 -9.449256e+000 153 110 87
1.210128e+000 1.171708e+000 -8.734358e+000 157 27 39
2.578072e+000 1.206495e+000 -9.296173e+000 81 56 57
1.919992e+000 1.053422e+000 -8.840361e+000 105 82 85
-6.595746e-001 8.392029e-001 -7.805364e+000 196 150 103
2.017688e+000 9.824027e-001 -8.841589e+000 107 83 83
2.015331e+000 9.514557e-001 -8.854544e+000 89 64 69
2.022016e+000 9.206595e-001 -8.785248e+000 79 50 59
-1.341051e+000 6.718316e-001 -7.723854e+000 210 184 149
-1.338892e+000 6.733745e-001 -7.719453e+000 210 184 149
-5.178740e-001 7.803389e-001 -7.733095e+000 183 31 46
1.978734e+000 8.534734e-001 -8.688515e+000 80 42 42
2.713739e+000 8.424552e-001 -8.967176e+000 156 117 110
2.783437e+000 8.420558e-001 -8.996350e+000 118 88 86
2.068319e+000 7.855225e-001 -8.650771e+000 70 41 38
1.963497e+000 7.007283e-001 -8.539724e+000 164 83 77
3.928954e+000 8.038151e-001 -9.409552e+000 175 138 113
1.916738e+000 6.676549e-001 -8.498555e+000 161 91 83
1.938900e+000 5.887116e-001 -8.463992e+000 165 90 85
3.334956e+000 6.916625e-001 -9.095415e+000 160 120 84
1.301688e+000 8.911848e-002 -8.220982e+000 12 77 123
3.665353e+000 -9.626722e-002 -9.351105e+000 213 131 64
1.855600e+000 -8.865720e-002 -8.573687e+000 192 135 104
2.023925e+000 -7.292224e-002 -8.614380e+000 191 138 105
2.214743e+000 -6.632778e-002 -8.692131e+000 195 141 106
3.021727e+000 -3.018075e-001 -9.229374e+000 201 142 109
2.640580e-002 -4.812162e-001 -8.061756e+000 24 52 19
4.596443e+000 -9.546408e-001 -8.707260e+000 127 103 99
1.401069e-001 1.434364e+000 -8.824117e+000 147 142 94
2.784267e+000 1.570406e+000 -9.886800e+000 110 61 28
2.041406e+000 1.419895e+000 -9.382560e+000 64 97 111
1.171405e+000 1.118721e+000 -8.713652e+000 153 26 40
-5.991053e-001 9.202058e-001 -7.922644e+000 177 31 39
1.294730e+000 1.091502e+000 -8.721029e+000 198 109 99
1.294553e+000 1.091476e+000 -8.721011e+000 198 109 99
-1.351777e+000 8.321120e-001 -7.842625e+000 203 181 142
-1.801333e-001 8.631227e-001 -8.007131e+000 32 50 34
-1.275316e+000 6.722984e-001 -7.659693e+000 213 186 151
1.924000e+000 7.651842e-001 -8.562414e+000 164 89 74
1.012271e+000 5.699068e-001 -8.084450e+000 169 152 118
2.374668e+000 6.745514e-001 -8.673516e+000 173 130 111
3.610453e+000 7.138217e-001 -9.200108e+000 173 87 31
2.387917e+000 4.492467e-001 -8.577939e+000 142 70 35
3.902068e+000 3.146485e-001 -9.169248e+000 32 22 26
-1.804419e+000 -2.907662e-001 -8.749143e+000 193 167 134
3.848016e+000 1.447224e-001 -9.247984e+000 191 171 141
1.412685e+000 1.154750e-003 -8.309395e+000 190 125 103
1.457335e+000 1.455992e-002 -8.320011e+000 129 67 55
1.569876e+000 1.653805e-001 -8.263530e+000 173 159 132
2.311154e+000 2.619212e-003 -8.688536e+000 195 139 108
2.392530e+000 1.824868e-002 -8.662975e+000 163 26 37
4.722438e+000 -8.096768e-001 -8.715881e+000 123 101 103
4.132748e+000 -2.003260e+000 -9.779790e+000 154 136 134
4.047823e+000 -2.278565e+000 -9.972871e+000 131 107 108
1.570805e+000 1.304247e+000 -9.099531e+000 179 118 82
-1.367407e+000 9.302802e-001 -7.929214e+000 204 178 141
-6.123976e-001 8.387551e-001 -7.814754e+000 171 33 41
-3.758874e-001 5.508674e-001 -7.544662e+000 171 26 41
4.265705e+000 5.979324e-001 -9.250721e+000 171 78 44
-1.603284e+000 -2.850256e-001 -7.969272e+000 165 133 103
3.417629e+000 -3.356651e-001 -9.457497e+000 131 55 16
-1.542809e+000 -5.229841e-001 -8.130587e+000 162 134 104
8.244432e-001 -3.997664e-001 -8.346236e+000 159 36 40
2.920579e+000 -8.805923e-001 -9.929597e+000 41 32 40
-3.503401e-001 -5.156099e-001 -7.948747e+000 35 63 30
2.212383e-001 -6.221601e-001 -8.308175e+000 164 165 135
-9.262065e-001 1.232303e+000 -8.145348e+000 50 100 118
7.957014e-001 1.323684e+000 -8.839690e+000 178 114 93
6.653279e-001 1.287271e+000 -8.749115e+000 169 148 119
1.313807e+000 1.259551e+000 -8.989917e+000 17 63 90
8.718254e-001 1.185193e+000 -8.696468e+000 164 147 115
7.135785e-001 9.952690e-001 -8.382824e+000 143 146 115
-1.393731e+000 7.576776e-001 -7.821372e+000 206 180 146
-1.337694e+000 7.872214e-001 -7.777844e+000 208 184 147
1.418382e-001 8.651221e-001 -8.070777e+000 29 60 27
1.206776e+000 9.936459e-001 -8.553898e+000 136 42 27
1.107442e-001 8.196020e-001 -8.025316e+000 173 149 56
2.135422e+000 8.467521e-001 -8.728847e+000 108 77 75
5.302217e-001 6.924386e-001 -8.014700e+000 162 151 100
5.275830e-001 6.953563e-001 -8.003586e+000 162 151 100
3.903313e+000 7.365646e-001 -9.307681e+000 180 146 111
3.483673e+000 7.077198e-001 -9.145658e+000 164 117 81
2.893155e+000 5.824205e-001 -8.843669e+000 82 57 64
6.312734e-002 -2.252610e-001 -7.914030e+000 27 56 35
2.257615e+000 -3.311773e-001 -8.892568e+000 201 138 106
4.324486e+000 -1.641391e+000 -9.563186e+000 55 45 48
1.437894e-002 1.352713e+000 -8.615466e+000 99 124 100
-7.847471e-001 1.070195e+000 -8.036752e+000 174 85 68
-7.847471e-001 1.070195e+000 -8.036752e+000 174 85 68
-1.094483e-001 1.086299e+000 -8.229583e+000 29 52 34
6.366863e-001 1.188422e+000 -8.599890e+000 165 146 115
1.338064e+000 1.204146e+000 -8.933124e+000 17 65 94
-3.003656e-001 9.954057e-001 -8.113393e+000 171 150 75
1.648022e-001 9.882986e-001 -8.220218e+000 177 157 83
2.296482e+000 1.057939e+000 -9.020159e+000 29 17 25
-2.707949e-001 8.306260e-001 -7.957843e+000 25 48 33
-1.765794e-002 8.823130e-001 -8.016820e+000 32 53 34
-1.765794e-002 8.823130e-001 -8.016820e+000 32 53 34
1.178334e+000 9.404957e-001 -8.532736e+000 146 26 35
4.049590e+000 1.041552e+000 -9.692416e+000 148 86 48
2.579440e+000 6.711716e-001 -8.776744e+000 143 116 97
4.110583e+000 9.904512e-002 -9.409630e+000 192 107 40
-5.450651e-001 -3.867339e-001 -7.786536e+000 29 93 136
3.089117e+000 1.584131e+000 -1.015385e+001 149 106 64
1.051355e-002 1.171710e+000 -8.474152e+000 27 52 36
-4.799571e-002 1.111145e+000 -8.307918e+000 172 155 107
-1.214590e-001 8.807542e-001 -8.015984e+000 167 147 106
-5.080876e-002 7.961104e-001 -7.968415e+000 169 153 103
-5.063644e-002 7.990602e-001 -7.965103e+000 169 153 103
3.643176e+000 7.557051e-001 -9.217859e+000 175 87 31
7.555490e-002 2.275840e-001 -7.643874e+000 89 119 129
4.136281e+000 2.006172e-001 -9.359096e+000 206 121 61
2.608489e+000 -4.017605e-001 -9.145675e+000 171 37 48
3.128279e+000 1.499612e+000 -9.976824e+000 47 16 21
7.180926e-001 7.290726e-001 -8.103781e+000 159 143 117
1.967099e-002 5.813708e-001 -7.725202e+000 159 146 108
2.279703e-001 1.265356e+000 -8.534096e+000 124 119 35
1.487826e+000 1.345247e+000 -9.142399e+000 144 40 42
1.487826e+000 1.345247e+000 -9.142399e+000 144 40 42
3.927537e+000 -1.336613e-001 -9.578109e+000 172 143 122
2.310649e-001 1.262488e+000 -8.529174e+000 99 101 31
4.291078e-001 1.252876e+000 -8.640126e+000 165 149 116
3.745363e+000 8.993160e-001 -9.434849e+000 142 23 43
3.745363e+000 8.993160e-001 -9.434849e+000 142 23 43
3.450992e-001 -6.499030e-001 -8.469255e+000 160 159 141
-4.319970e-001 3.443410e-001 -7.435317e+000 91 124 133
4.157549e+000 -1.571581e-001 -9.519898e+000 35 24 33
4.257482e+000 8.164917e-001 -9.349775e+000 41 30 38
3.301779e+000 -2.965258e-001 -9.618684e+000 195 142 95
3.387717e+000 1.235223e+000 -9.804580e+000 153 111 71
3.387717e+000 1.235223e+000 -9.804580e+000 153 111 71
-3.394046e+001 -2.333642e+001 -8.328915e+001 65 46 50
-2.822688e+001 -2.771104e+001 -7.497075e+001 162 128 104
-3.205365e+001 -2.703908e+001 -7.589863e+001 74 45 28
-2.830543e+001 -2.709157e+001 -7.707066e+001 119 90 76
-2.830543e+001 -2.709157e+001 -7.707066e+001 119 90 76
-2.980221e+001 -2.715627e+001 -7.300998e+001 156 125 104
2.049352e+000 1.125178e+000 -9.006109e+000 96 73 79
1.558124e+000 9.231360e-001 -8.617516e+000 12 69 115
-5.091015e-001 6.049787e-001 -7.547693e+000 165 38 41
2.255522e+000 5.389563e-001 -8.554778e+000 91 38 45
2.710662e+000 1.002323e+000 -9.103931e+000 122 93 96
2.109752e+000 6.296432e-001 -8.536053e+000 128 66 75
2.537523e+000 4.761988e-001 -8.636415e+000 178 130 81
1.228715e+000 1.072153e+000 -8.669022e+000 157 33 30
4.585736e+000 -1.184376e+000 -8.832072e+000 157 137 130
4.590628e+000 -1.899262e+000 -8.786931e+000 163 144 138
2.885995e+000 5.917531e-002 -8.878593e+000 201 141 105
-2.944750e+001 -3.114681e+001 -7.154961e+001 146 123 110
-2.732340e+001 -3.143170e+001 -7.338733e+001 142 113 97
-6.632047e-001 9.201493e-001 -7.908255e+000 149 73 51
-2.639342e+001 -3.439728e+001 -7.043540e+001 123 93 81
-2.654336e+001 -3.465491e+001 -7.087059e+001 123 93 81
-2.890116e+001 -2.955742e+001 -7.082311e+001 155 124 106
-5.515699e-002 1.007018e+000 -8.127005e+000 27 60 26
-3.047693e+001 -3.089607e+001 -7.258578e+001 56 37 37
-2.820534e+001 -2.895613e+001 -7.669318e+001 118 94 74
-3.111268e+001 -3.197718e+001 -6.962549e+001 31 30 47
1.849355e+000 1.477384e+000 -9.528919e+000 29 60 84
2.057852e+000 1.499923e+000 -9.547689e+000 79 98 106
2.092869e+000 1.453992e+000 -9.495103e+000 83 104 121
-3.731285e-001 1.188685e+000 -8.312234e+000 91 108 93
-3.710164e-001 1.193302e+000 -8.298391e+000 91 108 93
1.499474e+000 1.344694e+000 -9.126081e+000 141 42 41
2.379697e+000 1.307846e+000 -9.321407e+000 166 122 99
-5.976852e-001 1.049008e+000 -8.088177e+000 166 33 38
-7.116063e-001 9.966087e-001 -7.976584e+000 180 26 37
1.162586e+000 1.068206e+000 -8.631693e+000 184 156 106
-1.251164e+000 7.376751e-001 -7.687913e+000 205 181 145
2.027148e+000 9.014848e-001 -8.764696e+000 84 57 63
2.443588e+000 9.299296e-001 -8.931006e+000 157 125 111
-5.466871e-001 6.930007e-001 -7.644410e+000 186 142 109
3.882640e-001 7.121048e-001 -7.979282e+000 156 150 46
-2.784129e-001 4.918190e-001 -7.508619e+000 148 146 29
1.771235e+000 5.666010e-001 -8.382450e+000 178 134 80
3.028439e+000 5.807829e-001 -8.883916e+000 32 30 58
2.335231e+000 4.562872e-001 -8.481531e+000 174 120 76
2.674503e+000 3.705114e-001 -8.703116e+000 126 73 31
3.392302e-001 -1.803322e-002 -7.844440e+000 88 93 61
4.626741e+000 -7.305758e-001 -8.743703e+000 45 32 42
2.179033e+000 1.325439e+000 -9.332295e+000 166 134 109
1.298433e+000 9.905074e-001 -8.613411e+000 155 28 39
1.298433e+000 9.905074e-001 -8.613411e+000 155 28 39
1.793211e+000 8.877228e-001 -8.632080e+000 77 24 33
4.289422e-001 4.742316e-001 -7.810902e+000 164 150 28
4.267089e+000 5.578121e-001 -9.331335e+000 125 35 17
1.090667e+000 4.484292e-002 -8.124381e+000 13 67 103
4.496791e+000 -1.359400e+000 -9.090587e+000 171 148 142
2.021686e+000 1.057015e+000 -8.941712e+000 87 62 68
9.201587e-001 7.186822e-001 -8.144183e+000 154 148 116
4.150256e+000 -1.960738e+000 -9.810777e+000 58 44 45
1.499722e+000 1.038584e+000 -8.717982e+000 91 97 87
4.066280e+000 1.091679e+000 -9.791283e+000 135 73 48
-3.766601e-001 5.512038e-001 -7.543228e+000 171 26 41
2.780183e+000 5.277063e-001 -8.749363e+000 166 123 69
4.207370e+000 -1.894833e+000 -9.691182e+000 145 130 127
2.596337e+000 7.350034e-001 -8.812542e+000 155 119 105
4.398600e+000 -1.347530e+000 -9.259881e+000 51 39 49
4.205790e+000 -1.860192e+000 -9.748764e+000 49 41 41
3.506805e-001 1.067423e+000 -8.346271e+000 32 56 32
9.852444e-001 8.781427e-001 -8.363861e+000 162 148 121
9.852444e-001 8.781427e-001 -8.363861e+000 162 148 121
5.441780e-001 9.365799e-001 -8.211286e+000 163 147 116
9.997500e-001 6.068296e-001 -8.113347e+000 169 147 116
1.373168e+000 6.058820e-001 -8.250275e+000 150 23 32
1.642720e+000 5.995327e-001 -8.360988e+000 16 69 109
1.845349e-001 1.429056e+000 -8.834688e+000 148 142 47
3.822115e+000 1.671755e+000 -1.059639e+001 152 93 56
2.761872e-001 1.328127e+000 -8.686576e+000 157 149 70
2.011908e+000 1.475594e+000 -9.473903e+000 69 92 99
1.341899e+000 1.352246e+000 -9.089514e+000 17 53 78
1.341615e+000 1.351984e+000 -9.089678e+000 17 53 78
1.502770e+000 1.344540e+000 -9.132526e+000 121 40 37
2.520529e+000 1.328992e+000 -9.461560e+000 144 112 97
2.509146e+000 1.251650e+000 -9.363693e+000 80 31 26
2.576107e+000 1.276274e+000 -9.362473e+000 96 76 78
-1.359264e+000 8.633262e-001 -7.848207e+000 197 177 143
-6.711686e-001 9.949312e-001 -7.996705e+000 172 33 39
-6.718671e-001 9.955639e-001 -7.995304e+000 172 33 39
-6.151350e-001 1.020463e+000 -7.913341e+000 160 15 19
1.101756e-001 1.027083e+000 -8.121243e+000 27 51 20
1.561966e-001 1.066656e+000 -8.331856e+000 25 52 11
1.059863e+000 1.096816e+000 -8.441202e+000 148 138 103
1.419828e+000 1.153775e+000 -8.842155e+000 148 146 115
1.419828e+000 1.153775e+000 -8.842155e+000 148 146 115
2.166107e+000 1.127216e+000 -9.063994e+000 116 90 73
-6.256592e-001 9.296223e-001 -7.951191e+000 195 149 113
-5.951582e-001 8.795570e-001 -7.879963e+000 181 142 102
1.824375e+000 1.020630e+000 -8.830983e+000 137 84 76
-1.356029e+000 6.963880e-001 -7.751106e+000 203 180 148
-5.472214e-001 7.810379e-001 -7.765509e+000 171 146 89
-5.464628e-001 7.796578e-001 -7.768486e+000 171 146 89
-3.249790e-001 7.493333e-001 -7.900956e+000 149 146 33
7.182075e-001 8.205307e-001 -8.212522e+000 141 22 24
7.182075e-001 8.205307e-001 -8.212522e+000 141 22 24
1.292876e+000 9.352214e-001 -8.528520e+000 145 17 19
2.023357e+000 9.636967e-001 -8.819493e+000 72 50 55
2.332495e+000 9.825768e-001 -8.944205e+000 110 82 70
-1.345529e+000 5.942430e-001 -7.694025e+000 202 177 146
-1.345405e+000 5.945488e-001 -7.693795e+000 202 177 146
-1.278143e+000 5.471910e-001 -7.622019e+000 206 184 150
-5.862682e-001 7.400940e-001 -7.691884e+000 156 36 41
-5.302263e-001 6.824589e-001 -7.632458e+000 153 44 48
1.819364e+000 8.456170e-001 -8.628099e+000 78 22 23
1.872176e+000 8.444208e-001 -8.633346e+000 74 16 11
1.863512e+000 8.227087e-001 -8.618030e+000 158 92 67
1.926445e+000 8.455971e-001 -8.659151e+000 78 28 21
2.000329e+000 7.955388e-001 -8.629587e+000 60 20 20
-1.319613e+000 5.159963e-001 -7.644171e+000 205 181 145
-2.476622e-001 6.750272e-001 -7.707713e+000 140 138 28
2.411561e+000 6.586254e-001 -8.672565e+000 94 55 50
2.787699e+000 7.343080e-001 -8.884646e+000 80 48 48
2.783280e+000 7.383285e-001 -8.877548e+000 80 48 48
1.990916e+000 5.718650e-001 -8.461061e+000 77 28 31
3.966365e+000 5.474537e-001 -9.220741e+000 165 79 55
-1.781808e-001 4.564704e-001 -7.555578e+000 161 154 31
3.515853e+000 4.659142e-001 -9.074166e+000 162 114 70
3.838726e+000 3.138521e-001 -9.131759e+000 28 9 3
1.869619e+000 -5.187367e-002 -8.545883e+000 191 139 99
4.680216e+000 -5.957416e-001 -8.531261e+000 135 121 113
-2.644822e-001 1.266623e+000 -8.475638e+000 142 138 34
2.055429e+000 1.416975e+000 -9.448124e+000 76 104 107
2.055915e+000 1.418067e+000 -9.447343e+000 76 104 107
1.961317e+000 1.405099e+000 -9.395410e+000 18 58 87
2.052578e+000 1.353427e+000 -9.333931e+000 86 21 25
-1.894602e+000 7.142127e-001 -8.338446e+000 157 29 31
-1.377004e+000 9.105137e-001 -7.890745e+000 198 179 137
-1.377450e+000 9.090907e-001 -7.895016e+000 198 179 137
4.040587e+000 1.137075e+000 -1.005594e+001 133 88 66
-6.287439e-001 8.878510e-001 -7.879831e+000 168 31 49
-6.287439e-001 8.878510e-001 -7.879831e+000 168 31 49
1.274214e+000 1.042522e+000 -8.665775e+000 136 22 28
1.528189e+000 9.796292e-001 -8.673390e+000 13 60 83
2.546285e+000 1.000317e+000 -9.096867e+000 132 104 90
1.222572e+000 9.330478e-001 -8.499479e+000 181 145 102
2.092343e+000 8.678814e-001 -8.731248e+000 60 29 34
-1.263822e+000 6.507929e-001 -7.649424e+000 207 188 148
-5.579528e-001 7.256656e-001 -7.684119e+000 179 148 95
1.736753e+000 8.534290e-001 -8.584928e+000 149 51 30
2.541976e+000 8.282097e-001 -8.833867e+000 121 98 84
3.331742e+000 8.196164e-001 -9.185396e+000 160 103 72
1.961607e+000 7.032151e-001 -8.534453e+000 157 85 67
2.321842e+000 7.463848e-001 -8.691621e+000 129 97 84
-1.573845e+000 2.098698e-001 -7.857915e+000 179 153 124
3.586148e+000 6.168269e-001 -9.103178e+000 180 99 44
4.100490e+000 5.915530e-001 -9.292669e+000 175 137 112
