ply
format ascii 1.0
element face 0
property list uchar int vertex_indices
element vertex 890
property float x
property float y
property float z
property uchar diffuse_red
property uchar diffuse_green
property uchar diffuse_blue
end_header
-1.696169e+000 -3.019843e-001 -7.952749e+000 165 133 103
3.470847e+000 -3.503187e-001 -9.477189e+000 131 55 16
-1.633430e+000 -5.466954e-001 -8.118648e+000 162 134 104
8.030173e-001 -4.190392e-001 -8.338502e+000 159 36 40
2.960447e+000 -9.108561e-001 -9.963327e+000 41 32 40
-4.067567e-001 -5.389787e-001 -7.930537e+000 35 63 30
1.821631e-001 -6.482495e-001 -8.300001e+000 164 165 135
-1.000515e+000 1.259984e+000 -8.133819e+000 50 100 118
7.730565e-001 1.355130e+000 -8.846154e+000 178 114 93
6.387561e-001 1.317610e+000 -8.753042e+000 169 148 119
1.306543e+000 1.289327e+000 -9.000092e+000 17 63 90
8.513066e-001 1.212673e+000 -8.698499e+000 164 147 115
6.881594e-001 1.017070e+000 -8.375881e+000 143 146 115
-1.481997e+000 7.709757e-001 -7.800859e+000 206 180 146
-1.424293e+000 8.015353e-001 -7.755710e+000 208 184 147
9.920263e-002 8.827087e-001 -8.055441e+000 29 60 27
1.196061e+000 1.015645e+000 -8.551436e+000 136 42 27
6.715794e-002 8.358336e-001 -8.008652e+000 173 149 56
2.151861e+000 8.649598e-001 -8.730060e+000 108 77 75
4.991213e-001 7.051474e-001 -7.997155e+000 162 151 100
4.963884e-001 7.081767e-001 -7.985700e+000 162 151 100
3.969657e+000 7.525207e-001 -9.322749e+000 180 146 111
3.538381e+000 7.226651e-001 -9.156700e+000 164 117 81
2.931307e+000 5.933792e-001 -8.847057e+000 82 57 64
1.862697e-002 -2.400246e-001 -7.894413e+000 27 56 35
2.278152e+000 -3.470482e-001 -8.898450e+000 201 138 106
4.402179e+000 -1.691380e+000 -9.583939e+000 55 45 48
-3.159281e-002 1.384525e+000 -8.616588e+000 99 124 100
-8.550150e-001 1.093178e+000 -8.021794e+000 174 85 68
-8.550150e-001 1.093178e+000 -8.021794e+000 174 85 68
-1.594606e-001 1.110236e+000 -8.219366e+000 29 52 34
6.091578e-001 1.215836e+000 -8.599526e+000 165 146 115
1.331453e+000 1.232363e+000 -8.941512e+000 17 65 94
-3.561379e-001 1.016542e+000 -8.099965e+000 171 150 75
1.229690e-001 1.009545e+000 -8.209288e+000 177 157 83
2.317652e+000 1.082356e+000 -9.029579e+000 29 17 25
-3.257933e-001 8.469257e-001 -7.939691e+000 25 48 33
-6.510012e-002 9.003229e-001 -8.000090e+000 32 53 34
-6.510012e-002 9.003229e-001 -8.000090e+000 32 53 34
1.166755e+000 9.609544e-001 -8.529547e+000 146 26 35
4.119873e+000 1.066277e+000 -9.717944e+000 148 86 48
2.608672e+000 6.845014e-001 -8.778722e+000 143 116 97
4.182499e+000 9.724319e-002 -9.426668e+000 192 107 40
-6.075253e-001 -4.064683e-001 -7.763691e+000 29 93 136
3.132706e+000 1.623928e+000 -1.019357e+001 149 106 64
-3.565646e-002 1.198241e+000 -8.470986e+000 27 52 36
-9.608113e-002 1.135899e+000 -8.299821e+000 172 155 107
-1.719824e-001 8.986355e-001 -7.999382e+000 167 147 106
-9.924022e-002 8.115557e-001 -7.950268e+000 169 153 103
-9.907175e-002 8.145847e-001 -7.946866e+000 169 153 103
3.702349e+000 7.720664e-001 -9.230818e+000 175 87 31
3.077499e-002 2.261072e-001 -7.616111e+000 89 119 129
4.208863e+000 2.016754e-001 -9.374701e+000 206 121 61
2.639118e+000 -4.192003e-001 -9.158106e+000 171 37 48
3.173076e+000 1.537029e+000 -1.001180e+001 47 16 21
6.926451e-001 7.429649e-001 -8.088696e+000 159 143 117
-2.687020e-002 5.903996e-001 -7.699842e+000 159 146 108
1.882522e-001 1.294833e+000 -8.532238e+000 124 119 35
1.485606e+000 1.377697e+000 -9.156375e+000 144 40 42
1.485606e+000 1.377697e+000 -9.156375e+000 144 40 42
3.994619e+000 -1.421047e-001 -9.600176e+000 172 143 122
1.914382e-001 1.291882e+000 -8.527176e+000 99 101 31
3.954643e-001 1.282089e+000 -8.641151e+000 165 149 116
3.807345e+000 9.198469e-001 -9.453731e+000 142 23 43
3.807345e+000 9.198469e-001 -9.453731e+000 142 23 43
3.098775e-001 -6.766223e-001 -8.465589e+000 160 159 141
-4.921970e-001 3.459703e-001 -7.402016e+000 91 124 133
4.230780e+000 -1.660708e-001 -9.539848e+000 35 24 33
4.333109e+000 8.350229e-001 -9.364850e+000 41 30 38
3.351821e+000 -3.100564e-001 -9.642974e+000 195 142 95
3.439646e+000 1.265243e+000 -9.834076e+000 153 111 71
3.439646e+000 1.265243e+000 -9.834076e+000 153 111 71
-3.361671e+001 -2.314691e+001 -8.272645e+001 65 46 50
-2.806488e+001 -2.759865e+001 -7.473049e+001 162 128 104
-3.184020e+001 -2.689960e+001 -7.558168e+001 74 45 28
-2.812276e+001 -2.696374e+001 -7.677872e+001 119 90 76
-2.812276e+001 -2.696374e+001 -7.677872e+001 119 90 76
-2.964244e+001 -2.705169e+001 -7.279000e+001 156 125 104
2.063418e+000 1.151425e+000 -9.015538e+000 96 73 79
1.557734e+000 9.432742e-001 -8.616297e+000 12 69 115
-5.716404e-001 6.142691e-001 -7.517903e+000 165 38 41
2.275447e+000 5.481890e-001 -8.550870e+000 91 38 45
2.743639e+000 1.025340e+000 -9.115067e+000 122 93 96
2.125413e+000 6.414577e-001 -8.531747e+000 128 66 75
2.565598e+000 4.837887e-001 -8.634480e+000 178 130 81
1.218688e+000 1.096512e+000 -8.669742e+000 157 33 30
4.671118e+000 -1.222616e+000 -8.833445e+000 157 137 130
4.676287e+000 -1.957688e+000 -8.787482e+000 163 144 138
2.924202e+000 5.500624e-002 -8.883093e+000 201 141 105
-2.929457e+001 -3.103620e+001 -7.134936e+001 146 123 110
-2.716607e+001 -3.130754e+001 -7.315564e+001 142 113 97
-7.299627e-001 9.387861e-001 -7.889270e+000 149 73 51
-2.625631e+001 -3.428198e+001 -7.024866e+001 123 93 81
-2.639945e+001 -3.453104e+001 -7.066876e+001 123 93 81
-2.876717e+001 -2.946709e+001 -7.065670e+001 155 124 106
-1.036454e-001 1.028678e+000 -8.113586e+000 27 60 26
-3.029385e+001 -3.075920e+001 -7.232679e+001 56 37 37
-2.802655e+001 -2.882523e+001 -7.641362e+001 118 94 74
-3.094871e+001 -3.185655e+001 -6.941725e+001 31 30 47
1.857774e+000 1.513789e+000 -9.553313e+000 29 60 84
2.072257e+000 1.537039e+000 -9.572377e+000 79 98 106
2.108310e+000 1.489792e+000 -9.518337e+000 83 104 121
-4.308746e-001 1.215480e+000 -8.304817e+000 91 108 93
-4.287127e-001 1.220257e+000 -8.290499e+000 91 108 93
1.497584e+000 1.377131e+000 -9.139580e+000 141 42 41
2.403255e+000 1.339556e+000 -9.339215e+000 166 122 99
-6.622916e-001 1.071552e+000 -8.074368e+000 166 33 38
-7.797590e-001 1.017475e+000 -7.959709e+000 180 26 37
1.150581e+000 1.092414e+000 -8.631363e+000 184 156 106
-1.335435e+000 7.505104e-001 -7.663221e+000 205 181 145
2.040467e+000 9.212430e-001 -8.767062e+000 84 57 63
2.468926e+000 9.507184e-001 -8.937588e+000 157 125 111
-6.102056e-001 7.049963e-001 -7.617390e+000 186 142 109
3.528980e-001 7.253002e-001 -7.960873e+000 156 150 46
-3.340465e-001 4.979516e-001 -7.477250e+000 148 146 29
1.777020e+000 5.763580e-001 -8.374138e+000 178 134 80
3.070419e+000 5.917755e-001 -8.888272e+000 32 30 58
2.357399e+000 4.631748e-001 -8.475346e+000 174 120 76
2.706485e+000 3.751853e-001 -8.702807e+000 126 73 31
3.026697e-001 -2.654484e-002 -7.822309e+000 88 93 61
4.713148e+000 -7.560280e-001 -8.742406e+000 45 32 42
2.196899e+000 1.357574e+000 -9.350762e+000 166 134 109
1.290426e+000 1.012505e+000 -8.612362e+000 155 28 39
1.290426e+000 1.012505e+000 -8.612362e+000 155 28 39
1.799682e+000 9.069488e-001 -8.630940e+000 77 24 33
3.947179e-001 4.803357e-001 -7.787559e+000 164 150 28
4.343293e+000 5.689761e-001 -9.346260e+000 125 35 17
1.076556e+000 3.878449e-002 -8.109455e+000 13 67 103
4.579487e+000 -1.402194e+000 -9.098891e+000 171 148 142
2.034908e+000 1.081306e+000 -8.949213e+000 87 62 68
9.007183e-001 7.324070e-001 -8.129947e+000 154 148 116
4.223250e+000 -2.019446e+000 -9.838488e+000 58 44 45
1.497656e+000 1.062095e+000 -8.719701e+000 91 97 87
4.136979e+000 1.117851e+000 -9.819492e+000 135 73 48
-4.352141e-001 5.590553e-001 -7.512992e+000 171 26 41
2.815146e+000 5.369860e-001 -8.750277e+000 166 123 69
4.282004e+000 -1.951919e+000 -9.715813e+000 145 130 127
2.626037e+000 7.502003e-001 -8.815511e+000 155 119 105
4.478575e+000 -1.389872e+000 -9.272821e+000 51 39 49
4.280306e+000 -1.916176e+000 -9.774779e+000 49 41 41
3.144670e-001 1.091120e+000 -8.338815e+000 32 56 32
9.678491e-001 8.966677e-001 -8.355965e+000 162 148 121
9.678491e-001 8.966677e-001 -8.355965e+000 162 148 121
5.135916e-001 9.565352e-001 -8.199560e+000 163 147 116
9.826710e-001 6.172912e-001 -8.098134e+000 169 147 116
1.367208e+000 6.165540e-001 -8.238580e+000 150 23 32
1.644748e+000 6.101597e-001 -8.352273e+000 16 69 109
1.438431e-001 1.463215e+000 -8.841903e+000 148 142 47
3.886765e+000 1.713805e+000 -1.064830e+001 152 93 56
2.380462e-001 1.359470e+000 -8.689092e+000 157 149 70
2.024973e+000 1.511992e+000 -9.496602e+000 69 92 99
1.335541e+000 1.384678e+000 -9.102630e+000 17 53 78
1.335248e+000 1.384406e+000 -9.102803e+000 17 53 78
1.501100e+000 1.376868e+000 -9.146558e+000 121 40 37
2.548314e+000 1.361281e+000 -9.483395e+000 144 112 97
2.536594e+000 1.281680e+000 -9.382785e+000 80 31 26
2.605294e+000 1.307148e+000 -9.381143e+000 96 76 78
-1.446579e+000 8.797504e-001 -7.828471e+000 197 177 143
-7.380965e-001 1.015769e+000 -7.980371e+000 172 33 39
-7.388144e-001 1.016423e+000 -7.978929e+000 172 33 39
-6.805237e-001 1.042104e+000 -7.894480e+000 160 15 19
6.656787e-002 1.049480e+000 -8.107344e+000 27 51 20
1.142034e-001 1.090271e+000 -8.324049e+000 25 52 11
1.044636e+000 1.121830e+000 -8.435420e+000 148 138 103
1.415542e+000 1.180556e+000 -8.847778e+000 148 146 115
1.415542e+000 1.180556e+000 -8.847778e+000 148 146 115
2.183499e+000 1.153636e+000 -9.074720e+000 116 90 73
-6.912329e-001 9.485849e-001 -7.933412e+000 195 149 113
-6.599076e-001 8.970534e-001 -7.860027e+000 181 142 102
1.831841e+000 1.043771e+000 -8.835579e+000 137 84 76
-1.443243e+000 7.079068e-001 -7.728434e+000 203 180 148
-6.106544e-001 7.956429e-001 -7.742095e+000 171 146 89
-6.098722e-001 7.942201e-001 -7.745157e+000 171 146 89
-3.816098e-001 7.631976e-001 -7.881157e+000 149 146 33
6.928392e-001 8.371389e-001 -8.200649e+000 141 22 24
6.928392e-001 8.371389e-001 -8.200649e+000 141 22 24
1.284654e+000 9.555848e-001 -8.525062e+000 145 17 19
2.036579e+000 9.852796e-001 -8.823441e+000 72 50 55
2.354645e+000 1.004871e+000 -8.951255e+000 110 82 70
-1.432426e+000 6.027576e-001 -7.669650e+000 202 177 146
-1.432307e+000 6.030510e-001 -7.669430e+000 202 177 146
-1.363137e+000 5.543512e-001 -7.595403e+000 206 184 150
-6.508994e-001 7.534948e-001 -7.666306e+000 156 36 41
-5.932828e-001 6.941229e-001 -7.605087e+000 153 44 48
1.826549e+000 8.636706e-001 -8.626740e+000 78 22 23
1.880963e+000 8.624096e-001 -8.632187e+000 74 16 11
1.871980e+000 8.401060e-001 -8.616324e+000 158 92 67
1.936799e+000 8.636648e-001 -8.658625e+000 78 28 21
2.012822e+000 8.121756e-001 -8.628111e+000 60 20 20
-1.405760e+000 5.222121e-001 -7.618280e+000 205 181 145
-3.022333e-001 6.866904e-001 -7.682124e+000 140 138 28
2.435923e+000 6.715044e-001 -8.671731e+000 94 55 50
2.822827e+000 7.496183e-001 -8.889335e+000 80 48 48
2.818360e+000 7.537059e-001 -8.882173e+000 80 48 48
2.003109e+000 5.819264e-001 -8.454734e+000 77 28 31
4.034696e+000 5.578973e-001 -9.233652e+000 165 79 55
-2.307578e-001 4.616295e-001 -7.525450e+000 161 154 31
3.571605e+000 4.738710e-001 -9.083312e+000 162 114 70
3.903549e+000 3.175821e-001 -9.142267e+000 28 9 3
1.878535e+000 -5.991316e-002 -8.541916e+000 191 139 99
4.768252e+000 -6.177471e-001 -8.524392e+000 135 121 113
-3.188114e-001 1.295803e+000 -8.472791e+000 142 138 34
2.069798e+000 1.451684e+000 -9.470108e+000 76 104 107
2.070493e+000 1.452643e+000 -9.469739e+000 76 104 107
1.972932e+000 1.439455e+000 -9.415969e+000 18 58 87
2.066795e+000 1.386330e+000 -9.352604e+000 86 21 25
-1.996391e+000 7.258473e-001 -8.334107e+000 157 29 31
-1.464763e+000 9.283469e-001 -7.872246e+000 198 179 137
-1.465211e+000 9.268537e-001 -7.876737e+000 198 179 137
4.110750e+000 1.164423e+000 -1.009177e+001 133 88 66
-6.945031e-001 9.055661e-001 -7.859937e+000 168 31 49
-6.945031e-001 9.055661e-001 -7.859937e+000 168 31 49
1.265519e+000 1.066044e+000 -8.666290e+000 136 22 28
1.526954e+000 1.001408e+000 -8.673856e+000 13 60 83
2.574607e+000 1.023221e+000 -9.107988e+000 132 104 90
1.212237e+000 9.533738e-001 -8.495066e+000 181 145 102
2.107536e+000 8.866825e-001 -8.732600e+000 60 29 34
-1.348501e+000 6.609139e-001 -7.623878e+000 207 188 148
-6.217724e-001 7.386235e-001 -7.658294e+000 179 148 95
1.741575e+000 8.716060e-001 -8.582552e+000 149 51 30
2.570122e+000 8.460953e-001 -8.837509e+000 121 98 84
3.382355e+000 8.375970e-001 -9.198078e+000 160 103 72
1.972967e+000 7.171030e-001 -8.530315e+000 157 85 67
2.343640e+000 7.617815e-001 -8.691442e+000 129 97 84
-1.666807e+000 2.068331e-001 -7.839034e+000 179 153 124
3.643899e+000 6.290806e-001 -9.113223e+000 180 99 44
4.172212e+000 6.035374e-001 -9.306859e+000 175 137 112
2.853150e+000 4.656399e-001 -8.815559e+000 165 127 72
3.534200e+000 4.183371e-001 -9.009636e+000 155 53 40
4.504573e+000 4.734326e-001 -9.343712e+000 32 21 37
1.079239e-002 1.842480e-001 -7.604627e+000 91 124 139
1.009987e+000 9.293047e-002 -8.051979e+000 79 35 67
1.355148e+000 1.055688e-002 -8.233428e+000 126 67 48
1.355148e+000 1.055688e-002 -8.233428e+000 126 67 48
2.985350e+000 -9.096557e-002 -8.993323e+000 195 143 104
4.066319e+000 -2.469980e+000 -1.013371e+001 134 118 105
4.068166e+000 -2.477237e+000 -1.014209e+001 134 118 105
3.048984e+000 -4.641127e+000 -1.227256e+001 69 61 71
3.921118e+000 -2.877405e+000 -1.033380e+001 131 114 106
3.921118e+000 -2.877405e+000 -1.033380e+001 131 114 106
3.944388e+000 -3.381639e+000 -1.037166e+001 154 140 131
1.025435e+000 1.508363e+000 -9.350694e+000 144 41 35
1.531798e+000 1.538429e+000 -9.485478e+000 146 58 52
1.930865e+000 1.556420e+000 -9.647947e+000 17 55 79
3.936047e+000 1.728465e+000 -1.058034e+001 29 18 24
3.002396e+000 1.563107e+000 -9.982969e+000 141 100 56
1.471121e+000 1.140272e+000 -8.823172e+000 24 59 99
2.463496e+000 1.216382e+000 -9.248062e+000 160 116 99
-1.337864e+000 7.953525e-001 -7.690231e+000 201 182 139
-1.340013e+000 7.921190e-001 -7.696478e+000 201 182 139
-1.310389e+000 7.246376e-001 -7.627678e+000 204 185 145
-1.311470e+000 7.232579e-001 -7.628999e+000 204 185 145
-6.381447e-001 6.967050e-001 -7.587761e+000 181 154 109
2.178852e+000 6.142247e-001 -8.547891e+000 73 22 27
3.614619e+000 3.883623e-001 -9.077992e+000 196 115 48
3.407792e+000 2.010223e-001 -9.016293e+000 105 27 36
4.327977e+000 2.322868e-001 -9.369866e+000 143 81 49
2.444418e+000 1.490662e-001 -8.609472e+000 152 26 36
4.165802e+000 -2.144731e+000 -9.888030e+000 149 137 125
4.229629e+000 -1.993686e+000 -9.748785e+000 149 132 124
4.347137e+000 -1.732868e+000 -9.512244e+000 145 134 130
3.885707e+000 -2.784713e+000 -1.047610e+001 138 129 116
4.210932e+000 -2.200284e+000 -9.648249e+000 133 119 108
4.371245e+000 -2.561351e+000 -9.372135e+000 164 147 137
4.371245e+000 -2.561351e+000 -9.372135e+000 164 147 137
1.827293e+000 1.453229e+000 -9.322846e+000 106 14 26
2.133449e+000 1.443066e+000 -9.504043e+000 18 53 80
-7.967185e-001 9.722236e-001 -7.908359e+000 166 29 36
-6.789105e-001 8.581052e-001 -7.787569e+000 156 32 27
2.544662e+000 9.072858e-001 -8.929595e+000 138 113 93
3.323664e+000 8.409786e-001 -9.169501e+000 150 107 68
2.607685e+000 5.650384e-001 -8.700726e+000 65 22 32
8.781736e-001 -7.160887e-002 -8.115721e+000 158 25 40
4.688757e+000 -8.002000e-001 -8.737239e+000 54 43 46
4.758182e+000 -7.343023e-001 -8.619966e+000 145 128 119
4.201856e+000 -2.060214e+000 -9.800148e+000 148 133 126
3.595738e+000 -3.439414e+000 -1.107621e+001 140 130 127
3.663655e+000 -3.282142e+000 -1.092964e+001 154 145 131
3.761899e+000 -3.058025e+000 -1.072326e+001 144 133 124
3.117983e+000 -4.667763e+000 -1.224813e+001 146 136 135
3.009334e+000 1.622871e+000 -1.017251e+001 30 13 21
-4.706680e-001 1.271372e+000 -8.357158e+000 76 79 11
-3.801774e-001 1.208216e+000 -8.319144e+000 100 107 71
1.279139e+000 1.337999e+000 -9.052709e+000 14 58 88
-1.531551e+000 8.595426e-001 -7.908709e+000 199 177 138
1.106012e+000 1.080403e+000 -8.642897e+000 135 20 32
1.181137e+000 1.068167e+000 -8.632554e+000 146 52 40
1.472178e+000 1.110199e+000 -8.778582e+000 116 119 101
1.474734e+000 1.110014e+000 -8.781778e+000 116 119 101
2.498833e+000 1.246353e+000 -9.261122e+000 93 53 49
6.911029e-001 1.015423e+000 -8.380375e+000 161 140 116
4.058898e+000 9.718299e-001 -9.630610e+000 160 88 43
-1.398015e+000 5.705240e-001 -7.627576e+000 208 186 151
4.881579e+000 -4.095454e-001 -8.324997e+000 142 124 120
4.728673e+000 -8.005075e-001 -8.678773e+000 143 131 119
3.611674e+000 -3.299917e+000 -1.102174e+001 55 50 49
3.861818e+000 -2.687976e+000 -1.045060e+001 51 47 52
5.024557e+000 -9.488202e-001 -8.013802e+000 157 136 133
5.030161e+000 -9.550501e-001 -8.019651e+000 157 136 133
4.201023e+000 -2.846125e+000 -9.792659e+000 157 141 128
9.331235e-001 1.466287e+000 -9.074663e+000 140 27 34
9.289835e-001 1.457734e+000 -9.085021e+000 140 27 34
2.993432e+000 1.591491e+000 -9.986212e+000 121 87 39
2.993432e+000 1.591491e+000 -9.986212e+000 121 87 39
8.376961e-001 1.208680e+000 -8.707428e+000 159 142 111
9.233376e-001 1.009096e+000 -8.485636e+000 151 140 112
1.949459e+000 5.572940e-001 -8.424916e+000 99 43 45
1.025406e+000 7.058521e-002 -8.047383e+000 28 65 108
4.358816e+000 -2.544847e+000 -9.427419e+000 164 147 137
4.369859e+000 -2.564826e+000 -9.448840e+000 164 147 137
-3.588365e-002 1.194408e+000 -8.477811e+000 31 53 37
1.380768e+000 1.129200e+000 -8.814215e+000 10 68 99
8.990589e-001 7.661193e-001 -8.193218e+000 159 145 118
5.018287e-001 7.341594e-001 -7.967502e+000 162 151 121
8.833762e-001 1.340720e+000 -8.823179e+000 159 142 112
1.891971e-001 1.137127e+000 -8.349513e+000 166 149 104
2.198174e+000 1.119296e+000 -9.054322e+000 137 112 92
2.920101e-001 7.320084e-001 -7.951904e+000 160 149 123
3.855218e+000 -2.945435e+000 -1.056896e+001 140 127 118
2.307100e+000 1.315588e+000 -9.308661e+000 148 120 96
-4.803836e-001 1.425403e+000 -8.799312e+000 73 101 102
2.341636e+000 1.540611e+000 -9.872835e+000 146 108 69
3.847065e+000 1.604254e+000 -1.050651e+001 134 101 68
3.847065e+000 1.604254e+000 -1.050651e+001 134 101 68
2.653491e+000 1.128153e+000 -9.159623e+000 69 48 53
5.877228e-001 7.664485e-001 -8.444049e+000 158 147 116
1.497374e+000 -3.221051e-001 -1.709586e+001 67 51 14
4.262337e-002 1.471654e+000 -8.766355e+000 149 136 51
1.878443e+000 1.532439e+000 -9.549363e+000 137 138 96
1.944827e+000 1.539819e+000 -9.578654e+000 134 135 114
1.944556e+000 1.539815e+000 -9.578502e+000 134 135 114
1.995762e+000 1.514751e+000 -9.528476e+000 27 52 55
2.007452e+000 1.491900e+000 -9.501191e+000 29 54 61
2.812707e+000 1.579241e+000 -9.995585e+000 144 97 51
-4.510668e-001 1.293457e+000 -8.382885e+000 29 41 28
5.341117e-001 1.347458e+000 -8.777126e+000 143 26 31
1.372601e+000 1.371757e+000 -9.096964e+000 148 145 106
1.369498e+000 1.375384e+000 -9.086956e+000 148 145 106
2.081198e+000 1.489305e+000 -9.538353e+000 27 54 58
2.082045e+000 1.487345e+000 -9.542780e+000 27 54 58
2.097757e+000 1.466400e+000 -9.499868e+000 27 57 68
1.479874e+000 1.342201e+000 -9.135028e+000 145 43 47
1.383114e+000 1.292323e+000 -8.982478e+000 24 59 71
1.383114e+000 1.292323e+000 -8.982478e+000 24 59 71
1.420808e+000 1.280223e+000 -8.973576e+000 145 154 119
1.489572e+000 1.299503e+000 -9.063614e+000 75 15 26
1.588485e+000 1.282075e+000 -9.021177e+000 170 117 81
2.456976e+000 1.319951e+000 -9.387524e+000 102 47 26
2.611071e+000 1.318685e+000 -9.484536e+000 101 71 64
-1.942074e+000 7.238484e-001 -8.309713e+000 149 80 62
-1.927980e+000 6.876549e-001 -8.361460e+000 180 141 98
-4.678665e-001 1.057560e+000 -8.211240e+000 147 138 3
-3.838269e-001 1.025007e+000 -8.157569e+000 158 143 29
8.727623e-001 1.133973e+000 -8.605435e+000 155 144 95
1.108160e+000 1.166713e+000 -8.728160e+000 185 151 90
1.181666e+000 1.169779e+000 -8.761024e+000 187 141 97
1.731856e+000 1.210092e+000 -8.990962e+000 139 74 59
1.749670e+000 1.175952e+000 -8.952409e+000 157 81 72
1.749339e+000 1.175805e+000 -8.952352e+000 157 81 72
2.562815e+000 1.274300e+000 -9.367056e+000 144 85 73
2.576205e+000 1.219874e+000 -9.298632e+000 139 78 65
-1.353773e+000 8.741257e-001 -7.749451e+000 201 175 122
-7.685233e-001 9.546776e-001 -7.880300e+000 177 154 87
1.008544e+000 1.098664e+000 -8.435466e+000 154 144 98
1.159796e+000 1.058388e+000 -8.612566e+000 183 147 97
1.231531e+000 1.062917e+000 -8.639018e+000 188 147 90
1.231575e+000 1.062999e+000 -8.638896e+000 188 147 90
1.533821e+000 1.060214e+000 -8.737468e+000 7 62 84
1.958046e+000 1.164165e+000 -9.014447e+000 73 55 55
1.958046e+000 1.164165e+000 -9.014447e+000 73 55 55
2.358105e+000 1.083477e+000 -9.061617e+000 110 102 72
2.573895e+000 1.190197e+000 -9.255890e+000 141 76 62
-1.315222e+000 8.376657e-001 -7.688660e+000 81 50 31
-1.316236e+000 8.344444e-001 -7.695100e+000 81 50 31
-6.400182e-001 9.094630e-001 -7.865753e+000 161 30 39
-6.400182e-001 9.094630e-001 -7.865753e+000 161 30 39
1.258826e+000 1.004278e+000 -8.577445e+000 188 128 82
1.258826e+000 1.004278e+000 -8.577445e+000 188 128 82
1.505462e+000 1.030522e+000 -8.703008e+000 24 59 76
1.991984e+000 1.017641e+000 -8.850769e+000 73 48 44
1.992924e+000 1.017130e+000 -8.851560e+000 73 48 44
2.101835e+000 9.839287e-001 -8.852386e+000 69 45 41
-1.460429e+000 6.781971e-001 -7.727425e+000 106 76 38
-1.405693e+000 6.579975e-001 -7.668835e+000 206 179 136
-1.409472e+000 6.030111e-001 -7.661475e+000 120 89 48
-6.923264e-001 7.965273e-001 -7.706436e+000 179 143 89
1.848502e+000 8.734854e-001 -8.626216e+000 145 84 68
2.458234e+000 8.723140e-001 -8.861687e+000 126 105 78
-1.406171e+000 5.185459e-001 -7.622418e+000 212 181 124
-1.348408e+000 5.175518e-001 -7.561861e+000 205 176 130
-5.077775e-001 6.810132e-001 -7.629784e+000 188 121 80
-5.077775e-001 6.810132e-001 -7.629784e+000 188 121 80
2.046401e+000 8.362526e-001 -8.658259e+000 75 34 29
2.700289e+000 8.723856e-001 -8.944384e+000 68 24 21
-3.667420e-001 6.058376e-001 -7.680078e+000 142 125 29
7.383545e-001 6.185311e-001 -7.999531e+000 166 148 32
1.031872e+000 6.399243e-001 -8.143502e+000 171 140 101
1.031872e+000 6.399243e-001 -8.143502e+000 171 140 101
3.648481e+000 6.796197e-001 -9.150455e+000 174 90 33
4.078359e+000 7.714297e-001 -9.393931e+000 129 29 29
4.080627e+000 7.691108e-001 -9.398214e+000 129 29 29
3.720390e-001 5.574358e-001 -7.811987e+000 21 45 22
1.066369e+000 5.704374e-001 -8.093519e+000 163 149 97
2.063880e+000 5.808343e-001 -8.487278e+000 71 24 24
2.782751e+000 6.157799e-001 -8.765737e+000 52 16 18
3.143677e+000 5.654001e-001 -8.884471e+000 26 14 24
2.542382e+000 4.677687e-001 -8.616405e+000 131 85 30
2.781251e+000 4.538583e-001 -8.694555e+000 173 119 56
1.475411e+000 -5.364574e-001 -8.684176e+000 52 44 38
2.793005e+000 -4.319986e+000 -1.290438e+001 64 58 59
4.782201e+000 -5.330249e-001 -8.481979e+000 38 29 25
4.376590e+000 -1.642347e+000 -9.481170e+000 52 35 31
3.914187e+000 -3.218532e+000 -1.045922e+001 154 136 114
5.075371e+000 -6.345402e-001 -7.809583e+000 159 133 116
7.255438e-001 1.434529e+000 -8.942474e+000 169 137 95
1.008114e+000 1.503463e+000 -9.178246e+000 165 136 96
1.934278e+000 1.518772e+000 -9.545317e+000 16 56 72
2.009700e+000 1.584896e+000 -9.620978e+000 12 53 75
2.361292e+000 1.498032e+000 -9.617248e+000 155 112 61
1.413205e+000 1.236693e+000 -8.918074e+000 11 55 71
1.415093e+000 1.235123e+000 -8.922218e+000 11 55 71
-7.987050e-001 9.544121e-001 -7.862564e+000 157 25 32
2.571919e+000 1.255594e+000 -8.882911e+000 100 75 69
-6.078505e-001 8.665065e-001 -7.835596e+000 179 147 93
-1.670933e+000 4.913418e-001 -7.808432e+000 167 134 89
-6.713952e-001 7.736480e-001 -7.669546e+000 170 147 80
1.559220e+000 9.410795e-001 -8.617652e+000 19 56 74
-5.561081e-001 6.953869e-001 -7.620083e+000 159 34 37
-5.561081e-001 6.953869e-001 -7.620083e+000 159 34 37
1.751142e+000 7.517326e-001 -8.525204e+000 164 88 52
1.894479e+000 7.719450e-001 -8.556744e+000 159 89 74
2.169096e+000 8.202885e-001 -8.699449e+000 145 119 104
2.399274e+000 6.866944e-001 -8.673937e+000 170 127 103
4.116445e+000 7.744795e-001 -9.411715e+000 170 130 86
4.323722e+000 7.583797e-001 -9.518648e+000 132 54 28
-3.720918e-001 5.326433e-001 -7.482518e+000 57 86 83
-3.737587e-001 5.251260e-001 -7.493709e+000 57 86 83
1.667152e+000 5.318063e-001 -8.302224e+000 173 129 69
2.098037e+000 5.051325e-001 -8.489651e+000 169 129 85
3.367335e+000 6.359321e-001 -8.973339e+000 162 125 73
3.519769e+000 4.325028e-001 -8.981889e+000 148 49 19
2.634574e+000 1.525403e-001 -8.700221e+000 162 19 28
1.278966e+000 1.015784e-001 -8.154725e+000 25 73 101
1.329619e+000 -1.041369e-001 -8.299954e+000 147 93 62
1.327491e+000 -1.024491e-001 -8.297435e+000 147 93 62
4.874329e+000 -7.217725e-001 -8.591261e+000 112 90 76
4.837984e+000 -1.350497e+000 -8.713329e+000 124 98 81
3.160154e+000 -5.071503e+000 -1.191021e+001 168 155 139
4.288572e+000 -2.676951e+000 -9.465553e+000 164 139 117
-1.431759e+000 1.422281e+000 -8.370184e+000 156 135 89
1.367966e-001 1.493649e+000 -8.906752e+000 52 58 30
1.365443e-001 1.492733e+000 -8.908101e+000 52 58 30
2.866539e+000 1.609171e+000 -1.017030e+001 107 57 20
2.948813e+000 1.590989e+000 -1.001676e+001 148 96 46
-1.287976e+000 1.168196e+000 -8.059311e+000 160 138 90
2.455149e+000 1.401086e+000 -9.469268e+000 68 14 6
-1.391217e+000 8.953538e-001 -7.796245e+000 200 177 125
-1.391217e+000 8.953538e-001 -7.796245e+000 200 177 125
-1.417503e+000 8.427809e-001 -7.775279e+000 200 172 121
2.532695e+000 1.153710e+000 -9.188311e+000 93 63 44
-7.243812e-001 9.059907e-001 -7.848067e+000 172 34 37
-7.243812e-001 9.059907e-001 -7.848067e+000 172 34 37
1.025007e-001 9.101263e-001 -8.115792e+000 162 142 27
1.648677e+000 9.955239e-001 -8.608669e+000 167 128 66
-1.362722e+000 6.857971e-001 -7.637160e+000 206 178 134
-1.363352e+000 6.848171e-001 -7.638690e+000 206 178 134
2.752177e+000 9.093794e-001 -8.996996e+000 80 54 56
2.704844e+000 1.054884e+000 -8.742914e+000 71 45 51
-1.281619e+000 6.487840e-001 -7.572088e+000 189 159 112
1.052811e+000 8.026312e-001 -8.285155e+000 160 147 96
3.571179e+000 7.141097e-001 -9.074612e+000 117 26 22
4.376495e+000 6.996429e-001 -9.554319e+000 122 48 22
4.188564e+000 6.315662e-001 -9.338902e+000 174 141 90
9.081679e-001 -1.364139e-001 -8.145908e+000 189 120 86
1.133622e+000 -9.984819e-002 -8.224849e+000 15 56 74
-1.360122e+000 -7.922340e-002 -6.990038e+000 149 126 92
4.489807e+000 -1.404256e+000 -9.283735e+000 49 39 38
4.660578e+000 -9.699850e-001 -8.900693e+000 53 37 37
3.476981e+000 -3.671578e+000 -1.129704e+001 153 137 117
3.697173e+000 -3.104182e+000 -1.075991e+001 151 141 122
3.737118e+000 -3.271940e+000 -1.062632e+001 160 142 118
4.909829e+000 -1.570946e+000 -8.456975e+000 108 87 68
1.855935e+000 1.544895e+000 -9.612893e+000 24 52 75
2.007568e+000 1.441655e+000 -9.413743e+000 16 55 73
5.765401e-001 1.302106e+000 -8.711421e+000 162 143 98
1.921668e+000 1.003446e+000 -8.811961e+000 68 45 48
2.128115e+000 1.024775e+000 -8.888945e+000 67 44 42
7.993326e-001 7.662997e-001 -8.159039e+000 168 23 23
-6.429876e-001 6.706695e-001 -7.550826e+000 164 41 40
3.605413e+000 7.362954e-001 -9.183271e+000 116 22 24
3.311510e+000 6.472479e-001 -8.939279e+000 25 70 94
1.282754e+000 6.141858e-002 -8.206488e+000 14 67 85
4.107421e+000 -2.093636e+000 -9.889215e+000 48 35 35
4.467702e+000 -1.585966e+000 -9.395146e+000 151 133 111
3.309950e+000 -4.112084e+000 -1.171011e+001 153 139 126
6.860573e-001 1.381840e+000 -8.849914e+000 160 140 93
2.480127e+000 1.394051e+000 -9.517424e+000 66 14 3
2.120500e+000 1.153648e+000 -9.059267e+000 125 95 69
-1.432587e+000 7.910420e-001 -7.779652e+000 201 174 126
2.262071e-001 7.698865e-001 -7.981637e+000 160 145 49
-1.671935e+000 -2.894898e-001 -7.904273e+000 153 134 94
8.454571e-002 1.315271e-001 -7.643480e+000 139 139 112
4.905673e+000 -3.349449e-001 -8.259489e+000 150 125 105
4.813957e+000 -5.936939e-001 -8.495460e+000 163 140 124
3.921396e+000 -2.551321e+000 -1.032739e+001 48 38 37
2.024750e+000 1.566405e+000 -9.901932e+000 141 102 61
-2.972217e-002 1.383919e+000 -8.617975e+000 107 108 92
5.642791e-001 1.348507e+000 -8.778767e+000 163 87 69
1.336242e+000 1.382754e+000 -9.101841e+000 23 56 71
1.337769e+000 1.378902e+000 -9.107745e+000 23 56 71
6.034017e-001 1.212652e+000 -8.601729e+000 162 140 96
-7.295641e-001 9.396356e-001 -7.888070e+000 140 36 15
1.443420e-001 1.075596e+000 -8.280390e+000 33 49 31
3.154599e-001 1.093871e+000 -8.334951e+000 28 48 18
-1.344337e+000 6.171431e-001 -7.614475e+000 208 175 130
1.562798e+000 7.343940e-001 -8.451046e+000 27 57 84
4.036449e+000 7.916596e-001 -9.428316e+000 174 134 96
4.048686e+000 7.862343e-001 -9.441676e+000 174 134 96
3.668993e+000 7.864520e-001 -9.192232e+000 170 84 27
3.645451e-002 2.296906e-001 -7.610977e+000 88 117 115
3.312757e+000 8.697435e-002 -9.037201e+000 97 26 23
3.312757e+000 8.697435e-002 -9.037201e+000 97 26 23
4.180985e+000 2.106986e-001 -9.333100e+000 206 114 46
3.010248e+000 -5.061242e+000 -1.269239e+001 44 34 32
1.355822e-001 1.380363e+000 -8.691226e+000 157 142 81
7.118025e-001 1.013279e+000 -8.390071e+000 162 137 98
7.118025e-001 1.013279e+000 -8.390071e+000 162 137 98
9.146905e-001 1.010021e+000 -8.483034e+000 156 137 96
-2.350242e-001 8.666825e-001 -7.945479e+000 21 49 21
2.295785e-001 8.795963e-001 -8.096869e+000 163 143 88
2.295785e-001 8.795963e-001 -8.096869e+000 163 143 88
4.529558e-001 8.356884e-001 -8.109639e+000 32 51 32
4.529558e-001 8.356884e-001 -8.109639e+000 32 51 32
-6.373758e-001 7.494694e-001 -7.676199e+000 185 116 89
2.611866e+000 7.745989e-001 -8.887895e+000 128 91 71
2.489773e+000 4.844244e-001 -8.636255e+000 159 110 54
3.587960e+000 -2.050796e-001 -9.405301e+000 166 109 43
3.179896e+000 1.621028e+000 -1.025913e+001 129 87 39
-2.317890e-001 9.567647e-001 -8.082278e+000 27 52 28
2.407733e+000 1.003549e+000 -8.972812e+000 135 103 78
1.703916e-001 8.287378e-001 -8.026318e+000 24 47 19
2.751967e+000 9.748777e-001 -9.040851e+000 101 76 72
5.188466e-001 7.398375e-001 -8.032637e+000 158 141 95
2.542227e+000 3.658742e-001 -8.600742e+000 52 17 19
1.217680e+000 -2.329180e-003 -8.204820e+000 18 63 83
2.380062e+000 8.088443e-001 -8.804586e+000 145 110 80
1.359582e+000 5.956367e-001 -8.242468e+000 151 28 31
1.359582e+000 5.956367e-001 -8.242468e+000 151 28 31
7.547332e-001 1.103958e+000 -8.545130e+000 157 138 98
4.397296e+000 1.276815e-001 -9.380268e+000 33 23 24
-4.239544e-001 1.140111e+000 -8.255626e+000 29 54 25
1.364292e+000 1.124598e+000 -8.638084e+000 29 40 51
1.364292e+000 1.124598e+000 -8.638084e+000 29 40 51
2.831293e+000 1.408620e+000 -9.639848e+000 155 113 65
-2.192759e-001 6.171848e-001 -7.798621e+000 29 51 30
4.083619e+000 5.291932e-001 -9.325914e+000 177 110 68
4.083619e+000 5.291932e-001 -9.325914e+000 177 110 68
1.978110e+000 1.533554e+000 -9.676647e+000 16 36 39
1.962673e+000 1.551537e+000 -9.629055e+000 16 36 39
1.979197e+000 1.535133e+000 -9.615882e+000 24 41 46
5.869321e-001 1.398106e+000 -8.882008e+000 111 26 21
2.092312e+000 1.515837e+000 -9.641816e+000 52 71 71
-2.793921e-001 1.069395e+000 -8.818759e+000 115 103 22
1.336142e+000 1.355031e+000 -9.059129e+000 9 42 50
1.366393e+000 1.356631e+000 -9.069323e+000 15 46 57
-6.905995e-001 1.057833e+000 -8.225129e+000 114 105 15
1.512308e+000 1.325826e+000 -9.045625e+000 117 46 27
1.726909e+000 1.290040e+000 -9.102068e+000 60 18 10
2.498634e+000 1.289182e+000 -9.366454e+000 104 57 47
-4.476906e-001 1.103770e+000 -8.168314e+000 107 98 11
1.132668e+000 1.117676e+000 -8.672739e+000 149 115 60
1.132379e+000 1.118094e+000 -8.671692e+000 149 115 60
1.731019e+000 1.210672e+000 -8.990249e+000 108 56 44
1.982821e+000 1.164819e+000 -9.024282e+000 53 34 29
2.496783e+000 1.243015e+000 -9.286764e+000 69 31 20
-1.334688e+000 8.574095e-001 -7.750148e+000 64 35 5
3.760996e-001 1.077437e+000 -8.348158e+000 33 36 2
1.199812e+000 1.058100e+000 -8.762488e+000 108 8 6
1.170415e+000 1.075584e+000 -8.632013e+000 107 21 17
2.185459e+000 1.152457e+000 -9.080776e+000 89 61 37
-1.419932e+000 7.077291e-001 -7.706878e+000 73 48 11
-1.344197e+000 7.785888e-001 -7.657550e+000 74 46 35
-1.348047e+000 7.644801e-001 -7.678540e+000 74 46 35
-1.317223e+000 8.298029e-001 -7.701272e+000 54 30 1
-1.308129e+000 8.005949e-001 -7.642715e+000 74 49 15
1.212109e+000 9.517522e-001 -8.499520e+000 147 106 71
1.337681e+000 1.010687e+000 -8.610264e+000 107 19 17
1.853074e+000 1.032185e+000 -8.819968e+000 65 24 16
-1.430654e+000 6.934169e-001 -7.688275e+000 162 140 91
-1.447014e+000 6.421871e-001 -7.699109e+000 162 138 92
-1.445945e+000 6.469680e-001 -7.691713e+000 162 138 92
-1.392976e+000 6.319166e-001 -7.650463e+000 165 140 98
-1.392976e+000 6.319166e-001 -7.650463e+000 165 140 98
-3.535365e-001 1.575309e+000 -6.552882e+000 115 106 29
5.016129e-001 7.975909e-001 -8.116550e+000 137 110 25
1.938213e+000 8.622175e-001 -8.660349e+000 61 19 13
2.362287e+000 9.412672e-001 -8.840607e+000 102 81 57
-2.747345e-001 7.994385e-001 -7.657273e+000 111 100 11
1.908207e+000 7.917659e-001 -8.580804e+000 61 13 2
2.358160e+000 7.417476e-001 -8.724037e+000 110 80 56
1.980546e+000 6.468680e-001 -8.477312e+000 114 58 50
1.980627e+000 6.464015e-001 -8.477968e+000 114 58 50
2.264756e+000 6.504085e-001 -8.590112e+000 43 8 4
2.264756e+000 6.504085e-001 -8.590112e+000 43 8 4
2.328915e+000 7.163109e-001 -8.648645e+000 88 50 42
2.727862e+000 7.092077e-001 -8.771772e+000 46 16 15
3.920204e+000 7.264920e-001 -9.312984e+000 119 75 34
4.013712e+000 7.218292e-001 -9.324692e+000 113 24 12
4.156007e+000 6.899508e-001 -9.381706e+000 117 18 7
-1.255357e-001 5.824156e-001 -7.586451e+000 118 101 14
2.584702e+000 5.861921e-001 -8.637930e+000 47 10 8
3.368823e+000 5.406442e-001 -8.959000e+000 10 45 55
4.124768e+000 6.045616e-001 -9.281210e+000 120 45 28
-1.463010e-001 5.054240e-001 -7.507209e+000 128 114 17
3.303634e+000 4.687858e-001 -8.890781e+000 144 102 52
4.382112e+000 -1.733746e+000 -9.458863e+000 101 82 65
4.940752e+000 -3.293518e-001 -8.224958e+000 92 71 50
3.042186e+000 1.585661e+000 -1.013763e+001 114 80 36
2.096875e+000 1.510050e+000 -9.559127e+000 35 54 48
1.938794e+000 1.202327e+000 -9.055035e+000 62 42 38
-1.374257e+000 8.610381e-001 -7.761842e+000 157 133 88
-1.373814e+000 8.620421e-001 -7.761013e+000 157 133 88
-6.899960e-001 9.526670e-001 -7.921051e+000 141 106 61
2.378575e+000 1.138844e+000 -9.131004e+000 22 3 1
1.957354e+000 1.027506e+000 -8.850734e+000 78 59 51
-5.990058e-001 7.705503e-001 -7.710376e+000 134 102 62
2.519562e+000 8.818221e-001 -8.876862e+000 108 81 60
2.061009e+000 8.320422e-001 -8.668269e+000 59 29 28
-5.694391e-001 6.832849e-001 -7.593617e+000 146 103 69
-3.951733e-001 5.400671e-001 -7.503436e+000 128 114 69
-1.679469e+000 -1.708809e-001 -7.925272e+000 153 123 81
3.471459e+000 4.484168e-001 -8.962807e+000 138 95 50
3.861601e+000 1.907613e-001 -9.172420e+000 152 127 89
2.308916e+000 -1.026545e-001 -8.701919e+000 160 109 68
8.327596e-001 -1.523714e-001 -8.111703e+000 117 28 21
3.880008e+000 -2.694099e+000 -1.044776e+001 31 21 19
4.546521e+000 -1.369392e+000 -9.042909e+000 130 108 84
3.349007e+000 1.624599e+000 -1.051137e+001 91 60 41
3.409286e+000 1.679109e+000 -1.036570e+001 36 5 2
2.073000e+000 1.129826e+000 -8.995423e+000 62 45 35
1.841209e+000 8.282227e-001 -8.574931e+000 68 21 16
1.919596e+000 8.446222e-001 -8.636373e+000 118 60 39
2.107237e+000 8.257001e-001 -8.689297e+000 59 37 26
9.636139e-001 6.850254e-001 -8.125137e+000 123 108 69
4.415338e+000 6.024835e-001 -9.455188e+000 115 47 33
8.544059e-001 -6.959962e-002 -8.068221e+000 120 29 22
1.094584e-001 -4.108632e-001 -7.988295e+000 114 111 54
8.804827e-001 -1.882351e-001 -8.158348e+000 153 88 65
3.825586e+000 -2.862202e+000 -1.060812e+001 36 26 24
4.741895e+000 -7.265838e-001 -8.677023e+000 42 28 27
5.001045e+000 -8.941735e-001 -8.082301e+000 138 116 95
5.016944e+000 -6.514240e-001 -7.915325e+000 115 93 72
1.998870e+000 1.510031e+000 -1.009919e+001 101 72 34
2.118431e-001 7.225688e-001 -8.059854e+000 128 107 32
3.205800e+000 8.619359e-001 -9.032646e+000 14 43 46
3.404447e-001 7.453005e-001 -7.841207e+000 126 106 35
3.404447e-001 7.453005e-001 -7.841207e+000 126 106 35
2.166555e+000 7.376569e-001 -8.564700e+000 58 23 21
2.020970e+000 5.155458e-001 -8.421845e+000 132 94 48
-7.678642e-002 -2.875169e-001 -7.797857e+000 112 114 63
4.688560e+000 -9.201315e-001 -8.787808e+000 127 105 84
4.819209e+000 -5.395917e-001 -8.356465e+000 93 76 56
5.003492e+000 -8.981115e-001 -8.086415e+000 138 116 95
2.370101e+000 1.461885e+000 -9.590402e+000 82 20 11
2.611992e+000 1.360182e+000 -9.506694e+000 47 30 27
2.129767e+000 1.009673e+000 -8.838867e+000 52 34 30
2.386118e+000 1.042536e+000 -9.000036e+000 101 74 54
2.932890e+000 5.899318e-001 -8.839043e+000 63 37 38
3.981136e+000 2.266221e-001 -9.212897e+000 141 119 79
1.017176e+000 9.424936e-002 -8.024170e+000 24 52 63
4.862431e+000 -4.058158e-001 -8.402697e+000 35 25 23
8.709336e-001 1.103057e+000 -8.918046e+000 130 104 70
-1.559123e-001 1.113834e+000 -8.218295e+000 24 40 15
-2.895536e-001 1.031123e+000 -8.139142e+000 20 38 23
-3.185820e-001 8.564408e-001 -7.925399e+000 16 42 18
9.254933e-001 1.004051e+000 -8.495605e+000 125 105 68
4.181187e+000 1.042257e+000 -9.832119e+000 114 62 33
4.959114e-001 7.073577e-001 -7.985927e+000 130 109 66
3.237427e-002 2.705634e-001 -7.559859e+000 74 90 81
1.455486e+000 -1.849873e-002 -8.310320e+000 134 81 47
1.228307e-001 1.218456e+000 -8.468098e+000 21 37 24
6.177375e-001 1.215022e+000 -8.603361e+000 126 107 67
8.201448e-001 1.210724e+000 -8.696075e+000 125 109 71
-3.288975e-001 1.015373e+000 -8.277273e+000 25 37 23
1.814927e-001 7.263576e-001 -7.909081e+000 21 36 15
4.138248e+000 5.290381e-001 -9.306819e+000 145 111 67
3.072665e+000 3.277866e-001 -8.797924e+000 50 11 9
2.241323e-001 6.473139e-001 -7.853050e+000 22 37 16
2.231712e-001 6.567381e-001 -7.840147e+000 22 37 16
1.528048e+000 5.018877e-001 -8.219363e+000 128 113 72
1.495229e+000 1.501844e+000 -9.699329e+000 114 51 33
4.515217e+000 -1.241360e+000 -8.922627e+000 117 95 73
3.694854e+000 1.545424e+000 -1.027540e+001 115 79 43
3.756134e+000 1.502851e+000 -1.038372e+001 115 79 43
3.752360e+000 3.190698e-001 -9.215248e+000 147 76 14
-3.714974e-002 1.236114e+000 -9.083754e+000 16 33 23
3.362952e+000 1.196371e+000 -9.750464e+000 117 82 45
3.362952e+000 1.196371e+000 -9.750464e+000 117 82 45
8.773345e-002 7.707022e-001 -7.935561e+000 162 143 85
8.773345e-002 7.707022e-001 -7.935561e+000 162 143 85
2.223363e+000 1.450301e+000 -9.525103e+000 36 5 8
2.555588e+000 1.464270e+000 -9.649441e+000 107 50 37
-1.508879e+000 9.236648e-001 -7.935805e+000 157 129 87
-1.507916e+000 9.251003e-001 -7.934036e+000 157 129 87
-1.377933e+000 9.650571e-001 -7.831738e+000 73 50 10
-1.378064e+000 9.639242e-001 -7.833607e+000 73 50 10
-8.586058e-001 1.073591e+000 -7.983075e+000 123 27 19
2.490908e+000 1.192327e+000 -9.251526e+000 127 90 64
2.667560e+000 1.203770e+000 -9.335255e+000 82 63 55
2.408178e+000 1.085721e+000 -9.086341e+000 97 74 52
-7.282845e-001 8.791912e-001 -7.798450e+000 124 21 20
9.626277e-001 1.022355e+000 -8.446864e+000 129 111 74
-6.080120e-001 7.512321e-001 -7.682380e+000 108 18 12
-6.080120e-001 7.512321e-001 -7.682380e+000 108 18 12
1.926338e+000 8.129818e-001 -8.590870e+000 110 64 49
2.011803e+000 8.013459e-001 -8.605060e+000 51 20 14
2.011803e+000 8.013459e-001 -8.605060e+000 51 20 14
-2.376681e-001 6.270495e-001 -7.628271e+000 117 102 15
1.959995e+000 6.280332e-001 -8.465902e+000 67 21 11
2.811576e+000 6.515766e-001 -8.813173e+000 74 44 43
-6.386205e-001 5.643992e-001 -7.428100e+000 129 109 74
2.709795e+000 6.322433e-001 -8.736676e+000 46 16 16
1.614630e+000 5.074055e-001 -8.249451e+000 118 53 25
4.245722e+000 -1.997698e+000 -9.701501e+000 98 79 61
3.063023e+000 1.582361e+000 -1.005021e+001 116 80 36
1.476949e+000 1.355640e+000 -9.108429e+000 96 23 19
2.214888e+000 1.376638e+000 -9.390758e+000 63 9 8
1.611141e+000 1.306538e+000 -9.085911e+000 53 35 44
-1.414260e+000 9.214947e-001 -7.835618e+000 156 132 91
1.287070e+000 9.515472e-001 -8.531100e+000 101 11 16
2.546502e+000 9.701598e-001 -9.171597e+000 97 75 54
-1.659484e+000 3.962682e-001 -7.778456e+000 125 95 55
-1.652244e+000 3.652219e-001 -7.758834e+000 136 108 68
-6.618725e-001 7.364931e-001 -7.641875e+000 139 107 69
1.902830e+000 7.460220e-001 -8.499678e+000 117 62 43
2.250101e+000 6.777104e-001 -8.589002e+000 52 16 16
-1.678011e-001 5.520694e-001 -7.608807e+000 123 104 22
-7.596752e-002 5.578807e-001 -7.647286e+000 129 110 27
3.621070e+000 6.121926e-001 -9.121042e+000 104 32 12
3.212443e+000 4.823351e-001 -8.880213e+000 15 43 58
4.885005e+000 -4.410813e-001 -8.287261e+000 88 71 51
4.953202e+000 -4.048589e-001 -8.100686e+000 129 107 84
4.868339e+000 -8.942709e-001 -8.325753e+000 107 84 68
1.236978e+000 1.129307e+000 -8.723226e+000 108 18 19
1.985120e+000 1.066348e+000 -8.916987e+000 59 40 36
4.192401e+000 1.083729e+000 -9.909614e+000 100 50 23
2.022933e+000 7.648576e-001 -8.580835e+000 51 23 19
2.021743e+000 7.655947e-001 -8.581965e+000 51 23 19
2.444608e+000 8.314025e-001 -8.823187e+000 104 79 54
3.102573e+000 8.331486e-001 -9.094500e+000 117 80 43
-1.551067e-001 5.971440e-001 -7.674527e+000 53 69 60
2.748457e+000 4.499871e-001 -8.701153e+000 95 51 6
3.726046e+000 -3.064112e+000 -1.080577e+001 40 32 29
5.008908e+000 -3.912420e-001 -7.992998e+000 90 69 50
-1.578914e+000 9.784216e-001 -8.054093e+000 158 129 85
1.458111e+000 1.143026e+000 -8.821590e+000 24 46 53
1.457363e+000 1.143725e+000 -8.821301e+000 24 46 53
-4.463624e-001 9.024969e-001 -7.953150e+000 49 70 66
1.206304e-001 8.130716e-001 -7.979312e+000 20 39 18
2.462875e+000 6.206277e-001 -8.666500e+000 54 18 18
3.058891e+000 -4.784687e+000 -1.232072e+001 122 110 90
4.780967e+000 -6.608449e-001 -8.551930e+000 111 94 76
3.375531e-001 1.127367e+000 -8.409961e+000 134 114 54
3.375531e-001 1.127367e+000 -8.409961e+000 134 114 54
-1.386960e+000 7.571990e-001 -7.699483e+000 162 135 88
1.204722e+000 1.010038e+000 -8.571849e+000 88 26 4
1.534141e+000 9.769998e-001 -8.642316e+000 58 77 55
9.081657e-001 6.947300e-001 -8.124578e+000 95 36 20
2.518844e+000 6.451366e-001 -8.695398e+000 97 67 51
6.195533e-001 1.384914e+000 -8.878592e+000 134 100 60
1.066529e+000 1.187245e+000 -8.809503e+000 104 13 11
-1.396205e+000 9.405041e-001 -7.828850e+000 157 132 89
2.812039e-001 1.179184e+000 -8.437429e+000 26 39 21
-1.509524e+000 8.093470e-001 -7.847454e+000 132 104 69
-1.508823e+000 8.088821e-001 -7.848675e+000 132 104 69
5.018390e-002 1.025570e+000 -8.265174e+000 28 42 15
1.649759e+000 8.957481e-001 -8.523729e+000 10 47 51
5.021362e-001 7.237565e-001 -7.979636e+000 123 109 66
-1.170986e-001 1.458549e+000 -8.714260e+000 116 102 25
-1.637303e-001 1.413625e+000 -8.652815e+000 17 29 14
-7.856950e-002 1.415432e+000 -8.545040e+000 123 108 30
1.514483e-001 1.412789e+000 -8.742400e+000 120 97 21
-4.125659e-001 1.306906e+000 -8.411394e+000 108 99 37
2.224806e+000 1.482959e+000 -9.574546e+000 105 19 22
-1.579456e+000 1.024544e+000 -8.097102e+000 161 132 88
-1.543547e+000 9.608424e-001 -8.005470e+000 161 133 92
-3.506213e-001 1.200870e+000 -8.313427e+000 119 104 21
-3.313427e-001 1.254933e+000 -8.386046e+000 116 98 27
1.365333e+000 1.331515e+000 -9.034720e+000 115 112 74
1.391609e+000 1.335539e+000 -9.037300e+000 117 114 80
-6.694397e-001 1.098749e+000 -8.102714e+000 43 56 34
-6.751585e-001 1.088302e+000 -8.081336e+000 135 113 68
-6.751585e-001 1.088302e+000 -8.081336e+000 135 113 68
1.365237e+000 1.273028e+000 -8.958929e+000 121 108 70
1.420279e+000 1.280415e+000 -8.972876e+000 111 112 86
1.705985e+000 1.302852e+000 -9.115161e+000 104 55 45
-1.431182e+000 9.285827e-001 -7.851354e+000 67 40 9
-1.233021e+000 1.583139e+000 -6.767705e+000 71 43 18
-1.387563e+000 9.486810e-001 -7.823022e+000 153 131 82
-6.829628e-001 1.043785e+000 -8.017332e+000 151 94 67
-6.831679e-001 1.040117e+000 -8.022435e+000 151 94 67
-6.177202e-001 1.062904e+000 -8.066008e+000 41 61 59
1.115855e+000 1.182150e+000 -8.747580e+000 100 17 13
1.115855e+000 1.182150e+000 -8.747580e+000 100 17 13
1.160692e+000 1.177863e+000 -8.776083e+000 100 10 4
1.160692e+000 1.177863e+000 -8.776083e+000 100 10 4
1.107973e+000 1.166607e+000 -8.728865e+000 138 105 68
1.395798e+000 1.216942e+000 -8.893783e+000 126 122 87
1.435821e+000 1.207226e+000 -8.888558e+000 14 44 51
1.442444e+000 1.203346e+000 -8.897551e+000 14 44 51
1.461343e+000 1.170573e+000 -8.851120e+000 115 104 77
1.559155e+000 1.210477e+000 -8.919034e+000 104 33 13
1.795982e+000 1.185149e+000 -8.990946e+000 99 59 53
1.795982e+000 1.185149e+000 -8.990946e+000 99 59 53
-1.450733e+000 7.454070e-001 -7.764894e+000 92 62 36
-1.395541e+000 8.670267e-001 -7.784011e+000 60 31 22
-1.395541e+000 8.670267e-001 -7.784011e+000 60 31 22
-1.387033e+000 8.317106e-001 -7.752405e+000 68 43 14
-1.374509e+000 7.913423e-001 -7.722946e+000 61 35 16
7.152283e-001 1.048912e+000 -8.455181e+000 116 21 14
1.159279e+000 1.058031e+000 -8.613650e+000 160 106 72
1.453104e+000 1.094810e+000 -8.759478e+000 118 108 76
2.554985e+000 1.204533e+000 -9.310303e+000 100 52 42
-1.419818e+000 7.071870e-001 -7.707504e+000 70 39 9
1.272737e+000 9.763017e-001 -8.548744e+000 155 101 78
1.271891e+000 9.776927e-001 -8.546568e+000 155 101 78
1.473466e+000 1.058043e+000 -8.714783e+000 127 111 80
1.512970e+000 1.054051e+000 -8.707901e+000 107 111 87
2.034171e+000 1.051059e+000 -8.888069e+000 52 33 28
-1.264482e+000 7.297011e-001 -7.590007e+000 62 36 8
1.607485e+000 8.314747e-001 -8.511055e+000 121 109 88
1.879552e+000 8.649266e-001 -8.628278e+000 58 14 7
2.459589e+000 8.706555e-001 -8.864201e+000 93 78 67
-5.624754e-001 6.641860e-001 -7.583015e+000 121 22 23
-5.624754e-001 6.641860e-001 -7.583015e+000 121 22 23
-5.464409e-001 6.735661e-001 -7.601438e+000 150 95 64
1.965708e+000 7.879860e-001 -8.600150e+000 64 16 7
2.127133e+000 7.800264e-001 -8.644868e+000 107 83 72
2.127077e+000 6.049863e-001 -8.525012e+000 57 16 14
-1.841706e-001 4.623199e-001 -7.545186e+000 120 107 14
2.408584e+000 5.362292e-001 -8.586093e+000 138 95 52
2.739611e+000 5.669447e-001 -8.738953e+000 42 9 5
2.799545e+000 5.616867e-001 -8.767255e+000 36 7 10
4.680894e+000 -2.322714e+000 -8.858322e+000 94 74 47
4.775442e+000 -2.253138e+000 -8.873784e+000 98 78 53
7.223296e-001 1.437630e+000 -8.939353e+000 130 95 61
2.836654e+000 1.533944e+000 -9.905152e+000 86 44 6
-4.008916e-001 1.214138e+000 -8.311930e+000 61 71 46
-7.988567e-001 1.038601e+000 -7.960786e+000 139 106 61
1.247287e+000 1.200523e+000 -8.820097e+000 138 58 47
-7.692344e-001 9.516800e-001 -7.887074e+000 140 108 63
1.203124e+000 1.121271e+000 -8.703889e+000 149 106 65
2.365682e+000 1.117997e+000 -9.109830e+000 102 77 57
-1.414963e+000 6.894726e-001 -7.691225e+000 157 131 87
-7.325422e-001 9.100565e-001 -7.839713e+000 119 14 17
2.265436e+000 1.086709e+000 -9.037933e+000 105 83 57
1.212116e+000 9.517080e-001 -8.499182e+000 144 116 67
1.921283e+000 8.943137e-001 -8.671209e+000 67 23 20
1.818806e+000 7.980140e-001 -8.532448e+000 122 60 39
-6.146055e-001 5.391594e-001 -7.433249e+000 123 16 23
-6.137612e-001 5.353804e-001 -7.437789e+000 123 16 23
-2.120658e-001 5.525257e-001 -7.586779e+000 117 102 22
-9.016918e-002 5.614067e-001 -7.631572e+000 119 102 12
1.882868e+000 6.063012e-001 -8.428959e+000 134 89 47
3.945752e+000 7.046872e-001 -9.296789e+000 144 100 65
3.970835e+000 6.535796e-001 -9.283575e+000 147 107 65
3.587245e+000 5.194770e-001 -9.051886e+000 112 46 18
4.284455e+000 -2.046975e+000 -9.694034e+000 116 100 74
4.391484e+000 -1.750663e+000 -9.469545e+000 95 78 58
4.782147e+000 -8.137549e-001 -8.649208e+000 82 61 40
4.491858e+000 -1.960041e+000 -9.196754e+000 92 72 47
3.910298e+000 1.685975e+000 -1.051693e+001 120 81 42
-1.637894e+000 9.709761e-001 -8.149102e+000 158 130 81
-1.631269e+000 9.827236e-001 -8.135011e+000 158 130 81
-1.247653e+000 1.103345e+000 -7.952401e+000 118 97 58
1.620693e+000 1.268921e+000 -9.024769e+000 59 36 29
2.033744e+000 1.096119e+000 -8.934035e+000 55 36 30
1.865019e+000 9.256199e-001 -8.691582e+000 60 35 32
-2.744295e-001 7.058034e-001 -7.741140e+000 48 68 53
1.608129e+000 8.073883e-001 -8.488718e+000 19 44 51
1.847123e+000 8.229917e-001 -8.584899e+000 68 21 17
2.104307e+000 8.267087e-001 -8.684121e+000 74 48 35
-6.437243e-001 6.263536e-001 -7.538988e+000 118 23 24
9.693542e-001 6.936202e-001 -8.153614e+000 125 103 64
1.946137e+000 7.740295e-001 -8.577176e+000 113 57 45
2.055053e+000 7.839507e-001 -8.639769e+000 88 59 50
2.049077e+000 7.938218e-001 -8.627933e+000 88 59 50
2.396920e+000 6.900456e-001 -8.668141e+000 125 89 67
2.527100e+000 4.393143e-001 -8.620489e+000 130 85 46
2.823802e+000 4.327847e-001 -8.736074e+000 138 96 46
