ply
format ascii 1.0
element vertex 729
property float x
property float y
property float z
property float nx
property float ny
property float nz
property uchar red
property uchar green
property uchar blue
end_header
-0.746391 -0.243743 -9.32815 0.599191 -0.00454661 0.800593 142 98 47
-0.744584 -0.282941 -9.30284 -0.374054 -0.18576 0.908612 137 95 48
-0.721715 -0.312952 -9.27804 -0.404153 -0.299926 0.864121 132 93 47
-0.708906 -0.285827 -9.30433 -0.127092 -0.0580941 0.990188 131 92 46
-0.0650529 -0.202539 -9.77556 0.520185 -0.0166194 0.853892 69 62 48
-0.0591499 -0.156625 -9.77965 0.562002 -0.07491 0.823737 73 62 44
0.170164 -0.170052 -9.87944 0.615507 -0.117644 0.779302 133 103 52
0.40324 -0.133378 -10.0571 0.600981 -0.132568 0.788192 132 102 51
0.373814 -0.160568 -10.0446 0.555504 0.0566785 0.82958 134 103 52
0.856845 -0.125879 -10.3478 0.474234 -0.351991 0.806972 136 104 53
1.075 -0.129581 -10.439 0.614706 -0.611199 0.498569 116 56 54
1.11224 -0.103083 -10.4879 0.295482 0.0238389 0.955051 116 56 54
1.71433 0.380923 -11.406 -0.598602 -0.177257 0.781188 76 61 61
1.88978 0.327762 -11.435 0.0982219 0.0356945 0.994524 87 39 41
2.21398 0.714353 -12.0774 0.210257 -0.54236 0.813411 91 40 42
2.32244 0.773121 -12.2493 0.320106 -0.904589 0.281516 98 46 47
2.30935 0.756262 -12.2217 0.147347 -0.826853 0.542773 91 40 42
2.40847 0.839584 -12.3474 0.426451 -0.79745 0.426864 95 44 44
3.22629 1.04387 -13.0328 -0.734666 0.40824 0.541855 59 34 38
-1.80641 0.407229 -9.70364 -0.43577 0.31368 0.843629 215 93 92
-0.848207 -0.255101 -9.34866 -0.362501 0.148464 0.920083 169 114 45
-0.779614 -0.270841 -9.33814 0.247782 0.102753 0.963351 155 111 45
-0.792878 -0.270616 -9.322 -0.243612 0.00617704 0.969853 167 127 48
-0.796472 -0.302253 -9.3279 -0.16937 -0.137955 0.97585 162 122 50
-0.758684 -0.313011 -9.29359 -0.134697 -0.0688984 0.988489 138 96 47
-0.58819 -0.305697 -9.40786 -0.158103 0.411318 0.897675 127 94 48
-0.16704 -0.210938 -9.71764 0.570569 -0.0766558 0.817665 61 59 50
0.40782 -0.191782 -10.0372 0.502663 0.0976224 0.858953 136 105 53
0.878034 -0.17108 -10.3826 0.496722 -0.129698 0.858164 130 98 49
0.903187 -0.127439 -10.3922 0.528893 -0.161276 0.833224 133 102 53
1.19482 -0.103898 -10.5846 0.615691 -0.621585 0.484311 116 59 58
2.15379 0.5243 -11.9485 -0.97655 -0.135121 0.167609 95 44 46
3.41003 0.896216 -13.0393 0.506757 -0.0693737 0.859293 68 36 40
3.44719 0.839629 -13.0394 0.508468 -0.0721694 0.858051 67 36 40
3.16434 -1.92227 -9.27073 -0.730022 0.525308 0.437171 146 139 134
5.16433 -1.82278 -10.4521 -0.94015 -0.0143315 0.34046 234 222 214
-0.86779 -0.287477 -9.33487 -0.673016 0.114648 0.730688 141 82 34
-0.826151 -0.334072 -9.31113 -0.660757 -0.293798 0.690712 178 135 61
-0.811155 -0.303175 -9.3269 -0.365794 -0.173525 0.914376 175 137 59
-0.776432 -0.344342 -9.29493 -0.260651 -0.183624 0.94781 145 102 46
-0.756969 -0.379388 -9.31451 -0.0119327 -0.112221 0.993612 141 98 48
-0.741998 -0.35008 -9.33994 0.442106 -0.0403387 0.896055 148 103 50
-0.723499 -0.381121 -9.31908 0.237172 -0.132298 0.962417 133 93 48
-0.68622 -0.378391 -9.30499 0.296503 -0.316609 0.901024 131 93 47
-0.620563 -0.377827 -9.39531 -0.0935507 0.405911 0.909112 134 97 47
-0.206661 -0.268804 -9.7438 0.633842 -0.0818473 0.76912 73 73 55
0.409853 -0.268677 -10.0572 0.590767 -0.121724 0.797607 136 104 53
0.884706 -0.221421 -10.3845 0.520462 0.066812 0.851267 135 104 54
0.964856 -0.173975 -10.4483 0.662005 -0.389094 0.64059 117 70 44
1.00123 -0.189577 -10.4251 0.648453 -0.462921 0.604329 106 46 43
2.32903 0.711659 -12.3336 -0.956096 0.0759647 0.283037 92 42 44
2.39336 0.631906 -12.2958 0.0536493 0.38989 0.919297 90 40 40
3.18747 0.878229 -13.0139 -0.0173905 -0.282716 0.959046 62 35 38
3.17914 0.904687 -13.0118 -0.313492 -0.279048 0.907665 61 34 37
3.80819 0.646746 -13.0242 -0.8179 -0.0158 0.575143 71 56 57
3.80289 0.652707 -13.0207 -0.846265 0.0100611 0.532668 71 56 57
4.48666 -0.801229 -11.5166 -0.980054 0.077221 0.183113 71 63 65
5.0487 -1.86047 -10.4186 -0.854165 -0.395301 0.337844 223 211 204
-1.59451 0.123951 -9.61181 -0.302244 0.360459 0.88245 110 28 35
-0.902783 -0.305484 -9.35087 -0.131802 -0.517207 0.845651 154 94 39
-0.841594 -0.365303 -9.32632 -0.712812 -0.270335 0.647161 179 130 57
-0.760264 -0.383792 -9.32391 0.110633 -0.152988 0.982016 143 99 48
-0.780439 -0.437709 -9.29371 -0.74094 -0.0720431 0.667696 159 110 46
-0.741956 -0.414308 -9.32042 -0.0836883 -0.24528 0.965833 139 96 48
-0.738409 -0.410359 -9.31304 -0.115255 -0.202395 0.972498 137 95 48
-0.76394 -0.412466 -9.30541 -0.412511 -0.198918 0.888969 146 101 48
-0.704584 -0.415228 -9.32471 -0.286227 -0.151759 0.946067 132 93 48
-0.701847 -0.413718 -9.33622 -0.0782188 -0.113934 0.990404 132 93 48
-0.597192 -0.374556 -9.44834 -0.0128203 -0.228851 0.973377 142 103 53
-0.385764 -0.388928 -9.53783 0.661683 -0.136741 0.737209 117 93 47
-0.321351 -0.399047 -9.5919 0.657474 -0.105074 0.746115 77 69 44
0.0303532 -0.373804 -9.81275 -0.00314382 -0.0401154 0.99919 127 98 51
0.223943 -0.343407 -9.94129 0.51945 0.0590992 0.852455 129 99 51
0.22791 -0.342492 -9.93789 0.405025 0.236989 0.883058 128 98 51
0.294619 -0.303561 -10.0175 0.37449 -0.164608 0.912503 138 106 53
0.29037 -0.309506 -10.0092 0.308133 -0.302439 0.901989 134 103 53
0.268629 -0.342449 -9.95295 0.0766764 0.424177 0.902327 130 100 52
0.703182 -0.261978 -10.268 0.352675 0.176997 0.918854 129 97 47
0.997186 -0.299198 -10.4143 -0.304512 0.504792 0.807748 84 49 46
1.00705 -0.317363 -10.4057 -0.534277 -0.0877155 0.840746 79 49 49
1.23233 -0.163859 -10.7078 0.658042 -0.259599 0.706816 62 70 70
2.14085 0.466863 -12.0002 -0.948851 -0.239 0.206302 87 39 40
2.37875 0.602921 -12.3051 0.0166596 0.227339 0.973673 88 38 40
2.36611 0.58133 -12.32 0.0542093 -0.3987 0.915478 86 37 39
2.40199 0.558395 -12.2896 0.486013 -0.0474434 0.872663 88 38 40
3.21104 0.799519 -13.0548 0.568956 -0.561969 0.6004 63 35 39
3.3179 0.783364 -13.1063 -0.323495 0.203441 0.924101 69 37 40
3.31849 0.774688 -13.0293 0.535134 -0.0605803 0.842592 66 36 39
3.34478 0.764797 -13.0849 0.288637 -0.134693 0.947917 65 36 39
3.42583 0.75088 -13.105 0.546971 -0.14964 0.823669 62 34 38
3.51074 0.723042 -13.0748 0.174753 -0.436034 0.8828 71 38 42
3.57697 0.728587 -13.1557 0.49156 0.0106702 0.870778 69 38 41
3.83476 -1.86958 -9.81197 -0.990086 0.0632996 0.125391 157 148 144
5.08013 -1.73472 -10.6667 -0.643342 -0.567793 0.513539 209 196 190
5.14556 -1.77965 -10.6028 -0.964001 -0.197289 0.178267 210 199 192
5.07507 -1.85281 -10.463 -0.980114 0.0271049 0.196576 221 209 202
-1.41812 -0.0131933 -9.59624 -0.174141 -0.835459 0.521233 119 43 46
-0.894496 -0.382653 -9.33683 -0.474393 -0.738465 0.479188 168 102 36
-0.824259 -0.40555 -9.33479 -0.743676 -0.11772 0.658094 214 179 72
-0.764132 -0.473081 -9.32673 0.218408 -0.173099 0.960382 150 103 48
-0.723639 -0.450112 -9.35949 -0.0178231 -0.363099 0.93158 141 97 47
-0.720233 -0.447083 -9.35497 -0.00168983 -0.282001 0.959413 140 97 47
-0.683181 -0.450508 -9.38234 0.0246682 -0.507874 0.861078 139 97 47
-0.594335 -0.400803 -9.46539 -0.0425022 0.29488 0.954589 139 101 50
-0.357559 -0.418782 -9.56315 0.649778 -0.0968503 0.753929 115 94 48
-0.209113 -0.308622 -9.78013 0.349104 -0.156889 0.923857 74 75 55
0.374769 -0.392723 -10.0283 0.647778 -0.615356 0.449133 147 113 58
0.85983 -0.335443 -10.3509 0.607997 -0.649664 0.456374 150 115 62
0.91518 -0.327018 -10.4073 0.637507 -0.591626 0.493522 147 115 58
1.58129 0.0828466 -11.3154 -0.107181 0.494225 0.862702 61 60 61
1.7825 0.0792632 -11.4355 0.60641 -0.460014 0.648578 66 49 50
3.39058 0.746737 -13.1362 0.536887 -0.0646875 0.841171 62 35 38
3.34577 0.744261 -13.1646 0.331386 3.46005e-005 0.943495 62 34 38
4.01289 -1.75312 -10.1498 -0.702405 0.566568 0.430846 160 152 147
5.11062 -1.78525 -10.6798 -0.797641 -0.422673 0.430251 211 199 192
-1.55655 0.0270175 -9.58951 -0.739649 0.174434 0.649995 110 28 35
-1.34243 -0.0941567 -9.5359 -0.208067 0.421572 0.882601 204 90 86
-0.851322 -0.444253 -9.33939 -0.826251 -0.054699 0.560641 245 209 91
-0.822499 -0.503521 -9.30493 -0.779335 0.028457 0.625961 210 169 58
-0.784702 -0.504516 -9.32252 0.243879 -0.279104 0.928776 164 114 47
-0.747075 -0.506367 -9.34268 0.147536 -0.331214 0.93195 142 98 48
-0.701301 -0.478795 -9.36572 -0.116702 -0.347404 0.930425 136 95 48
-0.704082 -0.47996 -9.36377 -0.136197 -0.35608 0.924477 136 95 48
-0.709332 -0.508211 -9.3628 -0.230391 -0.521363 0.821645 139 97 48
-0.364804 -0.46774 -9.5642 0.6641 -0.200087 0.720372 115 93 48
0.081425 -0.413536 -9.87432 0.428801 0.171065 0.887055 135 102 52
0.121639 -0.413516 -9.89359 0.220537 -0.196894 0.955299 137 104 52
0.175153 -0.452125 -9.90888 0.693517 -0.501866 0.51688 136 102 49
0.291769 -0.465931 -9.97536 0.668919 -0.453085 0.589289 139 106 53
0.420894 -0.395679 -10.0713 0.63235 -0.638076 0.439309 145 109 56
0.616112 -0.431795 -10.1767 0.673451 -0.247356 0.696619 139 107 54
0.711912 -0.372862 -10.2701 0.403381 -0.057936 0.913196 131 99 50
1.23086 -0.197483 -10.7918 0.659519 -0.259203 0.705584 59 70 70
4.08205 -1.65304 -10.3784 -0.706042 0.562544 0.430173 146 137 134
3.9501 -1.81238 -10.1073 -0.666707 0.584573 0.462359 158 149 145
3.81292 -1.89246 -9.93124 -0.811225 0.489798 0.319393 161 152 147
3.94989 -1.81252 -10.107 -0.666581 0.58466 0.462432 158 149 145
3.94989 -1.81252 -10.107 -0.666581 0.58466 0.462432 160 152 147
5.12116 -1.87435 -10.6238 -0.794707 -0.195055 0.5748 214 203 196
5.16211 -2.19868 -10.2491 -0.30569 0.312491 0.89939 247 238 232
-1.31734 -0.198858 -9.50147 -0.599479 0.271022 0.753108 139 39 42
-0.806222 -0.537385 -9.32722 0.196014 -0.271092 0.942384 182 134 45
-0.767411 -0.53631 -9.33806 0.296497 -0.171986 0.93942 149 103 49
-0.729556 -0.537501 -9.35297 -0.0789827 -0.330121 0.940628 137 96 48
-0.622037 -0.548411 -9.44404 -0.109962 0.454719 0.883821 136 98 49
-0.217828 -0.438974 -9.77663 0.658524 -0.587763 0.46998 74 71 55
0.202099 -0.473799 -9.9803 0.258224 -0.207519 0.943534 138 105 51
0.332655 -0.459482 -10.0183 0.659549 -0.545613 0.517012 142 108 55
0.387597 -0.443022 -10.0899 0.528364 -0.299028 0.794616 144 110 56
0.863903 -0.384697 -10.4161 0.634223 -0.555343 0.537918 143 110 56
1.48776 -0.0124274 -11.2645 0.647912 -0.526025 0.550915 60 69 70
1.77911 -5.9735e-006 -11.4382 0.614177 -0.461157 0.640407 69 50 51
3.78317 0.522852 -13.2121 -0.728571 -0.12646 0.673195 71 53 54
5.13013 -2.22889 -10.2729 -0.737896 -0.351006 0.576458 243 234 227
5.18107 -2.24398 -10.2711 -0.825074 -0.0539515 0.562443 248 240 234
5.23346 -2.26053 -10.2718 -0.883212 -0.00540783 0.468943 249 244 239
5.23649 -2.29064 -10.2001 -0.696128 -0.131864 0.705704 250 245 239
-1.03036 -0.442284 -9.43402 -0.356705 -0.648586 0.672382 115 51 38
-0.826524 -0.568097 -9.32004 -0.523562 0.0147881 0.851859 202 161 57
-0.857489 -0.545602 -9.33829 -0.746138 0.0537467 0.663618 244 209 88
-0.845289 -0.600902 -9.3132 -0.776161 -0.14449 0.613757 222 186 76
-0.78926 -0.570414 -9.34475 0.333552 -0.18464 0.924473 159 111 47
-0.809761 -0.60322 -9.33723 0.205732 -0.0676775 0.976265 168 122 47
-0.751687 -0.573407 -9.37753 0.398662 -0.0700573 0.914418 142 99 49
-0.770238 -0.605424 -9.35407 0.436766 -0.059375 0.897614 143 100 50
-0.663124 -0.587874 -9.42973 -0.331257 -0.181016 0.926014 139 98 48
-0.358834 -0.557367 -9.58201 0.714416 -0.163067 0.680455 112 92 49
-0.193178 -0.459275 -9.86127 0.434815 -0.15694 0.886739 69 62 51
-0.137263 -0.48394 -9.82861 -0.599724 0.0862903 0.795541 72 63 50
0.0348161 -0.584017 -9.80895 0.672581 -0.541917 0.503946 139 106 53
0.268145 -0.497759 -10.0324 0.512664 -0.253901 0.820189 128 95 48
0.272578 -0.490569 -10.0416 0.429382 -0.354301 0.830724 131 98 49
0.356454 -0.489612 -10.0879 0.484237 -0.282469 0.828086 145 111 58
0.84935 -0.445711 -10.4061 0.654773 -0.542137 0.52665 143 110 56
1.01129 -0.476144 -10.493 0.67284 -0.431884 0.600635 63 46 47
1.7989 -0.0634441 -11.4585 0.6104 -0.447667 0.653457 76 43 44
1.76328 -0.0725872 -11.465 0.52229 -0.0966741 0.84727 59 50 51
3.41111 0.700235 -13.3931 -0.961054 -0.215155 0.173445 62 35 39
4.54285 -1.20693 -11.4328 -0.902327 -0.0296852 0.430028 94 88 87
5.11122 -2.16974 -10.3942 -0.965737 0.211315 0.150661 246 235 229
5.12615 -2.2048 -10.3476 -0.960024 0.277611 0.0358668 245 236 228
5.23642 -2.3099 -10.2658 -0.668764 -0.100291 0.736679 249 244 238
-0.85865 -0.588336 -9.33731 -0.663498 0.175125 0.727394 225 187 78
-0.827743 -0.611 -9.32022 -0.46038 0.111896 0.880642 187 148 55
-0.827488 -0.632593 -9.3168 -0.468523 0.0527134 0.881877 177 138 55
-0.789378 -0.640379 -9.34564 0.480694 -0.0152559 0.876756 145 101 50
-0.53455 -0.670544 -9.42185 0.280314 -0.682769 0.674723 123 93 48
-0.412354 -0.591379 -9.61269 -0.241985 -0.188479 0.951798 119 94 48
-0.174095 -0.506868 -9.83373 -0.63452 -0.343555 0.692354 72 63 51
0.0916958 -0.566074 -9.92108 0.344549 -0.114525 0.931757 148 112 56
0.227467 -0.57186 -10.013 0.283593 -0.0992022 0.9538 108 64 44
0.25124 -0.527228 -10.0472 0.481159 -0.140141 0.865359 122 84 45
0.535802 -0.527226 -10.184 0.638419 -0.589663 0.494692 140 106 53
0.986768 -0.500788 -10.4691 0.131224 0.310114 0.9416 71 45 46
1.2759 -0.11915 -11.1752 0.558335 -0.67324 0.484779 55 55 57
3.48518 0.461865 -13.2428 0.0588084 0.458068 0.88697 67 45 47
3.53763 0.455835 -13.2269 0.0285888 0.472627 0.880799 67 47 48
3.02918 -2.12964 -9.39791 -0.654127 0.550564 0.518649 161 152 147
3.03388 -2.15964 -9.36873 -0.571969 0.602138 0.55703 165 156 152
3.89356 -1.90341 -10.1348 -0.834717 0.468085 0.290075 159 150 146
5.14118 -2.28672 -10.3386 -0.257702 -0.926652 0.273689 251 244 238
5.1562 -2.32074 -10.2907 -0.975816 0.142806 0.1655 251 243 238
5.18842 -2.34557 -10.2646 -0.898342 0.0455814 0.436925 251 245 240
5.20639 -2.37027 -10.2138 -0.191244 -0.146586 0.970535 251 245 240
-1.00649 -0.511146 -9.4349 0.203574 0.374558 0.90458 222 172 79
-0.895767 -0.604461 -9.36617 -0.552261 0.298192 0.778517 183 124 46
-0.847962 -0.646703 -9.32705 -0.590012 -0.00586393 0.807373 190 153 68
-0.844282 -0.679166 -9.33661 -0.57315 -0.307911 0.759401 177 139 64
-0.807708 -0.676164 -9.33787 0.241324 0.0754023 0.967511 145 104 49
0.0139154 -0.667582 -9.80952 0.585278 -0.649452 0.485451 140 105 54
1.00908 -0.552668 -10.4948 0.291883 -0.114093 0.949625 71 44 44
1.86106 -0.151753 -11.5523 0.176847 0.397383 0.900451 87 38 41
3.02791 -2.1748 -9.41678 -0.547138 0.609651 0.573555 167 158 153
3.93239 -1.78752 -10.4486 -0.788509 0.498029 0.360861 143 133 131
-1.57958 -0.106683 -9.75156 -0.647411 0.241174 0.722975 121 43 48
-0.963637 -0.652589 -9.35048 0.549855 0.0293959 0.834743 186 129 44
-0.879522 -0.669841 -9.35109 -0.571967 -0.142775 0.807755 147 90 40
-0.211118 -0.664761 -9.78843 -0.367127 0.137101 0.920012 81 84 61
-0.171697 -0.661879 -9.78843 -0.2952 0.340773 0.892598 82 81 60
-0.00465214 -0.706699 -9.82212 0.0976126 -0.130019 0.986695 134 103 54
0.0415139 -0.684908 -9.90588 0.0742197 -0.0218155 0.997003 143 108 55
3.86217 -1.95918 -10.2263 -0.819169 0.480582 0.313055 164 155 151
3.91757 -1.88859 -10.3572 -0.762253 0.532187 0.368439 154 145 141
3.90187 -1.93673 -10.2902 -0.829177 0.474761 0.295072 164 155 150
3.90664 -1.96379 -10.2438 -0.83308 0.47186 0.288663 160 150 146
5.0483 -2.24348 -10.5008 -0.264363 0.442529 0.856902 237 227 220
5.12682 -2.32757 -10.4284 -0.224255 0.631939 0.741864 247 240 233
5.1644 -2.34713 -10.3868 -0.89902 0.26039 0.352081 251 243 239
-0.34026 -0.773991 -9.61473 0.697739 -0.372538 0.611863 67 66 52
-0.298362 -0.782534 -9.6403 0.72084 -0.403792 0.563331 74 74 58
-0.191854 -0.694978 -9.78749 -0.251847 0.0620455 0.965776 83 86 62
0.0580647 -0.704841 -9.93914 0.505197 -0.318134 0.802226 142 107 56
3.37811 -1.80444 -10.2791 -0.966785 0.0907025 0.238954 154 146 141
3.86113 -1.9582 -10.319 -0.825004 0.476633 0.303627 161 153 148
3.86958 -1.94588 -10.3349 -0.715077 0.564083 0.412888 161 153 148
3.85612 -1.99537 -10.2631 -0.814861 0.485393 0.316851 165 157 151
5.03252 -2.28592 -10.5169 -0.210336 0.448987 0.868429 233 220 214
5.04303 -2.32545 -10.4733 0.194822 0.298408 0.934343 242 230 224
5.08713 -2.31611 -10.4906 -0.371095 0.671806 0.641066 241 229 224
5.09475 -2.36065 -10.4539 -0.328841 0.666338 0.669221 240 230 223
-1.4678 -0.367821 -9.6415 -0.462855 -0.824705 0.325005 211 100 97
-0.422323 -0.779384 -9.59374 0.690765 -0.299147 0.658297 120 94 49
0.0495729 -0.788098 -9.87869 0.683927 -0.124774 0.718801 140 106 54
1.94099 -0.0952439 -11.9684 0.649907 -0.319651 0.689525 93 40 41
2.96688 0.047073 -12.7532 0.088133 0.457284 0.884943 72 44 46
3.85207 -1.9633 -10.401 -0.801383 0.500857 0.326998 158 150 145
5.00441 -2.33368 -10.5035 -0.547068 0.237851 0.802585 238 227 220
5.02998 -2.36959 -10.49 -0.0506504 0.54608 0.8362 241 231 225
5.11346 -2.52253 -10.2739 -0.982462 0.186426 -0.00374385 248 240 235
-1.08286 -0.653319 -9.47462 0.184165 0.301191 0.935611 253 224 87
0.157814 -0.819294 -9.95407 0.68211 -0.500322 0.533295 107 56 40
2.58529 -0.0190661 -12.5537 0.372319 0.247542 0.894484 91 39 42
3.7272 -0.00236645 -13.1999 0.18506 -0.740513 0.64606 69 53 53
3.87699 -2.03922 -10.3475 -0.747884 0.525589 0.405496 162 154 148
4.9646 -2.38265 -10.4854 -0.635654 0.395914 0.662719 243 234 227
4.99728 -2.41674 -10.4835 -0.719734 -0.336192 0.607419 247 237 231
5.09485 -2.4212 -10.4779 0.225805 -0.109315 0.96802 246 237 230
-1.6743 -0.233838 -9.87903 -0.404562 0.0750043 0.91143 220 87 88
0.221015 -0.864077 -10.0345 0.686246 -0.489241 0.538247 109 47 44
0.393252 -0.570849 -10.5532 0.671531 -0.112172 0.732437 106 43 40
0.451036 -0.550176 -10.6258 0.30147 -0.671231 0.677174 114 51 40
1.83062 -0.14545 -11.9768 0.647975 -0.465815 0.602615 90 38 41
3.7976 -1.30577 -11.4568 -0.959574 -0.159116 0.232166 128 123 120
3.315 -1.79593 -10.4693 -0.615154 0.583657 0.530028 146 138 134
3.315 -1.79593 -10.4693 -0.615154 0.583657 0.530028 146 138 134
3.315 -1.79593 -10.4693 -0.615154 0.583657 0.530028 155 147 142
4.95865 -2.42274 -10.5223 -0.484949 0.680847 0.548883 240 230 223
5.03225 -2.44105 -10.4896 -0.48764 -0.85902 0.15586 246 237 231
5.04244 -2.48761 -10.4525 -0.273771 -0.641933 0.71622 247 238 231
5.10659 -2.5676 -10.3543 -0.98775 0.156017 -0.00307964 250 243 237
5.1082 -2.60836 -10.2918 -0.978565 0.2019 0.0405728 250 243 238
-2.0308 0.0107343 -10.0364 0.337597 0.294407 0.894065 220 103 99
-0.75058 -0.883726 -9.50162 0.158157 -0.761115 0.62904 133 98 52
-0.711404 -0.890184 -9.5347 0.175594 -0.757124 0.62923 121 88 52
-0.0735472 -0.891232 -9.86131 0.324588 -0.0814428 0.942343 158 135 92
1.80287 -0.160711 -12.0046 0.597477 -0.612768 0.517239 95 42 44
1.77483 -0.20224 -11.9573 0.621717 -0.522336 0.583638 91 40 41
3.28014 -1.55237 -10.8542 -0.971923 -0.0580163 0.228033 141 133 130
4.96389 -2.41648 -10.5696 -0.91285 0.235823 0.333305 238 228 221
4.9726 -2.46249 -10.4913 -0.459613 0.666872 0.586547 242 232 226
5.02198 -2.49033 -10.496 -0.709586 0.563305 0.42329 245 236 230
5.08598 -2.65193 -10.349 -0.992851 0.089213 0.0792895 250 241 235
-2.03351 -0.0632777 -10.0115 0.185874 0.403628 0.895843 167 42 48
-1.99111 -0.120847 -9.99588 -0.37701 0.392061 0.839137 136 31 39
-1.74148 -0.261613 -9.92095 -0.552603 0.321293 0.769026 172 65 66
0.184776 -0.911334 -10.0618 0.669918 -0.48144 0.565177 111 48 47
3.80991 -1.39059 -11.465 -0.969858 -0.0576033 0.236765 133 127 123
3.43047 -1.95596 -10.4358 -0.981829 0.0943163 0.164672 158 150 145
4.3618 -1.55412 -11.5511 -0.989422 0.0480047 0.136893 134 126 122
4.94211 -2.42836 -10.6732 -0.492437 -0.807059 0.325825 235 224 218
4.94685 -2.45666 -10.5799 -0.283677 0.664183 0.691656 240 230 223
5.03145 -2.55762 -10.5334 -0.292571 -0.925733 0.239627 250 242 234
5.02845 -2.55906 -10.5295 -0.299611 -0.925955 0.229871 250 242 234
5.12439 -2.60763 -10.444 -0.960426 0.208433 0.184762 250 242 237
5.08024 -2.70661 -10.2775 -0.99774 0.0659383 -0.0129264 248 238 233
5.09569 -2.69102 -10.2993 -0.987452 0.157476 -0.0118445 250 241 236
5.11288 -2.74084 -10.2619 -0.996452 0.0834368 0.0110718 251 244 237
5.11544 -2.7421 -10.2625 -0.979626 0.185946 0.0758824 250 242 235
5.11752 -2.78439 -10.2341 -0.88374 -0.466204 0.0407166 248 240 234
1.53638 -0.367418 -11.7789 0.638379 -0.498102 0.586828 93 41 44
1.84634 -0.250986 -12.1068 0.595878 -0.585824 0.549309 87 38 40
3.78558 -1.34115 -11.6571 -0.985255 0.0972194 0.140784 126 121 117
3.76338 -1.40285 -11.5089 -0.976319 0.160233 0.145348 111 102 99
3.79426 -1.41869 -11.5181 -0.717969 0.514315 0.469042 136 131 127
3.78973 -1.44169 -11.4737 -0.945747 0.142725 0.291877 138 132 128
3.81099 -1.58333 -11.311 -0.846029 0.0412453 0.531538 157 152 148
4.9282 -2.43452 -10.6756 -0.52337 -0.7776 0.348458 234 223 217
4.93385 -2.48245 -10.5969 -0.498579 -0.803275 0.325833 240 229 223
4.95221 -2.52918 -10.5653 -0.466465 -0.811969 0.35088 242 232 225
5.05685 -2.69405 -10.3828 -0.944118 0.18781 0.270865 248 240 233
5.11247 -2.6598 -10.4516 -0.794923 0.253962 0.551 248 240 234
5.06193 -2.75364 -10.3273 -0.982756 -0.174336 0.0616227 246 237 230
1.80636 -0.375737 -12.0231 0.635355 -0.512327 0.577793 91 39 41
1.80636 -0.375737 -12.0231 0.635355 -0.512327 0.577793 91 39 41
1.87655 -0.367215 -12.0971 0.624089 -0.516254 0.586511 86 40 41
1.9239 -0.347885 -12.1637 0.652465 -0.318894 0.687456 83 40 41
3.2818 -0.155737 -13.195 -0.790693 0.426682 0.439029 68 40 42
3.26842 -0.168405 -13.1635 -0.822674 0.39506 0.408821 67 39 42
3.31951 -0.28565 -13.0872 0.538664 -0.0343032 0.841822 67 36 40
3.62532 -0.510692 -12.9305 -0.791165 0.063426 0.608305 64 51 52
3.78342 -1.48258 -11.5368 -0.92606 0.165294 0.33925 140 134 130
3.51457 -1.78579 -10.9511 -0.908373 -0.127506 0.398247 134 124 121
5.06822 -2.71457 -10.4483 -0.943835 -0.148226 0.295305 249 243 236
5.10523 -2.78766 -10.3256 -0.996656 -0.0357527 0.0734702 244 236 230
5.12908 -2.82429 -10.2985 -0.877441 -0.477325 0.0475145 249 241 235
0.824318 -0.476392 -11.3675 0.302787 -0.125319 0.944783 73 35 36
1.14976 -0.436722 -11.5857 0.652239 -0.532659 0.539313 102 44 44
1.67948 -0.431316 -11.9834 0.59853 -0.23145 0.766937 97 42 43
3.18771 -0.128711 -13.3165 -0.533461 0.550257 0.642368 70 42 45
3.22387 -0.21178 -13.2458 -0.544969 0.566005 0.618584 66 35 38
3.20637 -0.218091 -13.2137 -0.535259 0.56844 0.624799 67 36 39
3.22316 -0.263534 -13.1576 -0.698245 0.498631 0.513635 68 36 40
3.22274 -0.323577 -13.0788 -0.807085 0.414705 0.420278 71 38 41
5.05201 -2.77993 -10.4114 -0.856653 -0.406759 0.317321 250 244 238
5.06112 -2.79412 -10.3826 -0.99291 -0.109561 -0.0461076 249 242 237
5.09259 -2.82428 -10.3549 -0.987616 -0.0792389 0.13541 246 238 233
-2.01094 -0.268692 -10.0634 -0.636563 0.249421 0.729779 139 43 48
1.66932 -0.45622 -11.9897 0.657573 -0.42592 0.621441 95 40 41
1.68434 -0.447315 -11.9723 0.657066 -0.25573 0.709131 96 41 42
1.74066 -0.457229 -12.0106 0.611364 -0.576563 0.542042 99 42 44
1.82087 -0.435973 -12.1132 0.615916 -0.561849 0.552243 91 42 45
3.12966 -0.13542 -13.3387 0.0342503 0.511173 0.858795 70 40 43
3.06421 -0.168865 -13.2821 0.513468 0.0595388 0.856041 67 35 39
3.15351 -0.160791 -13.3443 -0.113182 0.565588 0.816884 66 37 40
3.17179 -0.216037 -13.2795 -0.435703 0.589477 0.680206 64 34 38
3.22116 -0.266871 -13.2038 -0.896095 0.299506 0.327582 69 36 40
3.26464 -0.392357 -13.0809 0.589212 -0.203848 0.781841 70 37 40
3.37109 -2.23471 -10.3465 -0.680166 0.560846 0.472045 174 165 159
3.3 -2.3385 -10.0893 -0.568998 0.592825 0.569912 165 156 152
1.58412 -0.531047 -11.9493 0.628365 -0.107273 0.770487 86 40 41
3.12466 -0.253821 -13.2852 -0.457338 0.586921 0.668106 64 34 39
3.14451 -0.264406 -13.2378 -0.662978 0.51735 0.541118 65 35 39
3.63583 -0.643106 -12.9798 -0.951635 0.158955 0.262914 64 52 52
4.86214 -2.68097 -10.6514 -0.964542 0.0780034 0.252141 230 219 212
5.05925 -2.87225 -10.4709 -0.0230422 0.559296 0.828647 245 237 232
-0.800195 -0.814329 -10.1383 -0.0660724 -0.947852 0.311786 89 37 41
1.72923 -0.562709 -12.0553 0.612879 -0.0676512 0.787276 71 35 37
2.26996 -0.551845 -12.3983 0.502711 -0.031641 0.863875 105 73 44
3.04125 -0.313718 -13.238 0.210533 0.415333 0.884971 63 34 38
3.67073 -0.708457 -13.0343 -0.650069 -0.205977 0.731426 66 54 54
3.76517 -0.807181 -12.8931 -0.930652 -0.287843 0.225905 72 59 60
4.87114 -2.59958 -10.8476 -0.806248 -0.590519 -0.0353713 236 225 218
4.88123 -2.63972 -10.7589 -0.838746 -0.544356 0.0134703 242 230 224
4.90574 -2.77081 -10.6142 -0.0730937 -0.85321 0.51642 239 228 221
5.00661 -2.84382 -10.4942 0.00309213 0.531476 0.847068 245 236 230
5.05948 -2.94725 -10.395 -0.874226 0.208694 0.438379 249 240 234
5.06351 -2.94787 -10.3997 -0.777442 0.185887 0.600858 249 240 234
2.65972 -0.448141 -12.9089 -0.105459 -0.447984 0.8878 73 36 39
3.16774 -0.501913 -13.1299 -0.680993 0.420936 0.599218 56 35 38
3.30936 -0.56088 -13.1361 0.07197 0.0636522 0.995374 67 40 43
3.31053 -2.24724 -10.5092 -0.97914 0.086363 0.183922 179 170 164
4.83744 -2.7145 -10.6941 -0.958503 0.0364915 0.282736 240 230 224
4.86206 -2.74592 -10.6602 -0.685031 -0.174437 0.707322 237 227 221
4.95415 -2.81502 -10.6052 0.0188072 0.53266 0.84612 244 234 227
4.99211 -2.86331 -10.5448 0.0211113 0.529359 0.848135 247 239 233
5.01025 -2.95177 -10.4133 -0.573265 0.393843 0.718508 250 242 237
5.03834 -2.98852 -10.408 -0.543846 0.397975 0.738815 245 237 231
-0.92318 -0.851795 -10.1239 -0.443585 0.318764 0.837629 86 36 38
-0.827712 -0.890685 -10.171 -0.290118 0.343988 0.893031 83 37 40
1.00758 -0.478093 -11.9056 0.548335 -0.717247 0.429983 82 37 40
2.75405 -0.450648 -13.0504 -0.10156 -0.419794 0.901919 73 36 39
2.75405 -0.450648 -13.0504 -0.10156 -0.419794 0.901919 73 36 39
3.68392 -0.724605 -13.1647 -0.936057 0.0706956 0.344672 67 54 56
3.6635 -0.877489 -13.001 -0.871777 -0.0891694 0.48172 62 51 52
4.85748 -2.7837 -10.6701 -0.451597 -0.18391 0.873062 245 235 228
4.98387 -2.86948 -10.6021 0.00107782 0.526726 0.850034 247 238 231
4.94149 -2.89123 -10.6095 -0.0353848 0.504425 0.86273 251 244 237
4.95322 -2.91568 -10.5681 0.255024 0.0845434 0.963232 246 237 231
4.98627 -2.99348 -10.4219 -0.51899 0.243857 0.819258 247 238 233
5.03139 -3.02599 -10.4366 -0.512753 0.0952027 0.853242 248 241 236
-0.793592 -1.07518 -9.97353 0.322968 -0.42097 0.847629 86 41 43
-0.752305 -1.07046 -9.99214 0.180635 -0.542328 0.820519 86 43 44
-0.572461 -0.866464 -10.4114 0.595071 -0.505053 0.625149 80 38 40
-0.525498 -0.860955 -10.4627 0.494152 -0.635123 0.59366 80 38 40
-0.25194 -0.8978 -10.5438 0.698729 -0.210465 0.683727 80 36 39
0.841787 -0.535262 -11.8108 0.682425 -0.163293 0.712483 80 39 41
2.54926 -0.555977 -12.8987 0.602337 -0.273679 0.74986 98 69 42
3.67434 -0.797679 -13.1578 -0.954315 0.0840221 0.286746 65 52 54
3.73229 -0.789237 -13.1971 -0.769902 -0.31511 0.554938 67 54 55
4.8317 -2.82093 -10.6839 -0.579594 -0.284147 0.763761 241 231 225
4.9104 -2.9152 -10.642 0.0781935 0.491497 0.867362 247 238 231
4.9098 -2.91173 -10.586 0.275801 0.0827575 0.957646 249 242 235
4.97049 -2.94679 -10.616 -0.217171 0.525439 0.822649 252 247 241
4.93373 -2.9566 -10.5855 -0.535232 0.519267 0.66625 251 245 238
4.97425 -2.95402 -10.552 -0.571855 0.401614 0.715324 246 238 233
-1.72652 -0.654972 -10.071 -0.801166 0.000717461 0.598441 166 61 64
-0.709821 -1.06703 -10.0694 0.307422 -0.429868 0.848943 90 47 48
-0.686468 -1.07792 -10.0684 0.496404 -0.0115937 0.868014 92 49 50
-0.534182 -0.954759 -10.424 0.31249 -0.496634 0.809756 85 41 42
-0.358088 -0.905639 -10.5532 0.725766 -0.227477 0.649244 84 40 42
1.795 -0.480003 -12.6528 0.56833 -0.547974 0.61378 71 36 38
3.62825 -0.879936 -13.1807 -0.151899 -0.802448 0.577065 69 57 58
3.65187 -0.915066 -13.0891 -0.923096 -0.0305131 0.383357 68 56 57
4.81478 -2.83098 -10.8003 -0.803077 -0.518498 0.293646 235 225 219
4.84457 -2.85409 -10.7506 -0.857868 -0.479853 0.183859 243 233 226
4.90041 -2.94896 -10.6545 -0.871079 0.322315 0.370585 246 237 231
4.9414 -2.99737 -10.5475 -0.933117 0.253143 0.255363 249 242 236
-0.641819 -1.06656 -10.2121 0.689514 -0.175559 0.702673 92 46 48
-0.402725 -0.956655 -10.5552 0.622998 -0.541355 0.564631 89 43 46
0.818307 -0.664897 -11.8398 0.683333 -0.35227 0.639502 81 39 41
4.83812 -2.86213 -10.8504 -0.986027 0.162093 0.0384371 237 227 220
4.82405 -2.89583 -10.7571 -0.862429 -0.497795 0.0917417 246 237 231
4.88618 -2.99172 -10.6737 -0.0967928 0.211802 0.972508 247 240 234
4.89516 -2.99925 -10.5911 -0.200992 0.206701 0.957537 246 238 233
4.91713 -3.02676 -10.6045 -0.847365 0.153338 0.508389 244 235 230
4.9237 -3.06391 -10.5481 -0.919118 0.213364 0.331208 248 240 236
-1.9628 -0.568144 -10.2679 -0.558037 0.317847 0.76653 215 83 86
-0.754634 -1.12719 -10.1497 0.66807 -0.102087 0.737063 93 45 46
-0.104453 -1.0119 -10.7015 0.59179 0.0287381 0.80558 107 50 51
-0.0974812 -1.00256 -10.734 0.423485 0.224816 0.877564 107 50 51
0.799552 -0.698721 -11.8469 0.665952 -0.102173 0.738964 77 36 39
2.38634 -0.744847 -12.8011 0.594546 -0.325758 0.735117 112 80 47
2.58116 -0.728581 -12.9735 0.589786 -0.413025 0.693948 93 60 43
3.28083 -0.867729 -13.1583 0.531935 -0.571916 0.624466 69 40 44
3.60728 -0.986301 -13.2018 -0.876484 -0.107046 0.469379 67 56 57
3.61158 -0.978127 -13.2014 -0.80695 -0.205076 0.553874 67 55 57
3.61467 -0.985734 -13.208 -0.816349 -0.153738 0.556722 67 56 57
3.60982 -0.988373 -13.1869 -0.848548 -0.00218305 0.529114 67 56 57
3.61683 -0.984102 -13.1863 -0.882024 0.00725646 0.471148 67 56 57
4.82266 -2.92469 -10.8226 -0.933469 -0.0123366 0.358445 242 234 228
4.84299 -2.94958 -10.7718 -0.906103 -0.168399 0.388097 243 233 227
4.88805 -3.0496 -10.6451 -0.93054 0.237933 0.27836 247 240 235
4.88857 -3.04065 -10.6227 -0.94986 -0.0280897 0.311412 247 240 235
4.90429 -3.08148 -10.5995 -0.906406 0.104439 0.409293 249 241 236
4.90765 -3.12602 -10.5454 -0.979814 0.186618 0.0716886 246 239 234
-0.287353 -1.05676 -10.6048 0.705334 -0.517775 0.484162 95 47 48
-0.136664 -1.07558 -10.7258 0.656002 0.0371887 0.753843 107 53 54
2.20587 -0.761312 -12.7416 0.638766 -0.217167 0.738117 119 85 49
2.27032 -0.747391 -12.749 0.589036 -0.518606 0.619746 118 84 48
2.62166 -0.762384 -13.0092 0.588603 -0.394979 0.705364 83 44 42
4.86894 -3.03702 -10.6857 -0.812002 0.463977 0.354087 244 233 229
4.9169 -3.08782 -10.63 -0.802789 0.51532 0.29996 248 240 235
4.89061 -3.14041 -10.5879 -0.977189 0.192804 0.0890473 248 240 236
-1.25538 -0.981348 -10.2015 -0.715504 0.283917 0.638314 201 92 90
-0.201156 -1.14426 -10.6572 0.576875 -0.716157 0.392854 110 54 55
0.65461 -0.748286 -11.8431 0.695965 -0.152496 0.701696 68 36 39
0.708995 -0.770615 -11.88 0.531108 0.0871771 0.842807 66 35 39
1.96933 -0.758948 -12.7246 0.603673 -0.516297 0.607467 97 57 42
2.32489 -0.847459 -12.8063 0.584811 -0.0201391 0.810919 135 106 69
2.3921 -0.799835 -12.8832 0.576631 -0.13772 0.805314 120 86 50
2.46015 -0.768829 -12.942 0.573209 -0.196164 0.795582 111 80 48
3.16639 -0.820911 -13.3425 -0.0199279 -0.769669 0.638132 70 40 44
3.21863 -0.846865 -13.3472 0.245854 -0.702064 0.668327 70 41 44
3.24657 -0.878704 -13.2758 0.0626207 -0.812321 0.579838 69 41 44
3.64607 -1.04531 -13.2568 -0.887341 -0.0707202 0.455659 68 57 58
3.61886 -1.04903 -13.2732 -0.907493 -0.0428488 0.417876 68 57 58
3.64744 -1.04911 -13.2522 -0.914206 -0.0139139 0.405011 68 57 58
3.6267 -1.09593 -13.1869 -0.968042 -0.195085 0.157598 74 63 64
4.86626 -3.07786 -10.705 -0.913908 0.254929 0.315885 247 239 234
4.85675 -3.11194 -10.6476 -0.605599 0.548383 0.576651 244 235 229
4.87276 -3.1147 -10.6474 -0.677694 0.481128 0.556099 244 235 230
4.8706 -3.1495 -10.6176 -0.76387 0.510093 0.395358 243 233 228
4.86464 -3.2014 -10.5507 -0.976794 0.13895 0.162989 247 239 235
0.708073 -0.773093 -11.8914 0.580348 0.0841361 0.810011 66 35 39
1.99907 -0.784468 -12.7373 0.250403 -0.83246 0.494276 90 48 40
2.61988 -0.90748 -12.9877 0.560752 -0.592041 0.57883 107 59 61
3.08606 -0.858718 -13.3507 0.353435 -0.474422 0.80623 72 42 44
3.16546 -0.876044 -13.3821 0.217241 -0.601484 0.76878 71 42 45
3.49861 -1.15149 -13.1937 -0.947249 0.220016 0.233052 68 56 59
3.52326 -1.14836 -13.1359 -0.95562 -0.184682 0.229527 73 62 63
3.56125 -1.1742 -13.1048 -0.960602 -0.2137 0.1777 75 64 64
4.80813 -3.08573 -10.761 -0.855538 0.229107 0.464289 246 236 232
4.83591 -3.16394 -10.6731 -0.941178 0.305417 0.144584 249 241 236
4.83459 -3.14357 -10.6816 -0.976426 0.214504 0.0240982 244 235 229
4.88045 -3.19845 -10.6372 -0.574433 -0.644937 0.504066 250 241 238
4.89016 -3.2463 -10.5507 -0.154501 -0.135452 0.978664 252 245 241
-0.514683 -1.17769 -10.5074 0.464946 0.300991 0.832604 120 71 72
0.574664 -0.824032 -11.8552 0.279561 0.430443 0.858233 65 36 40
1.29902 -0.963764 -12.1282 0.502497 0.071115 0.86165 108 69 51
1.3624 -0.957246 -12.2027 0.260013 0.205983 0.943379 118 89 51
3.01338 -0.919205 -13.3168 0.562118 -0.421132 0.711808 119 91 90
3.09988 -0.914593 -13.3654 0.277232 -0.500854 0.819932 104 79 79
4.74497 -3.04716 -10.9008 -0.848192 0.0333616 0.528638 242 231 225
4.72953 -3.09413 -10.8161 -0.513638 -0.138728 0.846717 241 229 224
4.76865 -3.11191 -10.7945 -0.536584 -0.0891333 0.839126 249 240 235
4.76284 -3.10972 -10.773 -0.88602 0.250435 0.390194 248 238 234
4.83822 -3.11921 -10.8099 -0.825779 0.180605 0.534295 250 241 235
4.83829 -3.11918 -10.81 -0.828177 0.182139 0.530046 250 241 235
4.8691 -3.14723 -10.7848 -0.798981 -0.0598924 0.598367 249 241 235
4.86719 -3.18304 -10.7085 -0.674573 -0.563702 0.476646 248 241 235
4.86808 -3.29015 -10.5875 -0.352222 -0.578535 0.735689 247 239 234
4.90731 -3.29272 -10.5515 -0.0483374 -0.49039 0.870162 249 242 237
0.504365 -0.731875 -12.0941 -0.295483 0.515414 0.804387 66 36 40
0.669448 -0.920708 -11.833 0.43939 0.305968 0.844583 74 38 41
0.672194 -0.91519 -11.8376 0.404448 0.336594 0.850368 73 37 41
1.79362 -1.01844 -12.4471 0.48238 0.212801 0.84972 91 43 46
3.19309 -0.995045 -13.4617 -0.247265 -0.614274 0.749351 91 76 75
4.89755 -3.33501 -10.6085 -0.418757 -0.831672 0.364641 249 241 237
4.95241 -3.33553 -10.5983 0.0901926 -0.75332 0.651441 252 246 242
0.452296 -0.712085 -12.1614 -0.899786 0.148622 0.41024 72 39 44
0.778302 -1.02356 -11.8555 0.609695 0.0650111 0.789966 84 40 43
2.01679 -1.03211 -12.6971 0.306463 -0.395801 0.865691 107 47 49
4.74872 -3.22044 -10.7914 -0.92395 0.0524109 0.378905 245 234 229
4.84815 -3.33408 -10.5869 -0.501799 -0.831933 0.236823 248 239 235
-2.10285 -0.671591 -10.5836 -0.48349 0.374025 0.791419 215 100 96
-1.23681 -1.11219 -10.4085 0.0679761 -0.936168 0.344918 94 40 44
0.796751 -1.06146 -11.8663 0.458702 0.261281 0.849308 91 45 47
4.74458 -3.18577 -10.8591 -0.957705 0.283899 0.0469386 248 239 235
4.78258 -3.26756 -10.7436 -0.677286 0.540318 0.499339 245 237 231
-1.82612 -0.8721 -10.5456 -0.703234 0.265277 0.659613 163 48 55
-1.75461 -0.943886 -10.4526 -0.655107 0.126704 0.744836 211 94 95
-1.63597 -1.01336 -10.3982 -0.483608 -0.788923 0.379109 150 51 58
-1.5436 -1.02877 -10.4051 -0.750367 0.228393 0.620311 127 50 54
-1.28074 -1.16632 -10.4254 0.412569 0.132396 0.901254 173 146 142
-0.0851298 -1.16575 -11.2305 -0.38404 -0.89226 0.237456 127 68 67
-0.0157657 -1.14831 -11.3175 -0.852796 -0.337275 0.398728 130 73 72
0.345774 -0.757361 -12.2192 -0.881393 0.18815 0.433296 211 199 192
0.45517 -0.828955 -12.1778 -0.911838 0.0920303 0.400104 75 41 45
1.80495 -1.1824 -12.5141 0.265369 0.439196 0.858304 92 46 48
2.02941 -1.14093 -12.667 0.631561 -0.374585 0.678835 110 50 52
2.17514 -1.14972 -12.8359 0.27941 0.0285538 0.959747 219 208 196
4.70974 -3.13516 -11.055 -0.956085 0.288913 0.0492994 233 223 217
4.64971 -3.15789 -10.9645 -0.844974 0.112904 0.522754 243 232 225
4.71234 -3.21364 -10.9145 -0.468298 -0.00833091 0.883532 246 235 230
4.77471 -3.24366 -10.9254 -0.944535 -0.32517 -0.0460309 247 237 233
-1.30812 -1.19874 -10.4316 0.692605 -0.0445638 0.719939 181 159 154
-1.27363 -1.24892 -10.3014 0.299415 0.139902 0.943811 156 124 120
-0.025126 -1.16682 -11.3362 -0.475023 -0.620466 0.624 163 118 116
0.00778932 -1.19694 -11.31 -0.761142 -0.463377 0.453811 230 221 212
0.431936 -0.859711 -12.2192 -0.913731 0.0620901 0.401549 78 43 46
1.77759 -1.22626 -12.4964 0.457228 0.259854 0.85054 94 49 48
3.04731 -1.10338 -13.6209 -0.68147 0.461259 0.56819 175 162 156
3.61617 -2.00371 -12.3396 -0.900998 0.155171 0.405124 158 149 143
4.64129 -3.18832 -11.0433 -0.964113 0.260159 0.0529484 246 235 229
4.64948 -3.22703 -10.9857 -0.97031 0.196432 0.141113 243 232 225
-2.30358 -0.564872 -10.9228 -0.563141 0.349869 0.748641 183 82 84
-1.85671 -0.893226 -10.6195 -0.676222 0.291399 0.676617 197 71 76
-1.77314 -1.0147 -10.4801 -0.828314 0.0969162 0.551818 141 43 51
-0.0272017 -1.21656 -11.3899 -0.791874 -0.463996 0.397043 234 230 222
0.0135041 -1.22977 -11.3318 -0.67675 -0.621928 0.393972 232 229 219
-0.0145024 -1.24717 -11.3211 -0.918542 -0.140776 0.36941 234 230 222
0.370005 -0.876186 -12.2235 -0.906369 -0.0928823 0.412151 83 47 49
0.371912 -0.872071 -12.2732 0.195649 0.305404 0.931907 84 47 49
0.399471 -0.919047 -12.1565 -0.91814 -0.068521 0.390288 77 44 48
0.411488 -1.05993 -11.9489 -0.759722 0.371479 0.533691 76 42 45
1.65219 -1.26423 -12.4746 0.346475 -0.739336 0.577354 121 88 56
1.72934 -1.31186 -12.4518 0.403056 0.291697 0.867444 119 91 56
1.74462 -1.26804 -12.4613 0.382713 0.341885 0.858281 108 74 54
4.70157 -3.26689 -11.0071 -0.910278 -0.413011 -0.0285732 247 236 231
4.74533 -3.30103 -10.9705 -0.913758 -0.405003 -0.0319132 249 240 235
4.75416 -3.31912 -10.9176 -0.963716 0.197307 0.179784 249 243 237
0.00146442 -1.28398 -11.3686 -0.937755 -0.160438 0.308018 235 232 222
0.0117413 -1.26008 -11.411 -0.748505 -0.568599 0.341226 232 229 219
0.863706 -1.40021 -11.7352 0.631981 -0.532429 0.563134 101 49 52
1.62658 -1.30539 -12.4219 0.589343 -0.0716836 0.804697 121 93 56
1.91531 -1.3474 -12.6164 0.512216 -0.613683 0.600856 103 50 53
2.03237 -1.2888 -12.7569 0.0453325 -0.106444 0.993285 103 51 52
0.884419 -1.4543 -11.7907 0.639093 -0.496056 0.587783 103 50 54
1.21694 -1.35066 -12.1966 -0.0862942 0.0707136 0.993757 99 51 53
1.21757 -1.35146 -12.1962 -0.126127 0.0351626 0.991391 99 51 53
1.69893 -1.38304 -12.5068 0.308414 -0.52841 0.790989 123 95 56
1.98229 -1.35414 -12.6875 0.394266 -0.672228 0.62663 104 51 53
2.22228 -1.35034 -12.8562 0.336526 -0.480874 0.809636 113 55 56
2.28112 -1.37682 -12.9126 0.101829 -0.595525 0.796857 118 58 58
2.35409 -1.41591 -12.8805 -0.135591 -0.158021 0.978082 215 203 195
2.36048 -1.41894 -12.8706 -0.768832 -0.0193645 0.639157 217 208 200
3.412 -1.54422 -13.3478 -0.971256 -0.132018 0.198073 80 69 71
-1.78398 -1.0128 -10.7665 -0.713494 0.214549 0.667004 150 63 68
2.00218 -1.49774 -12.5866 0.597281 0.00399408 0.802022 102 52 54
2.25473 -1.42016 -12.9198 0.0126735 -0.440601 0.897614 116 56 58
2.30298 -1.41664 -12.8921 -0.116923 -0.244967 0.962455 143 90 90
3.12781 -1.20003 -13.958 -0.96681 0.106701 0.23215 188 176 169
3.13376 -1.21417 -13.8778 -0.308852 -0.0782524 0.947885 180 169 163
3.37162 -1.58944 -13.415 -0.674537 0.55142 0.490853 83 72 73
3.38997 -1.61152 -13.3702 -0.899409 -0.39672 0.183511 86 76 76
-0.18523 -1.14263 -11.7597 -0.913579 -0.281998 0.293004 236 232 223
1.99104 -1.54808 -12.6205 0.306562 -0.69413 0.651309 106 54 57
2.14667 -1.5042 -12.7657 0.363443 -0.0310321 0.9311 110 54 57
2.28788 -1.47934 -12.9351 -0.464092 -0.0451977 0.884633 125 64 65
2.33801 -1.4709 -12.9283 0.171236 0.423057 0.889776 198 169 164
2.36666 -1.51283 -12.9424 0.263271 0.354506 0.897226 218 208 200
2.38719 -1.55359 -12.9067 -0.177674 0.583389 0.792521 219 211 203
2.38978 -1.56289 -12.8841 -0.570784 0.014271 0.820976 219 211 202
3.09477 -1.30299 -13.8838 -0.961389 0.0866702 0.26119 184 174 167
2.58538 -2.13132 -11.9756 -0.778051 0.48037 0.404823 189 183 176
3.37679 -1.62483 -13.4127 -0.704351 0.54629 0.453274 89 79 79
3.38528 -1.66383 -13.4193 -0.831332 -0.353433 0.42892 98 89 89
3.44052 -1.6996 -13.3629 -0.757018 -0.455036 0.468898 108 100 98
3.4819 -1.80155 -13.2453 -0.879127 0.101436 0.465668 133 125 121
3.48036 -1.79848 -13.2482 -0.879225 0.0989445 0.466019 132 124 121
3.43726 -1.83004 -13.138 -0.94086 -0.0366397 0.33681 142 134 130
0.851679 -1.52783 -11.931 0.654549 -0.2743 0.704504 114 55 58
1.93473 -1.56329 -12.6253 0.608052 -0.383938 0.694884 104 55 57
2.05931 -1.55813 -12.6815 0.574672 -0.548536 0.607338 112 56 59
2.18149 -1.55145 -12.8027 0.445988 -0.170584 0.878633 116 56 59
2.28021 -1.5522 -12.9094 -0.094456 0.1178 0.988535 131 74 74
2.34454 -1.57939 -12.8552 -0.761606 -0.0303354 0.64733 219 210 203
3.06685 -1.35134 -13.9009 -0.396245 -0.661159 0.637071 187 178 170
3.3266 -1.6833 -13.4187 -0.683379 0.544097 0.486777 106 97 96
3.41332 -1.70385 -13.3985 -0.866281 0.0532085 0.496716 113 104 103
0.35851 -1.08238 -12.4341 -0.737381 0.353226 0.575761 209 188 181
1.22338 -1.53248 -12.2227 0.548281 0.108319 0.829249 111 58 59
2.30668 -1.59874 -12.9068 -0.23939 0.23467 0.942137 184 150 146
3.32276 -1.69387 -13.4584 -0.746392 0.487849 0.452661 113 104 103
0.337645 -1.22525 -12.3152 -0.211661 0.549063 0.808535 170 126 122
1.24485 -1.67547 -12.1341 0.607973 0.0655799 0.791245 194 180 157
1.24485 -1.67547 -12.1341 0.607973 0.0655799 0.791245 194 180 157
2.69271 -2.00355 -12.5989 -0.699231 0.527086 0.482966 187 180 173
2.69271 -2.00355 -12.5989 -0.699231 0.527086 0.482966 187 180 173
3.34955 -1.78734 -13.494 -0.923224 0.0303471 0.383061 145 136 133
3.34792 -1.79137 -13.4395 -0.727581 -0.627928 0.276282 143 134 131
-1.41197 -1.04361 -11.4005 -0.0569658 -0.978065 0.20036 140 97 96
-0.455348 -1.20156 -11.9004 0.515091 0.319381 0.79541 233 229 221
0.217348 -1.16103 -12.4114 0.145538 0.544867 0.825796 231 228 218
1.27395 -1.66882 -12.2156 0.383194 -0.184503 0.905053 203 193 176
3.09183 -1.43095 -14.0492 -0.912159 0.122406 0.391129 196 187 178
3.12776 -1.47083 -14.0165 -0.795941 0.178038 0.578603 195 185 178
3.15375 -1.51455 -13.9719 -0.907946 0.202644 0.366839 163 154 149
0.24328 -1.26205 -12.3989 -0.903951 0.103914 0.414819 231 227 219
2.21335 -1.76773 -12.9056 0.247344 0.266581 0.931534 226 219 211
3.0774 -1.49065 -14.0307 -0.940392 -0.0582634 0.335064 195 186 178
3.10958 -1.54302 -14.0038 -0.767917 0.209574 0.605295 187 179 171
3.13421 -1.59806 -13.9684 -0.752156 0.264379 0.603627 171 163 157
3.13653 -1.5871 -13.9599 -0.90995 0.152248 0.385762 168 160 155
3.13706 -1.55068 -13.9837 -0.842382 0.282296 0.459021 173 164 158
-1.30289 -1.01277 -11.8247 0.473034 -0.547278 0.690454 164 125 122
3.07019 -1.57191 -14.0757 -0.943423 -0.0298156 0.330249 198 190 181
3.05616 -1.60548 -13.9903 -0.790055 0.0591448 0.610177 198 190 181
2.60574 -2.07514 -12.6479 -0.750944 0.500281 0.431047 206 200 192
2.60574 -2.07514 -12.6479 -0.750944 0.500281 0.431047 206 200 192
2.62753 -2.11767 -12.6761 -0.732202 0.515263 0.445403 204 198 191
2.62763 -2.11738 -12.6779 -0.719992 0.523713 0.455342 205 198 191
2.61963 -2.12838 -12.6451 -0.954768 0.0894191 0.283589 201 194 187
-1.34599 -1.04463 -11.8341 0.353634 -0.787014 0.505522 230 219 213
0.552597 -1.60228 -12.1808 -0.484954 -0.771511 0.411813 181 148 145
-1.39479 -1.0428 -11.8315 0.20897 -0.882337 0.42168 230 221 215
-1.3004 -1.04296 -11.8957 0.376688 -0.822767 0.42563 232 224 218
1.94902 -1.84122 -12.8655 0.0344367 0.580144 0.813785 231 224 215
0.317537 -1.4825 -12.4805 0.186929 -0.854106 0.485346 233 228 219
0.568997 -1.52359 -12.64 0.567145 -0.089106 0.818784 202 171 166
0.550984 -1.52196 -12.627 0.598519 0.0383439 0.800191 196 164 159
0.535692 -1.59523 -12.6096 0.543981 0.136264 0.82796 235 229 221
0.605764 -1.57231 -12.6534 0.548302 0.125479 0.826813 232 224 218
0.312368 -1.56929 -12.5455 0.308329 -0.674798 0.670508 234 229 219
2.94033 -1.87765 -14.2592 -0.981619 -0.0434686 0.185835 224 215 207
3.81401 -3.04904 -12.4468 -0.872317 0.249952 0.420223 218 209 203
2.93357 -1.88041 -14.3345 -0.913568 -0.0445472 0.404238 225 216 209
3.8267 -3.07487 -12.4902 -0.956721 0.254841 0.140507 225 216 210
2.6662 -2.1102 -13.7095 -0.926812 0.254207 0.276402 226 218 210
4.01804 -3.49566 -12.0124 -0.269576 -0.51685 0.812524 229 219 212
4.04081 -3.51531 -11.9514 -0.485971 -0.103073 0.867876 230 220 213
4.17337 -3.62306 -11.826 -0.882426 0.0594875 0.466675 243 232 225
4.25482 -3.73158 -11.7086 -0.647453 -0.0248715 0.7617 248 239 233
2.99188 -2.16441 -14.0972 -0.920752 0.141257 0.363679 218 210 202
3.88531 -3.4065 -12.2258 -0.945878 0.282019 0.160561 225 215 208
4.04662 -3.54369 -12.0384 -0.729273 -0.219748 0.647975 233 223 216
4.07934 -3.56124 -11.9965 -0.8674 -0.151457 0.474003 243 233 226
4.08075 -3.61005 -11.9301 -0.919357 0.261924 0.293563 236 226 219
4.09645 -3.64714 -11.8793 -0.961637 -0.0322286 0.272426 235 224 217
4.1044 -3.67731 -11.8463 -0.479627 0.323979 0.815473 239 229 222
4.14384 -3.67863 -11.8052 -0.616035 0.27639 0.737638 239 229 222
4.19227 -3.70376 -11.773 -0.963917 0.223971 0.14388 243 233 227
4.21688 -3.76452 -11.7184 -0.78291 -0.121965 0.610063 244 234 229
4.26784 -3.78296 -11.7167 -0.9464 -0.321531 0.0307438 249 239 234
3.88438 -3.44168 -12.2199 -0.49608 0.0808796 0.864502 223 214 207
4.03318 -3.59734 -12.0278 -0.65985 0.100607 0.744632 233 223 216
4.06248 -3.63256 -12.0057 -0.762236 0.24565 0.598877 230 220 212
4.0652 -3.67216 -11.9297 -0.868648 0.214951 0.446371 234 224 217
4.13941 -3.72517 -11.8391 -0.141465 0.437805 0.887871 237 227 221
4.2349 -3.7882 -11.8324 -0.962436 -0.239125 0.128591 243 231 226
4.2349 -3.7882 -11.8324 -0.962436 -0.239125 0.128591 243 231 226
4.21885 -3.81838 -11.7049 -0.796015 -0.140394 0.58877 246 234 229
4.26242 -3.8381 -11.6897 -0.436509 -0.553342 0.709417 250 238 233
4.29887 -3.87345 -11.6786 -0.494554 -0.582063 0.64546 248 236 231
3.84381 -3.4502 -12.2734 -0.945533 0.280887 0.164527 222 213 206
3.88287 -3.48864 -12.2807 -0.838452 0.413175 0.355365 236 226 219
4.05238 -3.62521 -12.0996 -0.876838 0.0152894 0.480542 237 226 220
4.09713 -3.70633 -11.9101 -0.720837 0.263973 0.640868 242 231 224
4.14611 -3.76809 -11.8201 -0.826325 0.269609 0.494468 235 224 218
4.18135 -3.78495 -11.8356 -0.955171 0.277625 0.102823 237 225 219
4.17687 -3.80323 -11.8021 -0.955905 0.248429 0.156616 238 225 220
4.27239 -3.878 -11.7396 -0.295817 -0.632097 0.716203 248 236 231
3.01054 -2.41082 -13.9836 -0.971699 -0.0628041 0.227722 224 216 209
3.89398 -3.53591 -12.2424 -0.744982 0.557173 0.366824 238 227 221
4.06891 -3.68737 -12.1347 -0.923916 0.0182952 0.382157 237 225 219
4.08515 -3.68635 -12.0799 -0.966466 0.239815 0.0918242 243 232 226
4.09701 -3.70204 -12.0885 -0.992792 0.0405806 0.112773 245 234 227
4.06079 -3.7323 -11.9509 -0.926088 0.206407 0.315844 239 229 222
4.11801 -3.7639 -11.9801 -0.994868 0.0841811 0.0561364 244 232 228
4.16046 -3.7811 -11.9604 -0.771963 -0.618761 0.145629 247 235 230
4.16046 -3.7811 -11.9604 -0.771963 -0.618761 0.145629 247 235 230
4.16046 -3.7811 -11.9604 -0.771963 -0.618761 0.145629 247 235 230
4.24484 -3.86873 -11.8144 -0.955641 -0.287067 0.0658945 247 235 228
4.23313 -3.9118 -11.7712 -0.645215 -0.561774 0.517792 248 235 229
4.28736 -3.93019 -11.7592 -0.520998 -0.802498 0.290788 249 239 232
3.90589 -3.62317 -12.2177 -0.608244 0.0153499 0.793602 232 222 215
3.93234 -3.65169 -12.173 -0.372455 -0.482611 0.792694 234 224 218
4.0605 -3.79013 -11.9676 -0.685257 -0.211901 0.696793 243 232 226
4.15499 -3.87647 -11.8361 -0.944088 0.312402 0.105372 241 229 224
4.20492 -3.88087 -11.9206 -0.993615 0.0874765 0.0712546 245 234 227
4.2438 -3.89871 -11.8687 -0.974516 0.207592 0.0850007 247 235 229
4.24427 -3.89864 -11.8695 -0.974368 0.210236 0.0800546 247 235 229
4.24427 -3.89864 -11.8695 -0.974368 0.210236 0.0800546 247 235 229
4.23091 -3.9755 -11.7137 -0.850331 -0.411705 0.327774 245 234 228
4.02071 -3.72438 -12.136 -0.833764 -0.258167 0.488044 243 231 224
4.04296 -3.78227 -12.1235 -0.971931 0.209955 0.106154 242 231 224
4.03388 -3.81534 -12.0102 -0.728669 -0.0407671 0.683652 245 233 228
4.2035 -3.91701 -11.8572 -0.951858 0.294075 0.0865267 248 236 230
4.18044 -4.01613 -11.6901 -0.889713 -0.256421 0.377703 241 231 225
3.95122 -3.73399 -12.1848 -0.32447 -0.61775 0.716313 237 226 220
4.1526 -3.91638 -11.9594 -0.926664 0.358872 0.111826 248 236 230
4.11903 -3.9626 -11.8952 -0.961126 0.263635 0.082056 247 235 229
4.17749 -3.96067 -11.9364 -0.948156 0.304876 0.0897322 250 238 232
4.1723 -3.97517 -11.869 -0.964826 0.249866 0.0817162 248 237 230
4.1723 -3.97517 -11.869 -0.964826 0.249866 0.0817162 248 237 230
3.94338 -3.76869 -12.2722 -0.984252 0.15332 0.0879853 242 231 225
3.97985 -3.82453 -12.1234 -0.862674 -0.143105 0.485092 243 232 225
4.0738 -3.99553 -11.8703 -0.551955 0.717403 0.425063 246 235 229
3.90903 -3.73286 -12.3674 -0.891597 -0.444699 0.0854262 241 230 225
