ply
format ascii 1.0
element vertex 712
property float x
property float y
property float z
property float nx
property float ny
property float nz
property uchar red
property uchar green
property uchar blue
end_header
-1.20875 -2.23994 -13.3479 -0.933582 -0.348038 0.0854016 186 160 129
-1.25182 -2.27801 -13.3526 -0.886428 -0.277423 0.370517 178 153 123
-1.21601 -2.26934 -13.3561 -0.96367 -0.195586 0.181895 181 155 124
-1.18358 -2.28002 -13.3756 -0.862814 -0.505085 0.0210139 174 146 114
-1.1748 -2.29248 -13.3964 -0.828331 -0.498583 0.255506 172 144 112
-1.16312 -2.30198 -13.3852 -0.907497 -0.415603 0.0610172 168 140 108
-1.1522 -2.3243 -13.3987 -0.826865 -0.560453 0.046757 160 131 99
-1.17741 -2.29352 -13.4088 -0.864174 -0.494189 0.0947689 167 140 108
-1.12377 -2.31597 -13.4486 -0.852826 -0.454675 0.256825 159 130 99
-1.09579 -2.33003 -13.471 -0.759587 -0.60963 0.226668 151 122 90
-1.06733 -2.34583 -13.4769 -0.662001 -0.676585 0.32247 145 115 84
-1.02326 -2.36547 -13.5162 -0.814665 -0.57985 -0.00975224 139 106 76
-0.998444 -2.39617 -13.523 0.116294 -0.991112 0.0646005 136 102 74
-1.01535 -2.64063 -13.5843 -0.72784 0.0876951 0.680116 107 99 71
-0.970844 -2.70557 -13.6414 -0.916613 -0.0658955 0.394307 158 132 104
-0.964392 -2.76264 -13.6488 -0.805491 0.191966 0.560655 178 153 125
-0.977824 -2.80609 -13.6504 -0.76894 -0.141515 0.623462 189 165 137
-0.97604 -2.84519 -13.6458 -0.416904 -0.290288 0.86135 199 175 149
-0.980345 -2.86688 -13.671 -0.768902 -0.148252 0.621941 217 199 175
-0.989031 -3.0012 -13.6977 -0.764827 -0.302973 0.568549 175 141 109
-0.973372 -2.9754 -13.6795 -0.904935 0.290553 0.310922 201 178 154
-0.965417 -3.01191 -13.729 -0.925592 -0.253195 0.281375 148 105 66
-0.947417 -3.03547 -13.7384 -0.919143 0.0988668 0.381314 112 77 45
-1.41012 -1.4942 -13.0691 -0.908054 -0.143983 -0.393329 148 85 82
-1.37438 -1.5066 -13.0975 -0.888789 -0.179919 -0.421525 161 102 98
-1.21789 -1.49603 -13.2161 -0.864349 -0.254354 -0.433826 144 101 79
-1.22444 -1.7021 -13.2584 -0.842302 -0.396856 -0.364736 166 134 106
-1.22444 -1.7021 -13.2584 -0.842302 -0.396856 -0.364736 166 134 106
-1.22444 -1.7021 -13.2584 -0.842302 -0.396856 -0.364736 166 134 106
-1.21904 -1.75299 -13.2475 -0.78196 -0.473823 -0.405007 164 132 103
-1.19819 -1.77416 -13.2775 -0.907249 -0.295212 -0.299581 173 142 113
-1.18353 -1.82961 -13.2968 -0.931013 -0.249389 -0.266494 194 167 139
-1.20991 -1.87378 -13.3166 -0.987607 0.0269149 -0.15462 194 167 140
-1.21392 -1.92559 -13.3138 -0.997049 -0.0631835 0.0436027 201 176 147
-1.20888 -1.96565 -13.314 -0.971519 -0.117972 0.205507 213 190 158
-1.22051 -1.99639 -13.3379 -0.979991 0.0767284 0.18366 207 185 152
-1.21749 -2.05457 -13.343 -0.918172 0.125472 0.375788 204 180 148
-1.22067 -2.10097 -13.344 -0.983301 0.068606 0.168559 205 181 149
-1.21788 -2.14067 -13.3501 -0.98946 -0.127147 0.0693005 198 174 142
-1.20757 -2.15683 -13.3899 -0.837793 0.302958 0.454224 196 172 139
-1.22423 -2.21515 -13.3759 -0.980592 -0.0807031 0.17868 188 163 132
-1.24097 -2.27237 -13.3676 -0.979457 -0.16573 0.114883 177 151 120
-1.19861 -2.22169 -13.4144 -0.952595 -0.238605 0.188763 181 155 123
-1.17939 -2.26986 -13.4339 -0.847629 -0.503054 0.168705 170 143 111
-1.16684 -2.29738 -13.4463 -0.958894 -0.186365 0.213987 158 130 99
-1.1892 -2.28512 -13.4279 -0.862408 -0.447522 0.236594 166 139 108
-1.14462 -2.29315 -13.4429 -0.954588 -0.26474 0.136651 159 130 99
-1.16995 -2.32788 -13.4556 -0.97091 -0.229159 0.0694265 151 122 91
-1.11786 -2.32852 -13.4812 -0.6532 -0.755052 0.0567997 151 122 91
-1.08899 -2.3457 -13.4989 -0.753844 -0.59717 0.274059 147 118 87
-1.04543 -2.38251 -13.5312 -0.580241 -0.737737 -0.345058 138 107 77
-1.04204 -2.65836 -13.6102 -0.486574 -0.0920271 0.868779 111 101 74
-0.995538 -2.78467 -13.6749 -0.819712 0.202157 0.535916 184 161 133
-1.00593 -2.82733 -13.6755 -0.628355 -0.0561838 0.775895 208 187 161
-0.998762 -2.86076 -13.6794 -0.621909 -0.169796 0.764459 223 205 181
-0.99285 -2.92665 -13.7026 -0.586107 0.274259 0.762404 213 194 170
-0.994201 -2.96618 -13.7026 -0.947878 0.0338124 0.316835 178 150 122
-1.01605 -2.99643 -13.7163 -0.918229 -0.100027 0.383209 161 125 92
-0.930394 -3.01741 -13.7602 -0.876725 0.202935 0.436086 113 77 45
-0.848848 -2.98038 -13.8223 -0.530164 -0.784543 -0.321587 76 51 32
-1.27071 -1.61254 -13.2235 -0.711474 -0.550025 -0.437352 124 89 65
-1.25364 -1.62851 -13.2532 -0.727209 -0.612642 -0.309576 117 82 57
-1.23819 -1.64985 -13.2652 -0.925608 -0.248081 -0.285842 116 82 56
-1.21059 -1.66946 -13.3133 -0.672025 -0.666284 -0.323183 172 140 112
-1.18172 -1.70304 -13.3095 -0.529926 -0.712108 -0.460522 174 143 115
-1.18689 -1.73864 -13.3217 -0.851589 -0.385143 -0.355614 171 140 111
-1.17052 -1.75552 -13.3517 -0.820023 -0.429608 -0.378152 187 158 129
-1.16197 -1.77491 -13.3613 -0.676918 -0.590153 -0.439888 193 165 137
-1.20923 -1.89072 -13.3527 -0.98189 0.180378 -0.0579326 199 174 143
-1.2181 -1.94584 -13.349 -0.994446 -0.00440776 0.10516 210 187 155
-1.21891 -2.02473 -13.388 -0.977447 0.129858 0.166538 205 181 148
-1.23484 -2.08093 -13.3961 -0.987447 0.047032 0.150785 196 172 140
-1.22902 -2.07968 -13.3819 -0.978069 0.0853248 0.19 199 175 142
-1.22189 -2.10734 -13.413 -0.988545 -0.150782 0.00653276 196 172 140
-1.20935 -2.18755 -13.4137 -0.954252 -0.263506 0.141304 184 158 126
-1.21535 -2.2165 -13.4309 -0.971796 -0.223577 0.0750015 177 150 120
-1.20429 -2.27912 -13.4341 -0.93119 -0.359415 0.0608816 163 136 104
-1.17591 -2.21476 -13.4685 -0.919288 -0.378223 -0.108888 166 138 106
-1.13384 -2.29982 -13.4808 -0.832143 -0.532474 0.154948 155 127 95
-1.13222 -2.31877 -13.5108 -0.57683 -0.811424 -0.0941189 147 117 87
-1.09957 -2.33141 -13.5316 -0.574746 -0.359322 0.735224 144 114 84
-1.07702 -2.3537 -13.5343 -0.599624 0.06277 0.797816 141 111 81
-1.06693 -2.66678 -13.6316 -0.387286 -0.825281 -0.411 118 98 67
-0.977016 -2.72531 -13.6947 -0.961525 0.0395098 0.271862 162 135 106
-1.00774 -2.78431 -13.722 -0.915289 -0.051769 0.399457 192 169 141
-1.0207 -2.83911 -13.7051 -0.870881 0.0588603 0.487957 217 198 174
-1.00363 -2.85713 -13.7267 -0.867672 0.215523 0.44799 225 209 186
-1.01292 -2.95218 -13.7289 -0.899519 0.146887 0.411449 178 148 120
-0.965127 -2.97216 -13.7896 -0.0178529 -0.999654 -0.0193174 150 112 78
-0.965127 -2.97216 -13.7896 -0.0178529 -0.999654 -0.0193174 150 112 78
-0.965601 -2.97008 -13.791 -0.778605 -0.448816 -0.438564 151 112 77
-0.965127 -2.97216 -13.7896 -0.0178529 -0.999654 -0.0193174 150 112 78
-1.14163 -1.41295 -13.3313 -0.715214 -0.44029 -0.542783 120 79 54
-1.23859 -1.6352 -13.3192 -0.580675 -0.741966 -0.335115 127 88 60
-1.19347 -1.68397 -13.3415 -0.621352 -0.711431 -0.32831 174 144 115
-1.18144 -1.70241 -13.367 -0.755792 -0.585287 -0.293629 164 133 103
-1.13786 -1.75192 -13.3946 -0.72485 -0.542339 -0.424807 189 162 134
-1.13892 -1.75069 -13.3911 -0.62735 -0.624701 -0.464953 192 165 137
-1.16757 -1.81437 -13.3812 -0.798221 -0.445152 -0.405811 192 166 138
-1.21539 -1.91591 -13.3919 -0.86978 0.317885 0.377401 213 190 156
-1.22621 -1.97285 -13.3873 -0.877946 0.320589 0.355575 207 184 150
-1.2294 -2.02664 -13.3963 -0.99032 0.0634334 0.12346 203 180 147
-1.2379 -2.00482 -13.42 -0.999188 0.00716868 -0.039653 199 174 141
-1.23878 -2.06763 -13.4114 -0.998672 0.0436966 0.0272872 198 174 141
-1.22869 -2.1063 -13.4146 -0.986187 -0.161255 -0.037854 194 171 139
-1.21747 -2.10283 -13.4203 -0.971653 -0.227312 -0.0649617 195 172 140
-1.21861 -2.1236 -13.4534 -0.969755 -0.228235 -0.086507 184 159 128
-1.2307 -2.13948 -13.44 -0.972919 -0.195557 -0.123229 185 160 129
-1.23206 -2.14131 -13.4382 -0.961402 -0.230708 -0.149935 185 160 130
-1.23206 -2.14131 -13.4382 -0.961402 -0.230708 -0.149935 185 160 130
-1.216 -2.17166 -13.4366 -0.921241 -0.374398 0.105549 184 159 129
-1.1903 -2.21371 -13.4776 -0.945075 -0.326748 0.00835565 167 139 108
-1.16588 -2.2072 -13.5136 -0.970888 -0.223631 -0.0858263 164 135 104
-1.18991 -2.23332 -13.4957 -0.896689 -0.439346 -0.0540721 163 136 104
-1.18991 -2.23332 -13.4957 -0.896689 -0.439346 -0.0540721 163 136 104
-1.14693 -2.24004 -13.5176 -0.865563 -0.359222 -0.348943 157 126 93
-1.15345 -2.28477 -13.5216 -0.71406 -0.686868 -0.13539 151 122 91
-1.14987 -2.25063 -13.5095 -0.79929 -0.426367 0.423493 155 125 93
-1.1056 -2.30427 -13.5746 -0.993 -0.0990497 0.0643442 149 122 94
-1.10917 -2.35779 -13.5516 -0.61368 -0.416662 0.670663 155 128 100
-1.09474 -2.65476 -13.6542 -0.611624 -0.680858 -0.402925 119 99 69
-1.04672 -2.64972 -13.6945 -0.410781 -0.831757 -0.373415 122 91 61
-1.02824 -2.6851 -13.6987 -0.505732 -0.768124 -0.392709 122 90 60
-1.02824 -2.6851 -13.6987 -0.505732 -0.768124 -0.392709 122 90 60
-1.02824 -2.6851 -13.6987 -0.505732 -0.768124 -0.392709 122 90 60
-1.00176 -2.74409 -13.7297 -0.860799 0.235339 0.451265 173 147 118
-1.01241 -2.78725 -13.7296 -0.835585 0.273134 0.476651 195 173 145
-1.01209 -2.79271 -13.7598 -0.805075 0.366288 0.466569 203 180 155
-1.02909 -2.84735 -13.7452 -0.901258 0.0844544 0.424973 209 190 167
-1.0397 -2.89497 -13.7376 -0.903627 0.0728554 0.42208 205 184 160
-1.03251 -2.93346 -13.7525 -0.9546 -0.285492 0.0850449 174 144 116
-0.964381 -2.99968 -13.8366 -0.936351 -0.24414 -0.252274 99 70 46
-0.804792 -2.94043 -13.9309 -0.414745 -0.849958 0.324896 67 50 32
-1.2212 -1.64872 -13.3472 -0.576949 -0.745693 -0.333274 134 96 67
-1.20194 -1.66017 -13.3775 -0.607105 -0.725925 -0.323197 140 101 71
-1.18322 -1.67289 -13.4074 -0.687065 -0.663169 -0.296897 137 98 66
-1.15923 -1.71068 -13.4017 -0.712644 -0.63085 -0.306866 168 138 108
-1.15359 -1.74105 -13.4198 -0.719014 -0.693067 0.0517385 178 151 121
-1.16603 -1.76831 -13.4399 -0.835758 -0.548985 -0.0111624 190 165 135
-1.17254 -1.79263 -13.4195 -0.96681 -0.2527 -0.0377035 189 163 135
-1.1881 -1.8209 -13.4427 -0.954283 -0.267475 0.133423 200 176 145
-1.16124 -1.83746 -13.4594 -0.917882 -0.281305 -0.279927 204 182 149
-1.18296 -1.90283 -13.4589 -0.999063 0.03908 -0.0186205 199 175 143
-1.18909 -1.9915 -13.4902 -0.986616 0.105543 0.124294 191 166 133
-1.17908 -1.97438 -13.4898 -0.982649 0.110947 0.148631 193 168 136
-1.21468 -2.077 -13.4587 -0.983264 -0.113025 -0.142887 193 168 135
-1.19701 -2.1168 -13.512 -0.92523 -0.360341 0.118764 176 151 121
-1.18391 -2.15069 -13.5113 -0.967331 -0.208934 0.143589 174 148 117
-1.19815 -2.19439 -13.5126 -0.979638 -0.0697966 0.188248 168 142 111
-1.15697 -2.20809 -13.5301 -0.905723 -0.333588 -0.261507 164 135 104
-1.14881 -2.2925 -13.5686 -0.93753 -0.0405208 0.345535 159 135 106
-1.14152 -2.32405 -13.5793 -0.711744 -0.0722194 0.698716 159 139 112
-1.13892 -2.36344 -13.5779 -0.262864 -0.0213065 0.964598 150 133 107
-1.16662 -2.42384 -13.6019 -0.740531 -0.575825 0.346467 102 100 72
-1.14027 -2.63061 -13.6469 -0.910608 -0.300969 -0.283214 109 105 74
-1.04201 -2.63776 -13.741 -0.316358 -0.885997 -0.339007 113 81 51
-0.984849 -2.66281 -13.7697 -0.800552 0.346291 0.48908 116 85 58
-1.0081 -2.71114 -13.7714 -0.763698 0.37595 0.524812 139 110 83
-1.0056 -2.74002 -13.7879 -0.802982 0.316743 0.50487 172 146 118
-1.0267 -2.80917 -13.794 -0.94389 0.245176 0.221271 195 169 143
-0.982078 -2.87399 -13.8271 -0.983971 -0.0954081 -0.150661 170 140 110
-0.971309 -2.90731 -13.8284 -0.954262 -0.251095 0.162278 159 127 97
-0.952084 -2.93897 -13.8691 -0.898533 0.29922 0.3211 128 95 66
-1.22771 -1.54823 -13.3653 -0.635774 -0.645105 -0.42383 143 103 73
-1.23824 -1.5986 -13.3652 -0.73513 -0.608629 -0.298587 142 103 73
-1.22276 -1.6155 -13.3898 -0.778231 -0.561045 -0.282109 135 93 61
-1.22297 -1.61608 -13.3901 -0.771382 -0.568758 -0.285453 135 93 61
-1.21027 -1.6365 -13.4133 -0.623682 -0.710689 -0.325487 131 86 54
-1.17003 -1.69277 -13.433 -0.630069 -0.683797 0.368014 153 118 88
-1.17123 -1.71968 -13.4532 -0.869006 -0.494588 0.0145418 165 132 102
-1.16747 -1.74227 -13.4801 -0.750225 0.22363 0.622216 180 151 122
-1.1334 -1.84766 -13.5053 -0.560381 -0.689659 -0.458633 196 172 140
-1.14933 -1.89764 -13.5256 -0.999662 -0.0035204 -0.0257734 191 166 134
-1.16579 -2.00549 -13.518 -0.972088 0.0741068 0.222603 188 162 131
-1.16711 -2.00898 -13.5186 -0.978304 0.0398029 0.203315 185 159 128
-1.2025 -2.07287 -13.5223 -0.98495 -0.151008 -0.0840841 178 152 123
-1.20402 -2.09728 -13.5472 -0.978363 -0.11745 0.170324 170 146 117
-1.19605 -2.13784 -13.5402 -0.896737 0.0142124 0.442337 170 145 115
-1.20665 -2.19646 -13.5676 -0.942328 0.0801778 0.324945 156 133 103
-1.15975 -2.2236 -13.5978 -0.501784 -0.160786 0.849918 156 134 105
-1.16791 -2.31027 -13.5981 -0.924787 0.0302365 0.379281 143 129 101
-1.19588 -2.41151 -13.6235 -0.946698 0.052673 0.317788 92 90 64
-1.20351 -2.46035 -13.6176 -0.894923 0.20182 0.397972 108 107 78
-1.20134 -2.49177 -13.6317 -0.854099 -0.476781 -0.207836 106 105 75
-1.18772 -2.534 -13.625 -0.669407 -0.703941 -0.237406 91 88 60
-1.17439 -2.55113 -13.6567 -0.93386 -0.357553 0.00787807 85 81 53
-1.14801 -2.59403 -13.6984 -0.930386 -0.359761 -0.0703836 111 105 76
-1.02674 -2.68478 -13.8012 -0.935997 -0.0470439 0.348851 124 94 67
-1.02683 -2.7196 -13.8126 -0.929583 0.235977 0.28318 150 121 94
-1.0179 -2.83601 -13.808 -0.997565 0.0696964 0.00236507 185 159 131
-1.0204 -2.82765 -13.8128 -0.965066 0.200898 0.168187 184 157 129
-0.988128 -2.84111 -13.8444 -0.994031 -0.0877913 -0.0647719 177 147 118
-0.989555 -2.85193 -13.8616 -0.929694 -0.336229 -0.150398 169 138 108
-0.972452 -2.88531 -13.8651 -0.927405 -0.100639 0.360266 158 125 95
-0.950799 -2.91086 -13.8745 -0.975105 0.159127 0.154433 147 112 80
-1.25775 -1.2812 -13.3185 -0.85645 -0.176173 0.485239 189 158 136
-1.26313 -1.3423 -13.3349 -0.472312 0.0759608 0.878152 184 151 127
-1.28373 -1.35151 -13.3539 -0.777211 -0.508732 0.370318 197 167 142
-1.1803 -1.30915 -13.3739 -0.230569 -0.861243 -0.452878 168 130 102
-1.18554 -1.45924 -13.4472 -0.959027 0.112139 0.260178 164 127 95
-1.17649 -1.43887 -13.4355 -0.930084 -0.304494 -0.205492 161 123 91
-1.23257 -1.59538 -13.4206 -0.66672 -0.675674 -0.314561 145 104 71
-1.21649 -1.6128 -13.449 -0.700098 -0.644812 -0.306725 137 94 61
-1.18097 -1.67855 -13.4682 -0.579335 -0.771062 -0.264261 125 81 50
-1.15158 -1.79576 -13.5125 -0.91471 -0.404062 -0.00621313 191 165 134
-1.11377 -1.81306 -13.551 -0.975948 -0.125916 -0.177964 190 163 133
-1.10077 -1.82691 -13.5764 -0.942364 -0.0696923 -0.327251 184 158 128
-1.15411 -1.94191 -13.5485 -0.848514 0.32606 0.416783 187 161 129
-1.16764 -1.97443 -13.5637 -0.968606 0.110974 0.222457 181 156 127
-1.13859 -1.96862 -13.5649 -0.927016 0.142776 0.34678 181 155 125
-1.21662 -2.16703 -13.5562 -0.943554 0.00696832 0.331145 168 145 116
-1.21222 -2.12451 -13.5758 -0.917351 0.218493 0.332759 158 133 104
-1.21813 -2.22457 -13.6047 -0.65742 -0.333328 0.675789 121 111 82
-1.20698 -2.27762 -13.6043 -0.91295 0.0165945 0.407735 123 115 85
-1.19152 -2.30187 -13.6196 -0.889854 0.274021 0.36479 124 118 89
-1.2028 -2.36944 -13.6396 -0.748026 -0.640933 0.172228 74 70 46
-1.19528 -2.34629 -13.6169 -0.948787 0.0233554 0.315053 85 79 53
-1.18993 -2.45096 -13.6776 -0.996587 0.0715953 0.0410943 102 100 70
-1.1895 -2.51088 -13.661 -0.864329 -0.460322 -0.202582 88 86 56
-1.18038 -2.53316 -13.6879 -0.985213 -0.148383 -0.0856573 94 91 61
-1.15764 -2.55645 -13.7003 -0.952502 -0.302222 0.0374276 104 100 71
-1.15836 -2.58066 -13.7268 -0.803108 -0.483359 -0.348399 114 109 78
-1.10232 -2.60425 -13.7424 -0.399747 -0.914235 -0.0661651 116 94 67
-1.06484 -2.6117 -13.769 0.0436124 -0.999042 -0.00376378 110 79 52
-1.04484 -2.67203 -13.8267 -0.896548 -0.389405 0.211106 124 93 64
-1.03911 -2.72036 -13.8176 -0.913433 -0.1069 0.392699 156 128 101
-1.0409 -2.7616 -13.8189 -0.882048 0.16168 0.44255 174 147 119
-1.02555 -2.7859 -13.8391 -0.850651 0.00547957 0.525703 178 150 122
-1.03081 -2.81957 -13.8703 -0.936745 -0.296736 -0.185626 164 132 103
-0.992453 -2.82966 -13.8988 -0.954505 -0.289231 -0.0725689 151 119 88
-0.972681 -2.85468 -13.9086 -0.950086 -0.291516 0.11115 124 91 63
-0.964442 -2.93592 -13.9127 -0.909357 0.300176 0.288035 79 58 37
-0.978322 -2.93577 -13.9323 -0.865843 0.346063 0.361326 76 56 37
-0.978322 -2.93577 -13.9323 -0.865843 0.346063 0.361326 76 56 37
-1.24361 -1.24134 -13.3651 -0.916915 -0.265939 0.297563 205 178 156
-1.28718 -1.29936 -13.3771 -0.857348 0.0177493 0.514431 207 181 159
-1.29541 -1.31526 -13.358 -0.836399 -0.392681 0.382411 205 179 157
-1.1682 -1.44929 -13.4608 -0.918519 0.179711 0.352175 162 124 93
-1.16008 -1.50863 -13.4881 -0.916024 0.212381 0.340287 145 104 70
-1.16603 -1.54649 -13.4982 -0.865323 0.247155 0.436039 135 89 55
-1.17142 -1.68802 -13.5327 -0.991635 -0.0797512 0.101489 137 100 71
-1.16247 -1.70822 -13.5579 -0.827747 0.244104 0.505222 147 115 88
-1.13823 -1.72932 -13.5577 -0.351246 -0.830793 -0.431752 142 108 80
-1.13691 -1.74989 -13.5689 -0.796338 -0.469 -0.381949 154 122 94
-1.13691 -1.74989 -13.5689 -0.796338 -0.469 -0.381949 154 122 94
-1.13691 -1.74989 -13.5689 -0.796338 -0.469 -0.381949 154 122 94
-1.06938 -1.74677 -13.6246 -0.984033 0.162857 -0.0718135 165 134 105
-1.08218 -1.85054 -13.6211 -0.939606 -0.180972 -0.290499 181 154 124
-1.07142 -1.79982 -13.6247 -0.999117 0.0418294 0.00382426 176 148 118
-1.15927 -1.94773 -13.6019 -0.971367 0.153167 0.181623 171 145 117
-1.15013 -1.97031 -13.6272 -0.88313 0.252063 0.395659 164 139 111
-1.20932 -2.12192 -13.612 -0.927121 0.175522 0.331117 161 139 111
-1.20287 -2.15581 -13.6196 -0.969094 0.163539 0.184693 145 129 100
-1.23812 -2.21497 -13.6295 -0.958986 0.0103831 0.283262 95 90 63
-1.23075 -2.25322 -13.6205 -0.825799 -0.221919 0.518467 110 106 76
-1.23979 -2.27971 -13.6158 -0.544632 0.122279 0.829713 115 111 81
-1.22353 -2.3438 -13.6403 -0.715424 -0.696198 -0.0589728 79 75 48
-1.20742 -2.3484 -13.6786 -0.927185 -0.344835 -0.146342 75 71 45
-1.21029 -2.35674 -13.671 -0.80405 -0.592225 -0.0526615 77 74 47
-1.19753 -2.38709 -13.6657 -0.949149 -0.308403 0.0632771 92 90 63
-1.19801 -2.41933 -13.6707 -0.92033 -0.0453901 0.3885 106 105 75
-1.17788 -2.49672 -13.73 -0.989996 -0.0820326 -0.114797 102 99 69
-1.17268 -2.54855 -13.7234 -0.906733 -0.315257 -0.280086 111 107 78
-1.15621 -2.55213 -13.7656 -0.683041 -0.539073 -0.492804 98 92 64
-1.07766 -2.57439 -13.8104 -0.144078 -0.958795 -0.244854 118 94 65
-1.09541 -2.59359 -13.7908 -0.331366 -0.917266 -0.220952 116 92 64
-1.08432 -2.58055 -13.8134 -0.121788 -0.990542 -0.0631965 115 91 64
-1.05382 -2.5923 -13.8305 -0.974353 -0.153307 0.164722 107 76 49
-1.03744 -2.619 -13.842 -0.953013 0.137869 0.269737 115 83 56
-1.047 -2.69369 -13.8518 -0.860985 -0.253442 0.440991 158 130 103
-1.01897 -2.7173 -13.8708 -0.535376 -0.230312 0.812606 197 170 143
-1.04536 -2.78039 -13.8685 -0.823331 0.0935474 0.5598 191 165 138
-1.01136 -2.82608 -13.9169 -0.800834 -0.578364 -0.155433 132 97 66
-0.977012 -2.87763 -13.9455 -0.822253 0.321905 0.469337 75 51 32
-1.28835 -1.34621 -13.4146 -0.902796 0.191033 0.385312 199 172 146
-1.29273 -1.32768 -13.3945 -0.906764 0.185626 0.378579 208 183 159
-1.26782 -1.3529 -13.4544 -0.782735 -0.60276 -0.15494 190 162 131
-1.25375 -1.36306 -13.428 -0.97779 -0.154382 0.141748 188 156 123
-1.22943 -1.36653 -13.4642 -0.10158 -0.977724 -0.183678 182 149 117
-1.22324 -1.39341 -13.4819 -0.189995 -0.960396 -0.203816 175 142 109
-1.12726 -1.29127 -13.515 0.100286 -0.978757 -0.178822 173 138 107
-1.12726 -1.29127 -13.515 0.100286 -0.978757 -0.178822 173 138 107
-1.18826 -1.465 -13.4983 -0.799466 -0.339977 0.495247 169 133 101
-1.16936 -1.49244 -13.5153 -0.965184 -0.244188 -0.0937624 153 115 82
-1.19699 -1.51636 -13.4996 -0.871451 -0.18144 0.455688 157 120 87
-1.19153 -1.54807 -13.5171 -0.871756 -0.430702 0.233533 147 107 74
-1.16513 -1.52292 -13.5244 -0.965978 -0.24168 -0.092067 145 103 69
-1.15027 -1.54713 -13.5433 -0.931008 -0.259515 -0.256665 136 92 57
-1.15487 -1.59292 -13.5497 -0.755149 -0.515065 -0.405535 131 85 52
-1.15925 -1.62215 -13.5491 -0.982253 0.0549052 0.179344 133 89 58
-1.14772 -1.67464 -13.59 -0.99101 0.0184745 0.132507 144 109 82
-1.04748 -1.63064 -13.6614 -0.826574 -0.385818 -0.40978 140 105 79
-1.04032 -1.69529 -13.652 -0.88359 -0.206943 -0.420052 143 111 83
-1.07392 -1.77645 -13.6684 -0.9845 0.156895 -0.0783755 144 112 83
-1.09456 -1.87428 -13.6634 -0.940686 0.300264 0.157961 159 132 102
-1.07875 -1.82732 -13.6542 -0.940875 0.298846 0.159513 161 132 103
-1.07875 -1.82732 -13.6542 -0.940875 0.298846 0.159513 161 132 103
-1.07875 -1.82732 -13.6542 -0.940875 0.298846 0.159513 161 132 103
-1.23581 -2.11635 -13.6333 -0.867599 0.230398 0.440668 171 152 125
-1.20945 -2.14021 -13.637 -0.915295 0.24162 0.322265 138 124 95
-1.2377 -2.14894 -13.6248 -0.934098 -0.228651 0.274188 161 147 119
-1.25369 -2.20487 -13.6465 -0.92068 0.236706 0.310354 79 73 49
-1.24988 -2.23753 -13.6639 -0.951092 0.197704 0.237356 112 107 80
-1.2302 -2.32351 -13.6775 -0.726293 -0.686848 -0.0271698 83 78 51
-1.19071 -2.36043 -13.7192 -0.944528 -0.234185 -0.230269 98 95 66
-1.18348 -2.40774 -13.732 -0.994741 -0.101674 0.0123358 95 92 63
-1.18107 -2.45337 -13.7297 -0.997082 -0.0664579 0.0375678 88 85 56
-1.16764 -2.48945 -13.7751 -0.976419 -0.205564 -0.0659538 100 97 67
-1.12799 -2.60192 -13.8089 -0.824358 -0.439163 0.357169 118 99 73
-1.07904 -2.59246 -13.8471 -0.830813 -0.438011 0.343361 114 84 57
-1.10904 -2.57549 -13.838 -0.3404 -0.927664 -0.153515 119 101 75
-1.05799 -2.6132 -13.8623 -0.951342 -0.202186 0.232529 122 90 62
-1.05036 -2.65115 -13.8633 -0.934711 -0.019381 0.354879 140 109 81
-1.06204 -2.67109 -13.8954 -0.956803 -0.0904959 0.276295 204 183 158
-1.05408 -2.7046 -13.9003 -0.969888 -0.0593378 0.236213 192 171 147
-1.04114 -2.73257 -13.9123 -0.870218 -0.263371 0.416361 199 176 151
-1.05199 -2.76656 -13.909 -0.807412 0.16865 0.56537 185 159 132
-1.03708 -2.79771 -13.9137 -0.955418 -0.289454 0.0582498 166 134 107
-0.987488 -2.83011 -13.959 -0.810257 -0.504444 -0.29836 110 76 47
-1.2576 -1.20809 -13.4519 -0.982359 -0.0143203 0.186456 207 184 160
-1.29556 -1.32575 -13.4501 -0.897526 -0.417825 0.140959 203 178 151
-1.27785 -1.27396 -13.447 -0.778516 -0.594051 -0.202524 206 182 157
-1.30039 -1.35933 -13.4689 -0.892348 -0.440087 -0.100191 198 173 144
-1.25731 -1.3734 -13.4779 -0.614317 -0.778298 -0.12987 184 155 124
-1.21586 -1.36664 -13.499 -0.787487 -0.608681 0.0968037 178 145 113
-1.21586 -1.36664 -13.499 -0.787487 -0.608681 0.0968037 178 145 113
-1.21586 -1.36664 -13.499 -0.787487 -0.608681 0.0968037 178 145 113
-1.24164 -1.4307 -13.5225 -0.481948 -0.868581 0.115292 180 149 117
-1.20322 -1.51516 -13.5745 -0.253146 -0.938689 -0.23405 159 122 90
-1.17176 -1.48432 -13.562 -0.191563 -0.956603 -0.219578 159 121 90
-1.17671 -1.49712 -13.5622 -0.522959 -0.808354 -0.270329 157 119 87
-1.13386 -1.4929 -13.5849 -0.885331 -0.416105 -0.207477 140 97 65
-1.03163 -1.63882 -13.6987 -0.9827 -0.163799 0.0864344 161 128 101
-1.03525 -1.65669 -13.7135 -0.870043 0.0718692 0.487708 176 145 117
-1.14411 -1.87428 -13.6722 -0.840556 0.0613122 0.538244 172 145 118
-1.14379 -1.87392 -13.6724 -0.840654 0.0600946 0.538228 172 145 118
-1.14399 -1.87413 -13.6723 -0.840832 0.0586344 0.53811 172 145 118
-1.15083 -1.88291 -13.6646 -0.841762 -0.0439969 0.538053 171 143 116
-1.13605 -1.93195 -13.694 -0.999904 0.00338396 -0.0134753 167 143 117
-1.15948 -1.98733 -13.7116 -0.999943 0.00579831 -0.00898503 162 140 112
-1.18308 -2.07664 -13.7138 -0.975124 0.146831 0.166053 119 107 79
-1.18308 -2.07664 -13.7138 -0.975124 0.146831 0.166053 119 107 79
-1.22364 -2.28735 -13.7298 -0.918802 -0.364769 -0.150823 106 100 73
-1.20063 -2.31622 -13.7243 -0.864029 -0.387775 -0.321069 85 80 52
-1.21887 -2.47161 -13.7655 -0.80217 0.140186 0.580406 113 111 84
-1.1627 -2.46126 -13.8173 -0.90746 -0.277917 -0.315084 88 84 56
-1.15119 -2.51027 -13.814 -0.922203 -0.270624 -0.276232 79 75 49
-1.138 -2.58142 -13.8503 -0.693851 -0.652376 0.304921 116 101 75
-1.10553 -2.59163 -13.8667 -0.780973 -0.530482 0.32965 112 86 58
-1.07865 -2.60622 -13.8832 -0.799496 -0.320753 0.507862 123 93 65
-1.0622 -2.63085 -13.8961 -0.954012 -0.129092 0.270547 168 142 115
-1.05453 -2.74649 -13.9488 -0.611863 -0.785121 0.0959603 175 150 124
-1.04645 -2.78279 -13.9434 -0.891288 -0.433124 0.134201 165 135 106
-1.00025 -2.78791 -13.9699 -0.936381 -0.294339 -0.191191 129 93 62
-0.97052 -2.79458 -14.0197 -0.377712 -0.853567 -0.358828 123 85 53
-0.976518 -2.83014 -14.0225 -0.569983 -0.690037 -0.446058 99 68 44
-1.30082 -1.15433 -13.4709 -0.74838 0.15513 0.644874 172 139 96
-1.27259 -1.2162 -13.4932 -0.999763 -0.00740531 0.0204757 202 178 151
-1.30195 -1.28099 -13.5017 -0.987252 -0.142294 0.0713175 199 174 146
-1.2891 -1.25749 -13.4805 -0.995877 -0.0905526 0.00535639 202 178 153
-1.28665 -1.32376 -13.4943 -0.8523 -0.512507 -0.104506 202 177 149
-1.27893 -1.36704 -13.5059 -0.981889 -0.144091 0.123011 186 159 130
-1.2773 -1.34197 -13.527 -0.880378 -0.473094 -0.0334255 191 166 137
-1.24289 -1.37258 -13.5249 -0.622267 -0.518047 0.586865 187 157 126
-1.25549 -1.40861 -13.5444 -0.881588 -0.449045 0.145467 186 156 126
-1.21962 -1.43004 -13.5705 -0.932923 -0.329931 0.14422 178 145 114
-1.23907 -1.46742 -13.5637 -0.438566 -0.898515 -0.0181796 178 146 116
-1.16338 -1.50569 -13.638 -0.267463 -0.871264 -0.411537 152 111 78
-1.15956 -1.57596 -13.6445 -0.905195 -0.375293 0.19944 172 139 110
-1.10922 -1.53758 -13.6631 -0.971712 0.107909 0.210075 154 113 82
-1.10973 -1.53831 -13.6624 -0.969415 0.108878 0.219954 154 113 81
-1.10973 -1.53831 -13.6624 -0.969415 0.108878 0.219954 154 113 81
-1.124 -1.58009 -13.6733 -0.984054 -0.0432559 0.172531 171 139 111
-1.12762 -1.61341 -13.6877 -0.978899 -0.159383 0.127881 189 163 136
-1.08224 -1.60537 -13.7118 -0.985463 0.0707904 0.154439 192 165 137
-1.08224 -1.60537 -13.7118 -0.985463 0.0707904 0.154439 192 165 137
-1.08224 -1.60537 -13.7118 -0.985463 0.0707904 0.154439 192 165 137
-1.10884 -1.7161 -13.7229 -0.824443 0.239475 0.512783 175 147 120
-1.11022 -1.71785 -13.7214 -0.80737 0.29952 0.508371 174 146 118
-1.11022 -1.71785 -13.7214 -0.80737 0.29952 0.508371 174 146 118
-1.11022 -1.71785 -13.7214 -0.80737 0.29952 0.508371 174 146 118
-1.11022 -1.71785 -13.7214 -0.80737 0.29952 0.508371 174 146 118
-1.06143 -1.75498 -13.7305 -0.926733 0.240027 0.289054 169 138 110
-1.06435 -1.75767 -13.7284 -0.911469 0.28891 0.292841 167 137 109
-1.0607 -1.7542 -13.7312 -0.930645 0.229883 0.284701 169 138 110
-1.06143 -1.75498 -13.7305 -0.926733 0.240027 0.289054 169 138 110
-1.06435 -1.75767 -13.7284 -0.911469 0.28891 0.292841 167 137 109
-1.0607 -1.7542 -13.7312 -0.930645 0.229883 0.284701 169 138 110
-1.06143 -1.75498 -13.7305 -0.926733 0.240027 0.289054 169 138 110
-1.13266 -1.93874 -13.7442 -0.862465 0.279904 0.421674 166 144 117
-1.15346 -1.9943 -13.7423 -0.990846 0.0608171 0.120524 159 142 115
-1.17315 -2.02192 -13.7161 -0.998471 -0.0546835 -0.00807264 166 148 120
-1.17044 -2.0445 -13.7586 -0.948627 -0.227006 -0.220397 93 84 59
-1.22956 -2.21099 -13.72 -0.982336 -0.125244 -0.139036 106 100 74
-1.23408 -2.24277 -13.7354 -0.826452 -0.561139 0.0458251 115 108 82
-1.23726 -2.27952 -13.7527 -0.950483 -0.305184 0.0586908 114 107 81
-1.21861 -2.31394 -13.7565 -0.996265 -0.0774799 0.0381208 113 108 80
-1.23981 -2.31395 -13.7741 -0.992085 -0.117316 -0.0447806 118 112 85
-1.24137 -2.39988 -13.7554 -0.628344 -0.0266734 0.777478 124 121 92
-1.23825 -2.43642 -13.7709 -0.469855 -0.0551187 0.881021 123 121 93
-1.26294 -2.49377 -13.7799 -0.299697 -0.385012 0.872896 148 139 110
-1.17769 -2.44998 -13.8426 -0.611202 -0.634689 -0.472865 100 98 70
-1.15446 -2.48925 -13.8483 -0.901259 -0.313763 -0.298807 98 95 70
-1.14789 -2.53993 -13.8538 -0.94141 -0.332153 -0.0584898 106 103 77
-1.14319 -2.56156 -13.8842 -0.894885 -0.438284 -0.0841922 109 93 67
-1.116 -2.57636 -13.9002 -0.868877 -0.375728 0.322307 111 83 57
-1.08947 -2.5859 -13.9185 -0.900692 -0.405434 0.156132 119 90 63
-1.05604 -2.64895 -13.9472 -0.877134 0.171993 0.44839 233 219 198
-1.07504 -2.68069 -13.9478 -0.82464 0.340525 0.451676 234 220 198
-1.06658 -2.71225 -13.9613 -0.57612 -0.786529 0.222393 197 176 153
-1.04524 -2.72051 -13.9847 -0.448563 -0.868522 0.210857 177 153 128
-1.04613 -2.76188 -13.9849 -0.365241 -0.8164 0.447313 157 126 97
-1.00809 -2.77099 -14.0007 -0.671118 -0.574501 -0.468561 134 99 67
-0.967042 -2.76565 -14.0424 -0.0754434 -0.913017 0.400884 129 90 57
-0.897627 -2.77699 -14.1057 -0.707224 -0.666409 0.23608 94 66 44
-1.29324 -1.15408 -13.5194 -0.774259 -0.000732452 0.632869 176 142 92
-1.28361 -1.2599 -13.5139 -0.996638 0.0331587 0.0749158 200 175 149
-1.28775 -1.29657 -13.5354 -0.918382 -0.39455 -0.030088 198 173 145
-1.26819 -1.3584 -13.5629 -0.890006 -0.455742 0.0137286 193 167 138
-1.25556 -1.3826 -13.5849 -0.900526 -0.431488 -0.0535887 186 158 130
-1.2577 -1.43606 -13.5669 -0.778449 -0.623541 0.0722126 185 155 124
-1.23982 -1.44256 -13.6038 -0.754834 -0.647849 0.102549 181 151 121
-1.22918 -1.47758 -13.6113 -0.454269 -0.877828 -0.151848 174 140 110
-1.20138 -1.50017 -13.6226 -0.321806 -0.914029 -0.246965 162 126 94
-1.18018 -1.49785 -13.6671 -0.70116 -0.662303 0.264064 165 133 102
-1.16567 -1.53441 -13.6577 -0.660331 -0.675051 0.329043 169 135 105
-1.17779 -1.57051 -13.6724 -0.778641 -0.543637 0.313333 198 172 145
-1.1318 -1.53845 -13.6829 -0.957167 -0.287347 0.0355325 169 136 107
-1.14896 -1.58562 -13.6849 -0.842224 -0.527974 0.109099 192 166 139
-1.14768 -1.61055 -13.7087 -0.924048 -0.381535 -0.0237954 205 182 156
-1.15084 -1.61452 -13.7078 -0.944997 -0.291057 0.149217 208 186 160
-1.10474 -1.60792 -13.7444 -0.941813 0.187267 0.279142 205 182 154
-1.1008 -1.61943 -13.7542 -0.985662 -0.165027 0.0351605 198 174 148
-1.1255 -1.63852 -13.7178 -0.964528 -0.258564 0.0532029 200 177 149
-1.08528 -1.64039 -13.7507 -0.91935 -0.0582406 0.389105 188 163 136
-1.08528 -1.64039 -13.7507 -0.91935 -0.0582406 0.389105 188 163 136
-1.08528 -1.64039 -13.7507 -0.91935 -0.0582406 0.389105 188 163 136
-1.06734 -1.71572 -13.7651 -0.801545 0.314631 0.508461 174 146 119
-1.07774 -1.77462 -13.7809 -0.872337 0.325357 0.364928 188 164 137
-1.05701 -1.75032 -13.7829 -0.910619 0.316829 0.265317 186 162 135
-1.05649 -1.7498 -13.7833 -0.911848 0.316181 0.261845 186 162 135
-1.0578 -1.75111 -13.7823 -0.909563 0.317044 0.268661 186 162 135
-1.05701 -1.75032 -13.7829 -0.910619 0.316829 0.265317 186 162 135
-1.05649 -1.7498 -13.7833 -0.911848 0.316181 0.261845 186 162 135
-1.0578 -1.75111 -13.7823 -0.909563 0.317044 0.268661 186 162 135
-1.05701 -1.75032 -13.7829 -0.910619 0.316829 0.265317 186 162 135
-1.14434 -1.85342 -13.7508 -0.830609 0.286724 0.477366 183 160 134
-1.16743 -1.91316 -13.7458 -0.809376 0.30226 0.503537 180 158 132
-1.1442 -1.85323 -13.751 -0.830483 0.287703 0.476996 183 160 134
-1.1442 -1.85323 -13.751 -0.830483 0.287703 0.476996 183 160 134
-1.14685 -1.99237 -13.8034 -0.825011 0.195976 0.530047 89 78 57
-1.1619 -2.01909 -13.7856 -0.932189 -0.328962 -0.151021 77 67 46
-1.24489 -2.22863 -13.7662 -0.846808 0.258563 0.464825 110 103 78
-1.23355 -2.21719 -13.7815 -0.848427 0.209257 0.486193 114 107 82
-1.21425 -2.33115 -13.7996 -0.996527 -0.0815432 -0.0168623 114 108 80
-1.26691 -2.41931 -13.793 -0.752105 -0.0438374 0.657584 150 142 112
-1.16787 -2.42017 -13.8886 -0.988578 0.0820221 -0.126439 111 110 81
-1.16787 -2.42017 -13.8886 -0.988578 0.0820221 -0.126439 111 110 81
-1.15975 -2.47182 -13.8826 -0.967885 -0.198613 -0.154118 106 104 77
-1.14007 -2.45175 -13.9138 -0.985618 0.0786555 -0.149568 100 99 71
-1.14007 -2.45175 -13.9138 -0.985618 0.0786555 -0.149568 100 99 71
-1.13656 -2.50636 -13.8956 -0.976448 -0.128881 -0.173026 100 97 70
-1.08738 -2.5195 -13.9602 -0.779419 0.361176 0.511916 110 84 57
-1.09075 -2.56033 -13.9601 -0.829707 0.0667713 0.554191 117 88 60
-1.08183 -2.59829 -13.9538 -0.87743 -0.159748 0.452324 164 139 112
-1.09373 -2.61996 -13.9802 -0.900356 0.134327 0.413904 188 166 140
-1.08086 -2.71745 -14.0018 -0.536221 -0.450527 0.713787 173 147 121
-1.03064 -2.72516 -14.0266 -0.650084 -0.649476 -0.394425 155 124 95
-0.994964 -2.72996 -14.0609 -0.915805 -0.0701952 0.395441 142 107 76
-0.979445 -2.75416 -14.0754 -0.685242 -0.685122 0.247084 135 99 65
-0.932401 -2.76604 -14.0861 -0.822124 -0.493975 0.283022 112 78 50
-0.932401 -2.76604 -14.0861 -0.822124 -0.493975 0.283022 112 78 50
-1.30509 -1.20466 -13.5449 -0.994548 0.0421122 0.0954014 177 141 80
-1.31169 -1.24086 -13.5691 -0.991367 -0.12834 0.0268343 181 145 80
-1.29746 -1.24949 -13.5429 -0.970585 -0.219831 0.098177 192 162 120
-1.32615 -1.24349 -13.5588 -0.174962 -0.906157 -0.385056 180 142 74
-1.29474 -1.27618 -13.572 -0.933259 -0.359184 -0.0038389 193 165 127
-1.27636 -1.30956 -13.5745 -0.908767 -0.417176 0.0103175 197 173 145
-1.27863 -1.31341 -13.6095 -0.944729 -0.318859 0.0762664 196 171 142
-1.2813 -1.3736 -13.5927 -0.611902 -0.604307 0.510283 197 172 144
-1.26779 -1.40606 -13.6297 -0.555913 -0.800016 -0.225686 188 162 134
-1.2386 -1.43412 -13.6462 -0.673088 -0.736649 -0.065576 181 151 122
-1.20363 -1.47302 -13.6671 -0.701131 -0.662352 0.264016 181 148 118
-1.21029 -1.48167 -13.6614 -0.238668 -0.944194 -0.227014 172 139 109
-1.20265 -1.49802 -13.6908 -0.656798 -0.696046 0.290063 175 145 116
-1.12911 -1.4855 -13.7287 -0.964675 -0.117572 0.235754 189 158 130
-1.16428 -1.57607 -13.7123 -0.892351 -0.442521 0.0887996 212 190 164
-1.14298 -1.62595 -13.749 -0.916224 0.227302 0.32995 207 185 158
-1.13482 -1.63563 -13.7605 -0.525347 -0.408581 0.746373 202 180 153
-1.16315 -1.69946 -13.7424 -0.915196 0.0826617 0.394441 196 173 146
-1.1285 -1.70047 -13.7793 -0.954933 0.148072 0.257251 180 155 127
-1.12117 -1.72121 -13.8033 -0.833427 0.245745 0.494985 169 143 116
-1.12159 -1.77417 -13.7885 -0.953114 0.140216 0.268168 186 162 135
-1.14652 -1.86768 -13.7932 -0.99569 0.0188858 0.0908053 182 160 133
-1.14801 -1.91691 -13.7908 -0.827227 0.244591 0.505836 177 156 130
-1.12964 -1.93705 -13.8077 -0.842005 0.27895 0.461751 142 126 102
-1.12964 -1.93705 -13.8077 -0.842005 0.27895 0.461751 142 126 102
-1.12964 -1.93705 -13.8077 -0.842005 0.27895 0.461751 142 126 102
-1.20313 -1.99722 -13.7957 -0.800728 0.275275 0.532032 163 148 124
-1.17902 -2.01031 -13.8207 -0.816315 -0.13794 0.560894 108 96 73
-1.16057 -2.03133 -13.8377 -0.720517 0.311772 0.619398 74 66 45
-1.1763 -2.11734 -13.8245 -0.847116 0.288947 0.445987 97 90 68
-1.26822 -2.37753 -13.8156 -0.869455 0.0386254 0.492499 137 131 102
-1.19331 -2.42472 -13.875 -0.396114 -0.820566 -0.412025 115 113 83
-1.21021 -2.43447 -13.898 -0.988079 0.153627 -0.00996907 111 111 80
-1.21021 -2.43447 -13.898 -0.988079 0.153627 -0.00996907 111 111 80
-1.06923 -2.41415 -13.9704 -0.981023 0.130245 -0.143632 99 96 67
-1.11837 -2.47892 -13.945 -0.935122 0.329307 0.130782 95 86 58
-1.12199 -2.48197 -13.9422 -0.953802 0.289371 0.0807844 95 86 58
-1.12199 -2.48197 -13.9422 -0.953802 0.289371 0.0807844 95 86 58
-1.12199 -2.48197 -13.9422 -0.953802 0.289371 0.0807844 95 86 58
-1.12199 -2.48197 -13.9422 -0.953802 0.289371 0.0807844 95 86 58
-1.12199 -2.48197 -13.9422 -0.953802 0.289371 0.0807844 95 86 58
-1.09932 -2.5647 -14.0042 -0.967072 0.185929 0.173788 126 98 70
-1.09235 -2.61361 -14.0132 -0.846915 0.202782 0.491544 178 156 130
-1.11679 -2.67389 -13.9972 -0.952098 0.211683 0.22068 186 165 141
-1.06303 -2.67474 -14.0545 -0.621546 -0.633932 -0.460229 168 141 113
-1.02996 -2.69101 -14.0653 -0.936473 -0.308526 0.166823 165 134 107
-1.00217 -2.74519 -14.0961 -0.875741 -0.476954 -0.0747877 138 103 72
-1.31746 -1.16346 -13.5579 -0.685375 0.0616797 0.725573 182 145 85
-1.33532 -1.24047 -13.5871 -0.140298 -0.938468 -0.315587 183 144 72
-1.30148 -1.25598 -13.6086 -0.945667 -0.303002 -0.117915 181 145 85
-1.29105 -1.35612 -13.6271 -0.834563 -0.550839 -0.00898027 197 172 145
-1.24635 -1.41045 -13.6674 -0.576267 -0.810847 -0.102187 184 157 128
-1.2601 -1.46187 -13.6678 -0.585979 -0.806788 -0.0756428 185 157 128
-1.27694 -1.49018 -13.6674 -0.258803 -0.945328 -0.198433 179 151 122
-1.23055 -1.47896 -13.6873 -0.493852 -0.863059 -0.106014 177 147 117
-1.16897 -1.49413 -13.7386 -0.940984 0.0187787 0.337931 197 169 142
-1.14203 -1.50019 -13.7741 -0.914061 0.0842884 0.396722 215 193 167
-1.15688 -1.56257 -13.7623 -0.958063 0.162379 0.23611 221 200 175
-1.19824 -1.61415 -13.7687 -0.732813 -0.29302 0.614104 218 198 172
-1.18924 -1.6508 -13.7695 -0.885087 -0.201825 0.419389 212 191 165
-1.17736 -1.68367 -13.7741 -0.941305 -0.21643 0.259044 202 180 153
-1.15461 -1.70284 -13.7933 -0.96495 -0.170984 0.199088 185 161 134
-1.16193 -1.73941 -13.8008 -0.881988 -0.264307 0.390177 176 151 124
-1.13584 -1.72768 -13.8093 -0.908391 -0.0858659 0.40921 174 149 122
-1.13001 -1.74571 -13.8303 -0.979982 -0.125759 0.154339 169 144 118
-1.13293 -1.80106 -13.8184 -0.954278 -0.106029 0.279484 186 162 136
-1.15972 -1.9258 -13.8306 -0.846159 0.23544 0.478103 173 156 131
-1.17653 -2.01414 -13.8491 -0.779536 0.0359239 0.625327 86 76 54
-1.17038 -2.00246 -13.8771 -0.726021 -0.216902 0.65257 97 86 65
-1.17038 -2.00246 -13.8771 -0.726021 -0.216902 0.65257 97 86 65
-1.15711 -2.09296 -13.8925 -0.748616 -0.291144 0.595659 107 99 76
-1.14104 -2.19042 -13.9133 -0.783922 0.336095 0.522023 127 120 92
-1.20626 -2.31501 -13.8815 -0.698182 0.295402 0.652135 121 117 89
-1.22402 -2.32304 -13.8822 -0.739654 0.151669 0.655674 124 121 92
-1.26173 -2.37496 -13.8584 -0.526406 -0.131861 0.839946 150 144 114
-1.21199 -2.34638 -13.8982 -0.740804 0.33068 0.584688 127 125 93
-1.06882 -2.44626 -14.0382 -0.946821 0.189776 0.259836 119 92 63
-1.06882 -2.44626 -14.0382 -0.946821 0.189776 0.259836 119 92 63
-1.06882 -2.44626 -14.0382 -0.946821 0.189776 0.259836 119 92 63
-1.09908 -2.52738 -14.0007 -0.994714 -0.0457543 0.0919225 116 88 60
-1.11294 -2.56116 -14.0343 -0.948138 0.222008 0.227477 142 114 85
-1.09465 -2.60856 -14.0297 -0.954025 -0.200753 -0.222562 183 161 134
-1.08544 -2.71175 -14.0628 -0.977413 -0.155496 0.143128 164 132 103
-1.01108 -2.70096 -14.1067 -0.861777 -0.506723 0.0239094 153 118 88
-0.991018 -2.71111 -14.1515 -0.969784 -0.166742 -0.178091 105 73 47
-1.30413 -1.23298 -13.6477 -0.489388 -0.831641 -0.262435 179 141 76
-1.28652 -1.2933 -13.646 -0.9996 -0.0282423 -0.00147934 189 159 114
-1.28261 -1.31164 -13.6862 -0.993432 -0.113812 -0.0118455 191 162 119
-1.28261 -1.31164 -13.6862 -0.993432 -0.113812 -0.0118455 191 162 119
-1.28261 -1.31164 -13.6862 -0.993432 -0.113812 -0.0118455 191 162 119
-1.27866 -1.38428 -13.6706 -0.615119 -0.745436 -0.256814 191 166 139
-1.26497 -1.40259 -13.6967 -0.654901 -0.729216 -0.198366 186 160 132
-1.21674 -1.46306 -13.747 -0.694409 -0.0667608 0.716477 178 149 120
-1.21374 -1.49829 -13.7595 -0.777533 0.0245852 0.628361 198 172 144
-1.19482 -1.52626 -13.769 -0.947333 -0.00711334 0.320172 212 189 163
-1.18496 -1.55521 -13.7854 -0.949753 0.108527 0.293581 212 191 165
-1.21399 -1.63947 -13.7924 -0.785659 -0.183888 0.590698 209 188 161
-1.174 -1.69427 -13.8179 -0.755006 -0.655651 0.0093787 191 167 140
-1.16278 -1.70948 -13.849 -0.878027 -0.478581 -0.00527725 177 152 125
-1.14459 -1.72729 -13.8643 -0.808734 -0.348623 0.47372 173 148 121
-1.11754 -1.74753 -13.8775 -0.999846 0.0162018 -0.00672802 182 157 130
-1.19319 -1.92402 -13.865 -0.83281 0.258153 0.489678 189 170 144
-1.19274 -1.92346 -13.8655 -0.832177 0.259965 0.489796 189 170 144
-1.19274 -1.92346 -13.8655 -0.832177 0.259965 0.489796 189 170 144
-1.18045 -2.0031 -13.9106 -0.772868 0.0870383 0.628569 138 127 104
-1.16953 -2.03859 -13.9084 -0.575871 0.0324636 0.816895 91 84 61
-1.15955 -2.05005 -13.8982 -0.754079 -0.158399 0.637396 90 83 59
-1.16061 -2.08217 -13.9169 -0.627611 -0.373595 0.68303 102 95 72
-1.18101 -2.10563 -13.896 -0.811972 0.276004 0.514319 102 95 72
-1.15595 -2.07447 -13.9251 -0.819263 0.268089 0.506889 101 94 71
-1.15595 -2.07447 -13.9251 -0.819263 0.268089 0.506889 101 94 71
-1.1384 -2.11417 -13.9524 -0.826576 0.309212 0.470278 125 117 92
-1.1391 -2.08718 -13.9586 -0.911824 0.232202 0.338612 122 114 90
-1.18062 -2.13635 -13.9075 -0.888115 -0.150747 0.434197 121 114 89
-1.18062 -2.13635 -13.9075 -0.888115 -0.150747 0.434197 120 113 89
-1.18062 -2.13635 -13.9075 -0.888115 -0.150747 0.434197 120 113 89
-1.13515 -2.15197 -13.9694 -0.977622 0.143012 0.154281 126 121 93
-1.2114 -2.26418 -13.9302 -0.638318 0.272858 0.719791 130 126 97
-1.21729 -2.29565 -13.9469 -0.747287 0.175741 0.640841 122 119 89
-1.22975 -2.36485 -13.9549 -0.74812 0.151876 0.64595 112 111 80
-1.02418 -2.31956 -14.0844 -0.91884 0.257427 0.299105 104 94 66
-1.04063 -2.38545 -14.0573 -0.835467 0.372169 0.404333 110 91 62
-1.04063 -2.38545 -14.0573 -0.835467 0.372169 0.404333 110 91 62
-1.04127 -2.38599 -14.0568 -0.854739 0.307214 0.418379 110 91 62
-1.11034 -2.51348 -14.0305 -0.967704 0.120768 0.221279 126 97 69
-1.13115 -2.58271 -14.0677 -0.939859 0.235109 0.247768 217 202 177
-1.13978 -2.62907 -14.0726 -0.882635 0.221301 0.414706 217 204 182
-1.10323 -2.65994 -14.0738 -0.988696 -0.0773205 -0.128463 188 164 139
-1.0726 -2.70947 -14.1261 -0.0980096 -0.927692 0.360252 142 107 76
-1.32935 -1.25497 -13.6626 -0.464965 -0.764576 -0.446354 179 141 77
-1.29396 -1.27013 -13.68 -0.969007 -0.184016 -0.164815 184 149 88
-1.31986 -1.28272 -13.6934 -0.291187 -0.856432 -0.426304 180 144 85
-1.31986 -1.28272 -13.6934 -0.291187 -0.856432 -0.426304 180 144 85
-1.31986 -1.28272 -13.6934 -0.291187 -0.856432 -0.426304 180 144 85
-1.2965 -1.30289 -13.7166 -0.96752 -0.18967 -0.167126 190 156 95
-1.28005 -1.35105 -13.7189 -0.981864 -0.176048 -0.070353 192 166 131
-1.2742 -1.38131 -13.7339 -0.806173 -0.571175 -0.154413 191 166 138
-1.27998 -1.4577 -13.7382 -0.921263 0.151228 0.358337 180 153 124
-1.24999 -1.4701 -13.762 -0.916607 0.0103 0.399656 180 153 124
-1.257 -1.51189 -13.766 -0.556916 -0.182646 0.810238 173 146 116
-1.27316 -1.52054 -13.7751 -0.761698 -0.143151 0.631921 167 140 111
-1.22321 -1.52691 -13.7815 -0.477364 -0.286181 0.830797 200 176 148
-1.24282 -1.57034 -13.7892 -0.937078 -0.186989 0.294823 196 172 145
-1.22401 -1.59375 -13.8069 -0.724195 -0.300426 0.620714 214 192 166
-1.23925 -1.62427 -13.8248 -0.655121 -0.257598 0.710253 201 178 151
-1.22877 -1.66576 -13.8143 -0.633199 -0.0468277 0.772571 197 174 146
-1.16018 -1.70975 -13.8985 -0.978308 -0.100914 0.180914 173 149 120
-1.14461 -1.74062 -13.9005 -0.975131 -0.219639 0.0296456 177 151 123
-1.13651 -1.7849 -13.8985 -0.950334 -0.143023 0.276422 192 169 142
-1.13232 -1.81334 -13.9175 -0.933313 0.155531 0.32363 187 165 137
-1.12471 -1.80644 -13.9223 -0.92642 0.219331 0.306007 192 169 140
-1.12471 -1.80644 -13.9223 -0.92642 0.219331 0.306007 192 169 140
-1.12471 -1.80644 -13.9223 -0.92642 0.219331 0.306007 192 169 140
-1.17867 -1.96333 -13.9061 -0.871928 0.218301 0.438276 177 162 138
-1.17624 -2.01192 -13.9535 -0.876975 -0.321158 0.357452 137 126 104
-1.18576 -2.08475 -13.9643 -0.716625 -0.268969 0.643509 95 87 63
-1.1698 -2.0601 -13.9422 -0.594252 -0.12842 0.793961 89 81 58
-1.17171 -2.11591 -13.9665 -0.925068 0.200455 0.322593 114 107 82
-1.13858 -2.08654 -13.9592 -0.906696 0.248611 0.340727 122 114 90
-1.13858 -2.08654 -13.9592 -0.906696 0.248611 0.340727 122 114 90
-1.17837 -2.19875 -13.9798 -0.866985 0.291211 0.404393 136 132 102
-1.16144 -2.18841 -13.9733 -0.818482 0.317577 0.478782 134 130 100
-1.19378 -2.26633 -13.9679 -0.845586 0.258772 0.466927 121 118 88
-1.18459 -2.29001 -13.9837 -0.787318 0.340459 0.514023 111 110 79
-1.17499 -2.26997 -14.0138 -0.928575 -0.136862 -0.34499 105 103 73
-1.19322 -2.35259 -13.9922 -0.972461 0.232268 0.0192567 103 101 71
-1.05716 -2.31837 -14.1003 -0.910598 0.265161 0.317018 111 98 70
-1.09363 -2.39436 -14.0768 -0.902523 0.268482 0.336703 131 105 77
-1.08896 -2.42068 -14.0975 -0.831422 0.242167 0.500093 132 105 77
-1.09989 -2.47516 -14.0842 -0.940509 -0.0210862 0.339114 139 112 83
-1.12663 -2.53948 -14.0675 -0.915738 0.0982784 0.38957 168 145 116
-1.13292 -2.65456 -14.0946 -0.823404 -0.183795 0.536866 193 171 146
-1.10242 -2.69588 -14.1343 0.219433 -0.934736 0.279498 148 112 80
-1.0007 -2.70182 -14.1907 -0.378586 -0.866583 -0.325126 86 63 41
-1.28223 -1.36205 -13.7686 -0.792526 -0.57694 -0.197594 189 160 120
-1.28325 -1.42861 -13.7821 -0.916242 -0.0136391 0.400394 188 164 134
-1.25716 -1.44622 -13.8018 -0.966622 -0.191464 0.170246 175 147 117
-1.25292 -1.52052 -13.8072 -0.668397 0.245592 0.70209 166 139 110
-1.25834 -1.55405 -13.8242 -0.885243 -0.0326568 0.46398 170 143 114
-1.2415 -1.58092 -13.835 -0.847749 -0.34061 0.406578 197 173 145
-1.26631 -1.58189 -13.8436 -0.91216 0.0724492 0.403381 170 142 112
-1.25665 -1.62407 -13.8305 -0.922549 -0.0410885 0.383687 193 168 140
-1.14734 -1.77815 -13.9637 -0.931542 0.156031 0.328457 180 150 100
-1.16769 -1.79383 -13.9461 -0.93154 0.040872 0.361333 187 159 106
-1.17403 -1.85087 -13.9422 -0.849444 0.218665 0.480241 201 179 148
-1.17703 -1.88917 -13.9534 -0.856525 0.2104 0.471271 204 187 162
-1.20161 -1.94701 -13.9323 -0.760958 0.221112 0.609962 204 188 163
-1.19974 -2.0057 -13.9723 -0.903487 -0.184258 0.386989 173 159 136
-1.19298 -2.04435 -13.9708 -0.675816 -0.216768 0.704475 124 113 90
-1.15406 -2.13149 -14.0002 -0.880618 0.132802 0.454837 123 118 89
-1.1842 -2.16233 -14.0259 -0.810835 0.323056 0.488037 142 139 108
-1.26105 -2.24213 -13.9736 -0.821362 0.317501 0.473875 146 140 110
-1.13009 -2.39752 -14.088 -0.826394 0.265669 0.49648 134 107 81
-1.13317 -2.40247 -14.0865 -0.838157 0.21238 0.502382 135 108 81
-1.1299 -2.3973 -14.0882 -0.822757 0.281985 0.493513 134 108 81
-1.13315 -2.40245 -14.0866 -0.837276 0.219558 0.500763 135 108 81
-1.12607 -2.41783 -14.1081 -0.853157 0.230436 0.467999 139 112 85
-1.12067 -2.46438 -14.1082 -0.958409 0.0347729 0.283271 157 131 103
-1.13384 -2.4583 -14.1149 -0.95659 -0.177153 0.231414 159 134 107
-1.12376 -2.50983 -14.1037 -0.96853 0.11004 0.223252 189 168 142
-1.13592 -2.55075 -14.1115 -0.92795 0.250214 0.276227 226 213 191
-1.13558 -2.60957 -14.1413 -0.930515 -0.33214 -0.154356 187 166 140
-1.10033 -2.68553 -14.1671 -0.175442 -0.983959 -0.0323262 138 99 66
-1.10033 -2.68553 -14.1671 -0.175442 -0.983959 -0.0323262 140 101 68
-1.29465 -1.31035 -13.7825 -0.771827 -0.577005 -0.267109 187 151 82
-1.30062 -1.33891 -13.7999 -0.768497 0.168667 0.617223 179 146 80
-1.25937 -1.35004 -13.8092 -0.999 -0.00870845 0.0438468 191 164 128
-1.28677 -1.35602 -13.8279 -0.963223 0.0572154 0.26254 180 150 103
-1.28172 -1.41917 -13.8082 -0.964143 -0.12491 0.234148 187 162 132
-1.2638 -1.44507 -13.8232 -0.964702 -0.0944358 0.245831 174 146 117
-1.27333 -1.52635 -13.8678 -0.881045 0.130039 0.454806 150 121 91
-1.26441 -1.60869 -13.8579 -0.94149 -0.147416 0.303093 182 154 125
-1.1837 -1.68424 -13.9439 -0.729621 -0.293111 0.61785 195 170 141
-1.18966 -1.73859 -13.9748 -0.715205 -0.191996 0.672026 197 171 106
-1.18069 -1.7749 -13.9809 -0.835253 -0.357742 0.41758 198 169 103
-1.19196 -1.82814 -13.9764 -0.888423 0.134166 0.438981 201 178 141
-1.17447 -1.82557 -13.9981 -0.837699 0.234373 0.493285 202 180 149
-1.17447 -1.82557 -13.9981 -0.837699 0.234373 0.493285 202 180 149
-1.22472 -2.00266 -13.9942 -0.711212 -0.440528 0.547826 202 188 164
-1.19514 -1.95101 -13.9925 -0.860559 0.264944 0.435021 206 190 166
-1.17155 -2.07854 -14.0391 -0.752194 0.134469 0.645076 106 97 74
-1.16505 -2.10851 -14.0625 -0.979579 -0.0495739 0.194854 132 125 98
-1.1502 -2.35243 -14.126 -0.869205 -0.394252 -0.29841 140 113 84
-1.05606 -2.27762 -14.1557 -0.944603 0.226276 0.237748 128 103 77
-1.14343 -2.45689 -14.1299 -0.936127 -0.0636161 0.345861 163 142 115
-1.13123 -2.48474 -14.1456 -0.999581 -0.017763 0.0228644 200 181 156
-1.1357 -2.49256 -14.134 -0.855704 0.31581 0.409921 201 182 157
-1.13662 -2.58871 -14.178 -0.96579 -0.189815 -0.176694 177 152 125
-1.09836 -2.64458 -14.2234 -0.791961 -0.510531 -0.334897 144 106 72
-1.18368 -0.895128 -13.8432 -0.948944 0.0218683 0.314686 199 162 96
-1.29348 -1.27742 -13.827 -0.73184 -0.593988 -0.334048 188 152 79
-1.29569 -1.32807 -13.8353 -0.789583 0.110083 0.603689 176 140 73
-1.28518 -1.43706 -13.8497 -0.970448 -0.0175251 0.240675 177 151 121
-1.26926 -1.36408 -13.8739 -0.993504 0.000699103 0.113792 185 159 125
-1.26926 -1.36408 -13.8739 -0.993504 0.000699103 0.113792 185 159 125
-1.26926 -1.36408 -13.8739 -0.993504 0.000699103 0.113792 185 159 125
-1.2598 -1.44763 -13.9095 -0.943824 0.0464389 0.327168 153 125 94
-1.27599 -1.5868 -13.8947 -0.949011 -0.02563 0.314198 178 150 120
-1.26729 -1.59939 -13.9115 -0.928207 -0.290663 0.232263 182 155 126
-1.20293 -1.70624 -13.9707 -0.684594 -0.134729 0.716365 204 180 144
