ply
format ascii 1.0
element face 0
property list uchar int vertex_indices
element vertex 888
property float x
property float y
property float z
property uchar diffuse_red
property uchar diffuse_green
property uchar diffuse_blue
end_header
-1.738482e+000 8.123106e-001 -8.474474e+000 39 15 12
-2.174017e-001 1.009366e+000 -9.052634e+000 22 15 12
-3.030395e+000 5.177888e-001 -8.353151e+000 185 143 95
-3.017105e+000 4.462292e-001 -8.216152e+000 132 93 54
-2.812374e+000 5.684974e-001 -8.136382e+000 175 129 77
-2.447722e+000 6.985719e-001 -8.076628e+000 88 49 16
-2.269040e+000 6.994700e-001 -8.017320e+000 137 103 75
-2.369896e+000 6.612013e-001 -8.003217e+000 175 142 99
-2.273763e+000 7.151423e-001 -8.152949e+000 152 118 95
-2.151657e+000 6.826970e-001 -8.003917e+000 98 71 51
-1.856570e+000 7.266423e-001 -8.291900e+000 42 22 19
-1.861267e+000 7.219376e-001 -8.305004e+000 42 22 19
-1.457174e+000 7.707243e-001 -8.493927e+000 51 29 18
1.284968e+000 1.427967e+000 -7.237210e+000 161 128 88
-2.916515e+000 3.863965e-001 -7.960553e+000 128 86 45
-2.609858e+000 5.317058e-001 -7.995180e+000 126 87 46
-2.281840e+000 5.422214e-001 -7.970437e+000 71 39 12
-2.181975e+000 6.026730e-001 -7.997733e+000 60 31 13
-1.212777e+000 4.976719e-001 -8.550280e+000 39 30 25
-6.579094e-001 6.776882e-001 -8.575476e+000 139 132 106
-8.146713e-002 7.257652e-001 -8.473114e+000 79 74 67
1.247263e+000 1.368000e+000 -7.311235e+000 110 72 35
1.247263e+000 1.368000e+000 -7.311235e+000 110 72 35
1.251955e+000 1.319978e+000 -7.267638e+000 112 71 34
1.280569e+000 1.399045e+000 -7.151645e+000 170 127 85
1.696330e+000 1.398378e+000 -7.163737e+000 68 44 17
2.074710e+000 1.431847e+000 -7.564567e+000 75 55 49
-3.178290e+000 2.007213e-001 -8.288060e+000 151 121 99
-2.679805e+000 2.787556e-001 -8.079522e+000 125 84 40
-2.686766e+000 2.619984e-001 -7.977483e+000 157 118 75
-2.433834e+000 4.614404e-001 -7.890574e+000 167 133 95
-2.178290e+000 4.045788e-001 -7.897115e+000 75 44 15
-1.467749e+000 5.669925e-001 -7.811719e+000 43 27 4
-1.266056e+000 5.640616e-001 -7.988623e+000 122 102 77
-5.601635e-001 5.374274e-001 -8.410423e+000 152 144 107
-4.450281e-001 5.826435e-001 -8.426837e+000 150 139 109
1.078723e+000 1.121167e+000 -7.402821e+000 54 48 43
1.084790e+000 1.190867e+000 -7.320910e+000 49 43 39
1.472370e+000 1.273302e+000 -7.117871e+000 113 74 45
-2.697635e+000 2.262916e-001 -7.979093e+000 104 64 28
-2.416487e+000 3.452745e-001 -7.812658e+000 178 146 105
-2.192299e+000 3.136873e-001 -7.734559e+000 158 129 86
1.187979e+000 1.176679e+000 -6.963329e+000 121 76 34
-3.043510e+000 -8.575968e-002 -8.042937e+000 98 71 52
-2.509908e+000 5.204489e-002 -7.867076e+000 160 127 89
-2.509908e+000 5.204489e-002 -7.867076e+000 160 127 89
-1.900206e+000 1.553242e-001 -7.825403e+000 70 43 22
-1.252237e+000 2.276840e-001 -8.065612e+000 133 110 79
1.039670e+000 6.465883e-001 -8.052924e+000 50 41 36
1.133835e+000 1.008926e+000 -6.983415e+000 137 93 44
1.325628e+000 1.096571e+000 -6.858157e+000 198 160 121
1.408181e+000 1.084677e+000 -6.856249e+000 182 150 101
-2.891256e+000 -1.999274e-001 -7.920239e+000 163 122 78
-2.283557e+000 6.996597e-002 -7.672736e+000 156 126 88
-2.831288e+000 -2.086603e-001 -7.798762e+000 174 136 95
-2.696605e+000 -2.198693e-001 -7.700730e+000 181 147 107
-2.616888e+000 -2.131849e-001 -7.691898e+000 150 117 76
-2.099669e+000 -1.074762e-001 -7.557505e+000 83 45 19
-1.817383e+000 -1.596343e-002 -7.707224e+000 120 96 72
2.101739e-001 1.254928e-001 -8.232237e+000 177 163 133
9.655226e-001 3.190583e-001 -8.046774e+000 41 33 28
1.015789e+000 2.548077e-001 -8.001357e+000 71 62 57
1.000451e+000 2.893231e-001 -7.912687e+000 71 62 57
-2.759072e+000 -3.168725e-001 -7.716781e+000 177 139 103
-2.654952e+000 -3.331112e-001 -7.666740e+000 178 146 108
-2.608038e+000 -3.621745e-001 -7.601976e+000 182 148 114
-2.299886e+000 -1.383169e-001 -7.508947e+000 154 121 86
-2.135639e+000 -2.588901e-001 -7.659028e+000 75 38 11
-1.861167e+000 -1.123915e-001 -7.576483e+000 124 89 61
-1.861167e+000 -1.123915e-001 -7.576483e+000 124 89 61
-1.524471e+000 -1.817917e-001 -7.728350e+000 93 58 30
-1.486102e+000 -1.597651e-001 -7.630471e+000 126 91 59
-1.422047e+000 -2.321238e-001 -7.896203e+000 80 44 20
-1.056857e+000 -2.236201e-001 -8.019138e+000 21 12 19
6.841918e-001 8.895312e-003 -8.258488e+000 14 8 13
1.506114e+000 8.017078e-001 -6.661289e+000 114 71 28
-2.652204e+000 -4.815897e-001 -7.618041e+000 177 138 97
-2.205304e+000 -3.308565e-001 -7.596594e+000 105 62 36
-2.121171e+000 -3.041500e-001 -7.619783e+000 111 67 40
-2.100045e+000 -4.036209e-001 -7.583589e+000 81 36 17
-1.989127e+000 -3.733545e-001 -7.531658e+000 90 51 24
-1.277776e+000 -3.230942e-001 -7.942421e+000 95 62 29
-1.079018e+000 -3.741811e-001 -8.067258e+000 25 15 8
7.808924e-001 -4.000400e-002 -8.024152e+000 20 15 19
1.549225e+000 7.112770e-001 -6.568964e+000 102 59 40
2.043392e+000 6.941737e-001 -6.674079e+000 69 45 21
2.430213e+000 5.648021e-001 -7.081781e+000 19 7 10
-2.528298e+000 -6.478323e-001 -7.676492e+000 129 93 70
-2.147300e+000 -5.002969e-001 -7.624677e+000 119 77 52
-1.867611e+000 -4.384407e-001 -7.541306e+000 112 71 41
-1.830861e+000 -4.245631e-001 -7.571426e+000 76 38 15
-1.847886e+000 -5.223821e-001 -7.599294e+000 115 75 49
-1.829841e+000 -4.813020e-001 -7.520925e+000 115 75 49
-1.129287e+000 -4.700984e-001 -7.995109e+000 104 82 62
1.222393e+000 3.297551e-001 -6.963743e+000 184 156 131
1.508798e+000 5.572146e-001 -6.551024e+000 203 152 97
1.656586e+000 5.796020e-001 -6.589616e+000 99 56 16
2.434313e+000 5.486415e-001 -7.051288e+000 69 57 58
-2.439544e+000 -7.975069e-001 -7.643672e+000 87 52 32
-2.010510e+000 -6.051217e-001 -7.551018e+000 105 69 47
-2.138430e+000 -7.608403e-001 -7.697370e+000 85 62 49
-1.859492e+000 -6.669391e-001 -7.601593e+000 83 56 35
-9.851858e-001 -7.737148e-001 -8.328640e+000 33 32 37
-8.954242e-001 -7.980727e-001 -8.177215e+000 53 58 65
-8.954242e-001 -7.980727e-001 -8.177215e+000 53 58 65
-8.817307e-001 -8.276821e-001 -8.157680e+000 175 178 183
1.496348e+000 4.587965e-001 -6.590128e+000 158 102 53
1.506223e+000 4.901577e-001 -6.557600e+000 202 149 95
-1.441098e+000 -8.014413e-001 -7.794459e+000 32 16 14
-1.227064e+000 -8.719688e-001 -8.106616e+000 73 46 35
2.248869e-001 -4.173410e-001 -7.588970e+000 72 40 19
4.892815e-001 -3.577380e-001 -7.403668e+000 74 37 18
5.739463e-001 -3.480936e-001 -7.416516e+000 112 81 56
-2.064330e+000 -1.055704e+000 -7.702552e+000 50 32 25
-1.999008e+000 -1.156581e+000 -7.800416e+000 88 71 66
-1.414901e+000 -1.146110e+000 -8.029718e+000 22 13 15
-5.808942e-001 -1.037391e+000 -8.069892e+000 127 122 127
-1.905963e-001 -8.225101e-001 -7.793410e+000 28 14 13
6.070745e-002 -6.520799e-001 -7.648464e+000 136 103 76
1.325246e-001 -6.725863e-001 -7.555389e+000 70 36 15
1.325246e-001 -6.725863e-001 -7.555389e+000 70 36 15
2.838612e-001 -4.515454e-001 -7.437565e+000 120 82 59
2.499241e-001 -6.237699e-001 -7.481271e+000 77 40 21
4.397509e-001 -5.068751e-001 -7.422063e+000 94 58 41
-1.211675e-002 -8.641168e-001 -7.563403e+000 36 13 7
-2.594054e-001 -1.254731e+000 -7.865551e+000 29 19 18
1.151121e-002 -9.112315e-001 -7.537872e+000 39 18 12
3.546088e-002 -8.746821e-001 -7.523533e+000 136 110 91
3.403299e-002 -8.494127e-001 -7.480826e+000 136 110 91
2.053669e-001 -8.928169e-001 -7.372466e+000 142 101 69
3.596357e-001 -7.634405e-001 -7.305329e+000 116 69 35
5.707638e-001 -5.872878e-001 -7.212504e+000 162 119 85
6.105511e-001 -6.514060e-001 -7.219750e+000 169 123 89
6.578823e-001 -5.731810e-001 -7.158112e+000 102 56 22
2.283646e-002 -1.085832e+000 -7.530227e+000 165 133 107
3.120248e-004 -1.197937e+000 -7.579925e+000 88 57 29
2.341795e-001 -9.325802e-001 -7.310894e+000 130 85 45
2.337671e-001 -1.030660e+000 -7.389906e+000 186 144 96
4.634290e-001 -8.739082e-001 -7.244467e+000 188 141 95
4.634290e-001 -8.739082e-001 -7.244467e+000 188 141 95
5.871689e-001 -7.165956e-001 -7.135693e+000 98 50 12
6.498114e-001 -6.784030e-001 -7.130281e+000 188 144 103
6.620786e-001 -7.292358e-001 -7.216353e+000 188 144 103
7.595917e-001 -7.400932e-001 -7.128979e+000 123 76 45
1.107151e+000 -7.702138e-001 -7.216840e+000 123 98 72
7.101476e-001 -1.036665e+000 -7.224491e+000 184 142 99
1.109584e+000 -8.001425e-001 -7.206928e+000 156 131 103
3.700960e+000 3.693269e+000 -1.123237e+001 87 67 58
3.605627e+000 3.435955e+000 -1.093783e+001 83 70 64
3.149479e-001 2.853861e+000 -8.579459e+000 85 70 59
5.013065e-001 2.878131e+000 -8.225864e+000 175 131 86
3.583073e+000 3.325162e+000 -1.073075e+001 35 21 20
3.828542e+000 3.288691e+000 -1.065865e+001 37 26 24
3.991504e+000 3.291798e+000 -1.073209e+001 39 25 24
4.868712e-001 2.706580e+000 -8.171886e+000 157 111 76
3.048712e+000 3.009614e+000 -1.072784e+001 54 42 42
4.002787e+000 3.098073e+000 -1.036614e+001 36 25 23
4.123931e+000 3.143276e+000 -1.042771e+001 73 56 49
4.123931e+000 3.143276e+000 -1.042771e+001 73 56 49
-8.078600e-001 2.098568e+000 -9.875738e+000 143 99 57
-4.351380e-001 2.153693e+000 -9.685843e+000 57 34 18
5.445422e-001 2.361199e+000 -8.179102e+000 94 63 43
3.273378e+000 2.643914e+000 -1.034556e+001 34 20 20
-1.012080e+000 1.955584e+000 -9.914009e+000 141 103 58
6.484877e-001 2.285295e+000 -8.110704e+000 76 49 30
3.480563e+000 2.569644e+000 -1.022253e+001 29 18 24
-5.201607e-001 1.779292e+000 -9.611574e+000 54 33 17
6.915275e-001 2.197284e+000 -8.064669e+000 60 38 27
8.210166e-001 2.184715e+000 -7.923407e+000 35 20 17
-9.496760e-001 1.592981e+000 -9.808774e+000 167 131 96
-9.496760e-001 1.592981e+000 -9.808774e+000 167 131 96
1.231786e+000 2.141901e+000 -7.950337e+000 119 80 49
1.534810e+000 2.210560e+000 -8.120344e+000 39 22 20
2.612279e-001 1.627059e+000 -9.295836e+000 50 45 41
6.230270e-001 1.726968e+000 -8.780918e+000 37 32 28
1.774880e+000 2.073038e+000 -8.261200e+000 19 13 17
-2.377457e+000 1.060987e+000 -9.102056e+000 118 98 71
1.454569e+000 1.950163e+000 -7.978768e+000 81 47 19
3.868977e+000 2.054410e+000 -9.523614e+000 60 48 45
3.897431e+000 1.996508e+000 -9.250201e+000 60 49 46
4.085148e+000 2.134039e+000 -9.430534e+000 25 17 15
-9.683774e-001 1.018100e+000 -9.590584e+000 105 99 83
-1.863481e-001 1.143526e+000 -9.416145e+000 55 48 44
1.024985e-001 1.285087e+000 -9.325534e+000 44 40 41
3.775238e-001 1.408277e+000 -8.906943e+000 66 58 54
-2.110160e+000 9.627716e-001 -8.299400e+000 78 42 21
-2.097668e+000 9.609729e-001 -8.418160e+000 108 74 47
-1.149500e+000 9.896982e-001 -9.093655e+000 34 29 26
-1.149500e+000 9.896982e-001 -9.093655e+000 34 29 26
-5.075784e-001 1.087743e+000 -9.138522e+000 114 108 92
-2.403721e-001 1.113493e+000 -9.345590e+000 66 62 50
-2.833659e-002 1.060595e+000 -9.134092e+000 23 15 17
2.507371e-003 1.132514e+000 -8.947348e+000 128 121 102
2.507371e-003 1.132514e+000 -8.947348e+000 128 121 102
3.987642e+000 1.761334e+000 -9.012847e+000 22 14 12
-3.105810e+000 5.970742e-001 -8.561151e+000 160 128 83
-3.089897e+000 6.101682e-001 -8.520111e+000 160 128 83
-3.111086e+000 6.123103e-001 -8.661122e+000 177 149 111
-2.640367e+000 7.220204e-001 -8.243515e+000 163 124 81
-2.318997e+000 8.379618e-001 -8.118226e+000 163 129 94
-2.242627e+000 8.615493e-001 -8.143051e+000 137 103 75
-1.306497e+000 8.257954e-001 -9.119817e+000 26 20 18
-1.244082e+000 7.310559e-001 -8.970671e+000 18 11 18
-3.555822e-001 9.707387e-001 -8.865731e+000 29 22 26
-3.555822e-001 9.707387e-001 -8.865731e+000 29 22 26
7.063821e-002 9.597043e-001 -8.851830e+000 15 11 11
-2.206817e+000 6.938698e-001 -8.004039e+000 64 35 19
-2.241139e+000 6.522777e-001 -8.132060e+000 64 35 19
3.613096e-003 9.199539e-001 -8.799673e+000 22 17 15
8.477518e-004 9.189473e-001 -8.802111e+000 22 17 15
1.323365e+000 1.483859e+000 -7.494850e+000 123 91 54
2.044739e+000 1.463134e+000 -7.567355e+000 32 24 27
-2.620797e+000 5.197487e-001 -7.906768e+000 172 134 86
-2.070602e+000 5.958010e-001 -7.936866e+000 47 19 21
-1.989094e+000 5.903431e-001 -8.017769e+000 48 24 12
-1.989607e+000 5.880082e-001 -8.025326e+000 48 24 12
-2.002680e+000 5.655518e-001 -7.955925e+000 91 63 42
-1.270948e+000 6.940915e-001 -8.343919e+000 55 34 17
-1.245360e+000 6.007304e-001 -8.669615e+000 73 52 37
1.159783e+000 1.095376e+000 -7.956867e+000 66 59 56
1.376967e+000 1.395105e+000 -7.189113e+000 45 21 15
1.740436e+000 1.440708e+000 -7.371839e+000 54 32 19
2.108258e+000 1.422902e+000 -7.549466e+000 26 16 21
-2.514874e+000 3.926922e-001 -7.810412e+000 168 136 92
-2.032560e+000 4.237420e-001 -7.986673e+000 47 16 6
-1.702803e+000 5.902876e-001 -7.811570e+000 76 58 43
-7.452884e-001 5.017031e-001 -8.436654e+000 141 129 102
2.362848e-001 6.408010e-001 -8.371932e+000 77 70 52
1.064278e+000 8.498064e-001 -8.072135e+000 56 49 42
1.182234e+000 1.248427e+000 -7.109705e+000 108 60 23
-2.891020e+000 2.159482e-001 -7.931659e+000 114 75 42
-2.444260e+000 3.040649e-001 -7.837053e+000 130 99 56
-2.223074e+000 2.386977e-001 -7.811501e+000 116 84 50
-1.156555e+000 3.113662e-001 -8.417780e+000 47 38 31
-9.323987e-001 3.347408e-001 -8.431309e+000 69 60 52
-1.026624e+000 3.344029e-001 -8.147049e+000 72 63 55
1.078673e+000 9.691217e-001 -7.449278e+000 66 62 55
1.202159e+000 1.082078e+000 -7.056781e+000 103 56 20
1.309275e+000 1.200315e+000 -6.977593e+000 183 138 74
1.530620e+000 1.241875e+000 -6.904405e+000 161 136 103
-1.840347e+000 2.076939e-001 -7.742998e+000 128 98 70
-1.840347e+000 2.076939e-001 -7.742998e+000 128 98 70
-1.786883e+000 1.913398e-001 -7.823907e+000 70 41 25
9.415060e-001 5.782254e-001 -7.955922e+000 96 88 76
1.250746e+000 1.056288e+000 -6.887118e+000 150 105 63
1.584578e+000 1.121376e+000 -6.810962e+000 184 164 111
-2.163367e+000 5.387409e-002 -7.586250e+000 121 91 53
-1.976026e+000 5.391771e-002 -7.705050e+000 76 47 29
-1.830430e+000 9.832465e-002 -7.860041e+000 35 18 16
-1.797988e+000 6.617866e-002 -7.708262e+000 19 15 18
-1.145190e+000 3.287653e-002 -8.076601e+000 36 18 16
-2.910403e+000 -2.837757e-001 -7.900929e+000 160 121 88
-2.083583e+000 1.017293e-002 -7.553846e+000 141 108 75
-2.048938e+000 -7.887998e-002 -7.602775e+000 92 56 27
-1.058419e+000 -8.872384e-002 -8.131735e+000 21 15 17
-2.092039e+000 -1.396009e-001 -7.512409e+000 144 109 81
-1.071013e+000 -2.980194e-001 -8.054333e+000 18 12 14
-1.835903e+000 -3.436768e-001 -7.519941e+000 136 97 63
-1.613126e+000 -3.927783e-001 -7.664739e+000 121 86 58
-1.333945e+000 -3.499486e-001 -7.748733e+000 134 101 70
-1.118459e+000 -3.516513e-001 -8.017004e+000 104 87 62
-1.200422e+000 -3.592166e-001 -7.842765e+000 138 105 74
1.403205e+000 6.385848e-001 -6.693538e+000 119 71 31
1.684335e+000 6.922058e-001 -6.590132e+000 183 150 105
1.976727e+000 7.187974e-001 -6.611224e+000 141 117 81
-2.226145e+000 -4.815871e-001 -7.588103e+000 72 34 13
-2.226145e+000 -4.815871e-001 -7.588103e+000 72 34 13
-2.308609e+000 -5.966597e-001 -7.663147e+000 60 27 10
-1.941050e+000 -4.474888e-001 -7.568238e+000 129 88 58
-9.594362e-001 -6.348590e-001 -8.189175e+000 28 26 26
2.958049e-001 -4.984045e-001 -8.372123e+000 13 8 13
-1.505716e+000 -6.988635e-001 -7.759025e+000 36 16 18
-1.239217e+000 -6.549246e-001 -7.997875e+000 67 41 26
-1.059312e-001 -5.953247e-001 -8.130496e+000 53 47 41
1.400182e+000 4.159169e-001 -6.637266e+000 134 81 44
2.278992e+000 3.685041e-001 -6.822059e+000 102 81 68
2.294132e+000 3.954707e-001 -6.831023e+000 31 19 19
-2.538488e+000 -1.059542e+000 -7.735625e+000 153 129 102
-2.519901e+000 -1.062517e+000 -7.935424e+000 99 73 48
-1.784385e+000 -6.986645e-001 -7.552431e+000 35 20 22
1.660893e+000 4.306598e-001 -6.433339e+000 199 162 121
-2.092931e+000 -1.022665e+000 -7.670320e+000 112 94 74
-1.269529e-001 -7.571029e-001 -7.738457e+000 129 103 69
-1.277109e-001 -7.210772e-001 -7.673096e+000 129 103 69
2.168950e-001 -4.928541e-001 -7.491701e+000 69 33 17
-2.087986e+000 -1.295006e+000 -7.857679e+000 125 104 90
-1.834565e+000 -1.312258e+000 -7.963694e+000 31 20 24
-5.329137e-002 -8.191606e-001 -7.660989e+000 64 38 26
3.407496e-001 -5.813015e-001 -7.394504e+000 74 31 13
5.293724e-001 -5.425877e-001 -7.333680e+000 82 40 25
6.388711e-001 -4.968801e-001 -7.226741e+000 123 82 49
1.686414e-001 -8.547355e-001 -7.395149e+000 128 91 62
5.722082e-001 -6.345108e-001 -7.205955e+000 90 44 18
5.475761e-001 -6.566704e-001 -7.159921e+000 173 126 99
-4.883343e-002 -1.067757e+000 -7.493030e+000 125 94 73
3.296330e-001 -9.483053e-001 -7.395598e+000 129 80 41
7.004833e-001 -7.387479e-001 -7.212430e+000 114 65 33
8.206283e-001 -7.585128e-001 -7.239129e+000 116 70 34
9.924556e-001 -7.514914e-001 -7.119197e+000 188 156 115
-1.050932e-001 -1.272114e+000 -7.614505e+000 133 103 74
2.774354e+000 3.302960e+000 -1.125304e+001 51 40 36
2.774354e+000 3.302960e+000 -1.125304e+001 51 40 36
5.112472e-001 2.786501e+000 -8.325321e+000 106 62 27
3.244409e+000 3.250562e+000 -1.055490e+001 65 46 39
2.993763e+000 3.031076e+000 -1.083892e+001 24 18 19
5.679686e-001 2.573024e+000 -8.080551e+000 129 98 72
5.679686e-001 2.573024e+000 -8.080551e+000 129 98 72
4.049799e+000 3.073336e+000 -1.034892e+001 95 76 69
-8.736165e-001 2.093794e+000 -9.819298e+000 162 122 78
-8.736165e-001 2.093794e+000 -9.819298e+000 162 122 78
4.014573e-001 2.372021e+000 -8.262208e+000 67 47 23
3.977091e-001 2.371818e+000 -8.254276e+000 67 47 23
5.269184e-001 2.429915e+000 -8.223413e+000 93 59 32
3.154027e+000 2.695018e+000 -1.048942e+001 31 19 21
3.473783e+000 2.820236e+000 -1.004502e+001 83 70 61
7.361246e-001 2.344536e+000 -7.952604e+000 41 24 17
3.353320e+000 2.487854e+000 -9.911565e+000 46 35 31
4.200970e+000 2.700314e+000 -9.963161e+000 22 12 15
5.883321e-001 2.150725e+000 -8.318886e+000 40 22 22
7.989765e-001 2.259542e+000 -7.963397e+000 27 12 13
3.379506e+000 2.452495e+000 -1.012215e+001 35 24 23
-1.037712e+000 1.591220e+000 -9.850578e+000 135 95 60
5.863320e-001 2.045272e+000 -8.355234e+000 131 108 82
8.873544e-001 2.121719e+000 -7.913258e+000 85 66 59
1.045246e+000 2.180928e+000 -7.948771e+000 33 20 14
8.542211e-001 1.977423e+000 -8.099441e+000 39 24 17
-2.587876e+000 9.967570e-001 -9.061305e+000 139 111 75
8.448007e-001 1.770665e+000 -8.362621e+000 37 32 28
1.241605e+000 1.881354e+000 -8.080036e+000 120 83 57
-1.879862e-001 1.229955e+000 -9.731685e+000 24 19 16
-3.160408e+000 7.432464e-001 -8.854995e+000 60 36 34
-3.176058e+000 6.232801e-001 -8.771625e+000 109 82 56
-1.360203e+000 9.409586e-001 -9.166144e+000 40 30 28
-1.364725e+000 9.333980e-001 -9.195696e+000 40 30 28
-1.296171e+000 9.816587e-001 -9.139733e+000 163 155 126
-1.293784e+000 9.832915e-001 -9.136065e+000 163 155 126
-1.269429e+000 9.366505e-001 -9.077360e+000 33 29 20
-1.269281e+000 9.368727e-001 -9.076461e+000 33 29 20
-1.393328e+000 8.163323e-001 -9.211573e+000 18 15 14
-1.330145e+000 8.858483e-001 -9.129484e+000 133 126 85
-1.239155e+000 8.886208e-001 -9.002246e+000 150 139 109
-1.206832e+000 9.734766e-001 -9.076490e+000 160 157 117
-1.205034e+000 9.755349e-001 -9.069019e+000 160 157 117
-1.185003e+000 9.129859e-001 -9.058048e+000 37 29 26
-1.111652e+000 9.628964e-001 -8.998209e+000 142 135 99
-9.659762e-001 1.000432e+000 -9.055386e+000 115 108 83
-1.040329e+000 9.838850e-001 -9.028017e+000 25 19 19
-9.408918e-001 9.674560e-001 -8.950918e+000 29 25 21
-8.869832e-001 1.020718e+000 -9.059348e+000 21 16 15
-8.640672e-001 9.862583e-001 -8.977108e+000 131 122 93
-8.632325e-001 9.903970e-001 -8.960209e+000 131 122 93
-7.893317e-001 1.008068e+000 -8.976192e+000 29 21 18
-6.164869e-001 9.987260e-001 -8.957632e+000 111 102 85
-6.164869e-001 9.987260e-001 -8.957632e+000 111 102 85
-1.204304e-001 1.121684e+000 -9.425128e+000 15 10 14
-2.245800e+000 7.914799e-001 -8.126611e+000 139 104 81
-1.216784e+000 8.286066e-001 -8.973308e+000 27 22 26
-1.198159e+000 7.637433e-001 -8.968370e+000 132 127 91
-1.131253e+000 8.174378e-001 -8.904751e+000 34 29 26
-1.132375e+000 8.138917e-001 -8.916585e+000 34 29 26
-1.112548e+000 7.548503e-001 -8.883702e+000 147 138 102
-1.112548e+000 7.548503e-001 -8.883702e+000 147 138 102
-1.042235e+000 7.936247e-001 -8.864312e+000 34 29 27
-1.042235e+000 7.936247e-001 -8.864312e+000 34 29 27
-9.205725e-001 9.050678e-001 -8.943028e+000 131 121 98
-7.443153e-001 9.131413e-001 -8.859349e+000 26 20 20
-5.152209e-001 9.880529e-001 -8.884612e+000 124 117 92
-5.153157e-001 9.875277e-001 -8.886250e+000 124 117 92
-4.444094e-001 1.004554e+000 -8.893247e+000 25 20 17
-4.225027e-001 9.666235e-001 -8.825496e+000 118 112 91
-4.225027e-001 9.666235e-001 -8.825496e+000 118 112 91
-4.769203e-001 8.948458e-001 -8.781076e+000 132 127 98
-4.028272e-001 9.249603e-001 -8.764459e+000 25 19 20
-3.276780e-001 9.401296e-001 -8.776681e+000 114 101 83
-3.265941e-001 9.392926e-001 -8.780130e+000 114 101 83
3.052544e-002 1.035810e+000 -9.112389e+000 128 122 109
-2.679596e+000 5.232340e-001 -8.128315e+000 164 125 76
-2.064896e+000 6.494410e-001 -8.253650e+000 68 41 30
-1.171174e+000 7.149604e-001 -8.891524e+000 19 17 17
-9.445234e-001 7.751347e-001 -8.812400e+000 32 31 29
-1.018368e+000 7.492342e-001 -8.787871e+000 126 121 91
-8.242781e-001 7.140873e-001 -8.669505e+000 131 123 95
-7.502678e-001 7.386661e-001 -8.680154e+000 25 22 25
-6.740762e-001 7.639008e-001 -8.693228e+000 147 141 117
-6.028261e-001 7.958226e-001 -8.692340e+000 36 30 30
-4.557474e-001 8.550666e-001 -8.696550e+000 26 22 23
-2.249659e-001 9.105705e-001 -8.734861e+000 105 100 78
-2.252868e-001 9.102211e-001 -8.735685e+000 105 100 78
-1.491371e-001 9.155839e-001 -8.753931e+000 21 18 12
-1.296386e-001 8.805658e-001 -8.687264e+000 102 95 76
2.002764e+000 1.465736e+000 -7.666716e+000 80 62 38
-4.837117e-001 7.306078e-001 -8.575547e+000 148 135 107
-4.685347e-001 6.888179e-001 -8.521202e+000 31 26 23
5.970244e-001 9.019446e-001 -8.534826e+000 29 25 26
1.429036e+000 1.391015e+000 -7.229384e+000 131 96 70
1.249524e+000 1.245743e+000 -6.991519e+000 190 150 101
1.325368e+000 1.279319e+000 -7.044205e+000 165 128 81
1.610076e+000 1.341584e+000 -7.015062e+000 74 46 34
2.182591e+000 1.303009e+000 -7.638377e+000 64 46 34
-2.705491e+000 2.278345e-001 -7.837460e+000 111 71 36
-2.189232e+000 1.882954e-001 -7.727929e+000 112 78 43
-2.030891e+000 2.624483e-001 -7.780800e+000 71 39 18
-2.023797e+000 2.751511e-001 -7.748190e+000 71 39 18
1.388164e+000 1.051626e+000 -6.930001e+000 117 74 42
1.518893e+000 1.079525e+000 -6.806136e+000 171 145 107
-2.383891e+000 1.845749e-002 -7.661572e+000 168 136 97
-1.845796e+000 -7.164131e-002 -7.579349e+000 118 84 57
4.503407e-001 6.303849e-002 -8.297774e+000 25 21 16
-2.544454e+000 -2.466895e-001 -7.630550e+000 171 142 103
-1.652249e+000 -1.056671e-001 -7.677252e+000 116 81 51
-1.679435e+000 -1.706356e-001 -7.819967e+000 116 81 51
-2.564491e+000 -4.361773e-001 -7.577931e+000 121 80 44
-2.519018e+000 -4.587766e-001 -7.517848e+000 154 112 80
-2.346873e+000 -4.514890e-001 -7.593973e+000 132 91 63
-1.147738e+000 -4.083620e-001 -7.986590e+000 133 102 74
3.861237e-001 -2.431065e-001 -8.286975e+000 17 11 17
3.861237e-001 -2.431065e-001 -8.286975e+000 17 11 17
4.111087e-001 -3.540751e-001 -8.392337e+000 42 38 39
4.601976e-001 -2.573055e-001 -8.379548e+000 68 63 59
5.055798e-001 -1.690243e-001 -8.355315e+000 84 81 70
4.818530e-001 -3.336593e-001 -8.406255e+000 10 8 12
1.604141e+000 6.661871e-001 -6.609277e+000 80 38 23
1.895985e+000 7.339945e-001 -6.630147e+000 68 40 29
1.882141e+000 7.483740e-001 -6.592444e+000 68 40 29
-2.673458e+000 -6.421549e-001 -7.757623e+000 165 127 87
-2.077634e+000 -4.552715e-001 -7.571813e+000 124 83 58
-1.655053e+000 -4.068990e-001 -7.631068e+000 62 29 12
-1.146413e+000 -7.185216e-001 -8.289826e+000 73 56 43
-8.372358e-001 -6.348283e-001 -8.128634e+000 155 156 148
7.515644e-002 -4.701940e-001 -8.181964e+000 14 7 15
2.078780e-001 -3.983872e-001 -8.194837e+000 16 9 15
4.291188e-001 -4.242306e-001 -8.413808e+000 12 10 13
4.951798e-001 -4.074267e-001 -8.429017e+000 36 31 35
1.209947e+000 3.473539e-001 -7.072693e+000 182 148 122
1.534096e+000 5.713635e-001 -6.617529e+000 111 63 35
-8.839013e-001 -6.650827e-001 -8.134036e+000 33 32 36
-8.844910e-001 -6.719213e-001 -8.147103e+000 33 32 36
-8.071149e-001 -7.054282e-001 -8.102438e+000 39 36 40
-1.687235e+000 -7.245663e-001 -7.596512e+000 34 23 27
-9.741532e-002 -5.991462e-001 -7.795174e+000 76 68 58
-6.988263e-002 -6.502534e-001 -7.800023e+000 37 22 15
-6.575387e-002 -7.216541e-001 -7.934626e+000 37 22 15
1.680992e+000 1.439889e-001 -6.808874e+000 184 162 132
1.529205e-001 -5.710611e-001 -7.608879e+000 135 98 76
-2.213447e+000 -1.347817e+000 -7.844154e+000 30 17 23
-1.157295e-001 -8.930419e-001 -7.673605e+000 26 16 17
-7.163834e-002 -8.306430e-001 -7.545182e+000 36 20 18
1.463774e-001 -7.092107e-001 -7.497339e+000 120 80 60
1.463774e-001 -7.092107e-001 -7.497339e+000 120 80 60
6.060216e-001 -1.146845e+000 -7.330339e+000 200 160 120
-7.248049e-001 2.453179e+000 -9.911020e+000 147 112 70
-8.143570e-001 2.373229e+000 -9.943372e+000 146 113 72
3.951384e+000 2.997311e+000 -1.002821e+001 38 25 23
4.000610e+000 2.996825e+000 -1.013615e+001 38 25 23
3.942698e+000 2.926723e+000 -1.000993e+001 94 76 72
4.198748e+000 3.053845e+000 -1.022695e+001 84 69 62
4.317151e+000 2.863340e+000 -1.013843e+001 31 17 17
5.816382e-001 2.301213e+000 -8.144458e+000 163 131 100
1.006864e+000 2.244277e+000 -7.942960e+000 66 46 40
-3.080438e-001 1.593851e+000 -9.701468e+000 62 43 28
5.669167e-001 1.865372e+000 -9.003979e+000 76 69 61
3.610362e+000 2.216986e+000 -9.851331e+000 28 16 20
2.138140e-001 1.555514e+000 -9.604572e+000 26 20 21
1.274784e+000 2.036595e+000 -7.949403e+000 148 105 71
1.274784e+000 2.036595e+000 -7.949403e+000 148 105 71
3.679850e+000 2.121223e+000 -9.743406e+000 49 38 36
-2.981974e+000 8.616174e-001 -9.402745e+000 27 25 26
-1.265326e-001 1.423221e+000 -9.767613e+000 38 25 23
-2.936750e+000 8.727524e-001 -9.076531e+000 178 160 128
-2.531429e+000 9.735175e-001 -8.545507e+000 101 62 34
-2.199332e+000 1.009312e+000 -8.477539e+000 88 51 25
3.166836e-001 1.449399e+000 -9.020082e+000 58 52 49
3.819480e+000 1.894801e+000 -9.315085e+000 35 24 26
-2.322283e+000 8.654094e-001 -8.237114e+000 77 42 18
5.538488e-002 1.124752e+000 -9.175075e+000 27 25 22
-1.539648e+000 8.061408e-001 -8.438690e+000 50 27 14
-2.710889e+000 5.806294e-001 -8.197790e+000 106 63 21
-2.606735e+000 6.911106e-001 -8.074801e+000 175 133 90
-2.606735e+000 6.911106e-001 -8.074801e+000 175 133 90
-2.574320e+000 6.626681e-001 -8.228618e+000 126 87 48
-2.304593e+000 7.424739e-001 -8.102232e+000 79 44 23
1.448230e+000 1.529730e+000 -7.279293e+000 40 22 22
1.726085e+000 1.574358e+000 -7.421230e+000 81 51 43
4.181089e+000 1.524846e+000 -9.041981e+000 25 16 17
-5.975185e-001 6.706156e-001 -8.547117e+000 93 83 53
1.692919e+000 1.413484e+000 -7.272849e+000 147 125 85
1.056836e+000 9.561818e-001 -8.162912e+000 58 51 46
-2.947273e+000 -5.041929e-002 -8.036714e+000 164 122 82
-2.947273e+000 -5.041929e-002 -8.036714e+000 164 122 82
-2.530478e+000 6.503723e-002 -7.752556e+000 115 79 43
-3.962581e-001 3.207443e-001 -8.282742e+000 23 19 22
-1.735590e-001 4.067506e-001 -8.302477e+000 142 127 104
-2.208418e-001 3.073697e-001 -8.275932e+000 150 140 106
1.553724e+000 1.112154e+000 -6.822482e+000 78 50 38
1.553724e+000 1.112154e+000 -6.822482e+000 78 50 38
-2.212995e+000 8.225048e-002 -7.662058e+000 160 129 91
-4.146114e-001 1.536957e-001 -8.225922e+000 142 130 97
-3.852140e-001 8.503651e-002 -8.201176e+000 25 21 17
-2.364967e-001 1.449477e-001 -8.210396e+000 29 26 17
-1.569139e-002 2.179766e-001 -8.279069e+000 130 113 84
8.627070e-002 1.698868e-001 -8.291184e+000 151 137 102
1.415504e+000 9.925788e-001 -6.853358e+000 129 89 49
1.560161e+000 1.065501e+000 -6.780129e+000 68 40 30
1.547841e+000 1.081101e+000 -6.739357e+000 68 40 30
-6.054839e-001 -1.304972e-002 -8.203744e+000 149 138 110
-2.072985e-001 7.213598e-002 -8.201760e+000 142 128 93
-1.342013e-001 1.025159e-001 -8.205093e+000 21 20 25
-1.784787e-001 8.179625e-004 -8.182054e+000 27 26 19
-1.057712e-001 2.955958e-002 -8.194448e+000 130 119 89
4.048721e-002 7.201441e-002 -8.261409e+000 122 108 78
1.124197e-001 9.597939e-002 -8.280480e+000 31 22 25
1.484481e+000 8.734591e-001 -6.736430e+000 128 86 44
1.667924e+000 8.776299e-001 -6.648471e+000 180 150 110
-5.916747e-001 -2.475173e-001 -8.125095e+000 142 130 107
-5.175940e-001 -2.136359e-001 -8.118091e+000 31 25 22
-4.733218e-001 -1.107255e-001 -8.139019e+000 27 21 22
-7.768554e-002 -4.983828e-002 -8.196480e+000 30 21 25
-4.919707e-002 -1.151147e-001 -8.162249e+000 130 115 85
5.011124e-002 -1.717866e-001 -8.202655e+000 108 94 78
1.543132e+000 7.838561e-001 -6.563279e+000 137 93 54
-7.345568e-001 -3.127215e-001 -8.128867e+000 153 146 118
-7.734247e-001 -4.169800e-001 -8.111813e+000 146 138 116
-7.054006e-001 -3.823377e-001 -8.103282e+000 27 24 19
-7.043482e-001 -3.782603e-001 -8.094893e+000 27 24 19
-5.604526e-001 -3.107315e-001 -8.084785e+000 23 22 18
4.810682e-003 -2.676279e-001 -8.178406e+000 143 130 90
-2.256333e+000 -6.182121e-001 -7.613111e+000 116 81 59
-7.428773e-001 -4.782889e-001 -8.073082e+000 30 29 25
-7.428773e-001 -4.782889e-001 -8.073082e+000 30 29 25
-6.767815e-001 -4.431060e-001 -8.061198e+000 153 144 126
-6.767815e-001 -4.431060e-001 -8.061198e+000 153 144 126
-5.761593e-001 -4.760800e-001 -8.031864e+000 146 132 103
-4.286130e-001 -4.180079e-001 -8.048502e+000 151 136 102
-4.275941e-001 -4.094195e-001 -8.030876e+000 151 136 102
-1.815897e-001 -4.166836e-001 -8.105560e+000 118 104 76
-2.544189e-001 -4.276264e-001 -8.059075e+000 31 26 25
5.240094e-001 -4.780697e-001 -8.441820e+000 15 10 15
1.282574e+000 4.187575e-001 -6.686854e+000 190 146 102
1.443664e+000 5.075583e-001 -6.619200e+000 147 91 54
2.384325e+000 5.329420e-001 -6.958580e+000 28 15 19
-6.212546e-001 -5.750593e-001 -8.009334e+000 151 143 107
3.831835e-001 -3.826682e-001 -7.587731e+000 58 29 21
2.147454e-001 -5.975328e-001 -7.592969e+000 80 42 23
5.528946e-001 -4.647232e-001 -7.380622e+000 108 67 42
-6.206624e-001 -1.164422e+000 -8.183989e+000 201 200 204
-6.206624e-001 -1.164422e+000 -8.183989e+000 201 200 204
2.701756e-001 -6.580446e-001 -7.433164e+000 82 43 26
2.701756e-001 -6.580446e-001 -7.433164e+000 82 43 26
6.882789e-001 -4.930413e-001 -7.275442e+000 68 32 8
-4.174028e-001 -1.292184e+000 -7.959116e+000 60 50 46
2.046257e-001 -8.051525e-001 -7.403677e+000 100 60 38
8.113372e-001 -5.550873e-001 -7.128301e+000 114 71 37
-4.409523e-001 -1.411437e+000 -8.028220e+000 133 151 178
9.117254e-001 -7.637163e-001 -7.203634e+000 178 146 99
2.546620e-001 -1.123487e+000 -7.407967e+000 179 137 90
2.546620e-001 -1.123487e+000 -7.407967e+000 179 137 90
6.708369e-001 -1.008268e+000 -7.242104e+000 223 182 139
9.107736e-001 -8.387325e-001 -7.212005e+000 132 87 47
3.212891e+000 3.558041e+000 -1.113816e+001 112 94 80
3.764378e+000 3.584761e+000 -1.103613e+001 56 38 34
7.058868e-001 2.902192e+000 -8.382973e+000 91 53 34
2.733409e+000 3.203449e+000 -1.100302e+001 25 14 12
2.687113e-001 2.682220e+000 -8.621998e+000 72 59 52
-4.812557e-001 2.381868e+000 -9.736632e+000 64 37 22
-2.163638e-001 2.393967e+000 -9.994100e+000 32 18 18
4.099650e+000 3.072871e+000 -1.025040e+001 37 23 20
4.099650e+000 3.072871e+000 -1.025040e+001 37 23 20
3.507060e-001 2.394776e+000 -8.401188e+000 166 140 105
3.662988e+000 2.776963e+000 -1.004589e+001 51 37 37
3.662988e+000 2.776963e+000 -1.004589e+001 51 37 37
4.026997e+000 2.855391e+000 -1.001277e+001 30 19 17
7.483594e-001 2.152231e+000 -8.032601e+000 32 20 20
9.398230e-001 2.196371e+000 -7.987838e+000 29 17 19
-1.109115e+000 1.439139e+000 -9.982037e+000 171 163 143
1.630967e+000 2.217440e+000 -8.346818e+000 21 12 13
6.647771e-001 1.757946e+000 -8.673600e+000 72 65 59
1.186633e+000 1.972268e+000 -7.996635e+000 61 34 26
1.183039e+000 1.973694e+000 -7.985042e+000 61 34 26
1.452343e+000 2.048007e+000 -7.934823e+000 165 122 88
3.646058e-001 1.505706e+000 -9.757880e+000 26 20 20
9.582753e-001 1.855674e+000 -8.055198e+000 119 93 60
1.362476e+000 1.843725e+000 -8.078833e+000 119 88 67
1.450000e+000 1.883473e+000 -8.063541e+000 122 91 57
1.545905e+000 1.883808e+000 -8.122433e+000 109 79 51
3.742076e+000 2.034424e+000 -9.583576e+000 37 27 26
-1.181361e+000 1.027339e+000 -9.398103e+000 113 108 89
-2.223215e-002 1.230240e+000 -9.766417e+000 18 12 16
-3.195304e+000 5.110904e-001 -8.600648e+000 178 145 101
-2.843456e+000 6.054192e-001 -8.149486e+000 187 145 95
-2.104267e+000 7.031662e-001 -8.084594e+000 49 21 15
-1.362930e+000 7.532915e-001 -8.462921e+000 46 26 15
1.635471e+000 1.446664e+000 -7.316085e+000 46 26 20
4.295677e+000 1.411006e+000 -8.731840e+000 22 13 18
3.142799e-001 7.491105e-001 -8.505111e+000 115 110 88
9.685433e-001 7.627888e-001 -8.340926e+000 76 71 68
1.049394e+000 8.204099e-001 -8.490734e+000 10 9 15
4.294161e+000 1.287035e+000 -8.640443e+000 27 17 25
1.556051e+000 1.250137e+000 -6.862582e+000 60 32 20
-2.557872e+000 1.605441e-001 -7.732148e+000 166 132 87
1.108402e+000 8.490975e-001 -7.395833e+000 196 165 133
1.192385e+000 8.857813e-001 -6.907031e+000 165 110 69
1.087875e+000 3.729947e-001 -7.737570e+000 90 78 65
1.416738e+000 8.796459e-001 -6.735667e+000 183 147 99
7.790223e-001 2.644101e-002 -8.163311e+000 48 43 39
2.165361e+000 8.941007e-001 -6.815403e+000 131 106 78
-1.239310e+000 -8.766218e-001 -8.247104e+000 46 27 21
2.929624e-001 -4.544737e-001 -7.916176e+000 104 79 57
-1.661604e+000 -7.006331e-001 -7.584393e+000 34 22 26
2.474479e-001 -4.897400e-001 -7.563175e+000 68 30 17
8.223886e-002 -7.966886e-001 -7.562720e+000 72 39 26
4.486862e-001 -5.935711e-001 -7.354016e+000 60 23 14
5.045085e-001 -6.773475e-001 -7.279505e+000 95 49 26
-1.966057e-001 -1.401277e+000 -7.711681e+000 131 140 169
1.029064e+000 -8.041000e-001 -7.172590e+000 176 147 108
6.833833e-001 3.100113e+000 -8.882737e+000 174 143 103
-1.008794e+000 2.082603e+000 -1.001023e+001 178 144 102
3.432369e-001 2.406470e+000 -8.331293e+000 170 144 109
3.141642e+000 2.742606e+000 -1.044625e+001 26 14 14
3.306638e+000 2.577460e+000 -1.024314e+001 35 26 29
9.596030e-001 2.042082e+000 -8.049486e+000 44 25 24
6.257718e-002 1.520400e+000 -9.326725e+000 24 18 22
-4.046719e-001 1.215837e+000 -9.550477e+000 30 20 21
-2.088544e+000 9.164413e-001 -8.248345e+000 57 29 17
9.166158e-002 1.185542e+000 -9.389817e+000 11 9 15
-1.544806e+000 8.150077e-001 -8.451273e+000 45 20 11
-2.797584e+000 6.096493e-003 -7.861705e+000 155 107 67
-1.995016e+000 1.787146e-001 -7.805583e+000 85 57 35
1.103452e+000 8.530424e-001 -7.385465e+000 199 168 138
1.178714e+000 1.044354e+000 -6.999635e+000 133 84 41
1.171109e+000 1.059564e+000 -6.955409e+000 133 84 41
-1.737805e+000 2.849685e-002 -7.634026e+000 97 74 51
1.098206e+000 6.530419e-001 -7.084539e+000 186 153 110
1.365640e+000 5.437394e-001 -6.724298e+000 89 43 20
-1.307432e+000 -5.380645e-001 -7.818847e+000 147 113 86
1.351032e-001 -4.402336e-001 -7.655110e+000 139 100 65
8.414662e-002 -6.067240e-001 -7.756649e+000 44 19 14
2.103415e+000 1.242272e-001 -6.860261e+000 32 22 30
3.459110e+000 3.136855e+000 -1.041601e+001 97 78 61
3.496415e+000 3.135870e+000 -1.051222e+001 97 78 61
5.307760e-001 1.751276e+000 -9.058024e+000 36 31 27
5.307760e-001 1.751276e+000 -9.058024e+000 36 31 27
-2.668813e-001 1.448850e+000 -9.488776e+000 83 66 50
1.486795e+000 1.787297e+000 -8.086805e+000 12 10 16
-2.449282e+000 9.145616e-001 -8.420381e+000 135 97 52
1.581430e+000 1.376344e+000 -7.164452e+000 165 142 103
1.295831e+000 1.221047e+000 -7.048722e+000 140 96 50
1.048724e+000 9.135179e-001 -7.508508e+000 86 76 74
-2.168397e+000 1.039728e-001 -7.645929e+000 144 112 74
1.242450e+000 -4.814833e-001 -8.139831e+000 25 22 32
4.580666e-001 -4.184830e-001 -7.325423e+000 62 29 20
-2.685451e-001 2.415380e+000 -1.005668e+001 33 17 14
-1.754419e+000 7.912645e-001 -8.490273e+000 54 30 27
-1.670077e-001 9.174065e-001 -8.475370e+000 95 88 73
9.930273e-001 4.721370e-001 -7.880237e+000 92 84 64
1.370053e+000 9.833566e-001 -6.807259e+000 155 118 68
1.355289e+000 9.942244e-001 -6.764350e+000 155 118 68
1.515886e+000 9.760414e-001 -6.750524e+000 184 153 106
-1.909528e+000 -1.821320e-001 -7.459150e+000 119 84 52
1.672688e+000 7.485292e-001 -6.597451e+000 183 150 99
5.475115e-001 -8.265926e-001 -7.387882e+000 109 59 34
1.006067e+000 -6.377485e-001 -7.304918e+000 80 53 38
2.929889e+000 3.081717e+000 -1.077741e+001 47 37 35
1.033078e+000 1.455659e+000 -8.430687e+000 36 32 29
-1.162816e+000 5.718981e-001 -8.499338e+000 23 15 13
1.003088e+000 7.423987e-001 -8.232130e+000 55 45 43
5.531910e-001 2.106519e-002 -8.337394e+000 67 59 49
-1.910195e+000 -1.929001e-001 -7.468641e+000 125 90 58
-2.030196e-002 -2.893415e-001 -8.172545e+000 142 126 87
1.305383e+000 3.138692e-001 -7.089204e+000 183 145 109
-8.725053e-001 -7.188422e-001 -8.240428e+000 33 29 26
3.088681e-001 7.572091e-001 -8.021105e+000 70 64 51
-1.932111e+000 -6.048873e-001 -7.656950e+000 136 93 61
-2.114411e+000 -8.074150e-001 -7.609978e+000 44 28 27
-2.268936e+000 -1.176284e+000 -7.731050e+000 157 136 105
1.466800e+000 1.965837e+000 -8.090367e+000 126 90 54
1.326552e+000 1.259377e+000 -7.642008e+000 127 86 50
2.997772e+000 3.097536e+000 -1.074228e+001 22 14 15
-3.229512e-001 2.044676e+000 -9.658132e+000 137 115 78
3.894760e+000 2.021683e+000 -9.292631e+000 28 16 16
-1.478202e+000 1.700410e-001 -7.804943e+000 163 139 96
-1.478202e+000 1.700410e-001 -7.804943e+000 163 139 96
2.649237e-001 2.320761e-001 -8.557552e+000 156 147 118
2.633052e-001 2.251861e-001 -8.574533e+000 156 147 118
1.730559e+000 1.906179e+000 -7.499269e+000 25 20 26
2.472384e+000 1.014762e+000 -6.741306e+000 25 16 21
1.725766e+000 7.693481e-001 -7.359302e+000 186 156 106
-6.450478e-001 2.318015e+000 -9.742491e+000 159 119 77
-6.454881e-001 2.300022e+000 -9.828571e+000 168 127 83
-3.083303e-001 2.269325e+000 -9.781016e+000 54 37 13
-8.087879e-001 5.517714e-001 -8.520811e+000 97 85 71
-8.803876e-001 2.105470e-001 -8.350468e+000 88 79 62
-7.629892e-001 -1.898467e-001 -8.163924e+000 152 147 127
-1.345608e+001 -8.426794e+000 -2.822186e+001 62 67 100
-8.727893e+000 -7.175182e+000 -2.200304e+001 206 194 177
9.300529e-001 2.583124e+000 -7.974560e+000 76 48 23
-5.575071e-001 2.389675e-001 -8.256255e+000 26 14 17
-1.103179e+001 -6.324672e+000 -2.510665e+001 50 53 80
3.287573e+000 3.151594e+000 -1.058494e+001 47 32 28
2.704092e+000 3.563075e+000 -1.133418e+001 33 22 18
2.705501e+000 3.563565e+000 -1.133465e+001 33 22 18
-1.385026e+001 -9.517248e+000 -2.716910e+001 73 64 67
2.851317e+000 3.357552e+000 -1.112846e+001 26 14 17
9.020704e-001 2.599489e+000 -7.986038e+000 167 142 101
1.601363e+000 2.569947e+000 -8.287276e+000 128 109 84
1.627794e+000 2.516317e+000 -8.333427e+000 97 87 59
1.136747e+000 2.403075e+000 -7.937244e+000 159 137 101
7.212897e-001 2.247540e+000 -7.970684e+000 75 53 38
3.530115e+000 2.221057e+000 -9.886629e+000 94 80 78
4.080879e+000 2.287991e+000 -9.479597e+000 37 23 23
-2.569497e+000 9.558380e-001 -8.493621e+000 108 70 34
-1.813503e+000 7.057297e-001 -8.339119e+000 54 32 21
-7.643602e-001 6.338016e-001 -8.579276e+000 127 121 97
-5.185913e-001 6.739834e-001 -8.532190e+000 135 124 104
-3.109457e-001 7.655999e-001 -8.554874e+000 160 149 118
-3.950757e-002 7.371071e-001 -8.478805e+000 79 70 63
-1.132886e+000 5.967695e-001 -8.180481e+000 44 39 33
1.128072e+000 9.744073e-001 -8.098628e+000 63 58 55
-1.522876e+000 4.849242e-001 -7.758574e+000 50 32 17
-3.014778e-001 5.249102e-001 -8.353336e+000 115 37 45
-2.598682e+000 1.035028e-001 -7.699886e+000 172 135 92
-5.485073e-001 2.068746e-001 -8.249728e+000 141 133 90
-5.485073e-001 2.068746e-001 -8.249728e+000 141 133 90
-4.375131e-001 3.611539e-001 -8.295202e+000 149 137 99
-4.375131e-001 3.611539e-001 -8.295202e+000 149 137 99
-3.815208e-001 3.524202e-001 -8.290850e+000 22 13 18
-1.412886e+001 -9.065690e+000 -2.737995e+001 80 72 83
-1.087586e+000 -1.113726e-001 -8.097422e+000 66 57 50
-6.643684e-001 -7.205103e-003 -8.193610e+000 31 22 7
-1.804212e-001 -6.100497e-002 -8.175070e+000 144 133 104
-1.325375e+001 -1.010511e+001 -2.603834e+001 75 69 81
-8.675501e-001 -4.534430e-001 -8.161417e+000 40 35 29
-8.675501e-001 -4.534430e-001 -8.161417e+000 40 35 29
6.880688e-001 -1.357940e-001 -8.336942e+000 66 62 59
2.467034e+000 5.604568e-001 -7.165457e+000 68 52 53
8.337857e-001 -5.382642e-001 -7.194595e+000 173 133 97
8.337857e-001 -5.382642e-001 -7.194595e+000 173 133 97
3.050371e+000 3.299462e+000 -1.088036e+001 30 20 19
2.896725e+000 3.151599e+000 -1.094715e+001 29 19 20
3.420532e+000 3.296184e+000 -1.065470e+001 59 42 34
-9.520647e-001 2.257644e+000 -1.003175e+001 66 49 37
3.296311e+000 2.828442e+000 -1.044385e+001 29 17 17
3.378046e+000 2.615048e+000 -1.038107e+001 23 13 14
-1.724897e+000 9.479383e-001 -8.589857e+000 78 50 29
-1.724897e+000 9.479383e-001 -8.589857e+000 78 50 29
4.613902e-001 1.236677e+000 -8.891070e+000 43 37 39
-2.561583e+000 7.577380e-001 -8.119734e+000 160 123 78
6.795605e-001 8.966545e-001 -8.525119e+000 52 48 46
-1.034567e+001 -6.114505e+000 -2.537201e+001 149 145 143
-9.161987e-001 2.936976e-001 -8.390471e+000 80 72 62
9.726311e-001 6.757885e-001 -8.189686e+000 80 73 65
4.765208e-001 4.055308e-001 -8.348117e+000 19 12 9
1.171817e+000 9.448089e-001 -6.983819e+000 125 77 29
-1.529761e+001 -9.343761e+000 -2.738447e+001 73 62 60
-1.143769e+000 -2.448282e-001 -7.991894e+000 84 60 34
-1.316171e+001 -1.113526e+001 -2.695333e+001 31 29 43
-1.700809e+000 -5.630040e-001 -7.581530e+000 77 43 31
-2.357686e+000 -8.729926e-001 -7.724801e+000 75 49 33
-1.008166e+001 -1.122994e+001 -2.362873e+001 76 77 93
7.016264e-001 2.760598e+000 -8.111064e+000 71 45 28
1.029498e+000 2.505607e+000 -7.943750e+000 182 155 108
3.684457e+000 2.559927e+000 -9.922824e+000 37 24 28
-3.590572e-001 1.778424e+000 -9.694670e+000 116 97 68
2.424677e-001 1.485478e+000 -9.091373e+000 61 55 52
3.855988e+000 2.057542e+000 -9.501617e+000 60 48 45
-2.889441e+000 2.132373e-001 -7.939762e+000 114 75 42
-1.944056e+000 3.531460e-001 -7.763662e+000 47 18 2
-9.798418e+000 -6.814531e+000 -2.480256e+001 126 129 154
-8.924916e-001 2.655381e-001 -8.345161e+000 20 15 9
-1.182606e+001 -7.958775e+000 -2.590148e+001 120 131 169
9.637214e-001 4.755479e-001 -8.020997e+000 95 86 71
-1.355949e+001 -9.728990e+000 -2.629576e+001 124 115 118
-2.359635e+000 -9.086682e-001 -7.710527e+000 137 112 83
8.673670e-001 2.664067e+000 -8.005890e+000 70 49 26
3.678482e+000 2.612485e+000 -9.933684e+000 64 52 52
-3.345511e-002 1.048037e+000 -9.178490e+000 24 15 17
-1.382540e+001 -7.653413e+000 -2.849845e+001 42 39 49
-1.961054e+000 -2.537453e-001 -7.487820e+000 101 60 36
-1.451487e+001 -1.084722e+001 -2.598650e+001 123 111 120
1.616978e+000 5.648824e-001 -6.587301e+000 179 136 82
-1.471816e+001 -1.122055e+001 -2.587817e+001 58 47 60
-5.075705e-001 -6.065088e-001 -8.018439e+000 120 110 94
3.192686e-001 -7.330521e-001 -7.392763e+000 96 50 25
2.955108e+000 3.348174e+000 -1.095009e+001 36 24 24
-2.084286e+000 8.420404e-001 -8.215705e+000 109 76 57
1.564413e+000 1.298819e+000 -6.968686e+000 177 152 111
4.324746e+000 1.364413e+000 -8.663977e+000 50 41 40
-3.220773e-001 3.493195e-001 -8.290323e+000 145 139 107
-5.168784e-001 1.948596e-001 -8.242217e+000 146 132 104
-4.886522e-001 1.233345e-001 -8.220422e+000 25 22 19
-3.403224e-001 1.813633e-001 -8.235711e+000 23 22 18
-6.495275e-001 -1.100483e-001 -8.169267e+000 158 143 113
-5.043386e-001 -4.573733e-002 -8.170946e+000 155 143 114
-6.204722e-001 -1.802667e-001 -8.149236e+000 29 23 23
-5.481620e-001 -1.434867e-001 -8.144571e+000 151 136 104
-2.239631e-001 -1.012185e-001 -8.163732e+000 35 22 23
1.762077e+000 8.095339e-001 -6.616543e+000 63 39 35
-6.629714e-001 -2.805170e-001 -8.124804e+000 30 26 24
-1.008161e+001 -5.912744e+000 -2.534056e+001 27 23 37
4.503168e-001 -5.999482e-001 -7.364656e+000 60 23 14
-1.131222e+001 -8.584148e+000 -2.605094e+001 69 66 93
-1.061267e+001 -1.091109e+001 -2.437745e+001 33 32 46
-5.240698e-001 -1.156745e+000 -8.011413e+000 186 184 179
2.601714e+000 3.281938e+000 -1.106600e+001 37 27 21
5.248504e-001 2.857099e+000 -8.111896e+000 115 71 42
2.645668e+000 3.162138e+000 -1.093006e+001 96 83 75
3.423634e+000 3.253239e+000 -1.057251e+001 60 44 32
-6.706132e-001 2.168060e+000 -9.761909e+000 94 51 19
-2.662653e-001 2.264971e+000 -9.788480e+000 119 100 73
3.200823e-001 2.526410e+000 -8.424749e+000 100 75 43
3.925286e+000 2.996039e+000 -1.034403e+001 27 16 16
9.944031e-001 2.555404e+000 -7.944060e+000 166 142 106
3.055334e+000 2.691348e+000 -1.037676e+001 81 68 60
3.776802e+000 2.955061e+000 -1.018142e+001 79 64 59
-9.730136e-001 1.722162e+000 -9.747360e+000 104 68 42
-7.408930e-001 1.875418e+000 -9.642110e+000 70 41 20
-8.196545e-001 1.834590e+000 -9.577644e+000 120 86 54
-5.960278e-001 1.819268e+000 -9.588753e+000 129 106 76
1.119990e+000 2.458403e+000 -7.967974e+000 170 146 109
3.509541e+000 2.706005e+000 -1.019916e+001 26 16 15
-7.172790e-001 1.637343e+000 -9.539944e+000 152 120 81
-5.695177e-001 1.709690e+000 -9.493867e+000 157 131 94
7.539486e-001 2.351887e+000 -7.867969e+000 49 36 27
1.271781e+000 2.394917e+000 -7.946565e+000 168 146 104
3.638497e+000 2.491930e+000 -1.009319e+001 43 33 31
-6.975070e-001 1.589487e+000 -9.572029e+000 115 81 43
-6.272756e-001 1.626394e+000 -9.545100e+000 96 67 27
-6.358600e-001 1.552419e+000 -9.537778e+000 115 82 43
7.291547e-001 2.085427e+000 -8.042830e+000 57 38 28
-2.151028e+000 1.092625e+000 -8.790361e+000 64 40 25
-2.462226e+000 9.304489e-001 -8.315625e+000 160 122 80
-1.929238e+000 1.031594e+000 -8.637118e+000 72 41 21
-1.322076e+000 9.185932e-001 -9.102979e+000 138 132 112
-1.095548e+000 9.955797e-001 -8.996496e+000 132 127 97
3.740593e+000 1.981744e+000 -9.558079e+000 32 21 20
-1.718784e+000 9.512886e-001 -8.532441e+000 75 50 28
-1.119757e+000 8.431561e-001 -8.912510e+000 20 15 10
-1.824439e+000 8.085295e-001 -8.304023e+000 71 48 37
-1.762056e+000 7.998850e-001 -8.435771e+000 70 51 41
-2.334498e+000 6.092718e-001 -7.867366e+000 101 66 33
-1.021156e+000 7.015560e-001 -8.749975e+000 36 29 25
-5.798896e-001 7.119769e-001 -8.587523e+000 26 20 21
-5.798896e-001 7.119769e-001 -8.587523e+000 26 20 21
-2.194704e+000 5.124464e-001 -7.806888e+000 120 91 62
-8.290055e-001 6.190476e-001 -8.548095e+000 90 75 56
4.292245e+000 1.561897e+000 -9.023159e+000 58 46 48
-2.555292e+000 3.559902e-001 -7.782225e+000 126 87 46
-2.066000e+000 4.827711e-001 -7.768774e+000 85 56 33
-2.591758e+000 1.168141e-001 -7.678393e+000 170 135 93
-5.511997e-001 3.556781e-001 -8.315356e+000 130 115 92
6.394126e-002 5.140113e-001 -8.355609e+000 26 20 9
6.394126e-002 5.140113e-001 -8.355609e+000 26 20 9
5.450328e-001 5.210056e-001 -8.386304e+000 49 41 38
-6.449717e-001 2.182681e-001 -8.286602e+000 151 138 109
5.692763e-001 4.655703e-001 -8.392636e+000 44 39 34
1.281672e+000 1.134456e+000 -6.953570e+000 103 61 19
-1.739559e+000 7.803448e-002 -7.668248e+000 98 85 69
-1.678189e+000 -1.922303e-002 -7.739188e+000 66 40 15
3.662423e-001 2.444411e-001 -8.288967e+000 155 139 103
5.132287e-001 2.921540e-001 -8.312757e+000 114 98 75
2.546911e-001 -1.811791e-003 -8.275140e+000 154 145 113
2.546911e-001 -1.811791e-003 -8.275140e+000 154 145 113
-3.030191e+000 -6.741199e-001 -7.943687e+000 184 152 132
-1.266245e+000 -2.320503e-001 -7.838007e+000 135 100 68
-1.217019e+000 -2.944080e-001 -7.824220e+000 121 89 58
2.377847e-001 -8.748340e-002 -8.262196e+000 25 17 23
5.150052e-001 1.042420e-002 -8.308616e+000 29 23 25
-2.758019e+000 -6.531086e-001 -7.683298e+000 164 119 79
-1.669383e+000 -4.808457e-001 -7.579636e+000 58 29 12
-5.612196e-001 -5.762837e-001 -8.003782e+000 33 27 24
2.504892e+000 5.508361e-001 -7.219706e+000 23 12 18
-1.749495e+000 -7.823895e-001 -7.626172e+000 29 19 18
-1.704869e+000 -6.801546e-001 -7.586861e+000 87 68 52
1.548973e+000 4.594891e-001 -6.560216e+000 156 107 63
-2.192658e+000 -1.257976e+000 -7.797895e+000 155 136 116
-2.172048e+000 -1.415029e+000 -7.843344e+000 110 102 103
-5.334448e+000 -5.831338e+000 -1.338487e+001 187 170 150
-2.892999e-001 -1.081746e+000 -7.839359e+000 44 38 38
6.394506e-001 -5.761189e-001 -7.293412e+000 90 49 21
-3.091794e-001 -1.301428e+000 -7.895668e+000 34 24 23
-1.068349e-001 -1.143717e+000 -7.635216e+000 47 29 21
3.196345e+000 3.522442e+000 -1.097172e+001 108 90 80
3.196345e+000 3.522442e+000 -1.097172e+001 108 90 80
2.879857e+000 3.260133e+000 -1.105216e+001 27 17 18
3.784306e+000 3.494921e+000 -1.081883e+001 81 67 58
3.757287e+000 3.464987e+000 -1.080437e+001 59 46 40
-3.635414e-001 2.598562e+000 -1.007317e+001 92 71 55
3.351058e+000 3.300698e+000 -1.065576e+001 107 90 70
2.929267e+000 3.029704e+000 -1.084770e+001 50 41 38
