ply
format ascii 1.0
element face 0
property list uchar int vertex_indices
element vertex 878
property float x
property float y
property float z
property uchar diffuse_red
property uchar diffuse_green
property uchar diffuse_blue
end_header
8.619475e-001 -1.163152e+000 -7.490803e+000 96 54 21
9.752625e-001 -1.125552e+000 -7.436597e+000 176 134 102
1.262522e+000 -1.223576e+000 -7.481434e+000 148 117 94
-6.684851e-001 -1.619402e-001 -8.673555e+000 114 105 94
6.167305e-001 -1.225573e+000 -7.571648e+000 166 122 92
6.136183e-001 -1.323176e+000 -7.614722e+000 163 118 91
-2.468660e+000 -3.311077e-001 -8.061141e+000 171 142 104
-9.075401e-001 -6.937212e-001 -8.324062e+000 103 94 85
1.111889e-001 -8.024597e-001 -8.447251e+000 114 108 93
-2.570026e+000 -4.270313e-001 -8.048733e+000 151 107 66
-1.861445e+000 -7.863037e-001 -7.780579e+000 158 121 94
-1.842887e+000 -7.410380e-001 -7.858558e+000 78 41 14
-1.403296e+000 -8.791884e-001 -7.990737e+000 98 61 35
-2.838572e-001 -1.040203e+000 -8.300936e+000 131 124 105
-3.057630e-001 -1.032870e+000 -8.332772e+000 21 16 12
5.204928e-001 -1.614642e+000 -7.676532e+000 154 115 84
7.017183e-001 -1.699733e+000 -7.601945e+000 193 150 112
9.219114e-001 -1.690042e+000 -7.723387e+000 169 126 91
9.701558e-001 -1.709805e+000 -7.742800e+000 120 76 36
-1.807459e+000 -9.858128e-001 -7.849288e+000 131 89 66
-8.888246e-001 -9.342065e-001 -8.536862e+000 88 78 77
-6.921572e-001 -9.194624e-001 -8.456958e+000 137 132 119
-2.703176e-001 -1.246310e+000 -8.283518e+000 114 110 100
1.415763e+000 -1.822552e+000 -7.979962e+000 114 102 104
-2.477364e+000 -9.492052e-001 -7.971421e+000 102 61 32
-1.500418e+000 -1.182731e+000 -7.995684e+000 45 26 19
-1.230203e+000 -1.134722e+000 -8.149436e+000 95 69 44
-9.471313e-001 -1.008528e+000 -8.494944e+000 76 56 50
2.447688e-001 -1.685664e+000 -7.942993e+000 49 30 26
9.157823e-001 -1.953760e+000 -7.919937e+000 131 87 61
1.212516e+000 -1.976422e+000 -8.079807e+000 121 110 104
-2.714020e+000 -9.901931e-001 -8.047817e+000 158 116 71
-2.109124e+000 -1.101751e+000 -7.886857e+000 94 63 52
-1.263585e+000 -1.378306e+000 -8.165813e+000 55 40 38
-1.140775e+000 -1.251661e+000 -8.248727e+000 69 49 42
-3.439924e-001 -1.512178e+000 -8.300203e+000 160 157 158
4.180622e-001 -1.930007e+000 -7.927073e+000 86 55 34
-2.882173e+000 -1.002862e+000 -8.108910e+000 109 72 47
-2.808810e+000 -1.084750e+000 -8.116344e+000 130 81 41
-2.685382e+000 -1.153547e+000 -8.039585e+000 152 108 73
-8.603077e-001 -1.325271e+000 -8.719737e+000 138 137 145
2.302803e-001 -1.957762e+000 -8.065441e+000 55 37 32
2.629640e-001 -1.990151e+000 -8.053319e+000 65 42 43
3.978499e-001 -2.010049e+000 -8.069123e+000 33 18 13
7.471140e-001 -2.022150e+000 -8.239505e+000 136 113 99
7.204496e-001 -2.021874e+000 -8.301123e+000 159 139 131
-1.266389e+000 -1.552281e+000 -8.235714e+000 28 12 15
-1.276474e+000 -1.570069e+000 -8.262600e+000 102 86 87
-2.006516e+000 -1.773883e+000 -8.226251e+000 65 36 29
-1.899538e+000 -1.815372e+000 -8.451515e+000 96 67 59
-1.696543e+000 -1.885251e+000 -8.367825e+000 172 140 121
-1.624599e+000 -1.875368e+000 -8.461229e+000 183 155 141
-2.080601e+000 -5.965728e-002 -1.614630e+001 91 81 80
7.662400e-001 2.124783e+000 -8.279326e+000 98 60 40
1.150828e+000 2.056010e+000 -8.268895e+000 159 138 108
8.260362e-001 1.959990e+000 -8.294038e+000 85 51 36
8.738084e-001 1.947641e+000 -8.424153e+000 67 45 24
1.530483e+000 1.631440e+000 -8.218054e+000 132 95 72
1.494121e+000 5.175217e-001 -7.064682e+000 172 135 93
2.058965e+000 1.063382e-002 -6.757502e+000 141 98 70
6.854520e-001 1.950203e+000 -8.650024e+000 126 104 89
9.802603e-001 1.715781e+000 -8.349895e+000 42 29 23
1.134631e+000 1.568384e+000 -8.238148e+000 91 71 60
9.003833e-001 1.607581e+000 -8.570352e+000 98 88 85
1.624315e+000 2.562922e-002 -7.017458e+000 97 55 33
2.078431e+000 -1.758596e-001 -6.835525e+000 195 160 132
2.154709e+000 -2.406862e-001 -6.935143e+000 149 118 97
2.154709e+000 -2.406862e-001 -6.935143e+000 149 118 97
1.347769e+000 6.276112e-001 -7.707719e+000 187 165 141
2.505737e+000 -2.378363e-001 -7.254208e+000 23 12 18
1.541787e+000 -8.962461e-002 -7.150559e+000 186 144 119
1.521917e+000 -8.558424e-002 -7.222664e+000 192 159 136
1.591227e+000 -9.972630e-002 -7.210917e+000 120 78 54
2.007302e+000 -2.901642e-001 -7.062518e+000 122 85 65
2.013419e+000 -3.633371e-001 -7.137823e+000 152 126 103
6.863739e-001 1.579987e+000 -9.242187e+000 38 33 29
1.833325e+000 -3.521262e-001 -7.587148e+000 51 41 37
1.968931e+000 -3.774900e-001 -7.394301e+000 158 122 93
2.113417e+000 -3.998339e-001 -7.634501e+000 45 35 43
6.658014e-002 1.869609e+000 -1.022074e+001 135 114 93
7.682291e-001 6.796584e-001 -9.075334e+000 24 20 21
-6.990347e-001 1.402442e+000 -1.017408e+001 182 149 112
-4.254634e-001 1.246897e+000 -9.882505e+000 142 113 78
-3.516834e-001 1.206800e+000 -9.898695e+000 128 104 69
1.974115e-001 9.559744e-002 -8.662878e+000 24 20 8
7.053639e-001 1.323729e-003 -8.612576e+000 91 86 80
7.053639e-001 1.323729e-003 -8.612576e+000 91 86 80
8.052889e-001 -9.681837e-001 -7.529994e+000 114 76 37
-1.114855e+000 -1.077171e-001 -8.178498e+000 132 112 87
2.116874e-001 -2.946569e-001 -8.567533e+000 18 13 10
2.116874e-001 -2.946569e-001 -8.567533e+000 18 13 10
-2.432570e+000 -4.478944e-002 -8.159224e+000 178 146 105
5.621252e-001 -1.309140e+000 -7.556168e+000 166 124 99
7.228582e-001 -1.310394e+000 -7.616645e+000 90 45 26
6.822170e-001 -1.545019e+000 -7.647034e+000 121 76 45
1.038767e+000 -1.606968e+000 -7.650291e+000 133 90 53
-2.020454e+000 -7.952639e-001 -7.874616e+000 132 92 64
-1.850186e+000 -7.834571e-001 -7.851114e+000 134 95 66
-1.850186e+000 -7.834571e-001 -7.851114e+000 134 95 66
-2.276030e-001 -1.054940e+000 -8.319889e+000 25 19 16
-2.265997e-001 -1.045158e+000 -8.338695e+000 25 19 16
-2.319898e-001 -1.096667e+000 -8.307152e+000 104 100 91
-1.552877e-001 -1.095219e+000 -8.396457e+000 24 19 15
4.053057e-001 -1.502094e+000 -7.720308e+000 81 53 33
8.481224e-001 -1.572475e+000 -7.787958e+000 120 69 29
1.443865e+000 -1.735262e+000 -7.877080e+000 114 103 102
1.443865e+000 -1.735262e+000 -7.877080e+000 114 103 102
-2.209875e+000 -8.781450e-001 -7.827484e+000 135 96 67
1.099148e-001 -1.504563e+000 -7.911827e+000 30 20 18
3.050261e-001 -1.631984e+000 -7.905513e+000 138 108 80
5.146272e-001 -1.612771e+000 -7.789774e+000 85 47 24
1.101427e+000 -1.794841e+000 -7.750714e+000 178 143 105
1.160262e+000 -1.863022e+000 -7.851589e+000 132 97 64
-2.329611e+000 -9.439408e-001 -7.841193e+000 146 105 76
-2.405007e+000 -9.702315e-001 -7.870681e+000 101 60 32
-2.294887e+000 -9.980367e-001 -7.883742e+000 126 85 62
-1.906116e+000 -1.106686e+000 -7.899682e+000 111 75 56
-1.906116e+000 -1.106686e+000 -7.899682e+000 111 75 56
-2.336584e-001 -1.512959e+000 -8.189592e+000 49 40 34
7.619537e-002 -1.582079e+000 -7.979249e+000 58 46 48
6.635909e-002 -1.632452e+000 -7.954353e+000 27 18 21
2.897805e-001 -1.731646e+000 -7.943207e+000 66 41 28
5.522714e-001 -1.794161e+000 -7.785275e+000 150 106 81
5.857427e-001 -1.891967e+000 -7.840944e+000 125 98 94
-2.721865e+000 -9.460134e-001 -8.059706e+000 66 32 20
-2.721865e+000 -9.460134e-001 -8.059706e+000 66 32 20
-7.552629e-001 -1.233117e+000 -8.557343e+000 111 111 113
2.727908e-001 -1.806508e+000 -7.944826e+000 122 94 74
3.963283e-001 -1.824201e+000 -7.899087e+000 147 111 79
1.183984e+000 -1.967457e+000 -8.111057e+000 39 30 37
-2.449184e+000 -1.257977e+000 -8.012518e+000 106 74 59
-1.807213e+000 -1.387098e+000 -7.950894e+000 44 33 38
-1.807213e+000 -1.387098e+000 -7.950894e+000 44 33 38
-9.835025e-001 -1.305076e+000 -8.770207e+000 35 29 29
3.733232e-001 -2.006539e+000 -8.086820e+000 101 84 77
4.413706e-001 -2.010860e+000 -8.001241e+000 42 23 17
-2.888083e+000 -1.076211e+000 -8.201999e+000 173 137 107
-2.371902e+000 -1.390758e+000 -8.090565e+000 87 59 45
-1.320182e+000 -1.540199e+000 -8.217767e+000 70 60 62
-1.320182e+000 -1.540199e+000 -8.217767e+000 70 60 62
-1.362872e+000 -1.551521e+000 -8.230730e+000 13 7 9
2.962554e-001 -2.035500e+000 -8.126631e+000 124 102 93
2.962554e-001 -2.035500e+000 -8.126631e+000 124 102 93
-2.794934e+000 -1.383546e+000 -8.048259e+000 198 164 134
-1.309301e+000 -1.724124e+000 -8.507186e+000 163 144 141
-2.989860e+000 -1.461741e+000 -8.165722e+000 105 89 82
-2.451114e+000 -1.646612e+000 -8.124577e+000 48 29 14
-1.925104e+000 -1.771476e+000 -8.230219e+000 33 22 21
-1.647617e+000 -1.815595e+000 -8.350035e+000 98 63 44
-1.604523e+000 -1.847201e+000 -8.374807e+000 162 135 118
-2.960457e+000 -1.608432e+000 -8.168258e+000 189 171 156
-2.960457e+000 -1.608432e+000 -8.168258e+000 189 171 156
-2.506933e+000 -1.877493e+000 -8.404724e+000 177 155 148
7.469115e-001 2.299099e+000 -8.341978e+000 107 68 36
1.980137e+000 4.627328e-002 -6.716867e+000 153 118 82
1.614244e+000 2.273027e-001 -6.915895e+000 196 154 112
1.873694e+000 6.884401e-003 -6.811928e+000 163 119 90
7.456890e-001 1.792133e+000 -8.665147e+000 33 19 16
2.247126e+000 -3.099659e-001 -7.117954e+000 35 16 9
1.483177e+000 1.908887e-002 -7.283549e+000 168 128 101
1.658764e+000 -1.482761e-001 -7.217060e+000 152 105 77
1.694119e+000 -2.485053e-001 -7.071666e+000 177 138 109
1.980193e+000 -3.070313e-001 -7.078612e+000 172 140 113
1.978857e+000 -2.923991e-001 -7.142063e+000 125 90 62
1.459550e+000 1.701649e-001 -7.782157e+000 57 48 49
1.900817e+000 -3.262191e-001 -7.214135e+000 171 136 107
1.502065e+000 -4.040876e-002 -7.651484e+000 47 39 36
-9.159506e-002 2.011450e+000 -1.019892e+001 52 35 25
6.002312e-001 1.050628e+000 -9.208081e+000 44 41 36
1.318318e+000 2.950572e-001 -8.362124e+000 25 16 17
1.625033e-001 1.339603e-001 -8.653897e+000 115 102 94
6.721062e-001 -6.083060e-002 -8.610754e+000 98 94 83
6.721062e-001 -6.083060e-002 -8.610754e+000 98 94 83
-1.995923e-001 -6.216704e-002 -8.612661e+000 127 119 99
1.005522e+000 -1.112751e+000 -7.528417e+000 107 61 36
1.450593e+000 -1.316447e+000 -7.541752e+000 39 32 48
-1.755313e+000 -3.913844e-002 -8.139043e+000 37 15 25
1.025412e+000 -1.380895e+000 -7.526128e+000 89 48 18
1.453151e+000 -1.355451e+000 -7.556773e+000 136 129 110
1.450294e+000 -1.357006e+000 -7.552996e+000 136 129 110
1.468045e+000 -1.418459e+000 -7.654967e+000 90 82 71
1.336182e+000 -1.484212e+000 -7.571731e+000 166 139 107
1.336182e+000 -1.484212e+000 -7.571731e+000 166 139 107
-8.907640e-001 -7.472245e-001 -8.296346e+000 14 13 17
-8.907640e-001 -7.472245e-001 -8.296346e+000 14 13 17
2.817952e-001 -1.296932e+000 -7.788866e+000 60 28 5
2.817952e-001 -1.296932e+000 -7.788866e+000 60 28 5
-1.669839e+000 -8.494533e-001 -7.906780e+000 111 76 49
3.483367e-001 -1.475605e+000 -7.780972e+000 65 39 22
1.057342e+000 -1.670410e+000 -7.654536e+000 148 104 69
-2.063424e+000 -9.629467e-001 -7.839746e+000 122 85 59
-1.938784e+000 -8.361773e-001 -7.892356e+000 80 37 21
1.162763e-001 -1.557877e+000 -7.890294e+000 94 80 76
1.162763e-001 -1.557877e+000 -7.890294e+000 94 80 76
3.767707e-001 -1.697681e+000 -7.804406e+000 147 115 88
6.802756e-001 -1.683260e+000 -7.690677e+000 128 83 47
1.185405e+000 -1.858263e+000 -7.829697e+000 193 159 125
-2.289601e+000 -9.129687e-001 -7.839433e+000 99 60 31
-2.372588e+000 -1.002795e+000 -7.880415e+000 118 78 52
-1.694389e+000 -1.137700e+000 -7.869163e+000 62 30 20
-3.350866e-001 -1.443081e+000 -8.289174e+000 52 48 47
-2.932889e-001 -1.454880e+000 -8.238383e+000 157 153 154
2.665214e-001 -1.719298e+000 -7.896782e+000 158 132 112
2.508855e-001 -1.775380e+000 -7.893793e+000 45 24 18
1.073577e+000 -1.915083e+000 -7.870543e+000 172 133 94
-9.711303e-001 -1.192278e+000 -8.664405e+000 22 16 17
1.301941e-001 -1.771869e+000 -7.968197e+000 32 15 25
3.757049e-001 -1.897632e+000 -7.970602e+000 176 142 115
1.782724e-001 -1.877704e+000 -8.004733e+000 45 25 21
4.851149e-001 -2.005612e+000 -8.023359e+000 104 84 75
5.635402e-001 -2.054674e+000 -8.066948e+000 43 25 25
-2.319396e+000 -1.371747e+000 -8.043142e+000 95 67 53
-1.308403e+000 -1.590844e+000 -8.281264e+000 28 18 17
-4.207994e-001 -1.688332e+000 -8.562386e+000 181 181 189
-4.207994e-001 -1.688332e+000 -8.562386e+000 181 181 189
-2.807125e+000 -1.428179e+000 -8.098847e+000 194 152 116
-1.186806e+000 -1.633750e+000 -8.680348e+000 158 131 127
-4.907688e-001 -1.801324e+000 -8.743889e+000 160 160 170
-1.968411e+000 -1.798688e+000 -8.194116e+000 100 78 65
-1.760705e+000 -1.761116e+000 -8.278025e+000 45 26 28
-1.567513e+000 -1.832819e+000 -8.415374e+000 111 74 58
-1.968095e-001 -1.903572e+000 -9.489570e+000 93 85 71
-2.726023e+000 -1.632956e+000 -8.082235e+000 193 150 108
6.280888e-001 2.482361e+000 -8.532563e+000 181 145 113
1.321989e+000 1.886488e+000 -8.220937e+000 68 51 40
7.862242e-001 1.916143e+000 -8.558998e+000 61 39 27
1.670567e+000 2.334224e-001 -6.931703e+000 139 95 60
1.723478e+000 8.385151e-002 -6.871130e+000 129 81 58
1.882530e+000 -5.434869e-002 -6.791436e+000 184 152 125
7.989966e-001 1.792104e+000 -8.622003e+000 46 31 28
8.747446e-001 1.702079e+000 -8.479605e+000 41 26 23
9.716891e-001 1.634698e+000 -8.661497e+000 29 20 23
1.680873e+000 2.181254e-002 -6.955755e+000 112 64 42
2.466309e+000 -1.910524e-001 -7.041210e+000 148 128 119
2.466309e+000 -1.910524e-001 -7.041210e+000 148 128 119
1.676004e+000 -9.329111e-002 -7.022534e+000 103 58 35
1.115225e+000 1.371561e+000 -8.724968e+000 45 39 39
1.402203e+000 2.283154e-001 -7.474373e+000 194 160 131
1.920237e+000 -3.851897e-001 -7.251607e+000 175 139 117
1.323571e+000 3.323900e-001 -8.153197e+000 96 89 84
2.003505e+000 -3.758857e-001 -7.551821e+000 150 124 100
-2.319741e-001 2.144750e+000 -1.016424e+001 63 53 53
1.459276e+000 1.173672e-002 -7.972062e+000 71 66 62
1.237556e+000 9.590552e-002 -8.483141e+000 49 46 39
4.924099e-001 3.520882e-001 -8.808805e+000 42 37 34
2.778221e-001 5.069765e-002 -8.641418e+000 18 18 18
4.350792e-001 1.046177e-001 -8.658770e+000 26 20 31
4.611748e-001 3.250082e-002 -8.642562e+000 126 115 97
4.611748e-001 3.250082e-002 -8.642562e+000 126 115 97
1.196532e-001 -1.189293e-002 -8.606088e+000 23 16 23
3.857581e-001 7.637338e-003 -8.646296e+000 21 15 12
4.119173e-001 -7.540720e-002 -8.616606e+000 136 131 99
4.897890e-001 -3.420576e-002 -8.631284e+000 24 18 21
4.897890e-001 -3.420576e-002 -8.631284e+000 24 18 21
5.132934e-001 -1.171566e-001 -8.587227e+000 135 130 111
5.132934e-001 -1.171566e-001 -8.587227e+000 135 130 111
4.384394e-001 -1.471168e-001 -8.603106e+000 22 17 14
4.384394e-001 -1.471168e-001 -8.603106e+000 22 17 14
4.679411e-001 -2.182850e-001 -8.579270e+000 146 143 121
4.679411e-001 -2.182850e-001 -8.579270e+000 146 143 121
6.202907e-001 -1.602661e-001 -8.574812e+000 125 118 102
5.428130e-001 -1.879088e-001 -8.566335e+000 28 23 23
5.428130e-001 -1.879088e-001 -8.566335e+000 28 23 23
5.747498e-001 -2.604030e-001 -8.559758e+000 135 126 99
5.747498e-001 -2.604030e-001 -8.559758e+000 135 126 99
3.932916e-001 -2.488191e-001 -8.594831e+000 29 25 25
4.196781e-001 -3.254392e-001 -8.572661e+000 143 136 115
4.196781e-001 -3.254392e-001 -8.572661e+000 143 136 115
-3.623179e-001 -3.580381e-001 -8.538772e+000 122 116 93
-3.623179e-001 -3.580381e-001 -8.538772e+000 122 116 93
-8.936017e-001 -5.069785e-001 -8.416782e+000 15 7 14
2.042415e-001 -6.621573e-001 -8.474664e+000 23 18 24
1.484924e+000 -1.574511e+000 -7.720959e+000 136 119 111
-1.736981e+000 -5.565019e-001 -7.882916e+000 125 99 72
-5.182156e-001 -6.066473e-001 -8.492726e+000 20 14 14
-5.012681e-001 -6.825087e-001 -8.468506e+000 126 122 101
-5.012681e-001 -6.825087e-001 -8.468506e+000 126 122 101
-5.704661e-001 -7.224503e-001 -8.466269e+000 23 23 31
-2.074601e+000 -6.511686e-001 -7.861676e+000 161 134 104
-1.628390e+000 -7.908398e-001 -7.997428e+000 73 36 15
-5.460794e-001 -7.979326e-001 -8.435132e+000 131 124 108
-5.460794e-001 -7.979326e-001 -8.435132e+000 131 124 108
-5.865771e-001 -8.919195e-001 -8.452059e+000 129 122 109
-5.865771e-001 -8.919195e-001 -8.452059e+000 129 122 109
-5.526213e-001 -9.613735e-001 -8.413024e+000 21 20 18
-5.139137e-001 -8.588182e-001 -8.418945e+000 23 20 17
-4.859475e-001 -9.256062e-001 -8.389371e+000 127 118 113
-4.864454e-001 -9.330271e-001 -8.374737e+000 127 118 113
-4.499577e-001 -9.893352e-001 -8.357275e+000 30 24 24
8.899533e-001 -1.616566e+000 -7.679759e+000 117 73 38
1.228890e+000 -1.708076e+000 -7.718937e+000 168 133 100
1.228890e+000 -1.708076e+000 -7.718937e+000 168 133 100
-6.166199e-001 -1.009348e+000 -8.428794e+000 124 117 109
-6.166199e-001 -1.009348e+000 -8.428794e+000 124 117 109
-5.233478e-001 -1.032976e+000 -8.372151e+000 132 123 116
4.878048e-001 -1.657365e+000 -7.783420e+000 166 127 92
-2.339409e+000 -9.133702e-001 -7.817726e+000 100 59 31
-2.471105e+000 -1.011069e+000 -7.943308e+000 130 92 55
-7.938629e-001 -1.272856e+000 -8.579186e+000 16 15 21
-7.554630e-001 -1.318171e+000 -8.580127e+000 131 133 138
9.683023e-001 -2.007320e+000 -7.991093e+000 160 130 98
-1.581160e+000 -1.372331e+000 -7.990739e+000 12 7 14
-7.836160e-001 -1.377825e+000 -8.617620e+000 20 23 32
5.514277e-001 -1.993741e+000 -8.058583e+000 47 27 26
9.299177e-001 -2.054788e+000 -8.206235e+000 29 19 30
-1.205009e+000 -1.554129e+000 -8.308344e+000 37 23 23
-8.295413e-001 -1.445734e+000 -8.794044e+000 31 33 46
-8.300861e-001 -1.461916e+000 -8.759738e+000 31 33 46
-8.007526e-001 -1.563358e+000 -8.807786e+000 56 61 79
-1.947898e+000 -1.673811e+000 -8.149215e+000 39 23 26
-1.970259e+000 -1.744287e+000 -8.122152e+000 52 33 30
-2.969178e+000 -1.558282e+000 -8.181880e+000 85 71 60
9.720151e-001 1.812455e+000 -8.319820e+000 35 21 23
1.914651e+000 1.016972e-001 -6.825186e+000 132 88 58
1.959318e+000 7.425145e-003 -6.735246e+000 187 151 117
1.336071e+000 1.544964e+000 -8.336354e+000 44 24 23
1.388194e+000 1.491046e+000 -8.361951e+000 74 47 26
1.846503e+000 -3.438546e-002 -6.844404e+000 93 51 26
1.857193e+000 -1.503255e-002 -6.867948e+000 93 51 26
2.177291e+000 -3.899092e-001 -7.165550e+000 51 29 31
2.243210e+000 -3.382682e-001 -7.405136e+000 58 38 30
1.985260e+000 -3.144929e-001 -7.635930e+000 79 63 50
1.343760e-001 1.997922e+000 -1.034476e+001 43 29 26
6.736662e-001 1.130350e+000 -9.264197e+000 49 44 40
6.852189e-001 9.687047e-001 -9.154269e+000 73 68 65
1.287619e+000 -1.035018e-001 -8.194214e+000 53 48 44
-3.734487e-001 1.365587e+000 -9.913357e+000 155 130 99
1.427864e-001 3.620756e-001 -8.817709e+000 125 122 107
6.673502e-001 -3.291250e-001 -8.549694e+000 154 146 124
1.119097e+000 -1.157166e+000 -7.401532e+000 164 127 100
1.173859e+000 -1.273308e+000 -7.482335e+000 107 69 37
1.167924e+000 -1.286335e+000 -7.460174e+000 107 69 37
-8.499338e-001 -5.596615e-002 -8.904367e+000 97 94 81
1.301437e-001 -6.891631e-001 -8.462678e+000 129 120 91
4.739325e-001 -1.284006e+000 -7.653162e+000 161 122 91
-2.459553e+000 -2.776459e-001 -8.080710e+000 168 138 100
-1.404260e+000 -6.610942e-001 -7.995392e+000 103 64 34
-1.141236e-001 -9.434413e-001 -8.356484e+000 119 111 89
4.609031e-001 -1.372530e+000 -7.684206e+000 88 47 25
6.686940e-001 -1.415980e+000 -7.600120e+000 115 70 47
1.685435e-001 -1.447749e+000 -7.864605e+000 145 122 101
4.491324e-001 -1.548753e+000 -7.740861e+000 189 154 126
-1.081651e+000 -9.776297e-001 -8.158703e+000 67 40 21
-1.081651e+000 -9.776297e-001 -8.158703e+000 67 40 21
-4.921673e-001 -1.107963e+000 -8.333547e+000 24 23 18
-1.316914e-001 -1.207428e+000 -8.297814e+000 126 121 108
2.600318e-001 -1.583823e+000 -7.882591e+000 164 144 122
1.011424e+000 -1.796556e+000 -7.752111e+000 179 143 107
-1.869312e+000 -1.055082e+000 -7.891647e+000 66 30 8
-1.142000e+000 -1.165357e+000 -8.230916e+000 48 28 22
-4.585755e-002 -1.518831e+000 -8.107517e+000 32 21 24
2.291046e-001 -1.660603e+000 -7.914612e+000 30 19 22
7.750308e-001 -1.938355e+000 -7.885743e+000 169 128 103
-1.861299e+000 -1.270479e+000 -7.892872e+000 55 31 29
-1.421734e+000 -1.334973e+000 -8.062990e+000 46 32 31
-1.052334e+000 -1.233201e+000 -8.417489e+000 43 24 21
7.751587e-001 -1.983042e+000 -7.932388e+000 47 27 21
-2.825844e+000 -1.021869e+000 -8.131254e+000 152 106 68
-1.638694e+000 -1.658521e+000 -8.131323e+000 23 11 16
1.079253e+000 2.008714e+000 -8.268512e+000 65 49 43
5.714526e-001 2.388806e+000 -8.785827e+000 211 194 164
1.693511e+000 2.320376e-001 -6.839597e+000 179 141 96
8.977920e-001 1.663044e+000 -8.499486e+000 32 18 18
1.516761e+000 1.000280e-001 -6.919356e+000 182 141 107
1.959732e+000 -1.827194e-001 -6.999540e+000 107 63 34
2.343510e+000 -2.775593e-001 -7.072724e+000 129 100 82
2.118159e+000 -3.403949e-001 -7.149494e+000 126 93 78
3.963844e-001 2.141415e-001 -8.701429e+000 106 99 91
5.268334e-001 2.016282e-001 -8.723190e+000 110 103 90
-1.004420e-001 1.875912e-001 -8.761146e+000 21 19 20
7.669256e-001 -1.120704e+000 -7.553915e+000 94 53 34
7.674501e-001 -1.119385e+000 -7.556313e+000 94 53 34
-2.074610e+000 -5.765243e-002 -8.053873e+000 173 149 115
-9.170295e-001 1.388703e-002 -8.908249e+000 24 19 16
8.455420e-001 -1.239818e+000 -7.578113e+000 94 53 34
-1.003160e+000 -2.626099e-001 -8.538949e+000 109 94 71
-2.387499e+000 -5.482612e-001 -7.931825e+000 168 145 111
1.284668e+000 -1.881551e+000 -7.895919e+000 171 147 130
-2.865844e-001 -1.441360e+000 -8.395772e+000 148 142 144
-2.593980e+000 -1.357334e+000 -7.981864e+000 126 102 75
-1.335893e+000 -1.586056e+000 -8.283787e+000 31 19 23
-2.356659e+000 -1.406208e+000 -8.144431e+000 56 29 20
-2.462339e+000 -1.549804e+000 -8.137006e+000 143 126 100
-1.611743e+000 -1.848894e+000 -8.520876e+000 171 144 130
9.465738e-001 1.818324e+000 -8.521564e+000 128 101 78
1.382401e+000 6.099218e-001 -7.706410e+000 184 156 128
2.361791e+000 -3.207217e-001 -7.574420e+000 82 58 54
2.178305e+000 -3.796367e-001 -7.487502e+000 110 85 63
4.245087e-001 1.141131e+000 -9.445166e+000 84 75 70
3.101267e-001 -1.426448e+000 -7.755653e+000 165 134 103
2.551181e-001 -1.487114e+000 -7.858430e+000 56 39 32
-1.355348e+000 -1.267648e+000 -8.062782e+000 29 19 18
7.874344e-001 2.439104e+000 -8.373051e+000 110 71 42
2.304508e+000 -3.656464e-001 -7.723220e+000 16 10 22
1.503450e+000 -3.547868e-001 -7.936835e+000 42 38 39
5.613382e-001 2.421293e-001 -8.719074e+000 126 117 111
8.506876e-001 -9.253478e-001 -7.492201e+000 147 115 83
-3.096342e-001 -1.816457e+000 -8.953169e+000 106 106 118
-1.797955e-001 -1.937712e+000 -8.634907e+000 180 184 201
-2.900664e+000 -1.574442e+000 -8.184686e+000 176 154 131
1.012669e+000 1.623060e+000 -8.570518e+000 25 19 23
1.832334e+000 -2.669159e-001 -7.627873e+000 122 95 81
1.248705e+000 1.492836e-001 -8.360939e+000 99 94 85
-1.823245e+000 -6.056493e-001 -7.899125e+000 128 99 65
7.270496e-001 9.692787e-001 -8.882412e+000 65 58 52
1.597104e+000 -1.423618e+000 -7.625266e+000 14 9 15
1.497897e+000 -1.837554e+000 -7.913810e+000 21 15 19
2.005879e+000 -2.342073e-001 -7.454353e+000 167 131 108
3.393831e+000 3.010420e-001 -8.234972e+000 25 15 23
-8.310938e+000 9.735922e+000 -2.517004e+001 24 20 34
-8.464279e+000 1.005106e+001 -2.589793e+001 66 66 78
-6.396210e+000 1.731794e+001 -2.360034e+001 165 164 169
-2.487211e-001 1.775127e+001 -2.747800e+001 167 158 144
-5.530178e-001 -9.654350e-001 -8.404403e+000 24 21 19
2.034174e+000 -3.150898e-001 -7.097389e+000 126 89 70
4.482389e-001 -1.850476e+000 -7.930340e+000 145 107 67
1.025774e+000 1.538803e+000 -8.741635e+000 41 33 34
-9.215481e+000 1.182406e+001 -1.753079e+001 32 30 39
1.370045e+000 3.237543e-001 -7.646359e+000 166 138 120
1.906930e+000 -3.602796e-001 -7.369413e+000 131 94 65
2.019217e-001 -1.097183e+000 -8.004606e+000 150 125 93
-4.919263e-001 1.610293e+000 -1.002795e+001 117 75 35
1.099203e+000 -1.058885e+000 -7.438143e+000 48 33 12
-8.215911e-001 -1.213937e+000 -8.598843e+000 112 110 115
-6.955551e-001 -1.391290e+000 -8.550874e+000 173 170 177
5.119394e-001 -1.980792e+000 -7.992059e+000 47 30 22
6.193300e-001 -1.615140e-001 -8.572227e+000 125 118 102
7.209708e-001 -2.201919e-001 -8.566450e+000 119 113 86
2.781562e-001 -6.397710e-001 -8.492008e+000 95 91 76
6.880883e-001 -1.355806e+000 -7.561916e+000 99 54 32
-8.705671e-001 -9.028366e-001 -8.460970e+000 89 79 69
7.685006e-001 2.076879e+000 -8.416393e+000 85 48 29
-4.202754e+000 1.807670e+001 -2.420120e+001 198 172 126
-3.398399e-002 1.694162e+001 -2.539068e+001 202 190 165
-3.692719e-002 -9.169939e-001 -8.378543e+000 27 23 23
-1.921764e-001 -9.732292e-001 -8.335139e+000 23 21 26
1.786449e+000 1.365066e-001 -6.812083e+000 189 146 103
1.779531e+000 1.166810e-001 -6.793905e+000 189 146 103
-3.155049e+000 1.780125e+001 -2.446586e+001 203 178 124
-6.151508e+000 1.780005e+001 -2.403065e+001 29 24 28
-1.466319e+001 1.820999e+001 -2.615064e+001 213 206 198
-1.157483e+000 -1.033473e+000 -8.106601e+000 91 63 39
1.357555e+000 -1.900062e+000 -8.001482e+000 29 16 21
-1.998508e+000 1.829508e+001 -2.675135e+001 175 164 160
-7.297236e+000 1.148607e+001 -2.042318e+001 145 139 139
-7.347168e+000 1.160132e+001 -2.055186e+001 145 139 139
3.234256e-001 -1.855363e+000 -7.987451e+000 31 18 12
-6.447472e+000 1.753792e+001 -2.348387e+001 173 172 183
-5.031582e+000 2.051669e+001 -2.857084e+001 123 123 123
1.462703e+000 2.973826e-002 -7.207759e+000 149 101 71
-1.355764e+001 1.737034e+001 -2.446157e+001 192 190 194
-7.646020e+000 1.619493e+001 -2.242254e+001 137 138 142
1.967075e+000 1.349519e-001 -6.722474e+000 191 158 127
1.699838e+000 2.148611e-001 -6.911346e+000 174 129 96
1.699838e+000 2.148611e-001 -6.911346e+000 174 129 96
2.052161e+000 -6.871641e-002 -6.826826e+000 152 114 91
9.115321e-001 1.956109e+000 -8.333199e+000 54 34 21
1.895495e+000 -3.755917e-002 -6.851957e+000 171 134 106
9.097603e-001 1.850710e+000 -8.379034e+000 158 133 112
9.437019e-001 1.660294e+000 -8.419272e+000 122 105 97
1.139584e+000 1.605151e+000 -8.332573e+000 38 20 19
1.139584e+000 1.605151e+000 -8.332573e+000 38 20 19
1.475563e+000 2.067691e-001 -7.266064e+000 143 97 64
1.641477e+000 -2.557994e-003 -6.982482e+000 174 128 109
9.506575e-001 1.659907e+000 -8.481787e+000 22 11 16
1.511136e+000 3.495596e-003 -7.475569e+000 167 125 103
1.797301e+000 -2.871332e-001 -7.233234e+000 130 86 61
1.448798e+000 2.539098e-001 -7.818941e+000 65 60 57
5.537080e-001 3.093608e-001 -8.775567e+000 52 45 35
2.023736e-001 1.172361e-001 -8.690908e+000 30 23 17
1.316569e+000 -1.199761e+000 -7.482024e+000 32 18 12
-1.487816e+000 -7.688301e-002 -7.982773e+000 166 146 124
8.259096e-001 -1.392129e+000 -7.623202e+000 84 38 15
1.012651e+000 -1.425411e+000 -7.504292e+000 183 142 103
5.190801e-001 -1.426130e+000 -7.694521e+000 94 49 32
7.264506e-001 -1.475513e+000 -7.596119e+000 100 54 29
7.264506e-001 -1.475513e+000 -7.596119e+000 100 54 29
-9.430254e-001 -6.728150e-001 -8.324252e+000 81 62 39
-3.152373e-002 -1.139715e+000 -8.338525e+000 120 110 100
-2.212353e+000 -8.378987e-001 -7.834173e+000 87 46 21
-1.229606e+000 -9.743588e-001 -8.063566e+000 76 41 21
-2.840641e-001 -1.161099e+000 -8.429228e+000 49 41 39
-2.190309e+000 -9.760781e-001 -7.866296e+000 126 84 62
-1.468145e+000 -1.221657e+000 -7.989661e+000 103 78 73
-1.951939e+000 -1.165142e+000 -7.945369e+000 42 19 11
-1.426967e+000 -1.294593e+000 -8.013089e+000 24 11 18
1.820676e+000 2.272013e-001 -6.786307e+000 192 151 114
2.118096e+000 6.435196e-003 -6.741464e+000 164 132 108
1.507136e+000 2.012247e+000 -8.255083e+000 174 149 121
1.377936e+000 1.813077e+000 -8.215494e+000 60 37 25
1.813624e+000 2.683831e-001 -6.868956e+000 113 68 35
7.568043e-001 2.082494e+000 -8.397752e+000 85 48 30
7.633697e-001 2.053466e+000 -8.557965e+000 108 74 48
1.611474e+000 -5.496031e-002 -7.035292e+000 168 122 98
5.960060e-001 2.233878e+000 -8.874653e+000 126 92 72
8.000751e-001 1.780648e+000 -8.698959e+000 78 66 65
1.705203e+000 -2.006891e-001 -7.160222e+000 110 69 50
1.493222e+000 5.372523e-002 -7.466790e+000 117 72 49
1.551456e+000 -8.725089e-002 -7.418900e+000 121 77 48
1.862044e+000 -3.071203e-001 -7.272973e+000 175 142 117
1.924444e+000 -3.555385e-001 -7.434212e+000 155 118 91
1.271712e+000 3.834673e-001 -8.536970e+000 18 13 20
1.237963e+000 3.915665e-001 -8.648137e+000 13 8 14
-4.512786e-001 1.521990e+000 -9.931221e+000 170 128 86
8.168936e-001 -1.165894e+000 -7.493460e+000 154 110 81
1.260585e+000 -1.266046e+000 -7.490643e+000 166 135 107
6.638153e-001 -1.123967e+000 -7.552823e+000 162 121 89
7.641913e-001 -1.328813e+000 -7.509339e+000 170 134 108
8.537217e-001 -1.314858e+000 -7.545560e+000 174 132 90
1.200965e+000 -1.404189e+000 -7.422438e+000 106 71 39
7.033869e-001 -1.429713e+000 -7.605164e+000 76 34 10
-1.927966e+000 -5.316518e-001 -7.873708e+000 147 116 88
-9.341778e-001 -6.514853e-001 -8.289103e+000 120 99 79
1.186154e+000 -1.856095e+000 -7.831600e+000 198 163 136
1.052280e+000 -1.881904e+000 -7.883314e+000 178 137 106
1.824247e-001 -1.647019e+000 -7.906313e+000 25 11 17
4.373182e-001 -1.797061e+000 -7.880897e+000 142 102 76
4.331763e-001 -1.805305e+000 -7.864868e+000 142 102 76
-1.913213e+000 -9.974164e-001 -7.885358e+000 109 73 49
-1.434821e+000 -1.133936e+000 -7.984652e+000 53 25 22
-3.387639e-001 -1.359693e+000 -8.334417e+000 113 108 113
-2.358688e-001 -1.465328e+000 -8.200242e+000 126 117 110
-2.354695e-001 -1.521373e+000 -8.170729e+000 47 33 33
-2.327677e-001 -1.569529e+000 -8.153253e+000 128 120 118
9.378939e-002 -1.819673e+000 -8.018973e+000 41 30 31
-2.316177e+000 -1.263160e+000 -8.036289e+000 61 46 47
-2.741355e+000 -1.321729e+000 -7.953767e+000 177 131 99
-1.493566e+000 -1.745069e+000 -8.381623e+000 152 122 108
-1.179975e+000 -1.595466e+000 -9.615280e+000 158 128 111
8.921605e-001 1.987477e+000 -8.265591e+000 61 42 35
2.045011e+000 -6.527390e-002 -6.925981e+000 111 73 45
8.830090e-001 1.921153e+000 -8.486417e+000 89 63 40
1.586394e+000 -2.748444e-002 -7.019094e+000 178 134 107
1.646337e+000 -1.878222e-002 -7.026758e+000 85 41 27
2.190746e+000 -1.686484e-001 -7.064353e+000 84 55 41
6.311185e-001 1.979976e+000 -8.677470e+000 58 38 25
6.332981e-001 1.989953e+000 -8.685947e+000 58 38 25
1.868744e+000 -1.896122e-001 -7.088334e+000 154 108 85
2.224352e+000 -3.688033e-001 -7.586067e+000 85 67 63
2.182628e+000 -3.663338e-001 -7.616036e+000 38 26 36
1.288269e+000 3.203988e-001 -8.303274e+000 104 98 92
6.406096e-001 1.957718e-002 -8.638503e+000 22 13 14
8.828419e-001 -1.198845e+000 -7.488140e+000 191 147 110
1.296970e+000 -1.451539e+000 -7.554244e+000 118 89 61
7.490927e-001 -1.275035e+000 -7.589261e+000 83 45 24
7.097294e-001 -1.397858e+000 -7.555893e+000 160 115 92
1.565938e+000 -1.555894e+000 -7.810842e+000 82 75 77
8.153756e-001 -1.691719e+000 -7.752482e+000 133 85 49
1.274725e+000 -1.787966e+000 -7.731058e+000 155 128 109
-2.484970e+000 -4.991360e-001 -8.007712e+000 147 106 74
-2.703236e+000 -3.939189e-001 -8.121029e+000 147 99 66
-1.150887e-002 -1.444129e+000 -8.118755e+000 39 26 31
3.443907e-001 -1.715196e+000 -7.899542e+000 180 157 127
-2.846517e+000 -8.338002e-001 -8.132724e+000 93 57 45
4.831337e-001 -2.006430e+000 -8.020491e+000 110 89 83
-1.684985e+000 -1.617089e+000 -8.078762e+000 55 44 48
-1.516828e+000 -1.659422e+000 -8.321618e+000 114 90 85
-1.061576e+000 -1.477948e+000 -9.205911e+000 157 128 108
-6.632906e-001 -1.719615e+000 -8.899045e+000 160 162 187
-1.736687e+000 -1.825213e+000 -8.307772e+000 76 46 38
6.719713e-001 1.932329e+000 -8.597801e+000 122 96 77
7.113233e-001 1.958787e+000 -8.534579e+000 185 153 119
2.121378e+000 -2.810057e-001 -7.063371e+000 132 102 86
1.389282e+000 2.120018e-001 -7.448860e+000 196 164 143
2.189761e+000 -3.508013e-001 -7.203368e+000 58 38 36
1.413009e+000 1.999055e-001 -7.595196e+000 175 139 107
2.087927e+000 -3.135018e-001 -7.452582e+000 141 105 84
-5.655961e-002 4.965259e+000 -1.262017e+001 204 193 171
1.869583e-001 1.705510e+000 -1.014077e+001 68 59 54
-6.732481e-001 1.799825e+000 -1.014782e+001 177 146 117
3.872500e-001 4.011348e-001 -8.851190e+000 53 49 50
3.872500e-001 4.011348e-001 -8.851190e+000 53 49 50
9.770419e-001 -1.365398e+000 -7.482538e+000 165 122 88
4.485222e-001 -1.182449e+000 -7.680147e+000 173 132 104
1.430269e+000 -1.734115e+000 -7.789051e+000 31 22 33
-1.441085e+000 -7.223618e-001 -7.989847e+000 126 89 62
-9.927217e-001 -4.884996e-001 -8.391648e+000 58 41 34
-9.927217e-001 -4.884996e-001 -8.391648e+000 58 41 34
-3.012740e-001 -9.345515e-001 -8.329467e+000 30 26 23
2.505071e-001 -1.340228e+000 -7.813259e+000 139 103 79
4.738056e-001 -1.507752e+000 -7.691586e+000 89 47 25
-2.104442e+000 -7.043371e-001 -7.841028e+000 123 88 60
-4.359508e-001 -1.091843e+000 -8.275579e+000 131 127 118
-1.668647e+000 -9.182041e-001 -7.905764e+000 77 39 20
-6.552431e-001 -9.512759e-001 -8.446697e+000 20 15 15
-2.764681e-001 -1.261822e+000 -8.309086e+000 116 106 104
6.248913e-001 -1.888388e+000 -7.821094e+000 51 29 32
-2.540899e+000 -9.095651e-001 -7.892169e+000 173 142 113
-6.142934e-001 -1.187739e+000 -8.406648e+000 24 19 25
-1.715677e-001 -1.659634e+000 -8.105029e+000 37 28 36
1.321483e-001 -1.819868e+000 -7.974148e+000 98 73 60
-8.061851e-001 -1.421791e+000 -8.687181e+000 142 147 169
-1.667222e-001 -1.936659e+000 -8.168012e+000 20 13 20
8.750453e-001 -2.045593e+000 -8.416372e+000 34 24 33
-9.954588e-001 -1.371916e+000 -8.811478e+000 34 26 35
-4.185635e-001 -1.676704e+000 -8.591138e+000 179 178 192
-1.307126e+000 -1.540929e+000 -9.639878e+000 70 56 56
-1.864610e+000 -1.886635e+000 -8.503697e+000 162 126 109
-1.438301e+000 -1.648581e+000 -9.517632e+000 21 14 21
2.029518e+000 -5.278063e-002 -6.741061e+000 129 91 68
1.077902e+000 1.686625e+000 -8.317221e+000 30 16 16
8.201273e-001 1.758236e+000 -8.718186e+000 70 59 55
1.598578e+000 -1.862883e-001 -7.597226e+000 47 43 42
1.761076e+000 -2.982261e-001 -7.385470e+000 98 50 30
-6.859739e-001 2.091269e+000 -1.036229e+001 53 40 42
3.998869e-001 2.262963e-001 -8.718630e+000 115 109 94
1.078123e+000 -1.009089e+000 -7.420409e+000 177 145 113
1.040181e+000 -1.381914e+000 -7.482609e+000 121 74 54
1.412999e+000 -1.402017e+000 -7.587187e+000 48 42 48
-2.023492e+000 -2.266377e-001 -7.978278e+000 175 152 121
5.837458e-002 -9.774227e-001 -8.391750e+000 21 16 15
5.837458e-002 -9.774227e-001 -8.391750e+000 21 16 15
-1.774346e-002 -1.002307e+000 -8.376833e+000 129 113 97
6.378172e-001 -1.616483e+000 -7.721360e+000 118 73 44
4.925636e-001 -1.584822e+000 -7.775722e+000 85 54 36
-1.610466e+000 -9.476856e-001 -7.872440e+000 110 74 52
-1.802123e+000 -1.158414e+000 -7.865498e+000 97 61 44
-2.094112e-001 -1.578429e+000 -8.198369e+000 110 100 98
-2.493456e+000 -1.054055e+000 -7.966169e+000 77 34 28
-4.195152e-001 -1.433489e+000 -8.376388e+000 143 140 149
6.611645e-001 -2.062453e+000 -8.268682e+000 48 26 26
-1.526045e+000 -1.612554e+000 -8.277997e+000 29 17 22
-1.731958e+000 -1.643454e+000 -8.436065e+000 40 25 22
-1.850684e+000 -1.814928e+000 -8.506142e+000 74 40 31
-1.092662e+000 -1.427323e+000 -9.929858e+000 76 67 68
1.800301e+000 5.238856e-001 -6.919106e+000 188 159 129
2.301817e+000 -1.374305e-001 -7.068708e+000 44 22 20
1.925319e+000 -2.610367e-001 -7.041911e+000 142 102 77
1.925319e+000 -2.610367e-001 -7.041911e+000 142 102 77
1.319844e+000 3.066738e-001 -8.213761e+000 107 100 93
1.787245e+000 -3.095030e-001 -7.596598e+000 146 126 109
1.787245e+000 -3.095030e-001 -7.596598e+000 146 126 109
1.038873e+000 -1.272376e+000 -7.437212e+000 117 73 46
1.519923e+000 -1.530604e+000 -7.677411e+000 17 10 18
1.447231e+000 -1.650311e+000 -7.811518e+000 128 114 108
8.018505e-001 -1.550861e+000 -7.733713e+000 121 68 37
-1.897033e+000 -7.374403e-001 -7.787188e+000 147 112 84
-1.612932e+000 -1.010574e+000 -7.941644e+000 68 30 17
2.304574e-001 -1.657778e+000 -7.918010e+000 29 20 23
-2.688290e+000 -1.093977e+000 -7.998131e+000 158 116 82
6.873091e-001 -2.083193e+000 -8.408114e+000 151 120 102
-1.143800e+000 -1.595918e+000 -8.410967e+000 50 29 33
-8.516820e-001 -1.424316e+000 -9.706188e+000 169 174 202
-2.123128e+000 -1.855818e+000 -8.214244e+000 62 42 35
-2.743555e+000 -1.804148e+000 -8.295014e+000 180 149 129
1.189110e+000 2.087438e+000 -8.237725e+000 189 168 141
1.525289e+000 -1.070193e-001 -7.250116e+000 154 121 103
1.267576e+000 -1.303381e+000 -7.432780e+000 180 149 118
1.168805e+000 -1.399526e+000 -7.517475e+000 200 169 140
-6.757261e-001 1.131876e-001 -8.882618e+000 132 122 110
8.701038e-001 -1.557681e+000 -7.626864e+000 178 143 109
-1.317116e+000 -1.078150e+000 -8.037684e+000 81 45 29
-2.154854e+000 -1.480175e+000 -8.091619e+000 39 27 30
-1.311692e+000 -1.650813e+000 -8.456780e+000 66 42 40
-5.367014e-001 -1.753694e+000 -8.741062e+000 153 150 168
-1.547359e+000 -1.769974e+000 -8.301907e+000 71 41 33
2.566597e+000 -2.600525e-001 -7.664392e+000 17 9 17
-5.277003e-001 1.501017e+000 -1.004070e+001 102 61 29
-5.277003e-001 1.501017e+000 -1.004070e+001 102 61 29
5.496500e-001 -1.496212e+000 -7.660733e+000 104 58 40
-1.954490e+000 -8.346559e-001 -7.785094e+000 94 52 27
-1.033280e+000 -1.036075e+000 -8.268450e+000 91 64 45
1.653103e+000 -9.237463e-002 -6.932829e+000 125 76 60
1.227343e+000 1.458102e+000 -8.491334e+000 25 20 24
2.266587e+000 -3.639573e-001 -7.244939e+000 40 25 25
1.661912e+000 -2.087358e-001 -7.280467e+000 123 74 57
1.655341e+000 -2.268647e-001 -7.262991e+000 123 74 57
7.708025e-001 -1.280653e+000 -7.470536e+000 121 79 57
-1.228373e+000 -8.212987e-001 -8.152488e+000 90 55 33
2.789263e+000 3.816454e-001 -7.323042e+000 39 28 34
-2.840536e+000 -7.570292e-001 -8.237280e+000 95 57 39
8.911284e-001 2.255926e+000 -8.385176e+000 61 32 21
1.175208e+000 -1.722340e-001 -7.840259e+000 89 80 74
7.073655e-001 -1.931998e+000 -8.071156e+000 78 57 57
1.595296e+000 8.472831e-001 -7.926465e+000 192 157 129
-1.710574e-001 1.613787e+000 -1.007450e+001 153 132 105
-2.165531e+000 -1.693608e+000 -8.126645e+000 158 141 121
5.036169e+000 9.755409e-001 -1.171371e+001 70 56 55
1.048456e+000 -1.561070e+000 -7.756687e+000 175 130 99
-8.823130e+000 1.802853e+001 -2.235700e+001 27 24 33
1.225003e+000 2.243577e+000 -8.230713e+000 195 174 143
-1.300557e+001 1.701431e+001 -2.348348e+001 75 79 99
1.573527e+000 -1.280189e-001 -7.789342e+000 39 33 33
6.600190e-005 -4.761698e-001 -8.925061e+000 109 103 89
-6.056888e-001 -6.122954e-001 -9.520826e+000 124 121 114
-1.437719e+000 -1.489378e+000 -8.092103e+000 48 38 46
-1.397484e+001 2.073800e+001 -3.040887e+001 120 112 109
-1.501474e+001 2.025458e+001 -3.232759e+001 109 97 97
-5.076781e+000 2.853633e+001 -3.308804e+001 192 171 124
1.375601e+000 1.842151e+000 -8.239089e+000 69 44 39
-6.167803e+000 1.609299e+001 -2.349241e+001 29 28 33
4.361590e-001 1.042672e-001 -8.659296e+000 26 20 31
-5.648568e+000 1.425136e+001 -2.256857e+001 157 151 153
-8.687362e+000 1.781894e+001 -2.157895e+001 21 15 25
1.546766e+000 1.520426e+000 -8.353208e+000 69 42 25
6.829236e-001 1.961598e+000 -8.659456e+000 131 105 91
1.510664e+000 1.567098e-001 -7.694203e+000 52 35 25
9.130622e-001 -1.183748e+000 -7.471653e+000 197 155 119
9.639684e-001 -1.201354e+000 -7.497867e+000 149 105 79
1.079118e+000 -1.149992e+000 -7.417352e+000 121 82 54
8.683783e-001 -1.582971e+000 -7.695971e+000 122 77 42
2.197541e-001 -1.377897e+000 -7.793621e+000 100 64 40
-3.183137e-001 -1.476955e+000 -8.270125e+000 155 150 154
4.327043e-001 -1.819049e+000 -7.926731e+000 94 54 28
5.809866e-001 -1.898477e+000 -7.949645e+000 100 77 58
-8.411449e-001 -1.384968e+000 -8.723770e+000 19 18 32
-8.424441e-001 -1.390650e+000 -8.712623e+000 19 18 32
-8.104608e-001 -1.393403e+000 -8.662191e+000 138 141 158
-8.104608e-001 -1.393403e+000 -8.662191e+000 138 141 158
-8.515316e-001 -1.539602e+000 -8.886168e+000 47 52 68
-8.675016e-001 -1.567046e+000 -9.164995e+000 171 176 205
-1.689237e+000 -1.843123e+000 -8.367782e+000 104 72 51
-5.270184e-001 1.469273e+000 -1.000123e+001 102 61 29
-5.270184e-001 1.469273e+000 -1.000123e+001 102 61 29
-2.167375e+000 -9.273934e-001 -7.811410e+000 72 30 12
-1.156141e+000 -1.170067e+000 -8.177912e+000 44 20 11
1.009716e-001 -1.755613e+000 -8.005823e+000 48 33 32
4.117788e-001 -2.029414e+000 -8.002140e+000 123 103 95
-2.214777e+000 -1.221475e+000 -7.980589e+000 28 13 17
-1.784261e+000 -1.873709e+000 -8.470478e+000 163 128 109
-8.896070e+000 1.179950e+001 -1.827250e+001 42 41 55
-4.869409e-001 1.606631e+000 -1.003851e+001 126 78 45
3.624011e-001 -1.543503e+000 -7.717946e+000 159 129 104
-5.495683e-001 -1.143813e+000 -8.342001e+000 136 132 121
-4.425299e-001 -1.515986e+000 -8.411334e+000 156 152 166
-3.123423e-002 -6.996409e-002 -8.595815e+000 21 18 16
9.145859e-001 -1.400449e+000 -7.505955e+000 154 111 73
-6.717573e-001 -1.215917e+000 -8.481511e+000 116 111 117
3.388635e-002 -1.660501e+000 -8.053753e+000 28 19 22
3.514794e-001 -1.895604e+000 -8.038586e+000 28 17 24
-8.791114e-001 -1.413506e+000 -8.764764e+000 149 150 168
-2.525551e+000 -1.375234e+000 -8.008934e+000 109 82 61
-8.783420e+000 1.152691e+001 -1.909288e+001 118 106 106
-7.841807e+000 1.130460e+001 -1.945811e+001 27 20 36
-8.657749e+000 1.150199e+001 -1.938439e+001 126 112 111
-1.380025e+001 1.688365e+001 -2.485405e+001 200 190 198
-1.066833e+001 1.678822e+001 -1.920276e+001 35 32 43
1.790278e+000 1.476139e-001 -6.895130e+000 170 121 88
2.093327e+000 -6.018680e-002 -6.919341e+000 116 73 49
9.964333e-001 1.882364e+000 -8.201212e+000 138 121 113
1.402490e+000 1.418027e+000 -8.317864e+000 99 73 52
1.810986e+000 -2.287612e-001 -7.193354e+000 140 99 74
2.092994e+000 -3.312389e-001 -7.160473e+000 151 123 103
2.150467e+000 -3.828892e-001 -7.186305e+000 63 35 34
1.503454e+000 1.081683e-001 -7.718222e+000 60 50 51
1.499587e+000 4.132822e-002 -7.714274e+000 84 76 75
1.825498e+000 -2.871303e-001 -7.550409e+000 114 83 62
9.342291e-001 -1.174965e+000 -7.520620e+000 93 48 19
9.937078e-001 -1.307764e+000 -7.443080e+000 197 155 130
1.137207e+000 -1.287719e+000 -7.445668e+000 105 70 42
1.074571e+000 -1.435671e+000 -7.484788e+000 147 102 72
1.504581e+000 -1.427013e+000 -7.682106e+000 23 17 21
1.504581e+000 -1.427013e+000 -7.682106e+000 23 17 21
8.249079e-001 -1.571127e+000 -7.600340e+000 165 125 96
1.088911e+000 -1.615793e+000 -7.698872e+000 176 137 106
6.387298e-001 -1.686416e+000 -7.683416e+000 153 105 72
9.587680e-001 -1.965406e+000 -7.967542e+000 152 106 84
-2.253575e+000 -9.049460e-001 -7.797610e+000 143 98 73
-9.557244e-001 -1.078204e+000 -8.381419e+000 78 64 55
3.908418e-001 -1.991394e+000 -8.038495e+000 71 52 47
-1.275016e+000 -1.595697e+000 -8.217101e+000 95 82 84
1.716795e+000 1.956055e-001 -6.893222e+000 142 98 59
1.981177e+000 -8.371428e-002 -6.760890e+000 204 164 135
1.479854e+000 5.941013e-001 -7.150123e+000 208 169 128
1.729051e+000 1.014388e-001 -6.918152e+000 138 91 62
2.064054e+000 -1.432040e-001 -6.874026e+000 190 153 126
1.375217e+000 6.704078e-001 -7.513821e+000 156 120 88
1.141437e+000 1.577110e+000 -8.247021e+000 92 73 66
1.296871e+000 1.493491e+000 -8.381064e+000 30 14 14
1.526162e+000 1.861234e-001 -7.308258e+000 120 70 46
1.662806e+000 -1.930195e-001 -7.085936e+000 159 117 93
1.662806e+000 -1.930195e-001 -7.085936e+000 159 117 93
1.939547e+000 -2.390486e-001 -7.112538e+000 169 125 100
1.939547e+000 -2.390486e-001 -7.112538e+000 169 125 100
1.369155e+000 4.511058e-001 -7.720122e+000 155 136 115
1.535356e+000 -6.646055e-002 -7.245472e+000 187 152 133
5.835383e-001 2.170746e+000 -9.004342e+000 208 192 173
1.198619e+000 -1.026401e+000 -7.471252e+000 42 26 27
8.101905e-001 -7.966856e-002 -8.626999e+000 53 48 44
1.369539e+000 -1.548308e+000 -7.610455e+000 158 133 118
-6.706364e-002 -7.466900e-002 -8.537085e+000 119 110 97
7.281356e-001 -1.367386e+000 -7.522107e+000 192 157 137
1.349782e+000 -1.598664e+000 -7.737864e+000 150 125 105
1.355744e+000 -1.653461e+000 -7.668351e+000 127 113 101
-4.212162e-001 -1.802414e-001 -8.597689e+000 130 23 40
3.968653e-001 -1.392651e+000 -7.649558e+000 147 105 74
4.947849e-001 -1.361619e+000 -7.649928e+000 156 112 84
7.793067e-001 -1.498109e+000 -7.623395e+000 105 59 32
8.067698e-001 -1.510800e+000 -7.646111e+000 195 154 122
1.178111e+000 -1.721528e+000 -7.724202e+000 170 135 108
1.524428e+000 -1.654365e+000 -7.836852e+000 94 85 90
1.217257e+000 -1.813033e+000 -7.786896e+000 172 139 122
-9.322305e-001 -6.143677e-001 -8.337439e+000 106 90 80
5.091116e-001 -1.613204e+000 -7.779643e+000 87 53 28
-1.841825e+000 -8.224197e-001 -7.791296e+000 134 92 67
-1.150765e+000 -9.016345e-001 -8.064394e+000 92 56 31
1.678949e-001 -1.572114e+000 -7.933211e+000 33 18 24
3.888814e-001 -1.762056e+000 -7.822543e+000 162 128 104
5.582584e-001 -1.861179e+000 -7.856466e+000 76 46 36
-1.103319e+000 -1.070083e+000 -8.140503e+000 115 87 66
-3.581739e-001 -1.087446e+000 -8.460742e+000 45 37 35
-3.593780e-001 -1.207352e+000 -8.324057e+000 88 85 80
-2.651148e+000 -6.187225e-001 -7.970027e+000 181 142 105
-2.433282e+000 -7.683271e-001 -7.866167e+000 179 153 126
1.971974e-001 -1.924210e+000 -8.018450e+000 43 22 21
4.101470e-001 -2.031099e+000 -7.997623e+000 105 86 80
-1.912777e+000 -1.232795e+000 -7.806796e+000 98 64 52
-1.429600e+000 -1.518525e+000 -8.101189e+000 17 8 13
-1.427838e+000 -1.607254e+000 -8.065666e+000 24 15 20
-9.699536e-001 -1.457056e+000 -8.860974e+000 129 129 148
-2.215151e+000 -1.453752e+000 -8.098999e+000 84 60 58
-2.211616e+000 -1.465275e+000 -8.083121e+000 84 60 58
-1.920630e+000 -1.723304e+000 -8.108957e+000 61 46 49
1.712632e+000 1.380257e-001 -6.890196e+000 173 125 89
1.966602e+000 -1.182820e-002 -6.778619e+000 128 89 60
1.593073e+000 9.634586e-002 -6.938412e+000 142 92 60
1.783293e+000 -6.659624e-002 -6.934047e+000 167 118 95
2.040315e+000 -6.912833e-002 -7.048964e+000 168 120 98
2.303619e+000 -2.519839e-001 -7.024728e+000 75 54 39
2.416098e+000 -2.298206e-001 -7.088517e+000 67 46 43
1.157655e+000 1.961252e+000 -8.235056e+000 54 35 34
2.020883e+000 -2.257172e-001 -7.052488e+000 161 125 103
1.393247e+000 1.524071e+000 -8.305713e+000 75 49 36
1.546996e+000 -8.363989e-002 -7.149398e+000 181 142 121
1.529599e+000 -5.803436e-002 -7.201862e+000 120 82 61
1.703615e+000 -2.313981e-001 -7.086024e+000 171 133 110
6.099131e-001 2.306963e+000 -9.013590e+000 207 187 162
1.483003e+000 6.190374e-002 -7.379875e+000 125 77 54
1.933405e+000 -3.585092e-001 -7.308249e+000 160 124 98
2.331888e+000 -3.539204e-001 -7.436822e+000 88 62 58
9.037773e-001 1.610533e+000 -8.577402e+000 87 76 75
1.468624e+000 1.878220e-001 -7.794494e+000 57 48 51
3.553535e-001 6.169645e-002 -8.639573e+000 126 117 108
8.124676e-001 -1.175172e+000 -7.480933e+000 156 115 84
1.445889e+000 -1.322299e+000 -7.534946e+000 33 26 42
6.192094e-001 -1.595060e-001 -8.574851e+000 118 110 97
-3.235201e-002 -7.108950e-002 -8.595583e+000 29 23 20
2.646267e-001 -4.021515e-001 -8.535090e+000 114 107 97
5.058620e-001 -1.273405e+000 -7.622462e+000 143 101 79
8.206246e-001 -1.385583e+000 -7.569608e+000 191 156 120
1.313757e+000 -1.682882e+000 -7.772722e+000 149 123 108
-4.793545e-001 -5.308645e-001 -8.467021e+000 26 17 20
9.493972e-001 -1.703511e+000 -7.727571e+000 126 82 47
9.885252e-001 -1.690246e+000 -7.724202e+000 166 126 92
-1.680223e-001 -1.008472e+000 -8.371478e+000 125 117 98
6.367266e-001 -1.756659e+000 -7.735125e+000 127 79 57
7.120835e-001 -1.827554e+000 -7.804835e+000 162 120 83
-1.831359e+000 -7.380749e-001 -7.791773e+000 122 81 60
3.908919e-001 -1.697612e+000 -7.866243e+000 97 63 54
3.799235e-001 -1.716368e+000 -7.837889e+000 97 63 54
3.776407e-001 -1.733601e+000 -7.928503e+000 74 44 35
5.738541e-001 -1.907231e+000 -7.811806e+000 127 97 80
1.188776e+000 -1.979440e+000 -8.113826e+000 29 18 25
-1.433713e+000 -9.010080e-001 -8.031010e+000 82 44 19
-1.338976e+000 -9.476593e-001 -8.078804e+000 84 46 26
7.075949e-001 -1.957504e+000 -8.000827e+000 79 54 50
9.998122e-001 -2.038281e+000 -8.158754e+000 27 16 16
-2.279997e+000 -9.393625e-001 -7.799689e+000 107 61 38
-2.311883e+000 -9.927369e-001 -7.775744e+000 138 94 69
-1.644768e+000 -1.167496e+000 -7.865647e+000 62 29 22
-9.998822e-001 -1.108769e+000 -8.410041e+000 57 32 32
-1.466902e+000 -1.838494e+000 -8.438714e+000 166 136 129
1.899563e+000 7.737787e-002 -6.801030e+000 120 74 48
2.084301e+000 -7.565383e-002 -6.879299e+000 137 93 66
1.719979e+000 -5.001609e-002 -6.799267e+000 110 60 37
1.533586e+000 5.308921e-002 -7.082751e+000 174 129 106
1.586782e+000 3.135884e-002 -6.963917e+000 183 138 106
1.809782e+000 -8.497027e-002 -6.982628e+000 120 72 49
1.855993e+000 -1.681253e-001 -7.034041e+000 122 76 53
1.855993e+000 -1.681253e-001 -7.034041e+000 122 76 53
2.511426e+000 -2.113151e-001 -7.145056e+000 48 30 34
1.164664e+000 1.584293e+000 -8.318659e+000 50 33 26
1.342240e+000 1.552806e+000 -8.341501e+000 53 27 26
9.664972e-001 1.633665e+000 -8.669532e+000 22 16 19
2.373216e+000 -3.426799e-001 -7.625906e+000 78 63 58
2.598604e-001 1.274012e-001 -8.645568e+000 97 91 79
9.887926e-001 -1.229567e+000 -7.431790e+000 171 130 98
5.384382e-001 -1.970341e-001 -8.555153e+000 26 21 18
