ply
format ascii 1.0
element face 0
property list uchar int vertex_indices
element vertex 874
property float x
property float y
property float z
property uchar diffuse_red
property uchar diffuse_green
property uchar diffuse_blue
end_header
9.166215e-001 2.217613e+000 -8.312794e+000 52 28 16
7.785010e-001 1.115876e+000 -9.023520e+000 81 76 72
4.118953e-001 -1.496079e+000 -7.713773e+000 142 106 83
5.880451e-001 -2.085776e+000 -8.154078e+000 36 25 31
1.789890e+000 9.886521e-003 -6.936048e+000 115 66 46
9.539817e-001 1.104621e-001 -8.319293e+000 21 18 25
1.066461e+000 -1.590519e+000 -7.690999e+000 173 130 98
8.970336e-001 -1.170033e+000 -7.424025e+000 162 124 90
1.107889e+000 1.580623e+000 -8.658482e+000 46 44 49
2.386845e-001 -1.808241e+000 -7.937812e+000 86 63 56
-1.058402e+001 1.862388e+001 -2.010269e+001 20 14 24
-4.497431e-001 -1.284580e+000 -8.293462e+000 68 66 71
-1.605937e+000 -1.394844e+000 -7.885688e+000 49 38 42
7.588806e-001 -1.350687e+000 -7.503200e+000 72 34 15
-1.066483e+001 1.775899e+001 -1.945663e+001 33 23 31
-1.757423e+000 -1.889731e+000 -8.342948e+000 81 50 45
1.369373e+000 1.378812e+000 -8.613481e+000 24 19 25
1.572403e+000 6.467253e-003 -7.706434e+000 43 38 45
8.731118e-001 -1.135344e+000 -7.433819e+000 138 97 66
-8.819865e-001 -9.655929e-001 -8.370518e+000 89 85 82
-1.612928e+000 -1.691564e+000 -8.083787e+000 19 7 17
-1.249929e+000 -1.754814e+000 -8.786893e+000 175 170 184
-2.042975e+000 -1.921521e+000 -8.674197e+000 154 108 84
-4.613980e-002 -8.784239e-001 -8.332568e+000 112 105 94
-2.629258e+000 -1.829378e+000 -8.160529e+000 182 129 102
1.396378e+000 -1.822764e+000 -7.867543e+000 21 11 19
4.372012e-001 -2.038280e+000 -7.940063e+000 126 104 90
-1.911378e+000 -1.156626e+000 -7.858443e+000 71 36 26
1.239195e+000 2.440896e+000 -8.145194e+000 212 200 185
1.803150e+000 3.866394e-002 -6.856367e+000 109 62 42
1.823114e+000 1.312579e-002 -6.849111e+000 160 113 95
2.135350e+000 -3.606352e-001 -7.184993e+000 138 110 96
7.831484e-001 -1.113854e+000 -7.469761e+000 115 79 47
1.312012e+000 -1.449167e+000 -7.546413e+000 89 61 39
1.043860e+000 -1.467188e+000 -7.498878e+000 129 84 50
7.684347e-001 -1.469721e+000 -7.514036e+000 120 77 50
1.241655e+000 -1.860189e+000 -7.699733e+000 132 101 80
3.552660e-001 -1.412650e+000 -7.716713e+000 136 100 74
1.113806e+000 -2.014735e+000 -7.950451e+000 106 74 58
-2.207122e-001 -1.058701e+000 -8.270851e+000 121 116 108
1.519832e-001 -1.633041e+000 -7.885658e+000 102 86 86
1.483218e-001 -1.645974e+000 -7.910300e+000 26 14 17
-3.595543e-001 -1.073355e+000 -8.259041e+000 29 25 24
-2.933941e-001 -1.074689e+000 -8.270585e+000 25 20 15
-2.933941e-001 -1.074689e+000 -8.270585e+000 25 20 15
3.949331e-001 -1.965780e+000 -7.903797e+000 163 135 116
2.231976e-001 -1.967162e+000 -7.994167e+000 33 12 18
-5.115456e-001 -1.317800e+000 -8.340805e+000 95 92 96
-5.115456e-001 -1.317800e+000 -8.340805e+000 95 92 96
-7.451808e-001 -1.471943e+000 -8.592738e+000 147 150 169
4.365270e-002 -2.125266e+000 -8.414148e+000 35 26 30
3.225031e-001 -2.128840e+000 -8.535574e+000 167 146 135
-8.298611e-001 -1.572210e+000 -8.808369e+000 192 198 219
-8.895088e-001 -1.556101e+000 -8.989687e+000 167 171 206
-7.820033e-001 -1.661893e+000 -8.753550e+000 35 39 64
-1.901088e+000 -1.765278e+000 -8.196204e+000 62 49 54
-1.796343e+000 -1.833987e+000 -8.202676e+000 39 23 28
-1.792086e+000 -1.851796e+000 -8.262958e+000 42 26 26
-1.905895e+000 -1.856808e+000 -8.347517e+000 80 64 67
-1.905895e+000 -1.856808e+000 -8.347517e+000 80 64 67
-1.746968e+000 -1.885321e+000 -8.300352e+000 140 113 102
-1.671936e+000 -1.927403e+000 -8.450323e+000 122 89 82
-1.647189e+000 -1.925383e+000 -8.444205e+000 166 131 125
-1.277941e+000 -1.754618e+000 -8.832413e+000 107 84 93
-1.268637e+000 -1.769043e+000 -8.871237e+000 155 136 141
-2.803020e+000 -1.644591e+000 -8.053740e+000 208 173 148
-1.728440e+000 -1.903826e+000 -8.540122e+000 156 118 105
-2.448675e+000 -1.912435e+000 -8.182191e+000 118 88 81
-2.153473e+000 -1.871768e+000 -8.570230e+000 156 110 91
-1.269601e+000 -1.560345e+000 -9.591106e+000 179 154 149
-1.227949e+000 -1.630172e+000 -9.565733e+000 84 60 56
1.660679e+000 -1.971651e-003 -6.961232e+000 99 57 35
1.974982e+000 -2.807382e-001 -7.033178e+000 156 115 94
1.948014e+000 -3.377038e-001 -7.167193e+000 162 131 108
2.224584e+000 -3.936895e-001 -7.195961e+000 111 91 90
1.521502e+000 7.972357e-002 -7.402661e+000 152 111 83
2.071987e+000 -3.798002e-001 -7.377459e+000 100 65 46
1.709926e+000 -1.990566e-001 -7.435704e+000 152 111 89
1.725686e+000 -1.316034e-001 -7.561042e+000 137 108 84
1.995164e+000 -3.454982e-001 -7.502501e+000 83 53 48
2.183506e+000 -3.897036e-001 -7.532428e+000 58 41 40
5.998019e-001 2.303185e+000 -8.679778e+000 196 168 147
1.540975e+000 9.463722e-002 -7.749454e+000 47 41 43
1.130797e+000 1.488286e+000 -8.671033e+000 39 34 40
8.732593e-001 1.731649e+000 -8.837585e+000 63 53 62
7.797473e-001 -1.067614e+000 -7.472732e+000 174 139 107
1.029919e+000 -1.443274e+000 -7.447117e+000 122 79 44
5.823571e-001 5.688252e-002 -8.620601e+000 27 22 17
6.287335e-001 -1.380424e+000 -7.584770e+000 87 40 20
6.781082e-001 -1.366475e+000 -7.649994e+000 81 39 17
8.266207e-001 -1.519204e+000 -7.528797e+000 186 151 117
1.620183e+000 -1.683640e+000 -7.829765e+000 14 8 14
4.747087e-001 -1.262300e+000 -7.703163e+000 86 45 20
4.148384e-001 -1.343117e+000 -7.668571e+000 156 113 82
1.019484e+000 -1.735194e+000 -7.669081e+000 185 140 101
5.564240e-001 -1.684741e+000 -7.720300e+000 153 107 85
9.438056e-001 -1.925923e+000 -7.785972e+000 193 153 118
1.343504e+000 -1.945496e+000 -7.920324e+000 31 16 22
-3.761531e-001 -3.053868e-001 -8.526105e+000 24 26 20
7.042387e-001 -1.966441e+000 -7.789940e+000 142 100 78
-1.961862e-001 -1.232486e+000 -8.296828e+000 114 109 106
2.331121e-001 -1.820744e+000 -7.928159e+000 102 73 56
3.858089e-001 -2.000658e+000 -7.910796e+000 140 114 97
8.262383e-001 -2.027634e+000 -8.143290e+000 41 22 22
1.767869e-001 -1.978388e+000 -7.980735e+000 91 72 63
-2.067574e+000 -9.870042e-001 -7.833943e+000 74 35 29
-2.114479e+000 -1.181351e+000 -7.864419e+000 75 50 44
-9.723829e-001 -1.234637e+000 -8.361944e+000 92 74 60
-2.106031e+000 -1.219477e+000 -7.867817e+000 38 18 17
-1.800056e+000 -1.414493e+000 -7.902667e+000 49 36 43
-1.053408e+000 -1.411931e+000 -8.334546e+000 38 19 22
-2.049484e+000 -1.454264e+000 -7.995584e+000 25 13 18
-1.417235e+000 -1.641658e+000 -8.233117e+000 44 32 36
-1.894435e+000 -1.724138e+000 -8.175927e+000 34 21 28
-1.938112e+000 -1.785842e+000 -8.148451e+000 102 87 82
-1.649725e+000 -1.836897e+000 -8.256319e+000 132 104 98
-1.158591e+000 -1.737335e+000 -8.701058e+000 141 121 121
-1.056173e+000 -1.533427e+000 -9.048527e+000 96 78 71
-1.684439e+000 -1.879481e+000 -8.334587e+000 76 44 30
-1.637925e+000 -1.897189e+000 -8.365241e+000 102 68 55
-8.341084e-001 -1.620098e+000 -9.254052e+000 168 171 212
-2.620590e+000 -1.832278e+000 -8.203914e+000 198 147 118
-2.541574e+000 -1.884291e+000 -8.246816e+000 179 123 104
-1.923872e+000 -1.925945e+000 -8.525949e+000 89 53 41
2.242169e+000 -8.836648e-002 -6.809190e+000 172 145 128
1.640840e+000 7.866752e-002 -7.008513e+000 128 86 64
2.087529e+000 -3.425387e-001 -7.132962e+000 162 128 113
9.011085e-001 1.923138e+000 -8.361692e+000 78 52 35
9.772917e-001 1.937152e+000 -8.250975e+000 100 82 70
5.717875e-001 2.443729e+000 -8.776915e+000 211 197 186
6.783909e-001 1.935889e+000 -8.560796e+000 132 106 89
8.826594e-001 1.914570e+000 -8.506864e+000 148 119 102
6.164379e-001 -1.299786e+000 -7.563414e+000 178 137 107
5.674480e-001 -1.422159e+000 -7.563738e+000 159 115 86
7.213116e-001 -1.605701e+000 -7.567703e+000 112 66 42
5.142367e-001 -1.596326e+000 -7.667670e+000 166 125 104
5.234006e-001 -1.681796e+000 -7.753958e+000 155 111 87
1.120641e+000 -1.948545e+000 -7.848387e+000 180 143 115
1.115859e+000 -1.955343e+000 -7.840817e+000 180 143 115
-6.878471e-001 -1.770481e-001 -8.664153e+000 29 20 14
4.620454e-001 -1.934786e+000 -7.868826e+000 145 107 79
5.355680e-001 -1.966193e+000 -7.887175e+000 142 100 76
-1.597009e-001 -1.139723e+000 -8.340372e+000 50 47 42
7.524050e-002 -1.832864e+000 -7.925467e+000 29 18 25
2.638594e-001 -1.841083e+000 -7.913505e+000 50 31 32
2.900445e-001 -1.917514e+000 -7.944875e+000 49 25 20
-1.120262e+000 -1.078751e+000 -8.174450e+000 70 41 21
-3.570415e-001 -1.189622e+000 -8.324742e+000 49 44 49
2.450581e-001 -1.989495e+000 -7.992280e+000 105 82 74
-6.448334e-001 -1.256456e+000 -8.402711e+000 124 123 127
-3.600000e-001 -1.618013e+000 -8.305099e+000 178 183 203
-3.891174e-001 -1.679186e+000 -8.444996e+000 174 175 193
-2.101537e+000 -1.277118e+000 -7.863597e+000 53 38 41
-1.436238e+000 -1.503860e+000 -8.014446e+000 23 16 23
-1.114594e+000 -1.474552e+000 -8.234403e+000 25 15 15
-1.114594e+000 -1.474552e+000 -8.234403e+000 25 15 15
-8.541404e-001 -1.357123e+000 -8.688673e+000 131 129 142
-2.760203e+000 -9.412833e-001 -8.055422e+000 68 37 20
-2.647548e+000 -1.258351e+000 -7.988423e+000 181 156 124
-1.508729e+000 -1.695436e+000 -8.283820e+000 121 102 97
-1.186017e+000 -1.700935e+000 -8.595494e+000 158 137 135
-8.367361e-001 -1.619542e+000 -9.070103e+000 152 158 194
-2.055462e+000 -1.853614e+000 -8.125070e+000 70 45 41
-1.696470e+000 -1.909349e+000 -8.360636e+000 164 130 119
9.438329e-001 2.085924e+000 -8.315459e+000 64 42 32
9.666420e-001 1.815872e+000 -8.265003e+000 41 27 25
7.825399e-001 1.833950e+000 -8.668064e+000 32 22 24
7.175500e-001 -1.398269e+000 -7.511138e+000 85 43 21
4.837709e-002 -6.716712e-001 -8.412652e+000 119 116 98
4.837709e-002 -6.716712e-001 -8.412652e+000 119 116 98
9.083945e-001 -2.018390e+000 -7.857509e+000 195 155 131
-2.024451e-001 -9.303564e-001 -8.305019e+000 119 115 106
-5.586229e-001 -7.578957e-001 -8.419083e+000 26 22 22
2.020322e-001 -1.930056e+000 -7.955243e+000 52 31 35
2.020322e-001 -1.930056e+000 -7.955243e+000 52 31 35
-1.822048e+000 -9.661479e-001 -7.795890e+000 100 60 35
-9.815400e-001 -1.084099e+000 -8.283592e+000 102 76 53
-1.469142e+000 -1.517471e+000 -8.093781e+000 26 16 24
1.143681e+000 -1.478934e+000 -9.723112e+000 21 12 20
-1.254509e+000 -1.773224e+000 -8.766297e+000 181 181 193
-9.984162e-001 -1.519138e+000 -9.454410e+000 159 123 109
-2.052730e+000 -1.855328e+000 -8.630387e+000 82 46 29
-2.094641e+000 -1.889449e+000 -8.654698e+000 167 122 103
1.406733e+000 6.106563e-001 -7.689181e+000 177 152 138
2.445336e+000 -3.371619e-001 -7.609601e+000 92 70 71
1.428862e+000 -1.798129e+000 -7.809714e+000 125 111 105
1.055396e+000 -1.845884e+000 -7.815755e+000 81 41 25
5.699155e-001 -1.783007e+000 -7.753015e+000 162 120 95
7.671232e-001 -1.893922e+000 -7.771444e+000 168 125 91
2.815372e-001 -1.795713e+000 -7.909914e+000 45 29 24
8.944046e-001 -2.012229e+000 -8.132957e+000 46 28 26
-1.893619e+000 -1.937990e+000 -8.597258e+000 158 121 108
-1.237028e+000 -1.571348e+000 -9.574374e+000 186 161 159
2.218633e+000 -3.942080e-001 -7.431708e+000 114 85 78
7.168650e-001 2.119109e+000 -8.481804e+000 114 74 48
7.463797e-001 -1.333044e+000 -7.452937e+000 101 59 35
-3.888788e-001 -1.139389e+000 -8.291520e+000 140 137 132
-2.423269e+000 -9.831946e-001 -7.860921e+000 109 65 44
-1.182120e+000 -1.669458e+000 -8.526079e+000 55 35 34
-6.109899e-001 -1.781834e+000 -8.779213e+000 180 182 206
1.624933e+000 8.285728e-002 -7.577908e+000 125 87 67
9.489544e-001 1.729547e+000 -8.366126e+000 133 111 94
1.600628e+000 1.220300e-002 -7.672278e+000 47 41 50
-5.130740e-001 -1.212376e+000 -8.333974e+000 139 137 138
-2.444778e+000 -1.547456e+000 -8.042070e+000 144 121 102
9.205444e-001 -1.604052e+000 -7.570303e+000 201 165 136
8.567164e-001 -2.026841e+000 -8.411002e+000 152 124 120
1.114431e-002 -1.992158e+000 -8.875369e+000 97 95 119
-9.140364e-001 -1.582881e+000 -8.745310e+000 153 158 189
-1.137424e-001 -1.904271e+000 -8.942316e+000 177 181 216
2.120920e+000 -3.207018e-001 -7.040105e+000 125 96 82
2.623668e+000 -3.282955e-001 -7.597778e+000 20 12 23
-5.634607e-002 -1.407447e+000 -8.148173e+000 146 136 126
1.694561e+000 -2.680114e-001 -7.204205e+000 118 69 52
-1.730849e+000 4.487262e-002 -8.038692e+000 204 189 158
-1.305584e+000 -1.753745e+000 -8.654100e+000 156 139 145
-1.628367e+001 5.609230e+001 -3.130748e+001 70 43 35
-5.647455e+000 5.553779e+001 -3.748757e+001 108 83 80
1.207028e+000 1.506212e+000 -8.394321e+000 31 18 17
-1.602727e+001 5.587376e+001 -3.134581e+001 172 150 129
-1.603414e+001 5.593350e+001 -3.137396e+001 172 150 129
-5.141489e+000 5.720332e+001 -3.779735e+001 45 25 27
-5.889606e+000 5.506056e+001 -3.803841e+001 59 32 23
-4.747163e+000 5.521206e+001 -3.768350e+001 130 108 81
2.212163e+000 -4.018365e-001 -7.223041e+000 54 33 32
1.121793e+000 1.627433e+000 -8.401353e+000 66 49 45
-2.080713e-001 -1.857157e+000 -8.321449e+000 27 22 29
-5.649182e-001 -1.187568e+000 -8.328617e+000 119 116 117
1.578884e+000 -1.497238e+000 -7.634027e+000 14 7 20
2.396716e+000 -3.507951e-001 -7.152881e+000 79 60 58
1.899302e+000 -3.461720e-001 -7.206752e+000 166 135 107
1.814053e+000 -3.586870e-001 -7.609362e+000 93 85 82
8.640212e-001 1.973671e+000 -8.329832e+000 163 136 123
8.932590e-001 1.948552e+000 -8.351403e+000 66 36 26
1.078498e+000 1.706466e+000 -8.331814e+000 41 25 24
1.173129e+000 1.605248e+000 -8.296819e+000 45 24 20
1.384636e+000 -1.470345e+000 -7.523187e+000 47 32 36
7.914495e-001 -1.481783e+000 -7.525242e+000 183 138 111
6.402389e-001 -1.485879e+000 -7.543422e+000 162 118 88
8.636697e-001 -1.784861e+000 -7.706688e+000 136 88 58
3.173729e-001 -1.435067e+000 -7.694517e+000 184 145 119
5.064701e-001 -1.921702e+000 -7.835408e+000 151 112 81
1.268775e+000 -2.004236e+000 -8.060930e+000 143 132 136
1.504418e-001 -1.976441e+000 -7.981756e+000 25 15 16
2.378788e-001 -1.897569e+000 -7.972163e+000 53 32 27
3.679101e-001 -2.013388e+000 -8.009009e+000 67 48 50
5.799930e-001 -2.028710e+000 -8.492559e+000 163 124 110
-7.439389e-001 -1.469525e+000 -8.594657e+000 145 147 164
-8.254747e-001 -1.414420e+000 -8.689007e+000 9 8 23
-8.041979e-001 -1.603440e+000 -8.838631e+000 188 200 225
-1.743417e+000 -1.848243e+000 -8.239538e+000 45 29 30
-1.260313e+000 -1.713073e+000 -8.771784e+000 107 82 85
-9.857358e-001 -1.548221e+000 -9.246320e+000 18 14 29
-2.293728e+000 -1.942261e+000 -7.979135e+000 144 124 116
1.605964e+000 -3.121499e-002 -6.919777e+000 183 138 109
1.523750e+000 5.799502e-001 -7.104324e+000 203 168 131
1.697027e+000 -1.750015e-001 -6.945560e+000 121 72 48
1.464661e+000 2.363789e-001 -7.165942e+000 142 98 69
1.454532e+000 1.444907e+000 -8.375186e+000 36 22 23
7.679815e-001 2.168946e+000 -8.516553e+000 101 65 47
8.956373e-001 1.693583e+000 -8.627233e+000 39 27 25
9.408584e-001 -1.269059e+000 -7.427822e+000 120 69 36
8.592262e-001 1.751320e+000 -9.078609e+000 42 37 34
1.001088e+000 -1.681573e+000 -7.608499e+000 187 144 112
1.053197e+000 -1.770066e+000 -7.691754e+000 123 77 44
6.728562e-001 -1.648562e+000 -7.602153e+000 166 121 92
9.706558e-001 -1.908483e+000 -7.759729e+000 166 122 95
1.579657e-001 -1.864071e+000 -7.913614e+000 115 89 74
5.789898e-001 -2.123049e+000 -7.983370e+000 29 17 19
5.789898e-001 -2.123049e+000 -7.983370e+000 29 17 19
6.401834e-001 -2.134724e+000 -8.175041e+000 55 39 42
-1.665677e+000 -1.165611e+000 -7.803138e+000 123 85 62
9.298930e-001 -1.523310e+000 -9.625196e+000 91 94 128
-8.146285e-001 -1.535367e+000 -8.777829e+000 167 176 194
-1.866174e+000 -1.841419e+000 -8.309352e+000 74 55 59
-9.995581e-001 -1.519183e+000 -9.330036e+000 101 83 84
-1.494440e+000 -1.836255e+000 -8.727965e+000 177 155 158
-1.050622e+000 -1.548668e+000 -9.332431e+000 99 69 64
2.267899e+000 -3.318983e-001 -7.087477e+000 46 22 18
1.594009e+000 6.094947e-002 -7.061663e+000 174 128 104
1.576913e+000 -1.244511e-001 -7.085386e+000 190 150 136
1.571784e+000 -1.008728e-001 -7.195327e+000 183 147 131
1.499948e+000 -1.193482e-001 -7.230077e+000 159 122 98
1.617468e+000 -7.388387e-002 -7.569818e+000 116 89 80
7.542841e-001 2.235278e+000 -8.357249e+000 127 84 50
1.231614e+000 1.555165e+000 -8.311153e+000 67 44 39
8.328200e-001 2.067683e+000 -8.455117e+000 106 69 54
8.815069e-001 1.748908e+000 -8.781659e+000 30 20 25
9.235234e-001 1.583276e+000 -8.533572e+000 89 75 74
1.266823e+000 1.431096e+000 -8.639180e+000 33 25 36
1.011675e+000 -1.419248e+000 -7.420409e+000 192 155 118
6.122082e-001 -1.790831e+000 -7.709259e+000 111 67 42
1.027862e+000 -1.953792e+000 -7.843998e+000 184 143 110
1.027862e+000 -1.953792e+000 -7.843998e+000 184 143 110
1.084715e+000 -1.997014e+000 -7.919336e+000 172 130 97
-1.427650e+000 -1.355456e-002 -7.953012e+000 84 64 42
-6.806386e-001 -1.440917e+000 -8.495254e+000 161 162 180
-2.409024e+000 -1.141801e+000 -7.852596e+000 115 76 58
-8.178835e-001 -1.385309e+000 -8.666860e+000 15 12 32
-8.254667e-001 -1.410577e+000 -8.644479e+000 15 12 32
-8.351018e-001 -1.571903e+000 -8.856620e+000 31 33 48
-2.121657e+000 -1.578401e+000 -8.047933e+000 31 19 20
-2.142843e+000 -1.805502e+000 -8.392350e+000 121 83 79
1.090117e+000 -1.641729e+000 -7.563999e+000 210 169 137
1.223250e+000 -1.681194e+000 -7.555559e+000 166 130 96
4.885823e-001 -1.653281e+000 -7.620757e+000 170 133 105
1.111000e+000 -2.039500e+000 -8.154014e+000 137 123 115
-6.956580e-001 -1.315091e+000 -8.459458e+000 24 21 32
1.430350e+000 4.480655e-001 -7.135191e+000 207 173 135
1.730641e+000 -1.957379e-001 -7.135264e+000 88 42 27
2.358793e+000 -4.057379e-001 -7.421459e+000 92 69 65
7.207090e-001 2.330504e+000 -8.457927e+000 193 157 124
7.728995e-001 1.944087e+000 -8.296551e+000 113 78 56
1.107824e+000 -1.049222e+000 -7.373729e+000 154 130 98
5.505301e-001 -9.821188e-001 -7.674500e+000 172 133 108
1.979172e-001 -1.609059e+000 -7.823709e+000 52 36 29
1.343009e-001 -1.665764e+000 -7.924027e+000 28 18 24
-5.238523e-002 -2.056390e+000 -8.300589e+000 23 13 22
-9.640623e-001 -1.501423e+000 -8.974697e+000 136 143 170
-2.050445e+000 -1.855002e+000 -8.631596e+000 77 38 25
6.901109e-001 -1.552840e+000 -7.544940e+000 199 159 133
1.538275e-001 -1.898382e+000 -7.915341e+000 98 70 58
-2.497978e+000 -1.092583e+000 -7.919107e+000 81 45 34
-2.702728e+000 -1.128384e+000 -7.958372e+000 159 116 83
-1.602366e+000 -1.929947e+000 -8.409061e+000 143 112 104
-1.063704e+000 -1.502371e+000 -9.238183e+000 133 103 95
-1.947553e+000 -1.868416e+000 -8.452110e+000 47 26 25
-5.216407e-001 -1.794936e+000 -8.706694e+000 146 146 172
-1.531706e+000 -1.711134e+000 -8.163638e+000 13 7 11
-1.569393e+000 -1.924672e+000 -8.621673e+000 177 156 154
2.327307e+000 -3.916415e-001 -7.497924e+000 65 45 44
-2.297060e+000 -1.929838e+000 -8.229205e+000 52 33 37
1.528830e+000 -1.869174e+000 -7.866902e+000 18 10 21
-1.501813e-001 -1.965418e+000 -8.613821e+000 178 182 212
-2.161433e+000 -1.756223e+000 -8.069519e+000 169 151 137
-2.161433e+000 -1.756223e+000 -8.069519e+000 169 151 137
-2.333417e-001 4.782087e+001 -2.722483e+001 177 159 139
-1.505940e-001 5.105208e+001 -2.933684e+001 45 23 26
1.889826e+000 -3.718389e-001 -7.155305e+000 122 88 61
-1.581836e+000 -1.614602e+000 -8.068227e+000 23 12 16
-8.047965e-001 -1.592062e+000 -8.845919e+000 188 200 225
-1.241846e+000 -1.730463e+000 -8.794168e+000 194 183 199
-2.167713e+000 -1.933604e+000 -8.117545e+000 60 42 42
-1.837222e+000 -1.846187e+000 -8.393542e+000 87 63 63
3.480422e-001 -2.128706e+000 -8.056406e+000 25 14 20
2.846935e-001 -1.776843e+000 -7.839461e+000 151 125 108
1.561122e+000 -1.699480e+000 -7.792731e+000 90 79 84
1.318149e+000 -1.969661e+000 -8.041266e+000 20 11 16
1.982083e+000 -2.148491e-001 -6.798725e+000 154 118 92
2.151086e+000 -1.906964e-001 -6.887063e+000 114 79 56
1.592396e+000 -8.758615e-003 -6.969636e+000 122 80 59
1.925843e+000 -3.673303e-001 -7.142447e+000 151 117 99
2.150342e+000 -4.379641e-001 -7.244228e+000 96 77 67
1.440619e+000 2.086400e-001 -7.200960e+000 183 142 114
1.588335e+000 -2.751153e-001 -7.290067e+000 136 94 72
1.431330e+000 1.662212e-001 -7.459897e+000 128 86 65
1.684933e+000 -2.413178e-001 -7.409632e+000 126 95 76
1.695905e+000 -2.992755e-001 -7.447015e+000 121 90 70
1.481219e+000 3.810595e-002 -7.657779e+000 68 66 67
8.034956e-001 2.407034e+000 -8.230501e+000 215 197 176
1.218286e+000 -1.216136e+000 -7.333833e+000 39 29 30
1.260940e+000 -1.278096e+000 -7.375983e+000 37 23 21
7.214302e-001 2.384212e+000 -8.316638e+000 186 151 113
9.017535e-001 -9.576407e-001 -7.415429e+000 62 53 45
1.557438e+000 -1.472486e+000 -7.620503e+000 73 67 69
6.615133e-001 2.558079e+000 -8.531454e+000 188 167 139
9.080423e-001 1.813106e+000 -8.468921e+000 58 42 28
7.499682e-001 -1.188818e+000 -7.479263e+000 145 102 68
6.738731e-001 -1.648852e+000 -7.602343e+000 164 124 98
6.880933e-001 -1.679310e+000 -7.610534e+000 98 56 35
9.175004e-001 -1.836006e+000 -7.656208e+000 159 117 92
1.226835e+000 -1.885158e+000 -7.714719e+000 179 146 127
1.205734e+000 -1.896794e+000 -7.733035e+000 125 91 73
1.229663e+000 -1.969338e+000 -7.791348e+000 170 139 119
1.293674e+000 -1.952300e+000 -7.811160e+000 165 145 137
6.799270e-001 2.171469e+000 -9.110450e+000 88 65 51
1.097505e+000 -1.982284e+000 -7.825487e+000 170 137 107
6.972732e-001 -1.824998e+000 -7.759457e+000 151 107 80
1.070098e+000 -2.041715e+000 -7.933129e+000 81 45 29
1.122083e+000 -2.084581e+000 -7.943709e+000 66 38 33
1.275158e+000 -2.031227e+000 -8.028532e+000 20 14 26
1.094254e+000 -2.050563e+000 -8.037537e+000 135 99 83
2.691452e-001 -1.662184e+000 -7.847623e+000 65 43 40
3.115772e-001 -1.665899e+000 -7.884266e+000 40 21 16
5.068897e-001 -2.003944e+000 -7.922504e+000 63 43 32
5.068897e-001 -2.003944e+000 -7.922504e+000 63 43 32
4.260929e-001 -2.097319e+000 -7.938019e+000 112 96 82
4.224045e-001 -2.070854e+000 -8.060053e+000 27 15 19
-1.022653e-001 -2.025318e+000 -8.143554e+000 35 30 36
1.398844e+000 -1.361064e+000 -9.405973e+000 38 35 46
-1.467501e+000 -1.280520e+000 -7.958674e+000 75 53 40
-3.883015e-001 -1.593775e+000 -8.467974e+000 112 110 124
-1.430543e+000 -1.516713e+000 -8.051817e+000 53 43 42
1.239849e+000 -1.385146e+000 -9.767080e+000 15 10 19
-8.090857e-001 -1.396426e+000 -8.608150e+000 108 106 117
-7.691625e-001 -1.612100e+000 -8.707240e+000 190 194 205
-1.759915e+000 -1.767438e+000 -8.133966e+000 20 11 16
-1.720772e+000 -1.837017e+000 -8.206729e+000 93 75 71
-1.604186e+000 -1.829134e+000 -8.281180e+000 145 122 107
-1.743752e+000 -1.861416e+000 -8.322987e+000 132 107 103
-1.804040e+000 -1.816547e+000 -8.323002e+000 78 62 63
-1.657058e+000 -1.891359e+000 -8.324001e+000 140 107 95
-2.372934e+000 -1.948437e+000 -8.083664e+000 188 169 166
-1.794198e+000 -1.906765e+000 -8.519577e+000 100 66 54
-1.725838e+000 -1.904762e+000 -8.526993e+000 154 116 105
-1.746987e+000 -1.909614e+000 -8.541795e+000 108 71 57
-1.264093e+000 -1.733672e+000 -8.912009e+000 153 131 134
-1.068630e+000 -1.576913e+000 -9.224856e+000 131 102 96
-1.861997e+000 -1.903740e+000 -8.505625e+000 165 133 120
-1.752701e+000 -1.902501e+000 -8.580348e+000 165 129 113
-1.212782e+000 -1.600205e+000 -9.367085e+000 127 98 96
-1.655324e+000 -1.784649e+000 -9.031797e+000 121 77 58
-1.655324e+000 -1.784649e+000 -9.031797e+000 121 77 58
-1.577639e+000 -1.788754e+000 -9.134383e+000 149 104 91
-2.292989e+000 -1.806421e+000 -8.662063e+000 131 75 48
-2.165559e+000 -1.824479e+000 -8.732367e+000 103 52 35
-2.088185e+000 -1.876336e+000 -8.825793e+000 145 98 72
-1.874796e+000 -1.699995e+000 -9.200527e+000 138 101 91
1.840327e+000 -1.367445e-001 -6.918321e+000 113 71 47
2.083546e+000 -2.898272e-001 -6.990557e+000 103 71 53
2.351369e+000 -3.351302e-001 -6.999821e+000 133 112 94
2.376481e+000 -3.570656e-001 -7.080977e+000 105 80 76
1.601711e+000 -8.398331e-002 -6.955991e+000 170 130 104
1.763086e+000 -3.324738e-001 -6.869913e+000 160 120 94
1.796322e+000 -2.729367e-001 -6.967289e+000 85 44 24
2.061181e+000 -3.378794e-001 -7.152347e+000 70 38 28
2.067221e+000 -3.663289e-001 -7.113037e+000 150 123 106
1.640240e+000 -1.630677e-001 -7.165596e+000 83 43 31
1.640240e+000 -1.630677e-001 -7.165596e+000 83 43 31
1.693832e+000 -1.724865e-001 -7.157205e+000 72 36 20
1.742254e+000 -2.934825e-001 -7.110062e+000 154 117 99
1.742254e+000 -2.934825e-001 -7.110062e+000 154 117 99
1.809637e+000 -3.425755e-001 -7.059675e+000 94 54 34
1.847903e+000 -2.619152e-001 -7.256452e+000 133 97 75
1.828917e+000 -4.039863e-001 -7.114160e+000 173 138 118
2.106873e+000 -4.007099e-001 -7.354028e+000 117 89 69
2.167145e+000 -4.449906e-001 -7.374562e+000 94 72 58
2.242669e+000 -3.939422e-001 -7.383323e+000 38 20 20
1.953996e+000 -4.005017e-001 -7.373072e+000 139 104 80
2.159561e+000 -4.328705e-001 -7.505317e+000 50 32 28
1.680209e+000 -3.141343e-001 -7.398825e+000 74 36 23
1.693914e+000 1.697770e+000 -8.113645e+000 140 113 76
1.382565e+000 1.679957e+000 -8.141133e+000 71 47 35
1.723830e+000 1.534077e+000 -8.234845e+000 141 106 86
7.917703e-001 -1.321437e+000 -7.414579e+000 170 132 96
9.364408e-001 1.719934e+000 -8.546890e+000 26 16 17
9.996446e-001 -1.689134e+000 -7.536982e+000 193 154 124
1.415573e+000 -1.766475e+000 -7.767871e+000 30 16 16
1.415573e+000 -1.766475e+000 -7.767871e+000 30 16 16
9.327232e-001 1.707319e+000 -8.804197e+000 55 50 56
7.463268e-001 -1.707068e+000 -7.576523e+000 184 150 121
9.702293e-001 -1.760636e+000 -7.672330e+000 101 60 32
4.450343e-001 -1.388802e+000 -7.635245e+000 146 103 69
1.242500e+000 -2.028629e+000 -7.934632e+000 149 130 115
1.333404e+000 -1.980971e+000 -7.992558e+000 126 114 117
1.331506e+000 -1.982798e+000 -7.991309e+000 126 114 117
3.736106e-001 -1.776102e+000 -7.738554e+000 159 128 108
3.993935e-001 -1.778992e+000 -7.762817e+000 83 56 47
9.879846e-001 -2.015113e+000 -7.866742e+000 168 126 104
1.125360e+000 -2.087405e+000 -8.033183e+000 145 113 81
3.143204e-001 5.645662e-002 -8.620584e+000 40 33 27
4.430951e-001 -1.894006e+000 -7.874898e+000 81 49 24
9.907310e-001 -2.120400e+000 -8.092989e+000 35 23 36
4.685344e-001 -2.058894e+000 -7.940022e+000 48 30 26
4.244856e-001 -2.013488e+000 -7.994956e+000 29 15 22
-1.542269e+000 1.953035e-001 -8.046065e+000 202 185 160
-3.323059e-001 -1.154826e+000 -8.250362e+000 124 119 116
6.264306e-001 -2.111286e+000 -8.470124e+000 152 122 114
-7.286976e-001 -1.062323e+000 -8.476651e+000 30 25 22
-3.892649e-001 -1.594142e+000 -8.370581e+000 93 93 103
-3.924369e-001 -1.671666e+000 -8.403376e+000 176 175 191
-1.993845e+000 -1.096740e+000 -7.846779e+000 61 29 14
7.438750e-002 -2.035028e+000 -8.626127e+000 148 154 183
-1.709224e+000 -1.641396e+000 -7.990782e+000 17 8 13
-1.182285e+000 -1.615367e+000 -8.260077e+000 39 22 28
1.163906e+000 -1.362168e+000 -9.902841e+000 19 10 15
-2.472914e+000 -1.210073e+000 -7.940456e+000 106 76 65
-2.472914e+000 -1.210073e+000 -7.940456e+000 106 76 65
-2.416635e+000 -1.335075e+000 -7.951957e+000 104 77 66
-1.623562e+000 -1.822212e+000 -8.312446e+000 69 40 31
-1.250339e+000 -1.735371e+000 -8.624373e+000 163 143 145
-1.162948e+000 -1.636723e+000 -8.666547e+000 155 134 130
-1.790263e+000 -1.836934e+000 -8.280114e+000 33 18 21
-1.685615e+000 -1.860026e+000 -8.351584e+000 57 28 24
-1.492279e+000 -1.821898e+000 -8.433150e+000 145 116 103
-1.147581e+000 -1.701810e+000 -8.743489e+000 128 114 111
-1.242455e+000 -1.730241e+000 -8.856423e+000 192 173 184
-2.394467e+000 -1.961223e+000 -8.061140e+000 198 181 180
-1.935827e+000 -1.809438e+000 -8.347600e+000 24 11 19
-1.864886e+000 -1.854620e+000 -8.350261e+000 38 19 21
-1.407995e+000 -1.765684e+000 -8.782682e+000 181 164 172
-1.400760e+000 -1.763530e+000 -8.886902e+000 174 149 152
-1.271299e+000 -1.728231e+000 -8.872045e+000 87 63 68
-1.289904e+000 -1.755924e+000 -8.951387e+000 156 133 136
-2.267167e+000 -1.955415e+000 -8.197581e+000 62 50 50
-2.087381e+000 -1.767599e+000 -8.504865e+000 47 23 21
-1.873704e+000 -1.876584e+000 -8.555756e+000 73 39 29
-1.809098e+000 -1.922180e+000 -8.540118e+000 147 113 99
-1.827015e+000 -1.883235e+000 -8.600551e+000 84 46 35
-1.474749e+000 -1.797628e+000 -8.896050e+000 176 149 142
-1.143693e+000 -1.640144e+000 -9.267638e+000 115 81 69
-2.453451e+000 -1.910719e+000 -8.311611e+000 74 43 39
-2.251381e+000 -1.820567e+000 -8.580747e+000 158 109 92
-2.758140e+000 -1.517435e+000 -8.702694e+000 204 159 133
-2.513854e+000 -1.642122e+000 -8.783402e+000 214 173 145
-1.905560e+000 -1.752323e+000 -9.120538e+000 188 155 140
-2.244468e+000 -1.599963e+000 -9.156353e+000 117 71 47
1.610467e+000 1.317157e-001 -6.822565e+000 201 165 131
1.610467e+000 1.317157e-001 -6.822565e+000 201 165 131
1.846178e+000 -2.080574e-001 -6.765308e+000 152 115 88
2.100333e+000 -3.591651e-001 -6.967992e+000 151 124 101
1.608816e+000 -2.183222e-002 -6.894687e+000 171 129 104
1.548915e+000 7.364557e-003 -6.971237e+000 162 122 96
1.833645e+000 -2.817925e-001 -6.934888e+000 94 53 33
1.720021e+000 -3.008588e-001 -7.015093e+000 165 127 106
1.560105e+000 9.221703e-002 -7.042284e+000 137 95 70
2.097418e+000 -4.493165e-001 -7.196056e+000 48 27 25
2.160071e+000 -3.934337e-001 -7.346734e+000 26 11 16
1.811350e+000 -2.986140e-001 -7.305846e+000 127 89 67
1.811350e+000 -2.986140e-001 -7.305846e+000 127 89 67
1.825393e+000 -3.249714e-001 -7.347927e+000 85 43 27
1.606983e+000 -1.094559e-001 -7.467230e+000 96 61 41
1.627790e+000 -2.649062e-001 -7.374938e+000 82 45 32
1.052639e+000 2.206113e+000 -8.252387e+000 160 140 117
9.940770e-001 2.223932e+000 -8.280678e+000 75 53 40
1.309988e+000 1.447466e+000 -8.321974e+000 46 27 21
8.737006e-001 -1.356863e+000 -7.445193e+000 98 57 27
8.138348e-001 1.732282e+000 -8.419973e+000 120 94 76
1.517687e+000 -1.712203e+000 -7.731045e+000 32 18 31
1.451301e+000 -1.781080e+000 -7.730407e+000 119 105 106
6.926938e-001 1.987931e+000 -8.583182e+000 138 112 88
7.276820e-001 -1.604787e+000 -7.565243e+000 89 47 25
1.080485e+000 -1.744974e+000 -7.649891e+000 153 117 83
5.133480e-001 -1.523376e+000 -7.652678e+000 85 47 28
8.239249e-001 -1.787230e+000 -7.678925e+000 117 74 40
1.024953e+000 -1.901978e+000 -7.782129e+000 74 36 25
4.465661e-001 -1.776164e+000 -7.771006e+000 152 121 100
7.011040e-001 -1.882782e+000 -7.794394e+000 84 45 29
9.457786e-001 -2.067191e+000 -7.874348e+000 138 96 72
4.516081e-001 -1.964638e+000 -7.901371e+000 77 47 35
6.065795e-001 -2.032780e+000 -7.944703e+000 26 17 20
3.136433e-001 -1.832121e+000 -7.924787e+000 100 75 55
2.800616e-001 -1.806717e+000 -7.943573e+000 48 29 22
2.515536e-001 -1.899348e+000 -7.933800e+000 115 90 76
4.335114e-001 -2.054704e+000 -7.899107e+000 130 106 87
5.442275e-001 -2.108116e+000 -8.004459e+000 89 70 68
3.224222e-001 -2.085270e+000 -8.067942e+000 94 80 79
-3.046932e-001 -1.339047e+000 -8.271028e+000 138 134 131
6.211276e-001 -2.108438e+000 -8.433332e+000 183 151 140
-1.978152e+000 -9.657290e-001 -7.822923e+000 95 54 32
-1.515172e+000 -1.573847e+000 -8.001315e+000 41 33 31
-1.486686e+000 -1.563414e+000 -8.050686e+000 17 11 13
-7.881447e-002 -1.993410e+000 -8.849279e+000 152 157 186
-1.506499e+000 -1.685328e+000 -8.291997e+000 116 93 87
-1.052687e+000 -1.528143e+000 -8.587696e+000 106 89 82
-2.238870e+000 -1.521759e+000 -7.947455e+000 87 62 52
-1.106948e+000 -1.681256e+000 -8.688611e+000 142 124 123
-1.740250e+000 -1.876524e+000 -8.275754e+000 43 23 21
-1.695615e+000 -1.888845e+000 -8.376752e+000 153 121 110
-1.323586e+000 -1.787369e+000 -8.613476e+000 175 154 159
-2.203755e+000 -1.911368e+000 -8.123497e+000 118 99 95
-1.743036e+000 -1.915152e+000 -8.464972e+000 67 35 24
-1.746128e+000 -1.897175e+000 -8.473045e+000 67 35 24
-1.138265e+000 -1.608385e+000 -9.064954e+000 73 48 43
-7.940454e-001 -1.646241e+000 -9.298372e+000 132 137 172
-1.436272e+000 -1.798637e+000 -8.902759e+000 110 79 74
-1.385882e+000 -1.792964e+000 -8.983290e+000 112 84 72
-2.396739e+000 -1.741625e+000 -8.589190e+000 160 107 76
-2.359051e+000 -1.770744e+000 -8.588277e+000 128 78 51
-2.177944e+000 -1.806010e+000 -8.669342e+000 91 44 27
-1.616084e+000 -1.785814e+000 -9.047182e+000 144 95 80
-1.998517e+000 -1.770863e+000 -9.085795e+000 183 148 126
-2.826020e+000 -1.456573e+000 -8.859900e+000 174 127 101
-2.073328e+000 -1.729690e+000 -9.105156e+000 202 158 131
1.923669e+000 -1.250492e-001 -6.843982e+000 94 54 29
1.638856e+000 -1.364990e-001 -7.083277e+000 103 64 49
1.994204e+000 -3.379832e-001 -7.466009e+000 90 62 43
1.994204e+000 -3.379832e-001 -7.466009e+000 90 62 43
1.109819e+000 1.775593e+000 -8.157635e+000 66 48 40
8.246693e-001 1.963970e+000 -8.547488e+000 53 30 25
9.782724e-001 -1.605473e+000 -7.490495e+000 173 140 105
1.370735e+000 -1.730130e+000 -7.663990e+000 78 59 45
1.370142e+000 -1.731083e+000 -7.663363e+000 78 59 45
1.192614e+000 -1.866871e+000 -7.704792e+000 177 141 117
8.842594e-001 1.385946e+000 -9.063819e+000 40 32 35
4.693523e-001 -1.600192e+000 -7.731904e+000 150 115 88
1.243373e+000 -2.018655e+000 -8.100387e+000 9 8 13
-1.815891e-001 -1.035523e+000 -8.279245e+000 34 30 26
7.645809e-001 -2.058772e+000 -8.333910e+000 142 121 118
-4.450085e-001 -3.470906e-001 -8.515829e+000 123 111 97
-4.754179e-001 -8.563404e-001 -8.355750e+000 36 33 29
-1.287383e+000 -1.258300e+000 -8.006590e+000 99 65 48
-1.193833e+000 -1.170249e+000 -8.049028e+000 82 50 23
-1.130754e+000 -1.204948e+000 -8.181258e+000 71 44 24
-5.268087e-001 -1.399709e+000 -8.364924e+000 153 151 154
-1.590676e-002 -2.092436e+000 -8.510685e+000 138 135 164
-2.708625e+000 -1.243407e+000 -7.959112e+000 102 58 33
-2.368953e+000 -1.457922e+000 -8.113653e+000 50 26 16
-1.404108e+000 -1.797233e+000 -8.631103e+000 105 68 61
-2.053649e+000 -1.935255e+000 -8.181645e+000 69 50 54
-1.865672e+000 -1.827987e+000 -8.921711e+000 189 147 123
-1.558192e+000 -1.787918e+000 -9.025171e+000 173 137 121
-2.132960e+000 -1.844325e+000 -8.753885e+000 97 50 28
-2.874508e+000 -1.430316e+000 -8.764127e+000 171 122 89
-2.765624e+000 -1.427490e+000 -8.834645e+000 170 116 88
-2.765453e+000 -1.445338e+000 -8.821241e+000 170 116 88
2.055117e+000 -3.240304e-001 -7.040264e+000 109 80 62
1.444670e+000 2.929332e-001 -7.117702e+000 188 154 122
2.358270e+000 -4.060416e-001 -7.419737e+000 69 50 44
2.048681e+000 -4.118371e-001 -7.499929e+000 117 96 79
1.390594e+000 1.223860e-001 -7.370402e+000 185 154 135
1.407977e+000 1.437612e+000 -8.298463e+000 70 47 31
8.736133e-001 -9.933018e-001 -7.441208e+000 166 141 107
6.933659e-001 -1.549803e+000 -7.546997e+000 180 146 114
7.298689e-001 -1.679889e+000 -7.582004e+000 163 132 103
8.264485e-001 2.152388e+000 -9.170600e+000 63 44 33
7.636603e-001 -1.780904e+000 -7.644135e+000 161 119 82
7.636603e-001 -1.780904e+000 -7.644135e+000 161 119 82
9.099047e-001 -2.017468e+000 -7.859203e+000 190 153 132
7.903191e-001 -2.004132e+000 -7.894083e+000 52 31 31
2.477107e-001 -1.627676e+000 -7.830310e+000 133 110 92
-1.763734e-001 -1.708312e+000 -8.174816e+000 24 17 24
-2.125363e+000 -1.172243e+000 -7.777882e+000 96 59 41
3.004356e-001 -1.802052e+000 -9.087940e+000 119 120 141
-2.481772e+000 -1.156724e+000 -8.044220e+000 65 35 27
-1.361580e+000 -1.736616e+000 -8.383582e+000 41 24 25
-2.327899e+000 -1.964314e+000 -8.162254e+000 31 20 21
-1.265756e+000 -1.610059e+000 -9.386125e+000 174 158 169
-2.335299e+000 -1.771229e+000 -8.660018e+000 168 114 86
-2.322487e+000 -1.693441e+000 -9.073733e+000 138 85 61
-2.759470e+000 -1.330203e+000 -9.128556e+000 172 119 95
-2.758383e+000 -1.338725e+000 -9.123006e+000 172 119 95
1.701528e+000 -1.881872e-001 -7.044591e+000 130 93 66
1.819192e+000 -3.632334e-001 -7.543513e+000 120 100 93
1.389890e+000 -1.442381e+000 -7.462000e+000 139 121 100
9.112687e-001 -1.978022e+000 -7.970691e+000 60 33 36
-1.306684e+000 -9.725077e-001 -7.959992e+000 111 72 38
3.540545e-001 -2.041515e+000 -8.543976e+000 67 48 50
3.113162e-001 -2.012940e+000 -8.647975e+000 168 148 146
9.142912e-001 -1.539385e+000 -9.514644e+000 93 93 118
7.888843e-001 -1.474468e+000 -9.591312e+000 85 87 110
-2.355109e+000 -1.409710e+000 -7.999905e+000 100 65 51
-1.233761e+000 -1.730913e+000 -8.816431e+000 156 147 158
-7.656656e-001 -1.102658e+000 -1.015218e+001 151 158 188
-2.324247e+000 -1.721662e+000 -8.932382e+000 193 152 124
1.417006e+000 1.645132e+000 -8.134671e+000 89 62 42
6.642821e-001 -1.992497e+000 -7.830383e+000 52 31 30
4.674264e-001 -2.049230e+000 -8.659658e+000 163 136 117
-2.416665e+000 -1.034389e+000 -7.825628e+000 111 67 47
5.608893e-001 -1.665321e+000 -9.425069e+000 132 135 168
5.608893e-001 -1.665321e+000 -9.425069e+000 132 135 168
-1.384144e+000 -1.632624e+000 -8.322649e+000 35 23 27
-1.185567e+000 -1.668189e+000 -8.532597e+000 48 30 31
-2.149500e+000 -1.067537e+000 -7.722750e+000 88 44 26
2.977617e-002 -1.973083e+000 -8.909201e+000 96 95 110
-9.067172e-001 -1.545736e+000 -8.790687e+000 149 150 178
-1.054396e+000 -1.553757e+000 -8.925603e+000 24 16 27
1.657558e-002 -1.905998e+000 -9.446590e+000 82 82 106
1.505248e+000 6.195193e-002 -7.120515e+000 132 86 62
9.477013e-001 2.192541e+000 -8.307124e+000 101 75 60
8.905386e-001 -1.651136e+000 -7.502995e+000 157 122 94
1.023748e+000 -1.550915e+000 -9.511522e+000 142 149 193
-8.370948e-001 -1.647435e+000 -8.535928e+000 119 123 134
1.938780e-002 -1.997071e+000 -9.089685e+000 172 175 206
-8.807699e-001 -1.497087e+000 -9.025005e+000 156 159 190
1.346556e+000 -1.332071e+000 -7.472010e+000 132 104 83
-1.132888e+000 -1.565984e+000 -8.530548e+000 38 24 24
-7.910265e-001 -1.590223e+000 -9.065081e+000 170 175 205
1.244443e+000 4.519536e+001 -2.367003e+001 193 176 159
1.607519e+000 -1.733438e-001 -7.296296e+000 104 61 44
1.846082e+000 -3.345902e-001 -7.316111e+000 130 92 70
8.862716e-001 1.889624e+000 -8.544573e+000 63 39 34
-8.109964e-001 -1.530088e+000 -8.738690e+000 19 22 38
-3.617954e-001 -1.899680e+000 -9.239703e+000 144 147 178
-1.973357e+000 -1.835684e+000 -8.450125e+000 39 21 25
-2.172659e+000 -1.819646e+000 -8.699939e+000 144 93 74
1.821143e+000 -7.207770e-002 -6.755316e+000 164 120 86
1.536038e+000 -5.162551e-002 -7.417396e+000 141 103 80
1.237240e+000 1.894296e+000 -8.173172e+000 84 68 54
1.196959e+000 1.483565e+000 -8.385505e+000 28 15 20
1.454418e+000 1.448930e+000 -8.318056e+000 85 66 49
-4.290305e-001 -1.860756e+000 -9.181925e+000 164 165 195
7.902149e-001 1.824667e+000 -8.661358e+000 29 17 19
3.915061e-001 -1.878276e+000 -7.871560e+000 132 102 76
-2.002809e-001 -1.177275e+000 -8.304330e+000 44 39 35
-5.354216e-001 -1.394029e+000 -8.369485e+000 153 151 154
-3.259143e-001 -1.767269e+000 -8.384160e+000 173 179 203
-9.437547e-001 -1.533883e+000 -9.064671e+000 146 149 184
-9.181725e-001 -1.549551e+000 -9.144519e+000 158 162 197
-2.549981e+000 -1.869802e+000 -8.209944e+000 125 73 52
1.789706e+000 -2.587528e-001 -7.193123e+000 81 44 33
1.309344e+000 1.976633e+000 -8.104063e+000 154 134 107
4.078557e-001 -1.943265e+000 -7.910801e+000 136 110 88
-7.642158e-001 -1.176838e+000 -8.512603e+000 20 15 19
-1.881152e-002 -1.967456e+000 -9.255448e+000 169 170 201
-4.301694e-001 -1.547943e+000 -8.380274e+000 153 151 165
8.003290e-001 -2.103669e+000 -8.349484e+000 145 122 116
1.982647e+000 -3.028038e-001 -7.038519e+000 92 57 35
1.531339e+000 -1.160814e-001 -7.045356e+000 118 76 55
1.656188e+000 -1.391455e-001 -7.135998e+000 163 126 108
7.973086e-001 2.387590e+000 -8.225372e+000 210 194 169
8.208608e-001 2.047163e+000 -8.445788e+000 100 62 43
1.148161e+000 1.612095e+000 -8.347677e+000 52 36 29
9.180603e-001 1.581455e+000 -8.618884e+000 25 16 19
1.155209e+000 1.446413e+000 -8.688078e+000 63 59 60
1.155209e+000 1.446413e+000 -8.688078e+000 63 59 60
1.025792e+000 -2.015949e+000 -7.856699e+000 91 48 31
9.467649e-001 -2.069044e+000 -8.060273e+000 148 124 109
9.467649e-001 -2.069044e+000 -8.060273e+000 148 124 109
4.039599e-001 -2.010125e+000 -7.954461e+000 101 79 67
-7.324835e-001 -1.447006e+000 -8.544499e+000 126 127 147
-7.715342e-001 -1.459264e+000 -8.624656e+000 122 123 141
-1.794405e+000 -1.820827e+000 -8.246095e+000 52 40 44
-3.271822e-001 -1.921737e+000 -9.235933e+000 176 180 205
2.710540e-001 -1.823750e+000 -9.647721e+000 102 100 135
-3.121035e+000 -2.176375e-001 -8.483656e+000 48 28 25
-3.121035e+000 -2.176375e-001 -8.483656e+000 48 28 25
-1.914298e+000 -1.830255e+000 -8.403934e+000 38 22 25
-1.298071e+000 -1.714627e+000 -8.936017e+000 84 63 63
-1.052325e+000 -1.581961e+000 -9.257662e+000 75 47 43
-1.198195e+000 -1.675960e+000 -9.179081e+000 156 137 130
-2.268057e+000 -1.813493e+000 -8.675944e+000 145 93 69
-2.088883e+000 -1.848120e+000 -8.731189e+000 152 106 82
-1.647184e+000 -1.794878e+000 -9.056253e+000 172 126 102
-2.387657e+000 -1.746517e+000 -8.745054e+000 174 117 90
1.187792e+000 1.879013e+000 -8.145444e+000 168 147 126
1.611512e+000 1.910517e+001 -1.229819e+001 197 181 155
6.936507e-001 -1.500372e+000 -7.575672e+000 194 155 124
1.198784e+000 -1.918509e+000 -7.756550e+000 187 151 125
1.198784e+000 -1.918509e+000 -7.756550e+000 187 151 125
1.258772e+000 -2.004457e+000 -7.988330e+000 19 10 15
1.833581e-001 -1.530361e+000 -7.848446e+000 131 104 94
3.492711e-001 -1.622784e+000 -7.770193e+000 136 108 92
7.523720e-001 -2.100687e+000 -7.905886e+000 96 71 69
1.785327e-001 -1.636511e+000 -7.858142e+000 54 37 37
1.134547e-001 -1.615803e+000 -7.922646e+000 58 44 44
1.638103e+000 -1.278634e+000 -8.936209e+000 16 12 29
4.494199e-001 -2.099782e+000 -8.526416e+000 72 43 36
-6.835608e-001 -1.233697e+000 -8.407548e+000 23 21 25
-7.204489e-001 -1.566474e+000 -8.597522e+000 161 165 192
-1.398987e+000 -1.835864e+000 -8.453746e+000 148 129 125
-2.301690e+000 -1.935957e+000 -8.026446e+000 189 174 162
-1.911057e+000 -1.847370e+000 -8.356731e+000 70 55 58
-1.859427e+000 -1.856825e+000 -8.410636e+000 32 12 13
-1.751520e+000 -1.864127e+000 -8.358169e+000 51 34 27
-1.446762e+000 -1.835889e+000 -8.640807e+000 153 129 132
-2.364799e+000 -1.963698e+000 -8.024558e+000 187 172 165
-1.772410e+000 -1.926799e+000 -8.492345e+000 136 104 94
-2.359718e+000 -1.753179e+000 -8.658201e+000 162 110 82
-2.039859e+000 -1.896433e+000 -8.754445e+000 153 108 87
-1.629155e+000 -1.824777e+000 -9.119527e+000 185 143 117
1.845510e+000 -6.169382e-002 -6.821648e+000 88 43 20
1.524050e+000 -8.331432e-002 -7.240132e+000 153 116 97
1.452675e+000 1.436163e+000 -8.369251e+000 44 25 21
5.059348e-001 -1.348763e+000 -7.659150e+000 113 70 35
4.676077e-001 -1.710791e+000 -7.693700e+000 80 45 22
9.245666e-001 1.091517e+000 -8.915492e+000 73 68 65
4.571004e-001 -1.955436e+000 -7.905580e+000 82 54 40
2.183150e-001 -1.909251e+000 -7.966840e+000 41 22 26
-6.850947e-001 -1.141795e+000 -8.400761e+000 27 21 25
-1.617229e+000 -1.673928e+000 -8.101019e+000 18 9 12
-1.823982e+000 -1.861567e+000 -8.417150e+000 41 20 22
-1.972039e+000 -1.928447e+000 -8.611376e+000 139 102 86
-1.821024e+000 -1.893241e+000 -8.788549e+000 169 132 114
-1.628112e+000 -1.781265e+000 -8.850029e+000 84 55 41
1.111089e+000 1.691128e+000 -8.276771e+000 32 18 15
2.857651e-001 -1.666423e+000 -7.878362e+000 44 29 24
6.788665e-001 -2.124892e+000 -8.228086e+000 32 17 20
-7.693729e-001 -1.418873e+000 -8.581794e+000 23 26 36
-7.734278e-001 -1.563533e+000 -8.705104e+000 153 161 177
2.013913e-001 -1.813163e+000 -9.334710e+000 122 125 160
-7.257235e-001 -1.609388e+000 -9.351313e+000 174 179 212
-9.904523e-001 -1.542139e+000 -9.548841e+000 142 112 108
-8.390079e-001 -9.817396e-001 -1.025401e+001 150 156 178
2.004930e-001 -1.491996e+000 -7.818027e+000 164 130 105
-2.229584e+000 -1.770456e+000 -8.505320e+000 169 132 113
-2.699052e+000 -1.442869e+000 -9.022788e+000 201 160 139
3.804785e-001 -1.646705e+000 -7.779837e+000 56 37 33
-5.793593e-002 -2.005983e+000 -8.758626e+000 111 113 138
-2.216475e+000 -1.611387e+000 -9.076727e+000 198 154 130
1.414928e+000 6.824942e-001 -7.507242e+000 166 128 91
1.176964e+000 -1.894044e+000 -7.725411e+000 135 101 76
4.561031e-001 -1.568612e+000 -7.671808e+000 138 101 74
3.853834e-001 -1.741985e+000 -9.301742e+000 80 82 105
2.132837e-001 -1.826543e+000 -9.512746e+000 151 152 182
-1.083368e-001 -1.935247e+000 -9.300817e+000 160 159 188
-2.268871e+000 -1.808436e+000 -8.782251e+000 138 86 62
1.504339e+000 -1.838898e+000 -7.856400e+000 18 11 19
4.593229e-001 -1.976130e+000 -7.907579e+000 85 59 44
4.126447e-001 -2.015687e+000 -8.490103e+000 34 14 17
7.833558e-002 -2.031158e+000 -8.677867e+000 144 149 181
-2.151592e+000 -1.812568e+000 -8.047989e+000 168 152 137
1.203872e+000 2.362872e+000 -8.134164e+000 212 200 178
6.953284e-001 -2.063892e+000 -8.507907e+000 147 119 98
-1.321258e+000 -1.266380e+000 -9.750404e+000 188 186 202
1.139753e+000 1.835685e+000 -8.670150e+000 20 13 20
6.302640e+000 4.275914e+001 -1.787500e+001 110 97 88
3.420063e+000 4.632591e+001 -1.171805e+001 121 106 111
6.021802e+000 4.167183e+001 -1.318880e+001 70 68 90
8.255396e+000 4.152011e+001 -1.371328e+001 20 11 17
7.276285e+000 4.278626e+001 -1.427188e+001 147 131 116
-6.298583e-001 -1.446062e+000 -8.441832e+000 118 119 129
-1.750090e+000 -1.862470e+000 -8.358658e+000 51 34 27
1.208910e+000 1.511989e+000 -8.393173e+000 31 19 19
-2.263110e+000 -1.752373e+000 -8.566612e+000 74 31 18
-2.268292e+000 -1.646426e+000 -9.159100e+000 197 147 122
1.926067e+000 1.506188e-001 -6.678085e+000 214 190 158
1.960547e+000 -8.904308e-002 -6.744296e+000 151 117 82
2.330705e+000 -2.137516e-001 -6.838356e+000 137 122 117
1.892542e+000 -2.194854e-001 -7.031396e+000 85 43 18
1.862258e+000 -3.516590e-001 -7.129964e+000 168 131 105
1.941530e+000 -2.930547e-001 -7.172271e+000 110 78 52
2.289363e+000 -3.078873e-001 -7.202766e+000 102 82 79
1.642160e+000 5.083192e-002 -7.198260e+000 121 77 54
1.652439e+000 -9.712526e-002 -7.281600e+000 170 128 103
1.640619e+000 -8.205297e-002 -7.372181e+000 107 66 42
1.479098e+000 2.912276e-001 -7.620619e+000 150 113 84
1.484256e+000 2.041684e-001 -7.538520e+000 158 115 83
1.547070e+000 3.623396e-001 -7.713179e+000 154 123 98
1.308972e+000 -1.533680e+000 -7.548340e+000 162 128 90
1.562783e+000 1.768164e+000 -8.132585e+000 144 112 74
8.009059e-001 -1.347368e+000 -7.489660e+000 191 151 116
7.898525e-001 -1.358014e+000 -7.525212e+000 191 154 115
5.413112e-001 -1.248929e+000 -7.643103e+000 124 81 42
5.846726e-001 -1.393752e+000 -7.569606e+000 171 128 93
7.162795e-001 -1.606886e+000 -7.573925e+000 87 47 14
7.162795e-001 -1.606886e+000 -7.573925e+000 87 47 14
1.354228e+000 -1.934067e+000 -7.980807e+000 32 19 17
1.364125e+000 -1.943229e+000 -8.007971e+000 100 86 86
7.362940e-001 -1.926970e+000 -7.803800e+000 138 101 74
1.026974e+000 -1.924825e+000 -7.869817e+000 116 72 47
6.328207e-001 -2.087348e+000 -7.988857e+000 81 66 59
1.070268e+000 -2.068491e+000 -8.147079e+000 42 27 29
3.045772e-001 -1.922419e+000 -7.989364e+000 41 21 14
4.349428e-001 -2.080785e+000 -7.949792e+000 113 92 87
-3.490266e-001 -1.304811e+000 -8.294083e+000 145 141 140
-1.789262e-002 -1.980954e+000 -8.308634e+000 14 7 14
-4.221062e-001 -1.668045e+000 -8.394274e+000 84 83 96
-7.055624e-001 -1.203228e+000 -8.454477e+000 22 17 18
-7.055624e-001 -1.203228e+000 -8.454477e+000 22 17 18
-3.936790e-001 -1.632710e+000 -8.491353e+000 85 82 99
-1.267393e+000 -1.648016e+000 -8.206413e+000 40 26 26
-1.209932e+000 -1.590869e+000 -8.343363e+000 39 25 25
-2.613537e+000 -1.048524e+000 -7.867384e+000 173 136 108
-1.667973e+000 -1.860430e+000 -8.295896e+000 140 112 106
-1.388306e+000 -1.809926e+000 -8.466792e+000 148 137 132
-7.764081e-001 -1.630346e+000 -8.823125e+000 192 199 223
-7.399713e-001 -1.653940e+000 -8.820364e+000 22 21 52
-2.123356e+000 -1.916602e+000 -8.089425e+000 45 28 20
-1.849979e+000 -1.886918e+000 -8.267739e+000 26 14 18
-1.829055e+000 -1.903287e+000 -8.283814e+000 64 50 52
-1.614973e+000 -1.852431e+000 -8.365382e+000 68 37 34
-1.654204e+000 -1.907550e+000 -8.428099e+000 86 56 50
-1.305593e+000 -1.766141e+000 -8.698171e+000 141 121 122
-2.402771e+000 -1.970904e+000 -8.020860e+000 150 134 123
-1.864023e+000 -1.910366e+000 -8.502617e+000 150 122 111
-1.738662e+000 -1.949702e+000 -8.497891e+000 145 119 106
-1.237014e+000 -1.710829e+000 -8.961818e+000 51 29 30
-1.307657e+000 -1.731204e+000 -8.924903e+000 70 51 53
-1.288152e+000 -1.753555e+000 -8.951980e+000 129 111 111
-2.040191e+000 -1.924797e+000 -8.443071e+000 41 21 21
-2.954764e+000 -1.438099e+000 -8.471982e+000 184 139 108
-2.784537e+000 -1.501183e+000 -8.599977e+000 137 87 60
-2.784537e+000 -1.501183e+000 -8.599977e+000 137 87 60
-2.082239e+000 -1.870803e+000 -8.836638e+000 117 72 51
-1.787394e+000 -1.856774e+000 -9.015326e+000 127 86 66
-1.586255e+000 -1.815552e+000 -9.123078e+000 111 76 60
-1.357138e+000 -1.565024e+000 -9.544242e+000 178 168 178
-9.642219e-001 -1.557956e+000 -9.753843e+000 152 160 190
-2.938949e+000 -1.283622e+000 -8.733960e+000 205 168 143
-2.520754e+000 -1.576227e+000 -8.786819e+000 132 88 61
-2.167899e+000 -1.741804e+000 -9.129670e+000 194 155 124
-1.910616e+000 -1.639410e+000 -9.356473e+000 139 107 91
-2.723170e+000 -1.496932e+000 -8.865890e+000 195 153 131
