ply
format ascii 1.0
element face 0
property list uchar int vertex_indices
element vertex 883
property float x
property float y
property float z
property uchar diffuse_red
property uchar diffuse_green
property uchar diffuse_blue
end_header
6.944268e-001 2.264910e+000 -8.542647e+000 172 134 98
6.452819e-001 2.237518e+000 -8.455638e+000 141 102 69
8.689176e-001 2.266512e+000 -8.463552e+000 73 45 34
8.601408e-001 2.086310e+000 -8.301398e+000 70 36 26
7.657047e-001 2.039850e+000 -8.521234e+000 163 132 106
8.026010e-001 2.011450e+000 -8.574519e+000 88 60 39
1.897789e+000 1.969901e+000 -8.529904e+000 109 94 73
1.244667e+000 1.841817e+000 -8.168507e+000 28 16 16
1.162903e+000 1.746959e+000 -8.214246e+000 83 66 58
8.401830e-001 1.688546e+000 -8.585773e+000 138 118 103
8.401830e-001 1.688546e+000 -8.585773e+000 138 118 103
9.716919e-001 1.594326e+000 -8.564108e+000 43 38 35
1.123872e+000 1.617369e+000 -8.364110e+000 36 18 18
1.827514e+000 1.621057e+000 -8.284747e+000 64 32 19
1.905444e+000 1.642111e+000 -8.249136e+000 84 59 44
1.181654e+000 1.463969e+000 -8.665182e+000 44 36 40
1.542244e+000 1.595925e+000 -8.209117e+000 132 97 71
1.224630e+000 1.317009e+000 -8.693404e+000 32 28 29
1.628830e+000 1.383905e+000 -8.568898e+000 21 16 20
5.587572e-001 9.844212e-001 -9.389302e+000 28 22 25
-2.016923e+000 6.372764e-001 -9.140854e+000 95 63 43
-8.134065e-002 7.112447e-001 -9.710348e+000 18 12 12
1.284813e-001 6.897658e-001 -9.854516e+000 16 11 10
7.055949e-001 8.449826e-001 -9.236697e+000 40 36 37
-2.341384e+000 4.965721e-001 -8.647390e+000 170 136 91
-2.053805e+000 5.817247e-001 -8.756679e+000 104 64 29
-1.137337e+000 4.570844e-001 -9.398770e+000 153 144 111
-1.080518e+000 5.012108e-001 -9.374866e+000 49 42 31
-1.080518e+000 5.012108e-001 -9.374866e+000 49 42 31
-1.030274e+000 5.324686e-001 -9.457768e+000 164 158 132
-5.930176e-001 5.729557e-001 -9.320471e+000 35 26 24
-4.904958e-001 5.515101e-001 -9.255684e+000 26 20 17
-2.082182e-001 5.342589e-001 -9.125420e+000 124 117 106
-2.082182e-001 5.342589e-001 -9.125420e+000 124 117 106
2.366867e-001 6.306467e-001 -9.469377e+000 19 14 8
-2.576166e+000 3.764227e-001 -8.581989e+000 137 99 61
-1.909227e+000 4.130035e-001 -8.417097e+000 122 90 65
-2.001643e+000 3.528878e-001 -8.405105e+000 79 45 33
-1.841954e+000 4.433639e-001 -8.578598e+000 76 45 24
-1.401744e+000 4.364910e-001 -9.255876e+000 101 79 55
-1.006670e+000 3.280412e-001 -9.248044e+000 133 129 110
-8.110560e-002 4.683416e-001 -9.029181e+000 29 20 24
2.139079e-002 4.399101e-001 -8.976574e+000 24 18 22
1.802383e-002 4.400455e-001 -8.972776e+000 24 18 22
3.293633e-001 5.394551e-001 -9.037231e+000 31 27 22
1.347887e+000 5.461306e-001 -7.710687e+000 33 23 22
1.880431e+000 6.943452e-001 -6.975347e+000 191 168 133
-2.473005e+000 2.525533e-001 -8.299793e+000 184 151 102
-2.475072e+000 1.683183e-001 -8.323398e+000 151 114 69
-2.096606e+000 2.247855e-001 -8.363367e+000 67 36 16
-1.651167e+000 2.956953e-001 -8.668984e+000 48 25 15
-9.851991e-001 2.698006e-001 -9.251100e+000 29 23 20
-8.903615e-001 2.735677e-001 -9.129686e+000 52 50 38
-9.301913e-001 1.651026e-001 -9.142925e+000 48 43 39
-2.262622e+000 1.427645e-001 -8.133578e+000 120 84 50
-1.953772e+000 1.234350e-001 -8.284912e+000 53 23 13
-1.791151e+000 1.627378e-001 -8.100855e+000 37 13 9
-1.794561e+000 1.306472e-001 -8.318486e+000 98 64 45
-1.796341e+000 1.309927e-001 -8.316550e+000 98 64 45
-5.035810e-001 9.086397e-002 -8.656871e+000 34 28 27
1.381346e+000 3.570486e-001 -7.403423e+000 128 89 60
1.415332e+000 3.437309e-001 -7.286240e+000 203 173 133
1.840847e+000 4.059296e-001 -6.869766e+000 140 103 64
1.921495e+000 3.656246e-001 -6.820513e+000 198 167 123
-2.764750e+000 -1.849850e-001 -8.184133e+000 117 75 35
-1.797959e+000 -1.250555e-001 -8.038884e+000 61 34 13
-6.180993e-001 -1.436239e-001 -8.685020e+000 98 90 67
-3.685499e-001 -7.809040e-002 -8.617440e+000 25 17 28
1.833231e+000 3.307563e-001 -6.869014e+000 110 70 36
-2.140726e+000 -2.645559e-001 -7.905969e+000 170 144 107
-2.052129e+000 -2.746204e-001 -7.960322e+000 107 74 41
-1.973995e+000 -2.459521e-001 -7.956589e+000 160 132 97
-1.751336e+000 -1.624473e-001 -8.009647e+000 148 120 95
1.354913e+000 -1.049383e-001 -8.228490e+000 92 83 74
1.401188e+000 4.709740e-002 -7.419733e+000 173 143 99
1.526017e+000 1.300385e-001 -7.036891e+000 187 145 105
1.863842e+000 2.151823e-001 -6.796064e+000 156 115 72
-2.391897e+000 -4.025305e-001 -7.953298e+000 112 76 42
-2.158675e+000 -3.568454e-001 -7.912978e+000 109 72 43
-2.158675e+000 -3.568454e-001 -7.912978e+000 109 72 43
1.496751e+000 -2.226473e-001 -7.993044e+000 75 66 59
1.618964e+000 -9.233290e-002 -7.090491e+000 191 149 110
1.798335e+000 5.643039e-002 -6.749433e+000 199 149 103
1.777080e+000 -1.733699e-002 -6.839658e+000 190 139 96
2.770674e+000 -1.298310e-002 -7.277097e+000 57 49 47
1.716705e+000 -7.867465e-002 -6.887517e+000 127 74 34
2.523883e+000 -1.724444e-001 -7.058164e+000 30 19 20
-2.498892e+000 -7.253627e-001 -7.840112e+000 186 157 117
-2.277568e+000 -6.225928e-001 -7.795459e+000 160 131 99
-1.652737e+000 -6.842898e-001 -7.819961e+000 73 39 12
-1.528652e+000 -5.820733e-001 -7.816577e+000 85 52 21
-1.189429e+000 -7.220218e-001 -8.052061e+000 84 47 24
1.713912e+000 -2.903420e-001 -7.098477e+000 186 158 117
2.095577e+000 -1.941636e-001 -6.875595e+000 207 175 137
2.382049e+000 -3.012523e-001 -7.095528e+000 146 121 101
-2.770429e+000 -9.098770e-001 -7.997629e+000 169 126 85
-2.212096e+000 -8.657770e-001 -7.799387e+000 117 76 51
-2.580925e+000 -9.752906e-001 -7.831521e+000 183 144 104
-2.386478e+000 -1.052137e+000 -7.860397e+000 70 32 16
-1.828087e+000 -9.078840e-001 -7.676123e+000 84 48 25
-7.736034e-001 -1.178903e+000 -8.559750e+000 21 19 21
1.779278e-001 -1.016621e+000 -8.431117e+000 19 14 18
1.072644e+000 -7.849020e-001 -7.916084e+000 78 63 49
-6.593200e-001 -1.250234e+000 -8.420601e+000 145 149 152
-2.625392e-001 -1.224876e+000 -8.531057e+000 33 28 25
3.103788e-001 -1.218541e+000 -7.969825e+000 67 37 23
3.103788e-001 -1.218541e+000 -7.969825e+000 67 37 23
4.478367e-001 -1.205423e+000 -7.691795e+000 143 104 79
7.417915e-001 -1.123480e+000 -7.784945e+000 57 24 14
1.062024e+000 -1.130839e+000 -7.676761e+000 83 45 21
1.192348e+000 -1.039756e+000 -7.445382e+000 103 76 55
5.783522e-001 -1.342563e+000 -7.705979e+000 106 60 36
-1.868358e+000 -1.678265e+000 -8.085504e+000 49 34 31
-1.719014e+000 -1.731574e+000 -8.077921e+000 55 33 24
1.765176e-001 -1.519820e+000 -7.858521e+000 31 16 20
2.983021e-001 -1.523332e+000 -7.779502e+000 67 44 33
4.966078e-001 -1.436593e+000 -7.620861e+000 69 34 12
6.297579e-001 -1.433970e+000 -7.590129e+000 161 115 81
6.297579e-001 -1.433970e+000 -7.590129e+000 161 115 81
1.384402e+000 -1.344249e+000 -7.630424e+000 93 69 45
1.343485e+000 -1.437169e+000 -7.530852e+000 169 140 106
2.204597e+000 -1.546682e+000 -8.415622e+000 89 76 74
-1.918234e+000 -1.792339e+000 -8.027103e+000 114 96 81
1.233976e-001 -1.707220e+000 -8.002044e+000 39 24 23
9.704844e-001 -1.694109e+000 -7.768543e+000 217 179 141
1.336860e+000 -1.543446e+000 -7.609960e+000 167 136 105
1.206149e-001 -1.890749e+000 -8.017621e+000 120 92 73
2.386435e-001 -1.895185e+000 -8.016729e+000 153 121 102
6.000131e-001 -2.024710e+000 -8.009057e+000 174 146 119
8.072193e-001 2.085245e+000 -8.264028e+000 133 97 72
6.601222e-001 2.023187e+000 -8.891878e+000 94 63 43
6.601222e-001 2.023187e+000 -8.891878e+000 94 63 43
1.720648e+000 1.977753e+000 -8.061873e+000 149 125 96
1.920910e+000 1.940498e+000 -8.458783e+000 15 9 19
8.168442e-001 1.791098e+000 -9.512027e+000 41 35 33
1.562421e+000 1.679343e+000 -8.230201e+000 144 105 71
1.614549e+000 1.740101e+000 -8.186809e+000 139 101 63
1.343389e+000 1.491856e+000 -8.432039e+000 46 26 21
1.141147e+000 1.368979e+000 -8.777850e+000 49 40 42
1.233704e+000 1.416316e+000 -8.533098e+000 43 34 35
1.356204e+000 1.372189e+000 -8.694665e+000 33 25 28
5.699159e-001 9.241619e-001 -9.382230e+000 61 52 52
2.297290e+000 1.081811e+000 -7.813491e+000 76 54 40
2.901481e-001 7.431981e-001 -9.318524e+000 35 29 31
1.384954e+000 8.707260e-001 -7.596220e+000 26 22 23
1.491020e+000 9.588984e-001 -7.633039e+000 170 134 89
1.609986e+000 8.770824e-001 -7.288182e+000 149 108 62
-1.178865e+000 5.077994e-001 -9.485668e+000 48 40 27
-9.907123e-001 4.882954e-001 -9.330706e+000 49 43 33
-9.907123e-001 4.882954e-001 -9.330706e+000 49 43 33
-8.404985e-001 5.613598e-001 -9.288030e+000 33 26 24
-8.216313e-001 5.013678e-001 -9.308110e+000 145 136 108
-8.216313e-001 5.013678e-001 -9.308110e+000 145 136 108
-7.453983e-001 5.309869e-001 -9.296084e+000 29 22 25
-6.402874e-001 5.051605e-001 -9.236330e+000 28 23 22
-5.625009e-001 5.289281e-001 -9.263330e+000 123 115 94
1.842693e+000 7.664956e-001 -7.044773e+000 185 162 119
1.844720e+000 7.669127e-001 -7.046897e+000 185 162 119
-9.685871e-001 4.287343e-001 -9.287280e+000 166 161 140
-9.016042e-001 4.642547e-001 -9.320283e+000 39 39 31
-9.016042e-001 4.642547e-001 -9.320283e+000 39 39 31
-8.715025e-001 4.110016e-001 -9.227928e+000 149 142 114
-8.715025e-001 4.110016e-001 -9.227928e+000 149 142 114
-8.508933e-001 3.539561e-001 -9.191760e+000 38 36 39
-8.508933e-001 3.539561e-001 -9.191760e+000 38 36 39
-9.197274e-001 3.181822e-001 -9.172808e+000 154 149 117
-9.197274e-001 3.181822e-001 -9.172808e+000 154 149 117
-7.875623e-001 4.540944e-001 -9.136119e+000 44 37 32
-7.875623e-001 4.540944e-001 -9.136119e+000 44 37 32
-7.178645e-001 4.798829e-001 -9.214440e+000 137 131 109
-6.968758e-001 4.223365e-001 -9.180018e+000 29 24 26
-6.968758e-001 4.223365e-001 -9.180018e+000 29 24 26
-7.708704e-001 3.927830e-001 -9.167123e+000 149 143 115
-7.708704e-001 3.927830e-001 -9.167123e+000 149 143 115
-7.410308e-001 3.443552e-001 -9.036729e+000 41 35 31
-6.701062e-001 3.690770e-001 -9.105966e+000 144 136 109
-6.701062e-001 3.690770e-001 -9.105966e+000 144 136 109
-6.155277e-001 4.524637e-001 -9.159044e+000 132 125 99
-5.368773e-001 4.799010e-001 -9.165181e+000 28 27 23
-5.368773e-001 4.799010e-001 -9.165181e+000 28 27 23
-5.893065e-001 4.012658e-001 -9.079783e+000 18 16 19
-3.344338e-001 4.406536e-001 -9.048557e+000 30 23 20
-4.164736e-001 4.051044e-001 -9.067122e+000 137 129 107
-3.922345e-001 3.555290e-001 -9.020046e+000 32 26 32
-3.922345e-001 3.555290e-001 -9.020046e+000 32 26 32
-3.156625e-001 3.881273e-001 -9.023142e+000 146 142 116
-3.156625e-001 3.881273e-001 -9.023142e+000 146 142 116
-2.568612e-001 4.686861e-001 -9.047441e+000 136 129 111
-2.568612e-001 4.686861e-001 -9.047441e+000 136 129 111
-2.369741e-001 4.196884e-001 -9.009463e+000 32 27 22
-2.141929e-001 3.721982e-001 -8.955606e+000 147 143 107
-2.141037e-001 3.732342e-001 -8.949083e+000 147 143 107
3.575874e-001 4.638761e-001 -9.064514e+000 43 37 40
6.578589e-001 5.499847e-001 -9.157132e+000 10 8 10
6.663520e-001 4.081548e-001 -8.914489e+000 55 51 51
-1.144240e+000 3.071179e-001 -8.615516e+000 76 55 34
-1.103660e+000 1.966351e-001 -9.403945e+000 80 70 69
-8.197184e-001 3.083086e-001 -9.070282e+000 146 136 102
-8.259945e-001 3.026903e-001 -9.124064e+000 146 136 102
-7.250814e-001 2.857343e-001 -9.055140e+000 142 138 114
-6.470850e-001 3.175949e-001 -9.039584e+000 28 24 24
-6.470850e-001 3.175949e-001 -9.039584e+000 28 24 24
-5.470669e-001 2.945850e-001 -8.986007e+000 27 27 27
-5.470669e-001 2.945850e-001 -8.986007e+000 27 27 27
-6.226323e-001 2.692881e-001 -8.968770e+000 132 128 98
-6.244729e-001 2.666502e-001 -8.995593e+000 132 128 98
-4.633510e-001 3.275714e-001 -8.958717e+000 152 147 125
-4.667613e-001 3.224442e-001 -9.009687e+000 152 147 125
-5.248074e-001 2.453889e-001 -8.941031e+000 126 120 93
-5.248074e-001 2.453889e-001 -8.941031e+000 126 120 93
-4.447155e-001 2.734686e-001 -8.943644e+000 34 29 35
-4.446402e-001 2.733047e-001 -8.944355e+000 34 29 35
-2.923704e-001 3.406108e-001 -8.944205e+000 35 32 28
-2.929826e-001 3.401715e-001 -8.944809e+000 35 32 28
-2.689817e-001 2.890719e-001 -8.884789e+000 150 143 114
1.457186e+000 5.301891e-001 -7.181314e+000 145 91 47
1.514836e+000 4.937302e-001 -7.071412e+000 212 175 128
-2.504660e+000 6.028242e-002 -8.172565e+000 166 127 83
1.347108e+000 2.593113e-001 -7.738563e+000 28 24 27
1.687132e+000 2.555778e-001 -6.900261e+000 188 141 99
2.455074e+000 2.551164e-001 -7.031005e+000 144 118 91
2.455074e+000 2.551164e-001 -7.031005e+000 144 118 91
2.746681e+000 2.258295e-001 -7.537930e+000 24 15 17
-2.677094e+000 -2.023880e-001 -8.074647e+000 186 148 105
-2.650553e+000 -2.567044e-001 -8.088372e+000 106 65 28
2.314725e+000 2.378847e-001 -6.902942e+000 145 123 87
2.314725e+000 2.378847e-001 -6.902942e+000 145 123 87
-2.235392e+000 -3.545588e-001 -8.005663e+000 168 139 107
-1.921753e+000 -3.173271e-001 -7.844121e+000 106 75 46
-1.921753e+000 -3.173271e-001 -7.844121e+000 106 75 46
-2.041601e+000 -3.561074e-001 -7.790325e+000 170 145 105
-3.726860e-001 -3.078726e-001 -8.535955e+000 28 23 29
5.187510e-001 -3.845784e-001 -8.538803e+000 131 121 91
6.412770e-001 -4.281915e-001 -8.592615e+000 118 106 83
1.315258e+000 -2.475325e-001 -8.083247e+000 65 58 49
1.497545e+000 -1.090315e-001 -7.359733e+000 185 160 131
-1.902597e+000 -5.473887e-001 -7.800175e+000 102 60 38
-1.925656e+000 -4.684002e-001 -7.935401e+000 82 51 21
1.647608e+000 -8.509824e-002 -6.941996e+000 140 90 47
1.894695e+000 -1.726582e-001 -6.869356e+000 154 108 70
1.894695e+000 -1.726582e-001 -6.869356e+000 154 108 70
2.135442e+000 -1.051440e-001 -6.769689e+000 133 94 70
-2.310183e+000 -7.226923e-001 -7.831518e+000 168 141 112
6.365780e-001 -6.889810e-001 -8.636416e+000 62 59 55
6.392741e-001 -7.050658e-001 -8.707102e+000 62 59 55
4.923001e-001 -7.538975e-001 -8.566124e+000 60 52 47
5.624291e-001 -7.207802e-001 -8.587916e+000 18 13 19
5.624291e-001 -7.207802e-001 -8.587916e+000 18 13 19
7.282564e-001 -7.447002e-001 -8.688176e+000 71 66 62
6.518877e-001 -7.608313e-001 -8.642584e+000 15 10 13
6.518877e-001 -7.608313e-001 -8.642584e+000 15 10 13
7.935823e-001 -7.274218e-001 -8.657009e+000 16 14 19
2.042296e+000 -3.784427e-001 -7.193247e+000 189 165 142
-8.789823e-001 -8.560233e-001 -8.280603e+000 21 15 17
-5.738451e-001 -9.228779e-001 -8.420884e+000 142 136 113
2.237350e-001 -9.351908e-001 -8.451203e+000 20 12 14
2.960385e-001 -9.060355e-001 -8.472403e+000 88 70 69
4.422641e-001 -8.452556e-001 -8.484967e+000 44 38 37
3.682924e-001 -8.811540e-001 -8.494835e+000 14 8 16
4.596826e-001 -9.126533e-001 -8.487503e+000 14 9 14
5.142221e-001 -8.229977e-001 -8.570257e+000 19 13 17
5.812088e-001 -7.915828e-001 -8.600223e+000 47 40 40
5.377358e-001 -9.271430e-001 -8.712208e+000 36 31 35
7.482480e-001 -8.389641e-001 -8.764414e+000 16 11 17
2.009051e+000 -4.162587e-001 -7.210575e+000 23 17 25
2.218171e+000 -4.272187e-001 -7.214723e+000 34 24 31
-2.551513e+000 -1.122428e+000 -7.980079e+000 171 127 90
-2.149556e+000 -1.040570e+000 -7.792729e+000 79 44 32
-1.832257e+000 -9.733910e-001 -7.724848e+000 115 79 52
-1.070209e+000 -9.043022e-001 -7.975922e+000 128 98 72
-6.676219e-001 -1.073710e+000 -8.440613e+000 24 22 27
-5.399178e-001 -9.828079e-001 -8.352834e+000 25 24 22
-5.763990e-001 -1.097154e+000 -8.366462e+000 27 24 25
-5.127702e-001 -1.058618e+000 -8.351956e+000 144 141 122
6.514859e-004 -1.008486e+000 -8.379951e+000 120 111 90
3.930754e-001 -9.795558e-001 -8.609916e+000 51 42 43
6.200454e-001 -8.350678e-001 -7.774950e+000 67 47 34
9.338626e-001 -7.227964e-001 -7.692147e+000 126 111 88
-2.663070e+000 -1.223394e+000 -7.979807e+000 115 67 31
-1.332690e-001 -1.218482e+000 -8.319673e+000 122 115 107
3.882247e-001 -1.069051e+000 -7.865297e+000 138 97 69
1.375834e-001 -1.225997e+000 -8.077964e+000 44 29 21
8.573321e-001 -1.032767e+000 -7.461944e+000 82 44 23
8.573321e-001 -1.032767e+000 -7.461944e+000 82 44 23
-1.374748e+000 -1.504037e+000 -8.012762e+000 28 16 17
-1.092530e+000 -1.572776e+000 -8.425345e+000 158 141 133
8.702579e-001 -1.488438e+000 -7.643524e+000 212 169 124
7.053468e-001 -1.662185e+000 -7.626954e+000 209 173 131
-8.985681e-002 -2.048568e+000 -8.261564e+000 135 139 169
8.754027e-001 -1.728832e+000 -7.697656e+000 210 173 129
1.015808e+000 -1.911185e+000 -7.918225e+000 142 99 64
1.015808e+000 -1.911185e+000 -7.918225e+000 142 99 64
5.472632e-001 2.271143e+000 -8.832256e+000 183 157 127
8.360852e-001 1.944669e+000 -8.416958e+000 164 137 107
8.401868e-001 1.947387e+000 -8.439627e+000 164 137 107
1.344357e+000 1.896207e+000 -8.190915e+000 52 35 28
1.858932e+000 1.677556e+000 -8.254360e+000 133 102 74
1.870225e+000 1.492585e+000 -8.401181e+000 79 57 43
6.381444e-001 1.410460e+000 -8.924393e+000 70 66 59
5.728957e-001 1.048311e+000 -9.334789e+000 56 51 47
-2.440615e+000 4.565362e-001 -8.404607e+000 146 109 66
-2.469095e+000 5.236305e-001 -8.981612e+000 141 101 63
-1.936752e+000 5.707982e-001 -8.531127e+000 133 97 65
-2.225005e+000 3.326607e-001 -8.303612e+000 149 115 80
-2.219707e+000 3.941066e-001 -8.419656e+000 156 123 82
-2.223111e+000 3.928180e-001 -8.435782e+000 156 123 82
-2.150094e+000 3.709885e-001 -8.511411e+000 134 105 70
-1.292052e+000 3.764747e-001 -9.344551e+000 196 186 163
-1.292052e+000 3.764747e-001 -9.344551e+000 196 186 163
1.864094e+000 6.641042e-001 -7.053095e+000 65 41 31
1.395528e+000 4.053353e-001 -7.738931e+000 193 168 134
2.126876e-001 7.997830e-003 -8.621605e+000 135 130 101
1.622733e-001 -9.485833e-002 -8.596078e+000 136 126 99
5.518407e-001 4.827678e-002 -8.634276e+000 23 17 23
-2.454595e+000 -3.214875e-001 -8.040601e+000 163 134 94
-2.271347e-001 -2.431098e-001 -8.544973e+000 27 21 19
-1.481594e-001 -2.123367e-001 -8.553353e+000 144 133 105
8.455743e-002 -1.229464e-001 -8.577231e+000 23 19 20
7.111456e-001 -1.513203e-001 -8.567242e+000 24 18 21
7.411143e-001 -2.319007e-001 -8.566234e+000 114 108 79
8.211808e-001 -2.084938e-001 -8.583757e+000 21 16 25
1.686969e+000 1.520321e-001 -6.795399e+000 207 165 119
1.968988e+000 1.777513e-001 -6.816542e+000 101 64 37
1.945080e+000 1.333291e-001 -6.731473e+000 193 148 106
-2.127409e+000 -3.331840e-001 -7.883069e+000 120 80 49
-2.167618e+000 -3.594393e-001 -8.010386e+000 120 80 49
-2.744939e-001 -3.474078e-001 -8.513120e+000 20 18 19
-3.203095e-001 -4.509085e-001 -8.472833e+000 28 22 21
-1.972626e-001 -3.157153e-001 -8.518811e+000 148 138 103
6.766138e-002 -2.967247e-001 -8.510927e+000 135 125 98
1.991215e-002 -3.978994e-001 -8.476878e+000 137 125 103
1.727283e-001 -3.425888e-001 -8.498657e+000 123 114 87
2.505070e-001 -3.214807e-001 -8.555417e+000 25 22 16
2.033774e-001 -4.235779e-001 -8.519722e+000 20 19 21
3.285859e-001 -2.938210e-001 -8.573924e+000 146 132 111
6.883527e-001 -3.283234e-001 -8.565250e+000 143 134 109
1.181670e+000 -2.777126e-001 -8.333984e+000 58 52 52
1.791920e+000 -3.443418e-002 -6.741125e+000 200 155 113
2.780133e+000 4.255977e-002 -7.300479e+000 18 12 14
-3.968685e-001 -4.867918e-001 -8.486409e+000 142 132 110
-4.425496e-001 -5.940399e-001 -8.464652e+000 148 136 114
-4.425373e-001 -5.939576e-001 -8.464089e+000 148 136 114
-3.651165e-001 -5.531332e-001 -8.429977e+000 26 19 24
-2.580046e-001 -5.932353e-001 -8.419382e+000 29 23 33
-1.048327e-001 -5.350417e-001 -8.450119e+000 23 19 27
-2.696336e-002 -5.025602e-001 -8.447408e+000 134 123 101
5.067613e-002 -4.762046e-001 -8.469901e+000 21 19 23
4.214878e-003 -5.793943e-001 -8.442667e+000 23 23 24
1.273776e-001 -4.490827e-001 -8.491999e+000 127 116 94
2.323757e-001 -4.986348e-001 -8.503695e+000 121 106 90
1.568682e-001 -5.256290e-001 -8.479579e+000 20 18 16
3.394121e-001 -5.485773e-001 -8.520541e+000 122 115 88
7.331522e-001 -4.863787e-001 -8.598822e+000 155 144 116
1.369016e+000 -3.603604e-001 -8.324953e+000 58 50 48
-2.995315e+000 -7.659708e-001 -8.250740e+000 168 138 109
-2.267539e+000 -6.456988e-001 -7.838290e+000 158 129 97
-1.170836e+000 -6.198179e-001 -8.165623e+000 95 63 38
-4.880062e-001 -7.028250e-001 -8.444624e+000 145 137 113
-4.109645e-001 -6.621331e-001 -8.419152e+000 23 23 21
-3.798861e-001 -7.282804e-001 -8.378879e+000 140 127 110
-4.562856e-001 -7.728696e-001 -8.415726e+000 23 19 20
-2.256384e-001 -6.578083e-001 -8.367619e+000 141 130 106
-1.974377e-001 -7.383793e-001 -8.376799e+000 23 21 24
-1.099552e-002 -7.554601e-001 -8.403647e+000 110 101 83
2.909164e-001 -6.494406e-001 -8.471460e+000 113 100 83
2.910088e-001 -6.522073e-001 -8.482381e+000 113 100 83
1.393534e-001 -7.049071e-001 -8.446827e+000 144 134 98
8.446642e-001 -5.984645e-001 -8.198286e+000 75 72 67
2.134179e+000 -3.736539e-001 -7.155822e+000 173 145 121
-2.538707e+000 -9.418040e-001 -7.906290e+000 172 135 98
-9.055856e-001 -9.816697e-001 -8.397477e+000 18 14 13
-5.317719e-001 -8.083268e-001 -8.422384e+000 139 134 107
-4.256360e-001 -8.377176e-001 -8.367587e+000 126 121 102
-4.683947e-001 -9.354340e-001 -8.309019e+000 143 138 119
-4.683947e-001 -9.354340e-001 -8.309019e+000 143 138 119
-3.962015e-001 -9.068901e-001 -8.337806e+000 26 24 26
-3.962015e-001 -9.068901e-001 -8.337806e+000 26 24 26
-2.103680e-001 -9.070572e-001 -8.305348e+000 142 129 105
-5.643177e-002 -8.570609e-001 -8.358746e+000 118 113 84
9.990507e-001 -7.018697e-001 -7.723466e+000 30 30 30
-1.519634e+000 -9.457843e-001 -7.987265e+000 56 26 17
-4.408792e-001 -1.015038e+000 -8.323285e+000 26 26 21
-3.653837e-001 -9.780917e-001 -8.317070e+000 141 129 113
-2.564222e-001 -1.015175e+000 -8.300408e+000 128 123 91
-1.045478e-001 -9.610382e-001 -8.342644e+000 130 118 99
3.050208e-001 -1.070957e+000 -8.357127e+000 17 11 17
3.205427e-001 -9.894315e-001 -8.507667e+000 16 12 13
5.211987e-001 -8.749573e-001 -7.933716e+000 110 79 56
-9.668829e-001 -1.333575e+000 -8.695305e+000 42 33 32
-2.395789e+000 -1.421862e+000 -7.998770e+000 136 107 85
-5.018043e-001 -1.308641e+000 -8.325055e+000 129 122 112
-3.350343e-001 -1.477824e+000 -8.383163e+000 37 36 34
-1.695302e+000 -1.486746e+000 -7.962489e+000 29 18 23
-1.487668e+000 -1.661402e+000 -8.226970e+000 73 49 42
7.727976e-001 -1.277164e+000 -7.721553e+000 83 42 24
8.690637e-001 -1.269670e+000 -7.493666e+000 113 68 45
-1.830854e+000 -1.676699e+000 -8.118489e+000 41 25 25
-1.558494e+000 -1.824842e+000 -8.283326e+000 187 165 146
1.088300e+000 -1.324712e+000 -7.356701e+000 155 115 78
1.088300e+000 -1.324712e+000 -7.356701e+000 155 115 78
2.246403e+000 -1.654928e+000 -8.417649e+000 78 73 78
-2.714148e-001 -1.877766e+000 -8.476751e+000 181 178 179
9.777772e-001 -2.007031e+000 -8.018640e+000 195 162 129
1.107897e+000 -1.965316e+000 -7.964540e+000 196 162 131
1.124203e+000 -2.124804e+000 -8.190109e+000 124 119 125
6.045252e-001 2.494362e+000 -8.655187e+000 190 165 132
1.059241e+000 2.084836e+000 -8.185094e+000 35 26 25
1.658824e+000 1.467642e+000 -8.398293e+000 116 85 64
1.718850e+000 1.376914e+000 -8.723916e+000 28 24 27
3.435242e-001 1.090843e+000 -9.832522e+000 29 25 26
3.435242e-001 1.090843e+000 -9.832522e+000 29 25 26
4.738300e-001 1.121559e+000 -9.390473e+000 67 62 56
5.782778e-001 1.201769e+000 -9.530472e+000 19 15 14
2.059928e+000 1.076971e+000 -7.559551e+000 67 39 33
-1.939221e+000 4.785987e-001 -8.524048e+000 75 38 25
1.629197e+000 7.361463e-001 -7.127841e+000 90 55 30
-2.665463e+000 3.840167e-001 -8.849285e+000 145 107 67
4.578321e-001 2.797080e-001 -8.810943e+000 19 14 20
1.473453e+000 4.608081e-001 -7.140761e+000 147 96 53
-1.688421e+000 1.051749e-001 -7.895343e+000 57 30 21
-9.926558e-001 1.312686e-001 -8.754728e+000 19 15 16
1.595579e+000 3.755537e-001 -7.029086e+000 205 162 117
-5.304826e-001 -6.693322e-002 -8.667694e+000 29 24 28
-5.304826e-001 -6.693322e-002 -8.667694e+000 29 24 28
1.451030e+000 -2.206381e-001 -7.988876e+000 64 55 50
1.819479e+000 -1.674675e-001 -6.998918e+000 166 113 72
2.575110e+000 -1.768828e-001 -7.109891e+000 24 15 20
-2.572403e+000 -7.616704e-001 -7.963822e+000 178 148 110
-2.936949e+000 -9.092214e-001 -8.159522e+000 187 157 129
-1.470134e+000 -7.813302e-001 -7.849015e+000 81 46 27
3.788789e-001 -9.709415e-001 -7.994552e+000 142 107 74
-4.340112e-001 -1.477304e+000 -8.397913e+000 173 168 172
7.105225e-001 -1.110558e+000 -7.760657e+000 64 32 23
3.218645e-001 -1.314906e+000 -7.846338e+000 76 43 34
3.201390e-001 -1.297914e+000 -7.795082e+000 76 43 34
3.048961e+000 -8.509807e-001 -6.777289e+000 97 84 78
-1.760544e+000 -1.747122e+000 -8.274047e+000 59 41 39
2.228261e+000 -1.757479e+000 -8.414549e+000 225 197 152
1.133578e+000 2.448807e+000 -8.312449e+000 185 161 125
1.794242e+000 1.910403e+000 -8.372977e+000 136 115 86
1.909636e+000 1.861484e+000 -8.487709e+000 30 19 26
1.036111e+000 1.276908e+000 -8.949558e+000 83 76 70
2.093414e-001 7.558775e-001 -9.587835e+000 135 126 108
5.043713e-001 6.342610e-001 -9.145569e+000 120 114 100
1.710137e+000 8.587078e-001 -7.354901e+000 64 25 17
1.411113e+000 6.089763e-001 -7.828286e+000 196 174 142
-2.387080e+000 1.028367e-001 -8.313397e+000 105 66 33
2.552332e-001 1.367946e-001 -8.654131e+000 95 89 70
1.932460e+000 4.080863e-001 -6.833239e+000 193 164 123
-2.623795e+000 -4.174204e-001 -7.941279e+000 151 106 67
1.466367e+000 -9.985148e-002 -7.626507e+000 68 61 55
-1.994082e+000 -4.951728e-001 -7.754145e+000 147 118 83
6.920103e-001 -8.772956e-001 -7.799108e+000 116 81 59
1.867882e+000 -1.029674e+000 -8.649177e+000 17 14 23
1.137134e+000 -9.415777e-001 -7.898801e+000 89 69 46
3.128079e+000 -7.477375e-001 -6.901173e+000 95 81 74
-7.606363e-002 -1.453096e+000 -8.174383e+000 127 116 98
2.372839e-001 -1.529350e+000 -7.802793e+000 39 27 23
1.524985e-001 -2.043974e+000 -8.163559e+000 59 49 46
1.023465e+000 2.102002e+000 -8.265048e+000 34 22 21
1.193744e+000 2.102317e+000 -8.219310e+000 183 161 122
-5.964645e-001 2.069598e+000 -9.819406e+000 44 36 38
1.604091e+000 1.914660e+000 -8.238721e+000 159 132 95
1.417670e+000 1.498696e+000 -8.268069e+000 106 75 55
1.532534e+000 1.394278e+000 -8.347554e+000 39 33 35
1.519596e+000 8.502099e-001 -6.981818e+000 157 114 72
-2.765974e+000 1.931035e-001 -8.477687e+000 184 151 109
1.404755e+000 4.429452e-001 -7.500455e+000 190 157 126
1.526131e+000 5.402499e-001 -7.020493e+000 195 153 111
-1.636923e+000 9.669650e-002 -8.160822e+000 164 144 114
-2.714320e+000 -8.304715e-001 -7.996569e+000 138 102 68
1.749457e+000 -8.442601e-001 -8.331932e+000 46 44 49
7.269793e-001 -9.869569e-001 -7.754683e+000 59 29 21
2.502466e+000 -1.847503e+000 -8.234892e+000 131 122 113
2.195453e+000 1.575791e+000 -9.039101e+000 20 15 22
1.399293e+000 6.962972e-001 -8.391995e+000 14 12 23
1.734133e+000 7.868111e-001 -7.017036e+000 182 160 119
-1.761104e+000 2.469882e-001 -8.343904e+000 29 19 20
-7.015152e-002 1.541869e-001 -8.706445e+000 20 17 24
2.377892e+000 1.101313e-001 -6.985251e+000 154 133 104
-1.788486e+000 -7.020907e-001 -7.767819e+000 115 80 49
-1.552372e+000 -8.355295e-001 -7.940698e+000 89 51 37
-1.552372e+000 -8.355295e-001 -7.940698e+000 89 51 37
2.336514e-001 -1.073536e+000 -8.434671e+000 17 15 21
9.899699e-001 -8.180814e-001 -7.821839e+000 79 56 35
1.325889e+000 -1.223979e+000 -7.791663e+000 76 53 39
9.144560e-001 -1.543320e+000 -7.604712e+000 198 157 113
-1.473857e+000 4.404128e-001 -8.900508e+000 98 71 50
-1.446699e+000 7.184836e-002 -8.096790e+000 58 40 38
-9.997152e-001 4.203704e-002 -9.125203e+000 40 33 25
1.585186e+000 -1.163373e-001 -7.287404e+000 177 143 106
9.095019e-001 -1.530070e+000 -7.566266e+000 195 154 110
8.748183e-001 2.335029e+000 -8.146987e+000 104 73 58
1.511225e+000 8.881479e-001 -7.441679e+000 168 131 87
-1.671048e+000 -3.773579e-001 -8.002326e+000 24 14 22
4.555850e-001 -1.795036e+000 -7.900499e+000 145 106 67
1.231295e+000 1.840477e+000 -8.309233e+000 41 31 32
1.730468e+000 1.600028e+000 -8.172243e+000 108 73 44
5.535409e-001 -8.041703e-001 -8.456450e+000 47 43 44
5.473265e-001 -7.710563e-001 -8.321737e+000 47 43 44
2.171569e+000 2.092506e+000 -8.863375e+000 17 14 21
-1.704185e-001 7.509620e-001 -9.355567e+000 85 80 74
-1.299900e+000 -2.845867e-001 -8.010187e+000 162 138 100
-1.299900e+000 -2.845867e-001 -8.010187e+000 162 138 100
-2.321754e+000 -1.296053e+000 -8.061342e+000 61 41 42
9.644299e-001 -1.698051e+000 -7.734932e+000 210 174 136
1.097731e+000 5.569710e-001 -8.672639e+000 35 30 34
2.175673e+000 1.541999e+000 -8.094287e+000 17 12 18
-4.331709e-001 1.502467e+000 -9.956039e+000 143 106 64
3.419598e-001 -1.767802e-001 -8.604077e+000 142 137 117
-4.875915e-001 -5.561246e-001 -8.479838e+000 27 24 16
6.977055e-001 -5.538597e-001 -8.625164e+000 120 113 102
9.102864e-001 -5.636417e-001 -8.503806e+000 32 28 29
-1.362307e+001 -9.418213e+000 -2.948702e+001 78 81 114
8.646129e-001 -9.984938e-002 -8.611061e+000 113 109 98
8.646129e-001 -9.984938e-002 -8.611061e+000 113 109 98
8.406329e-001 -1.282362e-001 -8.607371e+000 20 16 13
6.629559e-001 8.748884e-001 -9.237431e+000 52 48 47
1.759842e+000 3.580541e-001 -6.885384e+000 103 68 37
-1.613088e+001 2.142361e-001 -3.707935e+001 208 205 201
-1.755791e+000 1.162542e-001 -8.369364e+000 26 17 18
6.422786e-001 -4.269127e-001 -8.591932e+000 116 109 91
-1.144071e+001 -7.472262e+000 -2.772169e+001 77 82 114
1.927418e-001 -1.707396e-001 -8.583393e+000 25 22 23
-2.568954e-001 -1.019430e+000 -8.309071e+000 138 131 108
-1.043644e+001 -7.246640e+000 -2.632219e+001 255 252 253
-1.045953e+001 -7.592688e+000 -2.662319e+001 140 120 105
-1.021356e+001 -7.384450e+000 -2.664758e+001 58 54 54
-9.732470e+000 -7.791429e+000 -2.553993e+001 69 60 64
2.964890e+000 3.030921e+000 -1.159457e+001 39 23 26
3.262895e+000 3.060072e+000 -1.159073e+001 31 20 19
3.335850e+000 2.711847e+000 -1.124251e+001 51 41 43
4.587543e+000 2.664364e+000 -1.045044e+001 37 22 19
4.580272e+000 2.662423e+000 -1.043438e+001 37 22 19
1.363907e+000 2.138172e+000 -8.215010e+000 183 160 126
1.117078e+000 1.923943e+000 -8.218404e+000 74 64 52
2.404948e+000 2.073163e+000 -8.313321e+000 86 76 65
4.842422e+000 2.247860e+000 -9.939057e+000 44 30 30
3.912565e+000 2.182528e+000 -1.045694e+001 40 28 31
4.294513e+000 2.089384e+000 -1.000066e+001 65 54 52
-6.984458e-001 1.317496e+000 -1.010839e+001 180 148 119
-5.745392e-001 1.361031e+000 -9.983769e+000 78 47 25
4.692293e+000 1.604132e+000 -9.388579e+000 37 23 23
-7.369982e-001 1.092846e+000 -1.008507e+001 116 84 52
-7.369982e-001 1.092846e+000 -1.008507e+001 116 84 52
-3.051192e+000 3.059392e-001 -9.036198e+000 144 123 95
-1.706868e+000 3.836427e-001 -8.649088e+000 57 29 17
4.476957e-001 4.039836e-001 -8.909645e+000 125 122 105
3.721650e-002 3.589565e-001 -8.859112e+000 24 17 9
3.993970e-002 3.601189e-001 -8.856630e+000 24 17 9
4.875082e-002 2.522442e-001 -8.739518e+000 133 126 99
8.640390e-002 2.691707e-001 -8.741397e+000 97 92 81
5.888536e-001 3.272600e-001 -8.710842e+000 123 118 105
-1.900513e+000 1.700647e-002 -8.109643e+000 131 104 74
-4.873075e-001 1.361225e-001 -8.805917e+000 32 24 17
-3.155351e-002 9.253335e-002 -8.653516e+000 117 43 46
9.400768e-001 1.245108e-001 -8.632263e+000 45 41 40
-1.342837e+000 2.160571e-002 -8.026822e+000 138 119 80
8.038698e-001 2.482943e-002 -8.669813e+000 122 116 102
-4.072298e-001 -2.344253e-001 -8.548934e+000 107 27 27
-4.146315e-001 -2.956133e-001 -8.545544e+000 138 129 108
8.176535e-001 -6.124158e-001 -8.587564e+000 16 15 13
-2.568177e-001 -1.080402e+000 -8.298955e+000 26 20 20
-1.474226e+000 -1.090115e+000 -7.959910e+000 54 26 14
-1.406750e+000 -1.146621e+000 -7.954802e+000 58 30 17
-1.692164e+001 -9.450767e+000 -3.164850e+001 82 83 104
-1.676841e+001 -9.339865e+000 -3.135937e+001 82 83 104
1.148903e+000 -1.099014e+000 -7.438362e+000 137 103 76
1.148903e+000 -1.099014e+000 -7.438362e+000 137 103 76
-1.310592e+001 -8.650908e+000 -2.879255e+001 88 100 144
-1.787802e+001 -1.049183e+001 -3.205236e+001 176 160 157
-1.428323e+001 -9.850544e+000 -2.926752e+001 21 17 31
-2.034611e+000 -1.961774e+000 -8.125066e+000 95 88 86
4.115772e+000 3.111016e+000 -1.111770e+001 36 22 20
3.280441e+000 2.891263e+000 -1.131422e+001 68 56 51
3.623493e+000 3.077767e+000 -1.118428e+001 113 96 78
3.458110e+000 2.688853e+000 -1.113325e+001 67 58 53
3.468418e+000 2.650437e+000 -1.105376e+001 34 22 22
4.810036e+000 2.295579e+000 -1.001671e+001 48 32 32
-1.571427e-001 1.825421e+000 -1.009881e+001 73 52 23
-1.571427e-001 1.825421e+000 -1.009881e+001 73 52 23
4.258132e+000 2.112593e+000 -1.006924e+001 70 61 56
4.213054e+000 1.900641e+000 -1.004705e+001 30 18 18
4.213054e+000 1.900641e+000 -1.004705e+001 30 18 18
4.281767e+000 1.864926e+000 -9.913233e+000 65 54 52
4.283389e+000 1.863378e+000 -9.920495e+000 65 54 52
4.300467e+000 1.819847e+000 -9.907415e+000 30 19 17
4.295175e+000 1.821155e+000 -9.897730e+000 30 19 17
4.486636e+000 1.881728e+000 -9.686851e+000 43 31 31
4.272151e+000 1.738716e+000 -9.815087e+000 34 24 23
4.542018e+000 1.665742e+000 -9.603561e+000 30 18 22
-5.038019e-001 1.359701e+000 -9.986858e+000 145 119 89
4.420738e-002 1.315109e+000 -1.014338e+001 41 25 14
4.553753e+000 1.541757e+000 -9.531581e+000 27 12 16
-9.829597e+000 4.875776e-001 -4.007749e+001 45 40 49
4.578843e+000 1.396055e+000 -9.316775e+000 66 52 52
3.257024e-004 2.994778e-001 -8.812299e+000 97 91 69
6.791101e-001 2.669359e-001 -8.721755e+000 51 44 35
-2.446030e+000 1.094179e-001 -8.251197e+000 155 117 78
-3.173309e+000 -4.504325e-001 -8.719265e+000 148 128 121
-2.127470e+000 -2.172944e-001 -8.011458e+000 161 127 90
-1.936485e+000 -1.493455e-001 -7.970338e+000 145 114 86
-6.612863e-001 -2.136455e-001 -8.646932e+000 100 91 76
1.160890e+000 -1.997130e-001 -8.443868e+000 68 63 62
-2.075843e+001 -6.677203e+000 -3.830558e+001 198 186 174
-2.152236e+001 -7.470078e+000 -3.991218e+001 151 133 111
-2.332937e+001 -8.308485e+000 -4.320999e+001 151 133 111
-9.398652e-001 -5.920158e-001 -8.395975e+000 39 21 17
-5.040529e-001 -6.043981e-001 -8.462273e+000 26 16 16
-2.155840e+001 -8.976296e+000 -4.131030e+001 118 102 79
-1.271104e+000 -1.197179e+000 -8.062193e+000 87 61 44
-6.393718e-002 -1.130640e+000 -8.371430e+000 26 21 17
-1.148644e+001 -8.198233e+000 -2.719181e+001 93 97 133
-9.826770e+000 -7.607765e+000 -2.518614e+001 185 173 160
-1.494743e+001 -9.776579e+000 -2.953867e+001 110 110 128
-1.649415e+000 -1.864603e+000 -8.320309e+000 182 164 147
-4.684953e-001 -1.787322e+000 -8.695706e+000 163 164 168
-1.434543e+001 -9.768479e+000 -2.913239e+001 52 48 62
-1.492547e+001 -1.258635e+001 -2.741121e+001 110 104 118
3.496342e+000 3.096023e+000 -1.128043e+001 39 24 21
3.432871e+000 3.055186e+000 -1.134058e+001 75 61 60
3.508967e+000 2.925439e+000 -1.117900e+001 36 25 24
3.180772e+000 2.863337e+000 -1.128728e+001 73 62 58
3.649163e+000 2.698791e+000 -1.099159e+001 50 41 37
4.166716e+000 2.703682e+000 -1.048397e+001 102 85 80
4.452813e+000 2.765386e+000 -1.059701e+001 102 88 79
4.663376e+000 2.622443e+000 -1.032312e+001 98 79 72
3.890221e+000 2.403611e+000 -1.063705e+001 25 14 18
4.561847e+000 2.205136e+000 -1.001310e+001 77 63 55
-1.252390e-001 1.871252e+000 -1.013425e+001 140 121 88
4.339085e+000 2.028372e+000 -9.967579e+000 67 53 50
4.310666e+000 1.917498e+000 -9.944773e+000 40 30 31
-2.951978e-001 1.382629e+000 -1.002085e+001 67 44 25
4.501941e+000 1.519618e+000 -9.540737e+000 66 54 54
-9.748140e+000 2.168192e-001 -4.051710e+001 122 114 104
-9.654213e+000 2.712839e-002 -4.083909e+001 77 66 49
-1.902571e-001 9.415027e-001 -9.977015e+000 102 86 71
1.015695e+000 7.982071e-001 -9.005612e+000 41 36 40
4.565690e-002 3.989911e-001 -8.910231e+000 112 109 90
-5.968009e-001 2.210084e-001 -8.937226e+000 33 23 31
4.847173e-001 3.762131e-001 -8.914297e+000 59 55 44
-4.125442e-001 9.211571e-002 -8.741838e+000 158 149 117
6.200806e-001 5.345228e-002 -8.642822e+000 127 119 103
-3.169839e+000 -4.874327e-001 -8.655138e+000 37 26 31
-3.101600e+000 -6.880066e-001 -8.565548e+000 162 138 112
-1.078145e+001 -6.002190e+000 -2.600643e+001 88 90 106
-1.638115e+001 -9.062449e+000 -3.139804e+001 82 76 76
-2.488210e+000 -1.405295e+000 -8.049981e+000 112 87 62
-6.047727e-001 -1.321693e+000 -8.361381e+000 168 164 162
-1.745010e+000 -1.869527e+000 -8.325280e+000 182 165 151
-1.514242e+001 -1.008080e+001 -2.891562e+001 109 97 99
-1.507667e+001 -9.937458e+000 -2.947302e+001 109 101 99
-1.639570e+001 -1.087023e+001 -2.884750e+001 131 123 134
-1.426941e+001 -1.134907e+001 -2.811521e+001 103 93 104
3.364894e+000 3.047166e+000 -1.135443e+001 46 34 34
3.562729e+000 2.613097e+000 -1.095239e+001 32 22 20
3.935673e+000 2.453344e+000 -1.035415e+001 43 31 31
1.760425e+000 2.004555e+000 -8.309493e+000 149 125 96
4.259097e+000 1.956550e+000 -9.997558e+000 73 58 55
4.444805e+000 1.937869e+000 -9.724598e+000 63 49 44
-4.285806e-001 1.411981e+000 -9.972940e+000 71 45 31
-2.285992e-001 1.400764e+000 -1.000361e+001 129 105 74
-1.853672e-001 1.296684e+000 -9.958816e+000 128 109 78
4.696434e+000 1.536633e+000 -9.389974e+000 39 25 24
4.701468e+000 1.536541e+000 -9.401797e+000 39 25 24
-6.318295e-001 1.135372e+000 -1.004748e+001 70 39 11
4.547303e+000 1.416027e+000 -9.398590e+000 34 21 25
-1.141226e+001 1.519681e-001 -3.986622e+001 120 109 91
-3.030400e+000 2.943556e-001 -9.077517e+000 53 35 14
-9.708836e-001 4.278607e-001 -9.300699e+000 166 161 140
-2.801046e-001 -1.047734e-001 -8.596924e+000 25 22 28
-1.216050e-001 -4.774706e-002 -8.604484e+000 25 23 23
1.411626e+000 1.245960e-001 -7.325841e+000 133 92 55
-3.191336e+000 -4.990908e-001 -8.702803e+000 31 20 26
-1.782679e+000 -5.891844e-001 -7.909747e+000 75 42 19
-1.113435e+000 -5.560542e-001 -8.217410e+000 142 117 87
6.834079e-001 -5.808104e-001 -8.624497e+000 94 84 70
-1.185007e+000 -6.858786e-001 -8.110206e+000 132 98 71
-5.576356e-001 -7.403502e-001 -8.445848e+000 30 20 21
-2.615607e+000 -1.239104e+000 -8.013939e+000 165 136 104
-1.375504e+001 -9.397952e+000 -2.940078e+001 27 29 41
-1.143048e+001 -8.781696e+000 -2.679203e+001 91 99 134
-1.508412e+001 -1.055122e+001 -2.885560e+001 75 63 64
-1.472106e+001 -1.049496e+001 -2.857560e+001 107 96 93
-1.257556e+001 -1.078721e+001 -2.891961e+001 74 81 110
-1.548569e+001 -1.104598e+001 -2.799682e+001 114 103 113
1.353976e-001 -2.125034e+000 -8.153777e+000 135 141 164
-1.512478e+001 -1.164858e+001 -2.792431e+001 102 93 99
-1.401042e+001 -1.117106e+001 -2.709624e+001 136 133 141
-1.478581e+001 -1.208359e+001 -2.745760e+001 126 119 130
-1.413863e+001 -1.183959e+001 -2.726760e+001 31 27 44
-1.495612e+001 -1.219619e+001 -2.717762e+001 116 105 111
3.376435e+000 2.865749e+000 -1.122176e+001 28 19 18
-1.504065e-001 2.177747e+000 -1.048562e+001 95 70 48
4.789935e+000 1.380440e+000 -9.219559e+000 57 45 41
-1.257026e+000 3.877767e-001 -9.630460e+000 43 40 42
2.125568e-001 8.016370e-003 -8.621702e+000 135 130 101
4.259409e-001 -8.466663e-002 -8.611187e+000 156 144 118
2.702091e-001 -1.437515e-001 -8.601424e+000 139 128 97
3.746491e-001 -1.914974e-001 -8.591096e+000 159 148 119
-3.116663e+000 -5.418848e-001 -8.622246e+000 177 149 127
-1.659163e-001 -3.885252e-001 -8.495551e+000 23 19 20
6.633923e-001 -2.530121e-001 -8.557240e+000 30 28 22
-2.124974e-001 -4.914955e-001 -8.463198e+000 19 20 15
-1.815534e-001 -5.649948e-001 -8.440167e+000 137 124 105
-2.745249e-001 -7.710327e-001 -8.376110e+000 134 127 109
-1.511422e-001 -6.372527e-001 -8.417970e+000 19 19 17
-2.432395e-001 -8.425174e-001 -8.350435e+000 26 23 28
-1.649245e+000 -1.814740e+000 -8.400987e+000 69 48 43
-1.595025e+001 -1.025885e+001 -3.000391e+001 72 61 65
-1.524340e+001 -1.003774e+001 -2.925445e+001 107 97 96
-1.502684e+001 -1.013393e+001 -2.929657e+001 32 23 26
-1.102298e+001 -9.117826e+000 -2.716962e+001 255 255 254
-1.371631e+001 -1.115815e+001 -2.730484e+001 115 110 123
3.815008e+000 2.502046e+000 -1.074438e+001 31 21 22
4.214699e+000 2.181673e+000 -1.013559e+001 27 19 17
-1.998979e+001 -5.101508e+000 -3.823201e+001 201 190 180
8.694914e-001 -9.828320e-001 -7.512494e+000 106 72 45
-2.526733e+000 -1.591964e+000 -7.945793e+000 161 137 112
-1.340205e+001 -9.482996e+000 -2.897565e+001 27 27 35
-1.703660e+000 -1.831770e+000 -8.300011e+000 167 139 119
-1.456353e+001 -1.062705e+001 -2.882390e+001 39 36 45
-1.548441e+001 -1.167205e+001 -2.802450e+001 111 101 109
-1.487827e+001 -1.135893e+001 -2.782276e+001 131 121 130
-1.356245e+001 -1.162006e+001 -2.674067e+001 109 107 129
-1.283717e+001 -1.197020e+001 -2.786116e+001 23 21 34
1.028097e+000 2.441307e+000 -8.344629e+000 165 139 103
-6.737847e-001 1.340368e+000 -1.013042e+001 137 104 72
4.656504e+000 1.424166e+000 -9.309411e+000 68 54 54
-1.504561e+001 -9.293416e+000 -3.142816e+001 125 115 98
-1.555465e+001 -9.653417e+000 -3.056878e+001 83 73 71
-1.459006e+001 -1.019743e+001 -2.881560e+001 107 98 101
3.658911e+000 3.076987e+000 -1.108828e+001 106 90 67
3.658911e+000 3.076987e+000 -1.108828e+001 106 90 67
4.021138e+000 2.420516e+000 -1.028587e+001 34 21 24
4.468618e+000 2.145707e+000 -9.960652e+000 95 78 71
4.468618e+000 2.145707e+000 -9.960652e+000 95 78 71
4.593019e+000 1.990295e+000 -9.662211e+000 93 75 63
-1.706884e+001 -9.571806e+000 -3.179188e+001 83 81 104
-1.579164e+001 -9.436951e+000 -3.169639e+001 30 28 33
-1.427232e+000 -1.756270e+000 -8.330847e+000 187 163 148
-1.219535e+001 -1.100083e+001 -2.825758e+001 53 49 72
-1.381081e+001 -1.142981e+001 -2.691946e+001 31 28 41
-1.479097e+001 -1.156473e+001 -2.746350e+001 121 115 129
-1.398040e+001 -1.103426e+001 -2.781013e+001 104 95 99
3.235536e+000 3.137022e+000 -1.156100e+001 35 21 20
3.452041e+000 2.997308e+000 -1.125188e+001 36 22 19
3.828320e+000 2.939674e+000 -1.090219e+001 66 47 32
1.202942e+000 2.274606e+000 -8.258212e+000 181 158 116
4.387964e+000 2.634431e+000 -1.032785e+001 86 72 64
1.495885e+000 2.072501e+000 -8.205975e+000 177 154 115
1.491460e+000 2.046848e+000 -8.213609e+000 66 43 12
3.677971e+000 2.440488e+000 -1.074481e+001 28 17 15
-4.841891e-001 1.760008e+000 -1.014235e+001 149 104 67
1.443173e+000 1.937027e+000 -8.197058e+000 166 142 104
-5.623096e-001 1.584395e+000 -1.004666e+001 104 64 29
9.741099e-001 1.735931e+000 -8.329284e+000 131 108 78
1.043233e+000 1.748321e+000 -8.201391e+000 61 46 43
1.548440e+000 1.722410e+000 -8.172994e+000 96 59 28
3.822422e+000 2.074023e+000 -1.044919e+001 39 26 20
-6.522454e-001 1.329239e+000 -1.001836e+001 126 95 59
4.614404e+000 1.911271e+000 -9.537575e+000 84 70 61
4.207340e+000 1.708138e+000 -9.789863e+000 64 57 51
4.553950e+000 1.661109e+000 -9.623445e+000 32 22 23
-3.065711e-001 9.274650e-001 -9.978731e+000 126 101 77
4.524573e+000 1.558255e+000 -9.546589e+000 72 60 60
8.115024e-001 9.141219e-001 -9.085284e+000 70 63 59
8.115024e-001 9.141219e-001 -9.085284e+000 70 63 59
-1.187457e+000 4.710561e-001 -9.497862e+000 43 37 17
-1.187457e+000 4.710561e-001 -9.497862e+000 43 37 17
-1.034971e+000 5.114422e-001 -9.406339e+000 164 159 127
-1.792532e+000 4.105984e-001 -8.551281e+000 120 84 60
-1.403614e+000 2.243976e-001 -8.241641e+000 136 113 82
2.614349e-001 4.236913e-001 -8.959347e+000 138 131 112
4.620188e-001 3.282212e-001 -8.885262e+000 77 73 64
-1.245521e+000 9.896196e-002 -8.117628e+000 124 107 81
-6.098539e-001 1.878332e-001 -8.902818e+000 117 114 92
2.924522e-001 1.901202e-001 -8.688939e+000 99 93 75
5.087187e-001 3.298390e-001 -8.840896e+000 93 90 74
-1.329965e+000 -9.344897e-003 -8.003373e+000 148 124 86
-1.044371e+000 -7.699875e-002 -8.235222e+000 56 38 14
-1.044371e+000 -7.699875e-002 -8.235222e+000 56 38 14
-3.627545e-001 -3.790528e-002 -8.634125e+000 100 37 40
-3.679747e-001 -3.908065e-002 -8.633120e+000 100 37 40
1.742234e+000 5.259455e-001 -6.921803e+000 138 103 60
1.799362e+000 4.507681e-001 -6.919498e+000 141 104 62
-1.816679e+001 -7.330748e+000 -3.944544e+001 87 74 57
-2.105934e+000 -2.332051e-001 -8.030178e+000 150 116 79
-2.376855e-001 -7.133955e-002 -8.625280e+000 137 127 98
-2.376855e-001 -7.133955e-002 -8.625280e+000 137 127 98
1.571551e+000 2.991466e-001 -7.114862e+000 141 93 47
1.663038e+000 3.738414e-001 -6.955591e+000 127 83 36
1.832282e+000 1.877144e-001 -6.832712e+000 130 85 44
2.812669e+000 2.097316e-001 -7.362409e+000 16 8 11
2.804963e+000 1.858870e-001 -7.349217e+000 63 43 47
2.804963e+000 1.858870e-001 -7.349217e+000 63 43 47
-9.398040e-001 -5.676516e-001 -8.347260e+000 37 20 12
6.686550e-001 -3.571303e-001 -8.574891e+000 138 132 107
9.982696e-001 -2.546894e-001 -8.463323e+000 52 48 47
-1.882800e+000 -6.884469e-001 -7.841714e+000 134 98 64
-5.320426e-001 -6.596928e-001 -8.459513e+000 20 16 17
5.339118e-001 -5.382457e-001 -8.541991e+000 22 13 18
7.792591e-001 -5.730002e-001 -8.577692e+000 21 16 18
3.061237e-001 -7.553436e-001 -8.464401e+000 17 13 14
-2.685304e+000 -1.086885e+000 -7.988724e+000 183 138 93
-1.638585e+000 -9.201691e-001 -7.867661e+000 79 44 24
-7.379056e-001 -1.056396e+000 -8.488135e+000 25 21 12
-1.326480e+001 -8.549321e+000 -2.899443e+001 108 123 158
-3.977677e-001 -1.165469e+000 -8.288113e+000 139 135 124
-1.838530e-001 -1.053706e+000 -8.315336e+000 134 122 97
-1.837690e-001 -1.056751e+000 -8.324084e+000 134 122 97
2.871611e-001 -1.142737e+000 -7.955726e+000 53 24 12
1.007968e+000 -1.206238e+000 -7.425116e+000 116 74 34
-1.270815e+001 -1.077920e+001 -2.857920e+001 71 73 88
-1.135088e+001 -1.052223e+001 -2.641663e+001 71 70 86
3.608066e+000 3.001198e+000 -1.104870e+001 52 35 23
1.112734e+000 2.292587e+000 -8.274849e+000 180 156 112
3.680932e+000 2.729348e+000 -1.094820e+001 37 26 24
-4.084826e-001 2.196181e+000 -1.026894e+001 54 38 37
3.881149e+000 2.504696e+000 -1.054074e+001 29 17 19
4.291892e+000 2.158076e+000 -1.006583e+001 38 26 26
4.795846e+000 2.343417e+000 -9.968286e+000 74 58 57
3.835855e+000 1.990233e+000 -1.036579e+001 69 58 52
3.945052e+000 1.997955e+000 -1.032006e+001 25 16 19
4.695828e+000 1.826354e+000 -9.471610e+000 46 31 26
-3.200124e-001 1.275009e+000 -9.928805e+000 84 57 27
4.374862e+000 1.624375e+000 -9.719170e+000 23 14 15
4.498840e+000 1.449477e+000 -9.537322e+000 29 18 22
-2.011109e+000 4.459367e-001 -8.500813e+000 83 47 20
-4.102957e-001 6.021887e-001 -9.366138e+000 42 35 25
2.361741e+000 1.085445e+000 -7.872964e+000 80 65 54
2.364303e+000 1.086068e+000 -7.876814e+000 80 65 54
-1.054519e+000 4.589593e-001 -9.402873e+000 167 163 132
-1.054519e+000 4.589593e-001 -9.402873e+000 167 163 132
1.542369e-001 4.869813e-001 -9.089475e+000 100 93 85
-3.492292e-001 8.601711e-002 -8.714106e+000 153 144 110
4.711158e-001 2.317875e-001 -8.738572e+000 94 89 77
7.486003e-001 2.591493e-001 -8.728395e+000 51 50 48
-1.974681e+000 -2.628261e-002 -8.042535e+000 149 120 86
-3.906187e-001 6.244634e-002 -8.714374e+000 22 18 12
-2.171066e+001 -8.525651e+000 -4.027954e+001 168 148 123
-2.769095e+000 -3.028933e-001 -8.188806e+000 202 163 124
-5.544444e-001 -1.263984e-001 -8.614120e+000 100 93 75
1.699106e+000 3.002384e-001 -6.923058e+000 121 76 33
-1.976917e+000 -6.132581e-001 -7.878053e+000 90 55 23
-9.700925e-001 -5.797631e-001 -8.343201e+000 86 65 47
-1.093503e+001 -6.314758e+000 -2.616058e+001 94 96 111
-1.947794e+000 -6.372678e-001 -7.887374e+000 133 97 70
-1.909410e+000 -6.153219e-001 -7.880349e+000 133 100 69
-2.007358e+000 -7.560602e-001 -7.822523e+000 127 91 59
9.154051e-001 -5.724500e-001 -8.626678e+000 25 21 18
-1.648351e-003 -7.325717e-001 -8.416533e+000 115 109 85
-1.648351e-003 -7.325717e-001 -8.416533e+000 115 109 85
7.982993e-001 -7.755777e-001 -8.630115e+000 59 55 55
7.997207e-001 -7.847571e-001 -8.661051e+000 59 55 55
2.431653e+000 -2.142760e-001 -7.051389e+000 67 45 32
-1.677898e+001 -1.063647e+001 -2.934557e+001 142 134 144
-1.524392e+001 -1.030921e+001 -2.897345e+001 67 57 58
-1.493261e+001 -1.024715e+001 -2.913209e+001 88 77 76
-1.172691e+001 -9.017825e+000 -2.701545e+001 57 65 101
5.001498e-001 -1.216857e+000 -7.670299e+000 99 55 28
1.037568e+000 -1.137571e+000 -7.399836e+000 106 63 31
2.608580e-001 -1.602488e+000 -7.829878e+000 50 30 23
-1.432953e+001 -1.179249e+001 -2.706816e+001 79 76 88
3.034876e+000 2.907239e+000 -1.135414e+001 36 27 21
4.133489e+000 3.047757e+000 -1.114605e+001 31 20 16
3.616252e+000 2.631476e+000 -1.090903e+001 33 21 23
3.702213e+000 2.309161e+000 -1.073515e+001 31 23 21
4.271347e+000 2.508621e+000 -1.029456e+001 54 36 31
1.573691e+000 1.862452e+000 -8.260890e+000 148 122 89
4.429769e+000 2.164234e+000 -9.997981e+000 86 68 58
4.652917e+000 2.194594e+000 -9.998810e+000 33 18 21
-2.696949e-001 1.519310e+000 -1.001224e+001 138 116 75
1.059560e+000 1.636330e+000 -8.330825e+000 32 19 11
4.310418e+000 1.917676e+000 -9.943912e+000 37 26 25
4.565576e+000 1.709488e+000 -9.645603e+000 29 19 19
5.453419e-001 8.819492e-001 -9.314587e+000 24 20 19
4.561968e+000 1.416447e+000 -9.416792e+000 27 18 19
-1.708391e+000 3.975506e-001 -8.630671e+000 59 32 21
5.688860e-001 3.969677e-001 -8.826311e+000 61 52 43
8.679553e-001 4.645545e-001 -8.863139e+000 30 24 26
-3.261469e-001 1.236924e-001 -8.783317e+000 153 143 107
-3.277769e-001 1.276304e-001 -8.756709e+000 153 143 107
