ply
format ascii 1.0
element face 0
property list uchar int vertex_indices
element vertex 880
property float x
property float y
property float z
property uchar diffuse_red
property uchar diffuse_green
property uchar diffuse_blue
end_header
4.219472e+000 1.757334e+000 -9.742521e+000 57 43 40
4.479902e+000 1.706111e+000 -9.524468e+000 31 21 20
4.460343e+000 1.701541e+000 -9.482081e+000 31 21 20
4.424588e+000 1.704173e+000 -9.589680e+000 74 63 57
1.334510e+000 1.343065e+000 -8.512428e+000 25 17 16
4.577937e+000 1.409708e+000 -9.199116e+000 30 21 20
4.756895e+000 1.285253e+000 -9.074504e+000 27 16 17
-4.201404e-001 1.293530e+000 -9.908993e+000 152 134 95
1.629242e+000 9.386190e-001 -7.567222e+000 130 96 61
4.725801e+000 1.157552e+000 -8.909636e+000 28 16 18
6.350368e-001 9.644894e-001 -9.206041e+000 37 35 40
4.627522e-001 8.996828e-001 -9.418071e+000 52 47 51
4.623170e-001 9.000216e-001 -9.442047e+000 52 47 51
1.388608e+000 7.055776e-001 -7.292574e+000 148 106 60
-1.696891e+001 1.680586e+000 -3.213557e+001 59 71 123
3.620141e-002 7.091946e-001 -9.865674e+000 33 29 30
1.428451e+000 5.674214e-001 -7.153669e+000 214 181 136
-2.118194e+000 3.944876e-001 -8.497145e+000 106 72 35
-1.793385e+000 4.138052e-001 -8.550817e+000 93 59 34
-1.135146e+000 4.192732e-001 -9.459642e+000 151 146 121
-5.740354e-001 4.928345e-001 -9.268449e+000 124 119 99
-1.854563e-001 4.130376e-001 -9.038055e+000 133 132 102
-1.853107e-001 4.133545e-001 -9.027586e+000 133 132 102
-8.686978e-002 3.936781e-001 -8.983963e+000 117 112 93
-5.532379e-002 3.495776e-001 -8.925481e+000 20 17 13
1.943546e-001 3.985413e-001 -8.971598e+000 136 134 116
1.240843e+000 3.746722e-001 -7.698704e+000 28 22 23
-2.111793e+000 2.541549e-001 -8.383896e+000 88 57 26
-9.751352e-001 2.465085e-001 -9.224530e+000 35 31 27
-7.963008e-001 2.324875e-001 -9.080520e+000 39 32 26
-6.052047e-001 1.948767e-001 -8.958824e+000 26 23 18
1.648898e+000 2.409009e-001 -6.992032e+000 138 94 55
2.143480e+000 2.507535e-001 -6.940761e+000 61 38 32
2.143480e+000 2.507535e-001 -6.940761e+000 61 38 32
-3.014217e+000 7.215923e-002 -8.892353e+000 185 157 126
-2.475007e+000 8.197395e-002 -8.355835e+000 174 140 95
1.118596e+000 1.629193e-001 -8.619268e+000 57 53 52
1.905563e+000 1.315377e-001 -6.858660e+000 98 66 42
-1.913815e+000 1.735910e-002 -8.165860e+000 133 105 76
-7.420184e-001 -1.142057e-001 -8.820267e+000 22 18 16
-1.280890e-002 -1.454836e-002 -8.651841e+000 19 13 12
-2.403248e+000 -2.254813e-001 -8.097505e+000 165 131 91
-2.348457e+000 -3.561110e-001 -8.143951e+000 128 94 59
-2.111521e+000 -2.895374e-001 -8.033660e+000 175 146 114
1.533046e+000 -3.200934e-001 -7.521925e+000 119 99 82
-2.192540e+000 -4.453032e-001 -7.925219e+000 175 152 121
-1.921874e+000 -4.894324e-001 -7.921956e+000 147 118 86
9.065548e-001 -5.327089e-001 -8.564681e+000 14 12 15
-2.320852e+000 -7.292651e-001 -7.931669e+000 142 116 83
-1.926498e+000 -6.067365e-001 -7.923726e+000 97 64 31
-1.291978e+000 -6.217590e-001 -8.167880e+000 76 45 17
-2.566333e+000 -7.986527e-001 -8.037860e+000 173 143 109
-7.698603e-001 -1.144267e+000 -8.567989e+000 17 15 21
-2.329012e+000 -1.087484e+000 -7.934438e+000 126 94 69
-2.324974e+000 -1.085014e+000 -7.920697e+000 126 94 69
-1.393368e+000 -1.189602e+000 -8.038146e+000 42 21 18
-5.261718e-001 -1.228763e+000 -8.393681e+000 152 147 141
3.565417e-001 -1.173776e+000 -7.788593e+000 138 105 71
5.363197e-001 -1.064680e+000 -7.714586e+000 75 31 22
1.014010e-001 -1.339212e+000 -7.928023e+000 37 23 20
-2.434437e+000 -1.400487e+000 -8.068490e+000 123 102 76
-2.010016e+000 -1.489647e+000 -8.093055e+000 100 85 72
-1.661895e+000 -1.480707e+000 -8.053592e+000 25 14 14
2.295567e-001 -1.357502e+000 -7.850822e+000 137 105 84
-1.844342e+001 -8.250196e+000 -4.049117e+001 122 115 99
-1.944704e+000 -1.563856e+000 -8.113922e+000 108 92 74
-6.546730e-002 -1.659871e+000 -8.157027e+000 25 19 23
2.293819e+000 -1.674844e+000 -8.160951e+000 61 57 56
-2.255355e+001 -1.032683e+001 -4.422796e+001 84 71 65
-1.024887e+001 -5.666744e+000 -2.537232e+001 36 35 53
2.478319e-001 -1.711022e+000 -7.925953e+000 150 120 96
5.094816e-001 -1.741921e+000 -7.820187e+000 167 131 96
-1.282886e+001 -7.461543e+000 -2.807929e+001 120 129 163
-1.276473e+001 -7.860893e+000 -2.838770e+001 19 16 47
-1.274477e+001 -7.846855e+000 -2.834377e+001 19 16 47
-1.350869e+001 -8.370485e+000 -2.928107e+001 48 38 55
-9.811087e+000 -7.317118e+000 -2.472148e+001 208 194 193
-9.255100e+000 -6.905012e+000 -2.426475e+001 173 159 140
-1.716170e+001 -9.639254e+000 -3.124525e+001 146 129 111
-1.421978e+001 -9.213446e+000 -2.941065e+001 38 35 44
-1.354879e+001 -9.073926e+000 -2.888396e+001 72 73 93
-1.323779e+001 -9.175046e+000 -2.847281e+001 68 66 86
7.092279e-001 2.278769e+000 -8.333893e+000 93 56 33
3.492245e+000 2.823383e+000 -1.089638e+001 69 57 48
4.817307e-001 1.955941e+000 -8.727966e+000 92 79 66
5.311516e-001 1.912716e+000 -8.713214e+000 146 119 94
3.942616e+000 2.246400e+000 -1.026299e+001 39 29 29
-4.425777e+000 3.884864e+000 -2.041935e+001 195 195 198
8.944224e-001 1.741989e+000 -8.305289e+000 41 27 24
1.034087e+000 1.644062e+000 -8.234808e+000 30 19 16
4.570837e+000 1.840785e+000 -9.588051e+000 79 66 60
-4.248848e+000 3.927673e+000 -2.150920e+001 106 108 113
-4.235105e+000 3.917055e+000 -2.144712e+001 106 108 113
-4.053315e+000 3.706352e+000 -2.177219e+001 82 82 84
-2.923099e-001 1.915671e+000 -1.008873e+001 90 58 33
4.659578e+000 1.664013e+000 -9.346524e+000 42 36 30
1.477125e+000 1.396831e+000 -8.423738e+000 44 27 23
-8.268647e+000 4.611242e+000 -3.437445e+001 17 12 19
-7.099152e-001 1.508802e+000 -1.003596e+001 139 97 59
-7.833290e-001 1.339473e+000 -1.027244e+001 97 66 38
1.034726e+000 1.139665e+000 -8.975301e+000 67 61 61
-1.572037e+001 4.583656e+000 -4.401889e+001 37 39 53
1.762913e+000 7.954016e-001 -7.209051e+000 72 51 46
1.790015e+000 4.951497e-001 -7.007919e+000 66 46 41
1.616992e+000 3.570008e-001 -7.004907e+000 191 150 103
-2.360460e+000 1.979720e-001 -8.465993e+000 122 82 47
1.848731e+000 1.581033e-001 -6.865249e+000 108 72 46
2.086514e+000 2.813321e-001 -6.933250e+000 67 45 31
2.263471e+000 2.125951e-001 -7.030483e+000 46 28 24
-2.504223e+000 1.341182e-001 -8.411774e+000 133 91 49
-2.504223e+000 1.341182e-001 -8.411774e+000 133 91 49
-2.082897e+000 6.731072e-002 -8.278003e+000 79 48 28
1.801460e+000 6.582832e-002 -6.890896e+000 90 49 24
-2.314071e+000 -5.813100e-002 -8.150489e+000 136 104 64
-2.314071e+000 -5.813100e-002 -8.150489e+000 136 104 64
-2.219293e+000 -6.470428e-002 -8.156591e+000 175 147 110
-2.087532e+000 -9.572748e-002 -8.115708e+000 124 95 61
-1.272996e-001 -1.254201e-001 -8.622957e+000 137 130 102
6.292280e-001 -9.055730e-002 -8.636788e+000 114 102 91
7.232057e-001 -1.458260e-001 -8.638684e+000 91 88 73
1.802531e+000 -1.065039e-003 -6.843121e+000 143 98 62
1.802531e+000 -1.065039e-003 -6.843121e+000 143 98 62
-1.600603e+000 -2.871124e-001 -8.126014e+000 92 67 44
-3.474663e-001 -2.117366e-001 -8.599434e+000 20 24 23
2.865167e-001 -3.016592e-001 -8.616071e+000 139 132 106
5.332275e-001 -2.832597e-001 -8.597851e+000 132 126 104
-2.279016e+000 -3.475735e-001 -8.105952e+000 165 136 103
-1.795792e+000 -3.125991e-001 -8.166712e+000 66 42 19
-4.301046e-001 -4.184046e-001 -8.539964e+000 26 25 20
4.110225e-001 -4.184573e-001 -8.584319e+000 33 28 29
5.868762e-001 -4.256623e-001 -8.610074e+000 116 109 91
-2.717794e+000 -4.875525e-001 -8.200677e+000 168 129 94
-2.259265e+000 -5.048337e-001 -7.964069e+000 164 142 103
-1.668976e+000 -5.049936e-001 -8.007900e+000 39 26 20
-5.195952e-001 -6.267850e-001 -8.499008e+000 29 23 22
-4.742032e-001 -5.232075e-001 -8.518847e+000 23 21 18
-4.740152e-001 -5.231829e-001 -8.518778e+000 23 21 18
1.926626e-001 -4.948562e-001 -8.525138e+000 119 112 98
4.899909e-001 -6.411485e-001 -8.608726e+000 57 52 48
4.899909e-001 -6.411485e-001 -8.608726e+000 57 52 48
5.397435e-001 -5.305102e-001 -8.614361e+000 52 48 45
5.402433e-001 -5.311674e-001 -8.620794e+000 52 48 45
6.288883e-001 -5.783663e-001 -8.665150e+000 90 83 64
5.613649e-001 -6.088368e-001 -8.652955e+000 13 12 17
6.501608e-001 -6.558562e-001 -8.693876e+000 17 15 14
6.490936e-001 -6.538957e-001 -8.680509e+000 17 15 14
7.600105e-001 -5.425435e-001 -8.610392e+000 118 113 112
7.134285e-001 -6.346567e-001 -8.663999e+000 102 98 95
-1.373338e+000 -6.664961e-001 -8.074599e+000 81 46 24
3.012498e-001 -7.941484e-001 -8.524097e+000 87 80 61
4.197282e-001 -6.656539e-001 -8.562661e+000 11 9 10
3.740303e-001 -7.651596e-001 -8.546280e+000 19 17 20
-1.856637e+000 -7.899161e-001 -7.884863e+000 78 40 20
-6.674132e-001 -8.825944e-001 -8.494385e+000 155 150 130
-6.454619e-001 -9.434902e-001 -8.473955e+000 26 22 30
-6.107210e-001 -8.357116e-001 -8.476071e+000 26 25 23
-5.824631e-001 -9.089902e-001 -8.471273e+000 134 129 110
-1.216515e+000 -1.051348e+000 -8.125771e+000 70 39 23
-9.944243e-001 -1.095400e+000 -8.259316e+000 97 72 52
-6.724887e-001 -1.053280e+000 -8.485389e+000 24 20 19
-6.449751e-001 -1.119924e+000 -8.469176e+000 139 139 135
-6.136771e-001 -1.011770e+000 -8.451876e+000 132 131 126
-6.136771e-001 -1.011770e+000 -8.451876e+000 132 131 126
-5.221525e-001 -1.034640e+000 -8.388881e+000 138 134 123
-5.849888e-001 -1.076999e+000 -8.417523e+000 24 22 22
-2.925719e-002 -9.893712e-001 -8.425819e+000 127 114 85
9.042033e-001 -9.988641e-001 -7.651351e+000 72 37 18
-2.341550e+000 -1.207727e+000 -8.091686e+000 53 30 20
-6.124848e-001 -1.188878e+000 -8.432316e+000 24 23 26
4.025447e-001 -1.176159e+000 -7.751466e+000 149 113 79
-2.424942e+000 -1.329676e+000 -8.145747e+000 85 60 41
9.119682e-001 -1.261732e+000 -7.625975e+000 89 47 25
-7.448380e-001 -1.589795e+000 -8.896021e+000 185 189 198
6.314274e-001 -1.334460e+000 -7.554052e+000 107 56 35
1.119596e+000 -1.351535e+000 -7.596868e+000 98 60 37
-1.716179e+000 -1.555775e+000 -8.074538e+000 61 47 47
4.600424e-001 -1.673015e+000 -7.817162e+000 168 127 93
-1.634014e+001 -8.900147e+000 -3.063960e+001 70 63 78
-1.598980e+001 -9.049024e+000 -3.056585e+001 54 52 67
-1.326242e+001 -8.946742e+000 -2.893754e+001 72 79 117
-1.776349e+001 -9.838037e+000 -3.082944e+001 179 159 134
3.388654e+000 2.910766e+000 -1.111704e+001 76 63 59
3.625804e+000 2.698275e+000 -1.082777e+001 46 35 31
4.343105e+000 2.436194e+000 -1.050820e+001 34 23 21
7.291808e-001 1.798461e+000 -8.563890e+000 35 25 22
1.381798e+000 1.524795e+000 -8.316015e+000 50 30 17
4.525350e+000 1.680040e+000 -9.427489e+000 86 73 65
-1.190621e+001 5.897613e+000 -3.620681e+001 17 14 21
6.578667e-001 1.528317e+000 -9.342111e+000 41 39 37
-2.517377e-001 1.441590e+000 -9.934622e+000 130 109 80
-1.547024e+001 5.199604e+000 -4.365153e+001 45 50 57
-8.144112e-002 1.220085e+000 -1.005566e+001 100 84 67
-1.413476e+001 4.403910e+000 -4.512286e+001 34 29 23
-3.530548e+000 1.973726e+000 -1.944511e+001 30 30 35
1.351674e+000 8.394389e-001 -7.635871e+000 169 136 102
1.738859e+000 6.283340e-001 -7.041521e+000 69 46 30
1.365733e+000 4.939501e-001 -7.232752e+000 155 108 62
1.671374e+000 4.158428e-001 -7.029817e+000 126 83 44
-2.349131e+000 3.525944e-002 -8.242764e+000 120 80 44
-2.365586e+000 3.128775e-002 -8.288047e+000 120 80 44
2.476875e-001 1.836682e-002 -8.666344e+000 26 20 22
-2.021832e-001 -1.538858e-001 -8.615555e+000 29 28 19
-2.015950e-001 -1.534203e-001 -8.613240e+000 29 28 19
-5.276552e-002 -9.502936e-002 -8.627315e+000 27 21 22
2.310123e-002 -6.576558e-002 -8.634655e+000 131 121 100
1.253038e-001 -1.087205e-001 -8.628525e+000 124 116 93
3.509514e-001 -2.803618e-002 -8.663372e+000 23 25 22
3.510149e-001 -2.805608e-002 -8.663051e+000 23 25 22
2.754838e-001 -5.601974e-002 -8.655756e+000 137 130 104
2.003144e-001 -8.181728e-002 -8.641668e+000 26 22 20
2.295699e-001 -1.554340e-001 -8.635273e+000 123 115 93
3.044257e-001 -1.290003e-001 -8.645328e+000 24 21 23
4.258814e-001 1.182388e-003 -8.668471e+000 140 131 116
4.525967e-001 -7.092797e-002 -8.644623e+000 29 25 28
4.525967e-001 -7.092797e-002 -8.644623e+000 29 25 28
3.794597e-001 -9.974359e-002 -8.648515e+000 142 135 106
4.790387e-001 -1.411018e-001 -8.623088e+000 144 142 117
4.787831e-001 -1.410389e-001 -8.621266e+000 144 142 117
5.255757e-001 -4.235553e-002 -8.643177e+000 137 130 103
5.262475e-001 -4.232973e-002 -8.644581e+000 137 130 103
5.536133e-001 -1.136557e-001 -8.619691e+000 30 28 26
1.185615e+000 -4.243580e-002 -8.294287e+000 91 82 73
1.862628e+000 -1.046908e-002 -6.830700e+000 195 167 128
1.864394e+000 -1.141037e-002 -6.837745e+000 195 167 128
2.283271e+000 -4.781940e-002 -7.194841e+000 29 19 18
-2.629253e+000 -1.566735e-001 -8.266753e+000 125 81 39
-2.764534e-001 -1.836828e-001 -8.611851e+000 136 130 107
-1.731513e-001 -2.236079e-001 -8.597973e+000 135 131 101
-2.489657e-001 -2.527701e-001 -8.584410e+000 24 22 25
-2.409109e-002 -1.650762e-001 -8.606217e+000 136 131 106
-6.999530e-002 -2.649437e-001 -8.577623e+000 134 127 108
-6.999530e-002 -2.649437e-001 -8.577623e+000 134 127 108
-1.452679e-001 -2.938764e-001 -8.573831e+000 30 29 24
1.544754e-001 -1.818216e-001 -8.618310e+000 25 22 23
3.436350e-002 -3.075264e-001 -8.574462e+000 135 123 107
1.081968e-001 -2.815090e-001 -8.591936e+000 26 21 24
1.079170e-001 -2.809446e-001 -8.585521e+000 26 21 24
2.567994e-001 -2.292470e-001 -8.625765e+000 25 20 16
3.302969e-001 -2.023857e-001 -8.630188e+000 142 136 110
4.049902e-001 -1.723250e-001 -8.628155e+000 28 24 24
4.049902e-001 -1.723250e-001 -8.628155e+000 28 24 24
5.039989e-001 -2.129745e-001 -8.600321e+000 27 22 26
5.046495e-001 -2.127441e-001 -8.600429e+000 27 22 26
3.584783e-001 -2.739347e-001 -8.614008e+000 23 21 22
3.588866e-001 -2.744090e-001 -8.617176e+000 23 21 22
4.319672e-001 -2.439522e-001 -8.607791e+000 153 145 126
4.315357e-001 -2.436497e-001 -8.604861e+000 153 145 126
4.548785e-001 -3.157553e-001 -8.586924e+000 25 21 18
4.541995e-001 -3.159946e-001 -8.586939e+000 25 21 18
5.795486e-001 -1.878806e-001 -8.599167e+000 124 115 92
5.796854e-001 -1.877514e-001 -8.597559e+000 124 115 92
-2.406553e+000 -3.379258e-001 -8.131910e+000 160 130 97
-1.552274e+000 -4.029071e-001 -8.121814e+000 48 30 25
-3.680768e-001 -3.847073e-001 -8.548871e+000 131 129 107
-2.945564e-001 -3.538040e-001 -8.561200e+000 25 26 28
-2.205267e-001 -3.235179e-001 -8.567101e+000 139 133 109
-2.654477e-001 -4.233624e-001 -8.534348e+000 139 132 104
-2.654477e-001 -4.233624e-001 -8.534348e+000 139 132 104
-1.592174e-001 -4.624327e-001 -8.516986e+000 138 130 109
-1.590845e-001 -4.621460e-001 -8.514526e+000 138 130 109
-4.059175e-002 -3.348541e-001 -8.553474e+000 26 20 24
6.331358e-002 -3.792368e-001 -8.552724e+000 21 21 22
2.112548e-001 -3.295082e-001 -8.605483e+000 21 20 16
2.405718e-001 -4.014550e-001 -8.593515e+000 124 116 95
2.401419e-001 -4.007003e-001 -8.586252e+000 124 116 95
3.131859e-001 -3.758888e-001 -8.603294e+000 25 22 24
3.421534e-001 -4.482021e-001 -8.591054e+000 143 136 109
2.677647e-001 -4.747029e-001 -8.575854e+000 26 21 25
3.855597e-001 -3.469641e-001 -8.600224e+000 151 147 124
3.855597e-001 -3.469641e-001 -8.600224e+000 151 147 124
5.553174e-001 -3.590479e-001 -8.608980e+000 22 17 19
-1.863784e+001 -2.849108e+000 -3.620170e+001 212 203 195
-1.804517e+000 -5.504935e-001 -7.927823e+000 138 107 79
-4.133028e-001 -4.887810e-001 -8.537485e+000 149 138 120
-3.834135e-001 -5.579939e-001 -8.505061e+000 27 22 25
-1.011063e-001 -6.046869e-001 -8.474995e+000 132 121 97
4.740827e-002 -5.517542e-001 -8.501381e+000 134 124 100
4.730322e-002 -5.527259e-001 -8.508000e+000 134 124 100
1.213641e-001 -5.251404e-001 -8.527495e+000 23 17 26
7.622700e-002 -6.241819e-001 -8.495757e+000 25 20 17
1.494248e-001 -6.013429e-001 -8.517638e+000 128 118 94
1.497762e-001 -6.003086e-001 -8.511497e+000 128 118 94
2.223836e-001 -5.717015e-001 -8.534588e+000 19 15 20
2.227519e-001 -5.712274e-001 -8.532823e+000 19 15 20
3.239366e-001 -6.202287e-001 -8.553055e+000 24 18 22
3.692008e-001 -5.215746e-001 -8.579937e+000 31 27 23
3.695111e-001 -5.213774e-001 -8.579232e+000 31 27 23
-5.431575e-001 -8.008818e-001 -8.482503e+000 141 137 112
-4.269132e-001 -6.606101e-001 -8.482403e+000 24 24 23
-3.239388e-001 -6.957890e-001 -8.460693e+000 27 26 25
-4.689065e-001 -7.632702e-001 -8.460143e+000 27 26 22
-3.978348e-001 -7.279142e-001 -8.457558e+000 138 130 114
-3.672620e-001 -7.962139e-001 -8.431107e+000 24 24 23
-2.943275e-001 -7.627285e-001 -8.429358e+000 132 131 102
-1.885442e-001 -8.014178e-001 -8.412168e+000 131 122 93
-1.885376e-001 -8.006174e-001 -8.406752e+000 131 122 93
-7.205869e-002 -6.755175e-001 -8.460859e+000 32 29 28
-7.174358e-002 -6.755495e-001 -8.461576e+000 32 29 28
-1.456193e-001 -7.017442e-001 -8.440217e+000 126 118 95
-1.454819e-001 -7.015354e-001 -8.439550e+000 126 118 95
2.452243e-003 -6.496010e-001 -8.484857e+000 134 124 101
-1.157800e-001 -7.731093e-001 -8.422687e+000 26 21 25
-1.157800e-001 -7.731093e-001 -8.422687e+000 26 21 25
-4.075214e-002 -7.473389e-001 -8.454004e+000 110 104 84
2.990266e-002 -7.223514e-001 -8.474561e+000 23 16 19
1.314426e-001 -7.703875e-001 -8.489924e+000 27 22 29
1.322425e-001 -7.717728e-001 -8.499400e+000 27 22 29
2.060568e-001 -7.457152e-001 -8.510260e+000 138 128 98
2.059812e-001 -7.443593e-001 -8.502809e+000 138 128 98
3.531907e-001 -6.912337e-001 -8.545032e+000 104 97 72
-4.405224e-001 -8.297117e-001 -8.430741e+000 130 124 102
-1.596016e-001 -8.719194e-001 -8.391684e+000 27 24 25
-1.594969e-001 -8.718786e-001 -8.391998e+000 27 24 25
-2.335533e-001 -9.013653e-001 -8.392538e+000 140 132 111
-3.077470e-001 -9.300374e-001 -8.371009e+000 25 23 27
-8.436927e-002 -8.453715e-001 -8.409558e+000 128 118 97
-1.272559e-002 -8.206201e-001 -8.436623e+000 21 19 18
-5.767839e-002 -9.180967e-001 -8.407633e+000 23 20 22
8.765899e-002 -8.687392e-001 -8.459979e+000 21 18 24
8.798435e-002 -8.680969e-001 -8.457724e+000 21 18 24
1.607573e-001 -8.442873e-001 -8.488497e+000 116 105 82
1.655437e-002 -8.947251e-001 -8.427075e+000 117 109 89
1.139956e-001 -9.424885e-001 -8.464284e+000 97 87 64
2.300861e-001 -8.175530e-001 -8.506016e+000 17 18 21
-2.280704e+000 -9.752210e-001 -7.900247e+000 135 91 64
-1.529665e+000 -1.028901e+000 -7.980969e+000 56 27 22
-4.915947e-001 -1.105003e+000 -8.367852e+000 34 31 32
-4.544062e-001 -9.974036e-001 -8.373958e+000 29 25 23
-3.828374e-001 -9.615398e-001 -8.367877e+000 136 131 113
7.208892e-001 -1.298807e+000 -7.640216e+000 85 46 26
-2.667640e+000 -1.432109e+000 -8.056729e+000 235 219 194
-2.671567e+000 -1.434707e+000 -8.068553e+000 235 219 194
1.092630e+000 -1.400941e+000 -7.547217e+000 203 170 137
-2.073261e+001 -8.056729e+000 -3.899017e+001 165 152 130
8.807120e-001 -1.548586e+000 -7.643253e+000 209 175 137
-1.053030e+001 -5.810286e+000 -2.550518e+001 98 99 119
-1.564439e+001 -8.855720e+000 -3.074193e+001 109 103 106
-1.626945e+001 -9.189964e+000 -3.027107e+001 67 58 76
-1.702668e+001 -9.775276e+000 -3.118713e+001 196 183 168
1.115992e+000 2.188553e+000 -8.194836e+000 180 160 127
1.582814e+000 1.712917e+000 -8.295716e+000 75 47 23
-1.127004e+001 5.588802e+000 -3.775194e+001 15 12 19
6.573745e-001 1.083376e+000 -9.395117e+000 71 64 57
8.742841e-001 1.166924e+000 -9.009107e+000 37 31 33
9.527852e-001 1.093807e+000 -8.926436e+000 40 34 31
7.349792e-001 8.810077e-001 -9.058183e+000 76 71 65
8.376401e-001 8.127691e-001 -9.061741e+000 54 50 49
1.366832e+000 4.407522e-001 -7.107183e+000 150 103 58
1.744085e+000 4.449105e-001 -7.002592e+000 179 153 116
1.616898e+000 4.056779e-001 -7.073570e+000 194 156 110
-1.922816e+000 2.249079e-001 -8.422266e+000 50 21 17
-1.920582e+000 2.252702e-001 -8.418513e+000 50 21 17
-1.562377e+000 3.430307e-001 -8.710340e+000 55 31 19
-2.201236e+000 1.776103e-001 -8.361479e+000 154 124 86
-8.644451e-001 -1.349652e-001 -9.009713e+000 75 70 60
-2.360728e+000 -1.884435e-001 -8.138312e+000 178 148 110
2.441787e+000 -1.828166e-001 -7.157449e+000 20 10 19
2.103877e+000 -3.505439e-001 -7.175335e+000 155 133 113
-1.883530e+001 -2.870989e+000 -3.665238e+001 213 204 195
-9.165569e-001 -1.434465e+000 -9.001024e+000 163 169 182
-3.665103e-001 -1.315617e+000 -8.351281e+000 137 134 127
8.188513e-001 -1.258912e+000 -7.619878e+000 104 62 40
-1.867001e+001 -8.071515e+000 -3.985777e+001 139 131 112
7.030443e-001 -1.571330e+000 -7.718700e+000 138 91 49
1.046966e+000 -1.510003e+000 -7.663753e+000 157 114 72
-2.042900e+000 -1.853196e+000 -8.190920e+000 42 36 32
-1.303309e+001 -7.339913e+000 -2.868076e+001 22 14 30
-1.611136e+001 -9.420593e+000 -3.058612e+001 110 102 118
1.926084e+000 2.327577e+000 -9.055576e+000 31 19 28
8.540797e-001 1.663289e+000 -8.393815e+000 122 94 64
1.747570e+000 8.879849e-001 -7.392379e+000 172 153 121
-3.468528e+000 2.154802e+000 -1.942004e+001 182 190 200
-2.752389e-002 2.686264e-001 -8.802299e+000 97 90 75
-2.322411e+000 8.290983e-002 -8.330851e+000 109 71 37
-2.491599e+000 -9.438280e-001 -7.947641e+000 181 145 109
6.664580e-001 -9.463169e-001 -7.744389e+000 66 34 22
7.983235e-001 -9.520732e-001 -7.602455e+000 111 75 51
-1.340590e+001 -8.599525e+000 -2.885815e+001 27 25 35
-3.879140e+000 2.566733e+000 -1.957211e+001 222 221 219
-5.326403e-002 9.576060e-001 -1.000062e+001 81 66 47
-1.217870e+000 -1.176279e+000 -8.128884e+000 82 56 41
-1.518588e+001 -9.017995e+000 -3.079770e+001 30 27 34
-4.490229e-001 1.979785e+000 -1.021504e+001 148 116 76
1.008188e+000 1.588451e+000 -8.268913e+000 48 37 33
-1.050787e+001 4.672392e+000 -3.639214e+001 22 19 30
2.248986e+000 -1.003932e-001 -7.126085e+000 47 32 27
-7.078686e-001 -1.256166e+000 -8.649742e+000 119 124 127
-2.291721e+000 -1.812104e+000 -8.154412e+000 205 193 179
2.266530e+000 8.436215e-002 -7.093023e+000 146 126 102
-1.530344e+000 -8.165425e-001 -7.983090e+000 76 43 27
-1.092078e+000 -1.014874e+000 -8.234712e+000 70 43 20
-1.451341e+000 -2.181908e-001 -8.073167e+000 171 151 116
-1.949798e+001 -9.247467e+000 -4.061965e+001 19 16 25
4.346862e-001 -5.687037e-002 -8.025858e+000 25 22 26
7.525237e-001 2.115639e+000 -8.326908e+000 145 115 97
4.846086e-001 2.085416e+000 -8.810627e+000 162 145 117
8.903288e-001 1.853561e+000 -8.328409e+000 52 34 24
4.748239e+000 1.892578e+000 -9.557504e+000 82 70 72
4.825960e+000 1.741082e+000 -9.371618e+000 46 33 27
-3.944242e-001 1.163191e+000 -9.879584e+000 150 125 92
-3.575599e-001 1.144065e+000 -9.897731e+000 107 82 51
6.537570e-001 8.505539e-001 -9.225588e+000 28 24 25
1.742881e+000 5.760745e-001 -7.045777e+000 177 157 119
-1.679273e+001 1.679702e+000 -3.164191e+001 56 69 118
2.691660e-001 3.653547e-001 -8.934172e+000 97 90 81
8.382169e-001 4.180561e-001 -8.841116e+000 61 57 54
1.669456e+000 3.076960e-001 -7.009418e+000 95 56 24
1.876260e+000 4.123109e-001 -6.915415e+000 170 148 107
-2.049445e+000 2.343520e-001 -8.380769e+000 124 92 67
-1.359783e-001 3.415482e-001 -8.938259e+000 154 149 119
1.677723e+000 2.117279e-001 -6.952102e+000 165 120 78
6.105264e-001 1.674509e-001 -8.743068e+000 54 48 35
2.682270e+000 9.125834e-002 -7.418818e+000 19 9 12
-1.051376e+000 1.204948e-002 -8.316662e+000 110 95 74
-3.587781e-001 -1.207583e-001 -8.651802e+000 132 122 105
-9.283430e-001 -3.046569e-001 -8.673906e+000 44 36 36
8.608028e-001 -4.480892e-001 -8.573084e+000 78 73 76
1.368405e-001 -6.278983e-001 -8.507150e+000 136 129 101
-7.260082e-001 -1.070832e+000 -8.544671e+000 128 129 122
-2.919276e-001 -1.034145e+000 -8.365928e+000 137 132 113
-1.257520e+001 -8.213801e+000 -2.795833e+001 91 104 149
-1.749682e+001 -9.761587e+000 -3.110155e+001 157 140 124
-1.351532e+001 -9.084971e+000 -2.862240e+001 32 33 52
3.167114e+000 2.977084e+000 -1.136624e+001 69 58 52
1.449100e+000 1.926133e+000 -8.254257e+000 70 49 25
6.022161e-001 1.854495e+000 -8.585730e+000 157 133 105
4.224121e+000 2.122729e+000 -9.998490e+000 63 50 42
4.083665e+000 2.068409e+000 -1.001712e+001 36 24 25
1.188450e+000 1.402258e+000 -8.292776e+000 99 77 53
-2.823463e-001 1.515678e+000 -9.988401e+000 58 35 16
-2.823463e-001 1.515678e+000 -9.988401e+000 58 35 16
-4.275142e-001 1.175384e+000 -9.841087e+000 115 87 50
3.077932e-001 1.791900e-001 -8.738309e+000 104 98 85
1.441824e+000 2.878785e-001 -7.210984e+000 139 96 54
-1.118787e+000 6.291685e-002 -8.266910e+000 47 30 14
-3.877313e-001 1.056626e-001 -8.788177e+000 36 34 16
-3.898755e-001 1.028682e-001 -8.799026e+000 36 34 16
-3.177048e-001 -1.388776e-001 -8.629008e+000 21 18 15
-3.181522e-001 -1.387041e-001 -8.628460e+000 21 18 15
1.429213e+000 -7.966779e-002 -7.375653e+000 150 111 85
5.450286e-001 -2.602545e-001 -8.586630e+000 145 138 119
5.450286e-001 -2.602545e-001 -8.586630e+000 145 138 119
-1.836083e+000 -3.407284e-001 -8.061274e+000 120 94 69
9.053903e-001 -4.264843e-001 -8.713732e+000 11 9 15
-1.835963e+000 -6.330771e-001 -7.934757e+000 95 56 33
-1.789010e+000 -6.344028e-001 -7.899127e+000 146 112 84
-2.188647e+000 -7.920628e-001 -7.861762e+000 84 49 22
-2.372426e+000 -9.659119e-001 -7.906837e+000 164 123 91
-2.552322e-001 -1.091685e+000 -8.374042e+000 115 110 104
6.090888e-002 -1.060134e+000 -8.495240e+000 27 23 21
-2.079885e+000 -1.151706e+000 -7.952898e+000 62 40 29
-1.550094e+000 -1.136409e+000 -8.041987e+000 86 55 40
-1.449390e+000 -1.097549e+000 -8.061155e+000 51 28 18
-1.524272e+000 -1.285922e+000 -7.970264e+000 43 35 32
-1.275832e+001 -8.022379e+000 -2.865830e+001 122 131 164
-1.672396e+001 -9.755422e+000 -3.032035e+001 175 165 156
9.338461e-001 1.911489e+000 -8.332409e+000 46 33 25
1.333956e+000 1.675713e+000 -8.234316e+000 50 30 19
4.638133e+000 1.439549e+000 -9.224327e+000 75 60 57
-3.968645e+000 2.674619e+000 -1.942815e+001 231 228 223
4.754580e+000 1.284308e+000 -9.072487e+000 27 16 17
-5.126972e-001 1.236585e+000 -9.904376e+000 73 49 21
1.782955e+000 6.503015e-001 -7.083042e+000 189 169 134
1.954726e+000 3.908213e-001 -6.907329e+000 170 146 112
-1.024091e+000 3.525816e-001 -9.313248e+000 50 48 39
2.118844e-001 1.465478e-001 -8.704535e+000 93 88 72
2.202419e-001 7.105218e-002 -8.680004e+000 126 120 99
1.102399e+000 3.472034e-002 -8.499754e+000 71 66 63
-6.677781e-001 -8.259317e-002 -8.773319e+000 106 99 88
-2.359667e-001 -3.842984e-002 -8.663734e+000 23 19 27
1.228486e+000 -2.334162e-001 -8.214765e+000 61 56 55
1.612324e+000 -1.600872e-001 -7.047013e+000 174 126 85
1.612324e+000 -1.600872e-001 -7.047013e+000 174 126 85
-2.695490e+000 -3.115841e-001 -8.232415e+000 195 158 121
-8.616170e-001 -3.557131e-001 -8.741058e+000 72 68 56
-2.385151e+000 -9.267869e-001 -7.926544e+000 121 78 46
-2.521745e+000 -1.108470e+000 -8.036844e+000 165 127 88
-2.542883e+000 -1.214260e+000 -8.073485e+000 168 137 104
-1.144337e+000 -1.230581e+000 -8.320740e+000 57 38 32
-4.221247e-001 -1.230716e+000 -8.325005e+000 135 132 123
-2.442211e-001 -1.182336e+000 -8.388724e+000 97 93 84
-2.115945e-001 -1.568720e+000 -8.170192e+000 41 36 32
-1.314563e+001 -9.100503e+000 -2.827594e+001 68 66 86
4.824836e+000 1.443233e+000 -9.055560e+000 43 27 28
1.293899e-001 1.214258e+000 -1.020870e+001 44 34 32
6.928132e-001 8.130344e-001 -9.183303e+000 24 19 24
3.748201e-001 6.609222e-001 -9.431087e+000 94 89 82
1.777648e+000 4.407695e-001 -6.988133e+000 173 149 115
1.792289e+000 4.930877e-001 -7.015715e+000 66 46 41
1.583937e+000 3.390558e-001 -7.061188e+000 138 92 51
1.732950e+000 3.158387e-001 -6.886818e+000 90 55 17
-5.488751e-001 1.410988e-003 -8.746396e+000 131 122 103
9.268799e-001 -1.230454e-001 -8.656229e+000 51 47 48
-9.749396e-001 -4.786390e-001 -8.490595e+000 35 20 24
-1.070672e+000 -6.095454e-001 -8.320403e+000 66 41 19
6.308947e-001 -5.842635e-001 -8.699483e+000 90 83 64
-6.091650e-001 -8.328166e-001 -8.463498e+000 26 25 23
-5.506580e-001 -9.687406e-001 -8.412924e+000 28 26 23
-1.787546e-001 -1.037583e+000 -8.375518e+000 119 107 91
-1.657579e+001 -9.114268e+000 -3.061501e+001 126 126 143
1.032887e+000 2.336790e+000 -8.348835e+000 177 157 122
1.032887e+000 2.336790e+000 -8.348835e+000 177 157 122
3.707656e+000 2.737846e+000 -1.083768e+001 113 99 86
4.036302e+000 2.163933e+000 -1.002651e+001 78 63 58
1.265318e+000 1.618009e+000 -8.280365e+000 47 28 18
4.710914e+000 1.712245e+000 -9.316959e+000 94 78 71
1.763727e+000 7.244742e-001 -7.122961e+000 179 159 125
-1.314053e+000 1.402882e-001 -8.183961e+000 143 121 95
3.984620e-001 7.244112e-002 -8.687134e+000 21 18 19
5.061717e-002 -1.362941e-001 -8.613439e+000 22 19 22
2.297531e-001 -1.550927e-001 -8.632135e+000 123 115 93
3.045156e-001 -1.290023e-001 -8.645033e+000 24 21 23
2.568458e-001 -2.295687e-001 -8.626395e+000 25 20 16
3.300932e-001 -2.028288e-001 -8.632984e+000 142 136 110
1.831824e-001 -2.545974e-001 -8.607555e+000 123 118 99
-3.392826e-001 -4.555242e-001 -8.527867e+000 20 20 18
7.255354e-001 -3.922562e-001 -8.602789e+000 144 137 110
-3.541678e-001 -6.253401e-001 -8.478232e+000 132 127 103
-1.758387e-001 -6.333928e-001 -8.466125e+000 24 22 25
-1.758387e-001 -6.333928e-001 -8.466125e+000 24 22 25
-1.011759e-001 -6.049778e-001 -8.475381e+000 132 121 97
-4.999178e-001 -6.958919e-001 -8.487946e+000 138 132 113
-5.430834e-001 -7.996757e-001 -8.472110e+000 141 137 112
6.099985e-002 -7.938275e-001 -8.468230e+000 107 100 73
6.099985e-002 -7.938275e-001 -8.468230e+000 107 100 73
-2.334831e-001 -9.001076e-001 -8.382775e+000 140 132 111
-3.077313e-001 -9.303332e-001 -8.372462e+000 25 23 27
-2.543250e+000 -9.965088e-001 -8.001345e+000 171 136 98
-2.543250e+000 -9.965088e-001 -8.001345e+000 171 136 98
7.335323e-001 6.236131e-001 -8.916310e+000 66 64 65
3.663985e-001 1.584070e-001 -8.730179e+000 95 89 72
7.440020e-001 7.615944e-001 -9.081020e+000 18 16 19
-1.800821e+000 -2.579892e-001 -8.028992e+000 75 48 27
7.125407e-001 2.417682e+000 -8.427052e+000 122 75 33
6.363488e-001 1.989412e+000 -8.577038e+000 101 64 38
8.609897e-001 2.020815e+000 -8.338551e+000 47 23 19
1.197548e+000 1.802996e+000 -8.133763e+000 82 69 53
6.885788e-001 1.777931e+000 -8.768955e+000 44 30 21
8.769195e-001 1.710198e+000 -8.472038e+000 151 126 96
1.010553e+000 1.792487e+000 -8.277437e+000 32 19 12
1.170864e+000 1.729940e+000 -8.335598e+000 61 45 45
1.163048e+000 1.725639e+000 -8.281465e+000 61 45 45
1.687690e+000 1.748606e+000 -8.420778e+000 75 47 33
1.065544e+000 1.593614e+000 -8.331925e+000 78 64 59
1.599923e+000 1.551452e+000 -8.313770e+000 91 52 21
1.636105e+000 1.083125e+000 -7.759851e+000 125 97 76
-3.739535e-001 6.361330e-001 -9.516599e+000 128 124 115
-3.356501e-001 6.494894e-001 -9.482944e+000 25 22 15
-3.356501e-001 6.494894e-001 -9.482944e+000 25 22 15
-2.980427e-001 6.567260e-001 -9.513226e+000 31 26 22
-3.799149e-002 7.244050e-001 -9.816186e+000 67 61 57
1.362700e+000 8.486114e-001 -7.575898e+000 185 145 107
1.720389e+000 8.817699e-001 -7.615184e+000 54 39 25
1.821779e+000 9.119291e-001 -7.435035e+000 158 139 103
-2.462463e+000 4.644375e-001 -8.866618e+000 143 101 61
-2.038833e+000 4.319387e-001 -8.593763e+000 150 114 82
-1.722798e+000 4.926254e-001 -8.661354e+000 96 61 33
-1.638516e+000 5.569414e-001 -9.536527e+000 210 215 235
-1.495515e+000 4.620165e-001 -8.851466e+000 129 102 79
-1.040340e+000 5.366346e-001 -9.474532e+000 36 29 19
-6.269645e-001 5.706073e-001 -9.345977e+000 111 104 94
-6.269645e-001 5.706073e-001 -9.345977e+000 111 104 94
-4.589845e-001 6.196756e-001 -9.541991e+000 35 27 21
-3.933340e-001 6.038508e-001 -9.429134e+000 34 27 18
-3.933340e-001 6.038508e-001 -9.429134e+000 34 27 18
-3.542312e-001 6.138754e-001 -9.420843e+000 27 23 13
-3.179973e-001 6.250252e-001 -9.427785e+000 119 118 100
-3.179973e-001 6.250252e-001 -9.427785e+000 119 118 100
-2.690283e-001 5.990101e-001 -9.422659e+000 22 17 13
-2.218828e-001 6.042515e-001 -9.420911e+000 96 90 84
-3.684445e-002 6.165728e-001 -9.660392e+000 23 20 13
9.946400e-002 6.009604e-001 -9.585532e+000 26 19 11
1.181112e-001 5.724349e-001 -9.522860e+000 92 85 75
2.097684e-001 5.611251e-001 -9.378443e+000 74 75 64
1.292922e+000 7.152597e-001 -7.701193e+000 28 21 31
1.399853e+000 7.622846e-001 -7.266079e+000 148 105 62
1.399853e+000 7.622846e-001 -7.266079e+000 148 105 62
4.662580e+000 8.922118e-001 -8.629220e+000 66 55 57
-2.624708e+000 3.116463e-001 -8.705790e+000 178 146 105
-2.234677e+000 3.437116e-001 -8.529280e+000 99 63 28
-2.158411e+000 2.828851e-001 -8.327285e+000 158 125 90
-2.224252e+000 3.779473e-001 -8.602291e+000 185 150 110
-2.068995e+000 3.055844e-001 -8.301169e+000 84 50 22
-2.018283e+000 2.883395e-001 -8.389229e+000 121 90 69
-1.925386e+000 3.035237e-001 -8.486428e+000 113 78 59
-1.686655e+000 3.254061e-001 -8.656259e+000 81 55 45
-1.569766e+000 2.900966e-001 -8.731034e+000 43 21 8
-1.214436e+000 3.289409e-001 -8.906301e+000 90 72 50
-6.726182e-002 4.712727e-001 -9.193853e+000 34 25 26
2.437458e-001 4.829379e-001 -9.212733e+000 13 11 12
2.644745e-001 4.535745e-001 -9.179647e+000 71 67 62
3.026424e-001 4.508817e-001 -9.179052e+000 80 76 73
1.434841e+000 6.519355e-001 -7.146738e+000 201 164 122
1.434841e+000 6.519355e-001 -7.146738e+000 201 164 122
-2.072672e+000 2.293848e-001 -8.278022e+000 140 108 83
-2.056238e+000 2.758331e-001 -8.323903e+000 148 118 90
-2.056238e+000 2.758331e-001 -8.323903e+000 148 118 90
-1.135889e+000 2.489174e-001 -8.563871e+000 127 107 82
-4.109956e-001 1.766569e-001 -8.854807e+000 158 148 122
1.318450e+000 5.317916e-001 -7.256575e+000 154 112 63
1.439495e+000 5.261312e-001 -7.300534e+000 158 117 73
1.439140e+000 4.514087e-001 -7.132423e+000 224 186 139
-2.844400e+000 -3.010533e-003 -8.438902e+000 199 161 116
-2.235082e+000 -2.144508e-002 -8.116016e+000 131 101 62
-2.132288e+000 3.482220e-002 -8.184800e+000 101 68 35
-2.181617e+000 6.919000e-003 -8.209441e+000 111 79 41
-1.970482e+000 1.182528e-001 -8.283443e+000 68 36 11
-1.262050e+000 9.432142e-002 -8.167233e+000 86 62 37
-1.262667e+000 9.302752e-002 -8.171675e+000 86 62 37
-5.831376e-001 1.300953e-001 -8.911625e+000 113 38 50
-1.942993e-001 1.393513e-001 -8.752573e+000 158 157 125
-1.954723e-001 1.367498e-001 -8.761729e+000 158 157 125
7.369422e-001 7.706014e-002 -8.693556e+000 45 38 31
1.382976e+000 3.987955e-001 -7.281725e+000 146 91 50
1.588284e+000 4.166612e-001 -7.176658e+000 97 54 12
1.646914e+000 3.959371e-001 -6.887195e+000 132 95 51
-2.338812e+000 -8.496002e-002 -8.118405e+000 182 148 108
-2.338812e+000 -8.496002e-002 -8.118405e+000 182 148 108
-1.975238e+000 -1.651503e-002 -8.005166e+000 159 130 98
-2.014493e+000 -6.509435e-002 -7.943327e+000 110 80 44
-2.022627e+000 -1.293132e-001 -8.035544e+000 117 89 52
-1.802636e+000 -3.678025e-002 -8.079740e+000 122 96 72
-4.215465e-001 -1.203908e-001 -8.640455e+000 139 111 95
2.697120e-001 -1.157305e-001 -8.643573e+000 31 31 24
1.463554e+000 2.484475e-001 -7.202331e+000 189 144 102
1.701761e+000 2.212298e-001 -6.897405e+000 159 114 73
2.598394e+000 1.972188e-001 -7.457900e+000 57 47 46
2.718600e+000 1.706752e-001 -7.707718e+000 62 52 51
-2.153750e+000 -1.789013e-001 -8.060436e+000 182 150 112
-2.159231e+000 -2.695959e-001 -7.970878e+000 161 134 97
-1.984210e+000 -1.967811e-001 -8.036016e+000 163 131 100
-1.999666e+000 -2.257264e-001 -8.040521e+000 108 73 43
-1.700553e+000 -2.452692e-001 -8.111167e+000 59 32 12
-1.630839e+000 -2.401709e-001 -8.037580e+000 73 49 25
-1.630839e+000 -2.401709e-001 -8.037580e+000 73 49 25
-9.843516e-001 -9.944077e-002 -7.937706e+000 125 104 79
1.617074e+000 1.798658e-001 -6.900894e+000 151 104 62
1.692800e+000 1.063898e-001 -6.826126e+000 200 152 108
1.736136e+000 8.943360e-002 -6.851135e+000 200 153 110
1.799080e+000 1.610968e-001 -6.958858e+000 153 111 73
1.810624e+000 1.590432e-001 -6.913723e+000 144 103 64
2.709896e+000 1.592307e-001 -7.443268e+000 60 51 50
2.709896e+000 1.592307e-001 -7.443268e+000 60 51 50
-2.548626e+000 -4.282627e-001 -7.991488e+000 150 105 66
-2.543047e+000 -4.769710e-001 -7.987354e+000 187 146 101
-2.213966e+000 -3.887969e-001 -8.068565e+000 171 143 110
-1.846217e+000 -3.363802e-001 -7.935065e+000 145 116 87
-1.799053e+000 -4.507241e-001 -8.086511e+000 73 47 30
-1.578430e+000 -3.462328e-001 -8.062233e+000 74 56 49
-1.569723e+000 -4.059905e-001 -7.997444e+000 95 78 63
-3.836275e-001 -4.176027e-001 -8.561663e+000 138 132 110
-3.836275e-001 -4.176027e-001 -8.561663e+000 138 132 110
8.216843e-001 -3.005140e-001 -8.582126e+000 33 29 17
8.214080e-001 -3.005939e-001 -8.581641e+000 33 29 17
8.599684e-001 -3.920354e-001 -8.574141e+000 87 80 74
2.178965e+000 -2.621347e-002 -7.130170e+000 89 61 38
-2.625315e+000 -5.866876e-001 -8.039926e+000 108 70 32
-1.338058e+000 -5.961802e-001 -8.108741e+000 81 45 23
-1.004593e+000 -5.640732e-001 -8.202890e+000 94 69 54
-9.059147e-001 -5.411671e-001 -8.413863e+000 62 48 44
1.869773e+000 -1.144436e-001 -6.915156e+000 171 131 96
2.011298e+000 -1.894917e-001 -6.977748e+000 138 99 60
-2.160667e+000 -6.411433e-001 -7.787219e+000 167 138 106
-2.172717e+000 -7.494821e-001 -7.901844e+000 152 115 89
-1.236260e+000 -7.147553e-001 -8.076487e+000 88 52 28
-9.227291e-001 -6.403997e-001 -8.354844e+000 100 89 59
-5.702536e-001 -6.698077e-001 -8.494714e+000 155 148 129
2.294694e+000 -3.010838e-001 -7.172556e+000 44 29 34
2.295902e+000 -3.021372e-001 -7.176333e+000 44 29 34
-2.942696e+000 -9.126463e-001 -8.347138e+000 167 143 123
-2.367471e+000 -8.287346e-001 -7.852676e+000 139 103 71
-2.173114e+000 -7.841818e-001 -7.922640e+000 87 52 24
-1.602963e+000 -7.909529e-001 -7.937964e+000 72 35 16
-1.244641e+000 -8.021525e-001 -7.980771e+000 136 103 72
-1.244641e+000 -8.021525e-001 -7.980771e+000 136 103 72
-1.258511e+000 -8.167584e-001 -8.171869e+000 74 39 17
-8.679583e-001 -9.718748e-001 -8.450206e+000 90 84 75
1.293240e-001 -8.203554e-001 -8.447239e+000 109 99 77
1.821983e+000 -4.095386e-001 -7.275456e+000 24 14 15
-2.565238e+000 -1.076116e+000 -7.896481e+000 176 131 89
-2.320760e+000 -9.886615e-001 -7.763262e+000 134 95 67
-2.244331e+000 -1.046431e+000 -7.838068e+000 129 93 71
-1.733715e+000 -8.867088e-001 -7.777170e+000 127 90 64
-1.524715e+000 -9.624230e-001 -7.765798e+000 61 29 14
-4.503553e-001 -1.042693e+000 -8.310901e+000 147 144 126
7.343444e-002 -9.960344e-001 -8.408025e+000 63 59 58
6.962373e-001 -8.805357e-001 -7.826557e+000 80 45 23
-2.559726e+000 -1.123003e+000 -8.041558e+000 168 124 85
-1.410605e+000 -1.066712e+000 -8.000996e+000 102 71 51
-1.076567e+000 -1.124477e+000 -8.278366e+000 119 92 67
-1.045466e+000 -1.399664e+000 -8.760452e+000 40 25 18
-1.008462e+000 -1.381066e+000 -8.706628e+000 150 136 128
-7.355426e-001 -1.319891e+000 -8.550861e+000 173 175 187
-5.708441e-001 -1.189532e+000 -8.450202e+000 173 167 159
1.721987e-001 -1.111880e+000 -8.044541e+000 135 106 72
8.619047e-001 -9.636041e-001 -7.603533e+000 78 43 21
-1.151012e+000 -1.329631e+000 -8.278750e+000 27 15 14
-7.223626e-001 -1.377437e+000 -8.587938e+000 55 60 72
-7.223626e-001 -1.377437e+000 -8.587938e+000 55 60 72
5.869217e-002 -1.248225e+000 -8.129803e+000 130 103 81
4.783093e-002 -1.249328e+000 -8.051916e+000 46 26 10
2.581508e-001 -1.133564e+000 -7.977563e+000 139 111 90
2.581508e-001 -1.133564e+000 -7.977563e+000 139 111 90
3.096741e-001 -1.210336e+000 -7.908216e+000 133 98 79
5.626776e-001 -1.134780e+000 -7.726792e+000 82 42 16
8.480560e-001 -1.117539e+000 -7.570988e+000 171 127 95
9.201741e-001 -1.021682e+000 -7.671711e+000 80 45 23
9.512371e-001 -1.097814e+000 -7.559070e+000 170 132 93
9.512371e-001 -1.097814e+000 -7.559070e+000 170 132 93
-1.430248e+000 -1.461717e+000 -8.094957e+000 32 19 19
2.520225e-001 -1.330169e+000 -7.852549e+000 58 29 11
3.877348e-001 -1.333227e+000 -7.942026e+000 91 50 30
4.385557e-001 -1.299443e+000 -7.834452e+000 96 53 34
8.190769e-001 -1.185132e+000 -7.682933e+000 162 121 84
8.413321e-001 -1.219653e+000 -7.531519e+000 100 56 28
8.619940e-001 -1.215517e+000 -7.566472e+000 185 141 109
1.108354e+000 -1.124768e+000 -7.584118e+000 134 101 70
-3.850919e-001 -1.703691e+000 -8.562226e+000 160 160 161
-3.850919e-001 -1.703691e+000 -8.562226e+000 160 160 161
1.337550e-001 -1.433236e+000 -7.900582e+000 134 107 98
3.402763e-001 -1.534344e+000 -7.838679e+000 174 141 110
3.687319e-001 -1.513056e+000 -7.802439e+000 95 59 33
3.687319e-001 -1.513056e+000 -7.802439e+000 95 59 33
3.980929e-001 -1.479724e+000 -7.776269e+000 178 143 109
7.149713e-001 -1.358476e+000 -7.633751e+000 199 154 121
1.158631e+000 -1.341922e+000 -7.633941e+000 175 138 102
1.560772e-001 -1.682366e+000 -7.923380e+000 47 20 10
1.560772e-001 -1.682366e+000 -7.923380e+000 47 20 10
4.173351e-001 -1.696292e+000 -7.995954e+000 130 91 50
8.175417e-001 -1.521814e+000 -7.761539e+000 168 124 78
1.187315e+000 -1.451566e+000 -7.634493e+000 204 172 134
-6.363191e-002 -2.018180e+000 -8.355546e+000 64 53 57
6.842775e-002 -1.830905e+000 -8.131674e+000 58 41 33
6.310727e-001 -1.734483e+000 -7.858255e+000 137 102 70
8.491308e-001 -1.713601e+000 -7.851822e+000 207 168 125
1.098753e+000 -1.841395e+000 -7.941740e+000 199 166 133
3.188961e-001 -2.011527e+000 -8.220546e+000 133 108 84
4.477164e-001 2.175511e+000 -9.003819e+000 87 73 62
1.012912e+000 2.237908e+000 -8.339884e+000 170 146 110
6.133866e-001 2.051034e+000 -8.656826e+000 92 53 23
6.133866e-001 2.051034e+000 -8.656826e+000 92 53 23
6.617868e-001 1.941443e+000 -8.621025e+000 63 35 21
6.617868e-001 1.941443e+000 -8.621025e+000 63 35 21
8.952791e-001 1.906296e+000 -8.320835e+000 92 70 56
1.185572e+000 1.875413e+000 -8.349675e+000 38 29 24
7.572129e-001 1.686404e+000 -8.854275e+000 131 117 104
9.901396e-001 1.718442e+000 -8.244659e+000 137 122 102
8.720021e-001 1.644695e+000 -8.438064e+000 111 84 55
8.550720e-001 1.533758e+000 -8.657035e+000 118 103 84
9.761022e-001 1.620748e+000 -8.320491e+000 40 26 24
1.981165e+000 1.629168e+000 -8.563482e+000 14 8 12
9.809724e-001 1.471935e+000 -8.896904e+000 42 38 35
1.354614e+000 1.404460e+000 -8.340472e+000 68 40 28
1.878359e+000 1.448349e+000 -8.559029e+000 68 56 52
1.878359e+000 1.448349e+000 -8.559029e+000 68 56 52
5.805562e-001 9.461615e-001 -9.292877e+000 63 58 54
1.905392e+000 1.005539e+000 -7.561644e+000 45 19 18
1.968740e+000 9.990369e-001 -7.596919e+000 61 38 22
-1.730520e+000 5.954364e-001 -9.153699e+000 133 101 68
-4.775026e-002 6.559287e-001 -9.647422e+000 65 60 57
1.621199e-002 6.694608e-001 -9.846404e+000 56 53 48
1.472856e+000 9.396086e-001 -7.454774e+000 176 137 94
1.819560e+000 8.910807e-001 -7.360146e+000 73 49 23
-1.834274e+000 4.574181e-001 -8.639779e+000 143 108 76
-1.834274e+000 4.574181e-001 -8.639779e+000 143 108 76
-1.759717e+000 4.314961e-001 -9.041694e+000 76 45 20
-1.568140e+000 4.417783e-001 -8.625348e+000 116 89 64
-1.518894e+000 4.949136e-001 -8.911538e+000 105 77 55
-1.126569e+000 4.943576e-001 -9.584039e+000 168 162 132
-9.550488e-001 5.264138e-001 -9.384812e+000 37 29 21
-7.501380e-001 5.396211e-001 -9.380952e+000 118 112 96
-5.164663e-001 5.837883e-001 -9.391516e+000 28 24 10
-6.005719e-001 5.681603e-001 -9.448555e+000 119 112 102
-5.304961e-001 5.495188e-001 -9.333401e+000 111 104 95
-4.692604e-001 5.883784e-001 -9.441436e+000 113 110 95
-3.548499e-001 5.493450e-001 -9.322147e+000 33 29 22
-3.548499e-001 5.493450e-001 -9.322147e+000 33 29 22
-2.773258e-001 5.690898e-001 -9.318076e+000 122 116 99
-2.745767e-001 5.710041e-001 -9.298368e+000 122 116 99
-2.572051e-001 5.333276e-001 -9.246642e+000 29 24 20
-1.641307e-001 5.078367e-001 -9.186256e+000 27 19 13
4.615656e-001 6.589770e-001 -9.423540e+000 26 23 20
-2.790263e+000 2.556037e-001 -8.802825e+000 122 93 63
-2.682417e+000 3.282962e-001 -8.790864e+000 176 143 102
-2.516893e+000 2.656317e-001 -8.536457e+000 181 147 101
-2.267322e+000 2.775186e-001 -8.469680e+000 103 67 33
-1.410748e-001 4.705082e-001 -9.125733e+000 115 109 94
6.816938e-002 4.454412e-001 -9.110175e+000 24 19 15
1.415044e-001 4.207672e-001 -9.042729e+000 23 19 20
5.815095e-002 4.137254e-001 -9.023565e+000 104 101 84
2.867129e-001 4.250311e-001 -9.108063e+000 16 15 11
2.576660e-001 3.952170e-001 -8.984098e+000 20 14 17
4.642096e-001 3.662695e-001 -8.864574e+000 120 114 102
1.284855e+000 5.470052e-001 -7.796963e+000 198 177 140
1.326460e+000 6.078618e-001 -7.546012e+000 185 148 103
1.346861e+000 5.432309e-001 -7.262546e+000 173 131 81
-2.984051e+000 1.354801e-001 -8.984025e+000 185 162 125
-2.948733e+000 1.714463e-001 -8.950937e+000 128 101 68
-2.117106e+000 1.492288e-001 -8.364158e+000 79 48 22
-1.958439e+000 2.553234e-001 -8.378811e+000 45 17 5
-1.962617e+000 1.656705e-001 -8.361768e+000 73 42 24
-1.814078e+000 1.605290e-001 -8.348238e+000 81 58 44
-1.677119e+000 1.975434e-001 -8.548771e+000 38 20 10
5.894748e-001 2.824063e-001 -8.774626e+000 50 43 37
1.783186e+000 5.158805e-001 -7.105243e+000 172 147 107
-2.289927e+000 -3.314557e-004 -8.118934e+000 169 137 96
-2.121128e+000 1.232052e-001 -8.210434e+000 102 66 39
-1.820200e+000 3.568147e-002 -8.222090e+000 109 78 58
-1.242340e+000 1.239071e-001 -8.174943e+000 134 113 81
1.652140e-001 1.367436e-001 -8.721461e+000 98 89 74
1.244096e+000 1.456491e-001 -8.300455e+000 49 40 33
-2.458184e+000 -1.636438e-001 -8.170125e+000 156 118 77
-2.396534e+000 -1.706937e-001 -8.038118e+000 126 88 51
-2.378491e+000 -1.826357e-001 -8.090872e+000 172 138 100
-2.079235e+000 -1.183941e-001 -7.999701e+000 173 143 105
-2.010583e+000 -9.318206e-002 -8.010314e+000 165 139 104
-4.511581e-001 -1.535747e-001 -8.635465e+000 125 61 60
-2.562265e+000 -3.519599e-001 -8.137428e+000 126 83 47
-2.514394e+000 -3.014753e-001 -8.075675e+000 172 131 87
-2.468816e+000 -2.737260e-001 -8.089788e+000 166 124 84
-2.454542e+000 -3.311813e-001 -8.104305e+000 144 102 60
-2.249686e+000 -2.126507e-001 -8.024732e+000 170 136 99
-2.232759e+000 -2.480885e-001 -8.044755e+000 106 67 28
-2.232759e+000 -2.480885e-001 -8.044755e+000 106 67 28
1.204362e+000 -1.039412e-001 -8.299335e+000 66 56 45
1.222991e+000 -7.209479e-002 -8.242014e+000 95 85 73
1.303637e+000 7.472069e-002 -7.496893e+000 146 117 95
1.676206e+000 7.712515e-002 -6.840470e+000 157 105 63
1.784484e+000 1.418472e-001 -6.921115e+000 100 55 24
1.922428e+000 1.229549e-001 -6.818317e+000 114 77 50
-2.778187e+000 -5.208521e-001 -8.221084e+000 134 100 74
-1.602063e+000 -3.276803e-001 -8.099110e+000 87 67 43
1.443830e+000 -9.775631e-002 -7.462973e+000 156 116 85
1.459235e+000 -2.232669e-001 -7.962372e+000 15 6 7
1.551117e+000 -5.495684e-002 -6.991130e+000 191 142 101
1.774593e+000 -6.343576e-002 -6.929084e+000 146 95 63
1.920499e+000 -2.240582e-002 -6.842243e+000 197 158 117
2.092579e+000 2.898731e-002 -7.022883e+000 161 128 96
-2.075750e+000 -5.481893e-001 -7.752760e+000 141 114 84
-1.441743e+000 -5.120819e-001 -8.113110e+000 84 53 28
-1.430898e+000 -5.700425e-001 -8.078454e+000 68 36 15
-9.840046e-001 -5.968347e-001 -8.329448e+000 53 30 19
1.611301e+000 -1.970396e-001 -7.035935e+000 157 105 65
1.760431e+000 -2.054209e-001 -7.143044e+000 152 100 60
1.889613e+000 -6.907897e-002 -6.834960e+000 196 157 116
-2.711700e+000 -7.299641e-001 -8.166138e+000 163 131 93
-2.711700e+000 -7.299641e-001 -8.166138e+000 163 131 93
-2.483554e+000 -7.264998e-001 -7.889516e+000 189 158 120
-2.349795e+000 -7.081911e-001 -7.953294e+000 176 144 110
-1.920475e+000 -6.941243e-001 -7.822255e+000 88 45 20
-1.220779e+000 -6.827197e-001 -8.131397e+000 78 46 23
-6.192957e-001 -7.759201e-001 -8.489806e+000 153 146 127
1.672955e+000 -3.430993e-001 -7.246403e+000 179 146 118
2.247496e+000 -3.425410e-001 -7.209789e+000 34 18 19
-2.260265e+000 -8.054130e-001 -7.749110e+000 166 122 93
-1.887979e+000 -8.609082e-001 -7.823726e+000 78 37 19
-1.451679e+000 -8.517913e-001 -7.983996e+000 69 36 18
-1.109039e+000 -8.230175e-001 -8.176363e+000 78 46 25
-1.003506e+000 -8.142432e-001 -8.213074e+000 93 65 37
-1.003506e+000 -8.142432e-001 -8.213074e+000 93 65 37
-2.809083e+000 -1.044777e+000 -8.193060e+000 161 123 83
-2.404453e+000 -1.105354e+000 -8.025666e+000 84 46 25
-2.020129e+000 -9.481255e-001 -7.854974e+000 78 37 18
-1.343982e+000 -9.189387e-001 -8.019005e+000 75 40 21
-9.148533e-002 -1.063029e+000 -8.410464e+000 52 47 43
-2.765442e+000 -1.274461e+000 -8.120414e+000 172 139 100
-2.495205e+000 -1.114897e+000 -7.930369e+000 102 61 31
-2.495205e+000 -1.114897e+000 -7.930369e+000 102 61 31
-1.762198e+000 -1.017848e+000 -7.785575e+000 126 86 54
-1.762198e+000 -1.017848e+000 -7.785575e+000 126 86 54
-1.618116e+000 -1.083646e+000 -7.870133e+000 124 90 68
-1.476325e+000 -1.072571e+000 -7.899252e+000 45 19 12
-1.068050e+000 -1.245150e+000 -8.245237e+000 80 63 53
-1.068050e+000 -1.245150e+000 -8.245237e+000 80 63 53
-8.868387e-001 -1.191072e+000 -8.463947e+000 110 106 105
-7.865307e-001 -1.239901e+000 -8.624003e+000 27 24 31
-3.830745e-001 -1.126520e+000 -8.335380e+000 140 136 125
1.406570e-001 -1.146644e+000 -8.128747e+000 56 43 33
5.090879e-001 -9.884623e-001 -7.777063e+000 95 58 35
5.822590e-001 -9.082484e-001 -7.750673e+000 65 27 15
