ply
format ascii 1.0
element face 0
property list uchar int vertex_indices
element vertex 173
property float x
property float y
property float z
property uchar diffuse_red
property uchar diffuse_green
property uchar diffuse_blue
end_header
-3.677072e+000 -4.432959e+000 -2.260381e+001 38 53 24
-6.433985e+000 1.033867e+000 -1.843926e+001 66 63 36
-2.669927e+000 3.547744e+000 -2.694406e+001 68 57 36
-6.433985e+000 1.033867e+000 -1.843926e+001 66 63 36
-1.108416e+001 -7.568918e+000 -2.447927e+001 190 141 74
-6.340743e+000 1.176593e+000 -1.843039e+001 165 118 52
-9.821714e+000 -1.896617e+000 -1.771803e+001 223 203 82
-7.911294e+000 -4.788263e+000 -1.989127e+001 203 120 28
-1.718279e+000 1.672971e+000 -2.525169e+001 157 128 56
5.248311e+000 -2.270407e+000 -2.645424e+001 122 95 43
-7.388752e+000 7.157499e+000 -2.715853e+001 213 185 172
-8.962672e+000 4.703520e+000 -2.549984e+001 140 124 98
-8.501658e+000 5.013982e+000 -2.571583e+001 67 58 39
-9.330597e+000 4.561346e+000 -2.582826e+001 147 110 60
-7.473093e+000 4.520925e+000 -2.960817e+001 163 154 148
-3.840222e+000 2.946379e+000 -2.594526e+001 72 83 53
-6.716209e+000 1.603388e+000 -1.621312e+001 202 169 129
-6.716209e+000 1.603388e+000 -1.621312e+001 202 169 129
-2.495474e+000 2.229675e+000 -2.815036e+001 81 94 61
-5.803815e+000 1.049409e+000 -2.022134e+001 93 95 56
8.383652e+000 1.263578e+000 -2.135939e+001 78 69 60
3.751935e+000 1.051320e+000 -2.583119e+001 164 135 63
-7.282431e+000 -3.635032e-001 -2.102760e+001 200 150 32
-8.009551e+000 -8.367413e-001 -2.278249e+001 225 198 70
-9.475025e-001 -5.118569e-001 -2.203147e+001 127 97 37
-6.613009e+000 -9.798807e-001 -2.174016e+001 180 132 48
-8.429672e+000 -2.482393e+000 -1.672537e+001 196 168 50
-8.002835e+000 -2.610067e+000 -1.698558e+001 179 155 70
-1.046670e+001 -6.004817e+000 -2.321435e+001 201 158 80
-8.643038e+000 5.728510e+000 -2.551438e+001 175 141 63
-9.232085e+000 4.778622e+000 -2.564772e+001 157 114 55
-9.312215e+000 4.676784e+000 -2.580448e+001 103 80 45
-4.658501e+000 3.776714e+000 -2.683600e+001 47 52 38
-2.432750e+000 1.981769e+000 -2.782130e+001 80 95 59
-1.208513e+000 1.177944e+000 -2.231552e+001 157 128 53
-1.080216e+000 1.204646e+000 -2.228428e+001 122 92 33
-5.968202e+000 7.297294e-001 -1.966755e+001 65 78 36
2.050722e+000 9.919269e-001 -2.444126e+001 133 104 38
-1.064183e+001 5.907137e-001 -2.320812e+001 96 81 47
7.396011e+000 -3.416500e-001 -2.806370e+001 119 97 49
7.582082e+000 -9.296751e-002 -2.728949e+001 77 67 53
-1.064209e+001 -4.146327e-001 -2.273533e+001 182 145 85
-7.461255e+000 -5.276046e-001 -2.163977e+001 195 142 26
-7.348064e+000 -1.204543e+000 -2.218350e+001 200 163 49
-3.983110e+000 -1.121830e+000 -2.356458e+001 57 64 33
-9.529968e+000 -2.203305e+000 -1.748105e+001 227 200 58
-8.099857e+000 -2.379882e+000 -1.889666e+001 81 79 41
7.040186e+000 -2.948184e+000 -2.691613e+001 102 76 40
-7.974078e+000 -2.605756e+000 -1.675380e+001 215 200 98
-4.057893e+000 -4.657077e+000 -2.273847e+001 106 133 74
-7.335618e+000 -4.300445e+000 -1.968996e+001 190 145 61
-8.571179e+000 -7.221965e+000 -2.649743e+001 147 149 106
-4.630035e+000 -6.883943e+000 -2.501383e+001 76 82 58
-1.038620e+001 -7.246801e+000 -2.323483e+001 208 185 144
-4.213886e+000 -7.159261e+000 -2.318808e+001 62 72 37
-3.660972e+002 -2.336438e+002 -7.249687e+002 143 134 143
-5.814309e+002 2.644621e+002 -1.261628e+003 171 35 59
-8.793347e+000 5.042976e+000 -2.546757e+001 80 70 53
-8.762157e+000 4.887724e+000 -2.610720e+001 65 60 41
-9.168622e+002 2.522504e+002 -1.856748e+003 88 52 74
-5.671254e+000 1.889148e+000 -1.815892e+001 109 97 49
8.783607e+000 1.963708e+000 -1.833240e+001 106 99 89
-2.036679e+000 1.387320e+000 -2.413033e+001 118 133 97
-5.812641e+000 4.320115e-001 -1.960497e+001 67 75 31
-4.778419e+000 -8.366851e-001 -2.295072e+001 81 89 47
-4.560924e+000 -9.457146e-001 -2.299718e+001 62 68 35
-7.992373e+000 -2.399466e+000 -1.751011e+001 135 119 67
-3.488650e+000 -2.623154e+000 -1.814721e+001 82 95 48
-3.808654e+000 -2.970355e+000 -1.764292e+001 92 106 52
-8.440063e+000 -4.097098e+000 -2.027387e+001 223 168 52
-3.902002e+000 -4.497885e+000 -2.273806e+001 86 113 68
-7.404905e+000 -4.861718e+000 -2.148379e+001 153 125 85
-2.714835e+000 -6.756655e+000 -2.801668e+001 72 66 54
-4.316623e+000 -6.361340e+000 -2.447234e+001 63 68 36
-3.015427e+000 -7.333037e+000 -2.835852e+001 193 192 189
-3.015427e+000 -7.333037e+000 -2.835852e+001 193 192 189
-1.658132e+003 8.120246e+002 -3.710568e+003 201 95 115
-9.096683e+000 4.858726e+000 -2.556130e+001 95 79 51
-9.207681e+000 5.133320e+000 -2.605591e+001 172 131 53
1.411168e+002 -1.315950e+002 6.933605e+002 64 43 88
-7.924179e+000 4.580822e+000 -2.888625e+001 126 141 72
-4.211182e+002 1.297608e+002 -8.505093e+002 182 177 217
-4.136639e+002 1.189605e+002 -8.387974e+002 204 191 226
-4.742029e+002 1.207224e+002 -9.843635e+002 161 65 77
-3.377516e+002 5.783351e+001 -6.522424e+002 75 66 121
-6.669628e+000 6.961503e-001 -1.827173e+001 190 141 49
-7.513943e+000 -1.609339e-001 -2.143760e+001 212 157 36
-9.030525e+000 -1.902305e+000 -1.686574e+001 235 220 93
-8.170682e+000 -2.035378e+000 -1.812525e+001 55 57 35
-4.934377e+000 -2.630651e+000 -2.070753e+001 123 92 33
-2.013629e+000 -4.626785e+000 -2.472670e+001 51 58 40
-3.564136e+000 -4.495838e+000 -2.294090e+001 57 77 40
-8.146253e+000 -4.692354e+000 -1.981582e+001 211 129 32
-7.454054e+000 -4.789712e+000 -1.988311e+001 192 127 31
-3.798746e+000 -6.059882e+000 -2.433209e+001 89 104 65
-1.767357e+000 -5.499265e+000 -2.348572e+001 118 92 59
-4.917395e+000 -6.622308e+000 -2.484736e+001 45 49 32
-4.126005e+000 -6.558007e+000 -2.460310e+001 34 40 28
-3.627705e+000 -8.254634e+000 -2.762979e+001 188 188 185
1.776285e+003 1.146341e+003 3.559596e+003 156 150 160
-5.528843e+002 2.276154e+002 -1.096611e+003 150 139 179
-5.528843e+002 2.276154e+002 -1.096611e+003 150 139 179
-1.048594e+003 4.535216e+002 -2.210087e+003 67 43 79
-7.932908e+002 3.629069e+002 -1.694836e+003 171 127 149
-7.932908e+002 3.629069e+002 -1.694836e+003 171 127 149
-5.751756e+002 1.933438e+002 -1.262097e+003 252 208 231
-7.426156e+002 1.819423e+002 -1.655491e+003 242 179 204
-5.425368e+000 1.543391e+000 -2.041013e+001 62 63 28
-6.492034e+000 9.219188e-001 -1.829134e+001 172 126 46
-6.763282e+000 5.495979e-001 -1.869758e+001 69 53 21
6.884515e+000 1.565671e-001 -2.678599e+001 140 112 54
-6.645116e+000 -5.234481e-001 -2.162566e+001 161 119 32
-7.817189e+000 -9.067589e-001 -2.252705e+001 241 204 72
-7.005414e+000 -1.176165e+000 -2.247766e+001 158 95 22
-3.088938e+000 -2.190003e+000 -1.948177e+001 46 53 35
-7.837032e+000 -2.310656e+000 -1.683618e+001 210 208 104
7.427776e+000 -5.642655e+000 -3.168488e+001 138 119 109
-3.634057e+000 -4.643077e+000 -2.271986e+001 72 94 46
-8.714897e+000 -9.279546e+000 -2.809854e+001 151 161 108
-5.837974e+002 2.743514e+002 -1.233569e+003 64 46 90
-8.789394e+000 5.414481e+000 -2.404608e+001 215 196 64
8.541733e+001 -8.728108e+001 4.243032e+002 54 34 59
-3.292480e+002 1.315392e+002 -7.013737e+002 224 47 78
-6.089855e+000 1.423922e+000 -1.873046e+001 60 54 28
-2.824568e+000 1.821943e+000 -2.600732e+001 38 46 23
-1.120786e+001 7.761037e-001 -2.212563e+001 239 198 56
-7.723828e+000 2.743155e-001 -2.040689e+001 167 144 78
7.585856e+000 2.296540e-001 -2.750440e+001 154 142 128
7.365123e+000 -1.882011e-001 -2.735655e+001 62 52 43
7.818791e+000 -3.415590e-001 -2.809713e+001 160 148 135
-7.959905e+000 -1.686354e+000 -2.390930e+001 88 101 47
-8.432636e+000 -1.551275e+000 -1.758718e+001 193 162 95
-3.250545e+000 -4.022295e+000 -2.157470e+001 35 38 23
-2.678095e+000 -4.993298e+000 -2.451642e+001 52 60 40
-7.246220e+000 -4.974537e+000 -2.050456e+001 159 124 65
-5.074105e+000 -8.833929e+000 -2.421631e+001 70 81 51
-7.329546e+000 3.687075e-001 -2.014942e+001 235 199 78
-6.770533e+000 -1.310318e+000 -2.259757e+001 176 133 39
-4.193172e+000 -6.056890e+000 -2.426498e+001 117 118 86
-4.193172e+000 -6.056890e+000 -2.426498e+001 117 118 86
-4.630512e+000 -7.169092e+000 -2.472466e+001 48 54 40
-3.462464e+002 1.438121e+002 -7.217237e+002 68 47 86
-1.319916e+003 5.763886e+002 -2.990640e+003 230 51 81
-5.176964e+002 1.550312e+002 -1.019934e+003 58 40 80
-6.596052e+000 6.538757e-001 -1.867116e+001 61 55 31
-3.041329e+000 1.250225e+000 -2.544422e+001 63 73 46
-2.051282e+000 1.086448e+000 -2.580071e+001 43 46 29
-7.842940e+000 -3.125417e-001 -2.194227e+001 248 211 71
-5.338679e+000 -1.593860e+000 -2.108601e+001 156 121 38
-5.774687e+000 -2.093169e+000 -2.069558e+001 60 65 28
-5.210763e+000 -1.933116e+000 -2.052965e+001 61 74 27
-5.210763e+000 -1.933116e+000 -2.052965e+001 61 74 27
-5.379878e+000 -2.313848e+000 -2.062271e+001 163 138 46
-3.016864e+000 -2.395884e+000 -1.979793e+001 42 51 30
8.514531e+000 -6.083941e+000 -3.313282e+001 159 149 143
-4.037628e+000 -4.879927e+000 -2.268930e+001 151 145 121
-7.434602e+000 -5.006111e+000 -2.053590e+001 177 139 59
-6.356158e+002 2.199525e+002 -1.381316e+003 246 184 211
-5.954533e+000 1.095606e+000 -1.941044e+001 154 139 91
7.543954e+000 5.272483e-001 -2.699986e+001 171 158 142
-7.097376e+000 -1.309981e-001 -2.107495e+001 191 121 32
-7.890228e+000 -2.158308e+000 -1.934666e+001 65 66 33
-7.989410e+000 -4.897171e+000 -1.976152e+001 205 131 35
-8.207329e+000 -7.026718e-001 -2.205178e+001 82 74 71
-6.441160e+000 8.775321e-001 -1.912426e+001 52 50 29
-9.294413e+000 4.994150e-001 -2.065889e+001 72 66 40
-8.032328e+000 -1.994631e+000 -1.818965e+001 57 57 35
-5.864801e-001 -5.960857e+000 -2.744551e+001 119 95 59
-3.082291e+000 -1.198578e+000 -2.098934e+001 36 40 21
2.757886e-001 -2.719390e-001 1.772234e+000 0 255 0
2.762204e-001 -2.720427e-001 1.722236e+000 255 255 0
2.967518e-001 7.638763e-001 1.469805e+000 255 0 0
2.989985e-001 7.608699e-001 1.419946e+000 255 255 0
