ply
format ascii 1.0
element face 0
property list uchar int vertex_indices
element vertex 873
property float x
property float y
property float z
property uchar diffuse_red
property uchar diffuse_green
property uchar diffuse_blue
end_header
-2.225994e-001 6.071572e-001 -9.182894e+000 214 225 225
-2.546060e-001 7.518377e-001 -9.197024e+000 214 225 225
-7.794503e-002 -4.302800e-001 -8.720319e+000 137 124 141
-1.202743e-002 1.060806e+000 -8.912977e+000 93 81 101
-3.562606e-002 1.591644e+000 -9.013356e+000 86 82 99
3.632085e-001 -3.199442e-001 -8.100449e+000 88 73 96
3.871687e-001 4.583583e-002 -8.110656e+000 96 85 101
-9.340021e-002 6.006717e+000 -9.905479e+000 182 173 153
1.836193e-002 6.174742e+000 -9.731615e+000 186 181 159
-1.540936e+000 3.444024e+000 -1.167089e+001 155 124 79
-1.152979e+000 4.805681e+000 -1.144802e+001 210 228 222
-1.835666e-002 6.129197e+000 -1.214239e+001 41 16 37
-9.362604e-001 4.405218e+000 -1.108827e+001 163 141 93
1.559584e-001 6.276736e+000 -1.194210e+001 36 12 38
-8.297132e-001 1.823297e+000 -1.041121e+001 219 234 234
-7.085759e-001 4.680706e+000 -1.073274e+001 191 169 113
-7.673497e-001 5.504197e+000 -1.089689e+001 171 185 178
-8.371628e-001 -9.152709e-001 -9.778154e+000 81 80 83
-7.435174e-001 1.191437e+000 -1.016220e+001 135 130 148
-7.140096e-001 5.533019e+000 -1.074625e+001 169 167 163
-6.771556e-001 5.595004e+000 -1.076064e+001 208 228 219
-7.415349e-001 -8.242050e-001 -9.673911e+000 218 238 233
-6.813662e-001 2.773050e-002 -9.809092e+000 210 228 231
-5.911461e-001 3.554385e-001 -9.732803e+000 216 229 230
-4.200354e-001 2.524048e+000 -1.003553e+001 200 193 162
-5.043927e-001 3.456022e+000 -1.026464e+001 199 183 147
-1.487499e-001 -2.593519e-001 -8.989524e+000 88 84 95
-2.598135e-001 3.255798e+000 -9.728027e+000 198 187 144
-7.955589e-002 3.499103e-001 -9.033789e+000 100 79 94
-2.004737e-001 3.309124e+000 -9.626522e+000 206 186 153
-1.370294e-001 3.606730e+000 -9.615639e+000 203 195 154
2.337119e-001 -1.571258e-001 -8.455200e+000 90 83 101
1.787048e-001 9.299810e-001 -8.577556e+000 204 220 219
1.642706e-001 9.847770e-001 -8.586035e+000 204 220 219
1.134646e-001 2.497161e+000 -8.924994e+000 84 72 85
3.973052e-001 -4.272279e-001 -7.956781e+000 221 233 233
3.083392e-001 1.292756e-001 -8.244965e+000 202 219 212
2.776728e-001 1.037992e+000 -8.404051e+000 209 227 221
5.467483e-001 -4.457881e-001 -7.752725e+000 211 225 226
5.327304e-001 -3.905015e-001 -7.765160e+000 211 225 226
3.575130e-001 9.551350e-001 -8.253523e+000 86 81 93
3.575130e-001 9.551350e-001 -8.253523e+000 86 81 93
-8.488229e-003 6.037566e+000 -9.791775e+000 87 80 89
6.405240e-001 -3.448898e-001 -7.608523e+000 209 219 221
5.498000e-001 2.855177e-001 -7.866450e+000 207 222 217
3.359045e-002 5.954719e+000 -9.680812e+000 180 175 142
8.469226e-001 -1.432165e+000 -6.831266e+000 79 62 106
-1.754856e+000 3.147803e+000 -1.187982e+001 164 136 95
-8.839588e-001 4.413308e+000 -1.093348e+001 87 65 61
-9.965097e-001 -1.764002e-001 -1.016614e+001 219 230 232
-8.035222e-001 4.589927e+000 -1.087143e+001 180 164 113
-7.355463e-001 2.802012e+000 -1.047950e+001 121 89 81
-7.959024e-001 3.126345e+000 -1.060054e+001 140 120 70
-4.785758e-001 2.520114e+000 -9.949119e+000 87 82 112
-1.854406e-001 9.616651e-001 -9.246993e+000 114 78 88
-6.914275e-001 6.593085e+000 -1.026854e+001 142 128 99
-2.762911e-001 5.680568e+000 -1.016553e+001 197 183 129
-1.095943e-001 3.056144e+000 -9.382844e+000 195 187 148
-2.251144e-001 6.373982e+000 -1.034089e+001 131 112 113
-5.766190e-002 3.221600e+000 -9.258596e+000 192 160 104
-4.505392e-002 3.532410e+000 -9.382919e+000 202 189 150
-5.911630e-002 4.194669e+000 -9.565574e+000 200 189 147
1.686563e-001 2.543135e+000 -8.850414e+000 213 223 222
8.451342e-001 -1.583926e+000 -7.005267e+000 151 152 189
8.451342e-001 -1.583926e+000 -7.005267e+000 151 152 189
-1.380966e+000 4.786042e+000 -1.183750e+001 191 180 162
-1.589010e+000 3.051011e+000 -1.169330e+001 96 73 67
-1.299405e+000 3.223231e+000 -1.133198e+001 157 127 74
-9.533833e-001 6.830516e-001 -1.032803e+001 150 160 165
-8.734989e-001 2.496295e+000 -1.057859e+001 180 156 110
-5.174901e-001 2.128138e+000 -1.012124e+001 81 72 94
-5.174901e-001 2.128138e+000 -1.012124e+001 81 72 94
-4.749385e-001 3.434626e+000 -1.014716e+001 166 144 117
-1.229541e-001 5.905607e-001 -8.939868e+000 103 82 99
-1.229541e-001 5.905607e-001 -8.939868e+000 103 82 99
-1.587079e-001 2.036717e+000 -9.308944e+000 83 78 97
-5.603175e-002 -6.989958e-001 -8.301832e+000 84 70 105
2.805594e-001 -5.289324e-001 -8.137670e+000 86 65 101
-7.418779e-003 4.612600e+000 -9.483773e+000 95 83 95
-1.606804e-002 5.804704e+000 -9.723838e+000 83 74 91
-2.231743e-002 6.243867e+000 -9.765610e+000 156 148 125
-1.579500e+000 2.742088e+000 -1.161111e+001 154 126 89
-1.327187e+000 5.884875e+000 -1.159627e+001 162 161 158
-1.094254e+000 4.490533e+000 -1.133135e+001 90 66 66
-5.446238e-001 2.663948e+000 -1.021547e+001 204 191 156
-3.867432e-001 5.176889e+000 -1.015251e+001 125 87 74
-3.867432e-001 5.176889e+000 -1.015251e+001 125 87 74
-2.433316e-002 3.742526e+000 -9.259898e+000 116 83 78
4.119830e-001 -3.213803e-001 -7.604002e+000 89 78 110
-5.789365e-001 4.548968e+000 -1.048595e+001 194 173 118
-4.371223e-001 5.042306e+000 -1.030949e+001 100 70 59
-1.218851e+000 4.268980e+000 -1.136892e+001 196 188 169
-7.497521e-001 5.327714e+000 -1.084727e+001 190 209 205
-6.815103e-001 3.581648e+000 -1.052890e+001 165 145 102
-3.117258e-001 5.465371e+000 -1.020715e+001 204 193 147
1.594561e-001 3.308714e+000 -8.949646e+000 78 66 68
2.500226e-001 9.884037e-001 -8.092949e+000 113 90 110
1.158518e-001 4.167141e+000 -9.148219e+000 199 189 154
1.291643e-001 4.134075e+000 -9.142746e+000 199 189 154
-7.065463e+000 -7.404057e+001 -1.483392e+001 152 151 133
-7.065463e+000 -7.404057e+001 -1.483392e+001 152 151 133
-8.115480e-001 -6.054189e+001 -1.162320e+000 174 176 155
2.648254e+000 -6.258397e+001 -2.565731e+000 141 133 116
5.207416e-001 -6.174503e+001 6.647835e-001 122 117 105
2.889041e+000 6.760850e+000 -1.220184e+001 122 84 34
1.482450e+000 5.165515e+000 -1.421069e+001 88 49 23
6.669031e+000 -5.773088e+001 8.594409e+000 124 144 159
3.017898e+000 -5.779410e+001 4.926708e+000 173 132 103
3.843401e+000 -6.280030e+001 6.753418e+000 164 126 97
5.440161e+000 -6.361357e+001 5.665726e+000 174 101 61
1.221513e+001 -5.954951e+001 1.902424e+000 137 123 94
5.545424e+000 -5.847149e+001 7.185413e+000 152 151 146
5.188141e+000 -5.879477e+001 8.185255e+000 70 92 113
8.820349e+000 -5.978799e+001 7.897006e+000 143 129 110
6.821317e+000 -6.092358e+001 3.295752e+000 141 134 118
6.821317e+000 -6.092358e+001 3.295752e+000 141 134 118
4.245785e+000 -6.099203e+001 6.194278e+000 175 107 69
6.984860e+000 -5.958569e+001 3.732778e+000 84 95 99
6.984860e+000 -5.958569e+001 3.732778e+000 84 95 99
5.807486e+000 -5.838432e+001 8.271867e+000 138 150 150
2.867030e+000 -6.254195e+001 5.012038e+000 166 102 59
2.841887e+000 -6.225197e+001 4.957340e+000 166 102 59
4.350940e+000 -6.005615e+001 4.873487e+000 178 170 158
1.113883e+001 -5.976597e+001 1.765364e+000 157 147 121
1.154319e+001 -6.009165e+001 4.514929e+000 156 142 115
-1.690644e+000 -6.414155e+001 -3.881339e+000 101 102 92
5.778394e+000 -6.099031e+001 3.102544e+000 91 104 110
6.638876e+000 -6.120252e+001 1.665486e+000 147 125 93
6.202444e+000 -6.038624e+001 4.116615e+000 90 93 100
-1.780826e+000 3.257045e+000 -1.188952e+001 171 145 109
-1.411417e+000 3.909220e+000 -1.155307e+001 194 190 171
-1.339505e+000 3.734497e+000 -1.146166e+001 121 86 56
-1.125111e+000 4.355486e+000 -1.132630e+001 138 110 76
-3.336179e-001 -1.091456e+000 -8.882620e+000 171 161 172
8.935276e-001 6.762768e+000 -1.137551e+001 89 63 73
-7.926380e-001 5.486945e+000 -1.099224e+001 114 105 100
-4.873915e-001 2.587738e+000 -1.003291e+001 202 185 166
-2.930027e-001 5.252246e+000 -1.006787e+001 162 124 93
-2.380788e-001 5.499556e+000 -1.002470e+001 189 166 96
-2.380788e-001 5.499556e+000 -1.002470e+001 189 166 96
1.454519e+000 5.664669e+000 -1.421994e+001 171 127 63
-4.464068e-001 4.472509e+000 -1.025918e+001 157 105 68
-1.665526e-001 5.364852e+000 -9.875384e+000 200 190 148
5.959387e-001 6.305095e+000 -1.170799e+001 45 16 44
-1.755287e+000 4.498870e+000 -1.218641e+001 186 179 161
-1.593630e+000 4.514739e+000 -1.198677e+001 187 179 161
-1.595319e+000 4.581188e+000 -1.198955e+001 92 83 70
-1.357379e+000 2.412068e+000 -1.122141e+001 145 122 88
-1.234886e+000 5.184115e+000 -1.155838e+001 175 181 181
-1.109393e+000 6.716203e-001 -1.053965e+001 99 95 110
-1.084150e+000 2.635548e+000 -1.093822e+001 93 62 44
-1.066512e+000 5.249516e+000 -1.130285e+001 200 217 207
-9.971224e-001 4.992610e+000 -1.119386e+001 141 157 154
-9.971224e-001 4.992610e+000 -1.119386e+001 141 157 154
-1.004829e+000 5.161978e+000 -1.123721e+001 204 217 213
-9.710766e-001 5.326660e+000 -1.116919e+001 202 220 214
-7.321433e-001 1.519000e+000 -1.023594e+001 93 92 108
-7.321433e-001 1.519000e+000 -1.023594e+001 93 92 108
-8.614116e-001 4.508381e+000 -1.094388e+001 175 153 105
-7.817958e-001 5.137484e+000 -1.089864e+001 204 220 219
-4.860648e-001 -1.007464e+000 -9.258003e+000 93 88 98
-5.342201e-001 3.165112e+000 -1.023473e+001 204 193 150
-4.654260e-001 3.668795e+000 -1.019735e+001 165 110 69
-2.606097e-001 -8.778714e-001 -8.869269e+000 106 94 105
-3.124908e-001 2.693133e+000 -9.767615e+000 127 101 76
-3.889916e-001 3.141139e+000 -1.000143e+001 202 200 162
-4.002734e-001 3.107158e+000 -9.927313e+000 187 151 119
-3.649948e-001 3.151691e+000 -9.900493e+000 188 147 110
-3.806949e-001 3.346532e+000 -9.941439e+000 214 196 156
-3.921405e-001 3.496420e+000 -1.002331e+001 152 118 90
-1.563354e-001 3.371427e+000 -9.509725e+000 175 126 101
-1.728412e+000 4.553399e+000 -1.215259e+001 189 182 164
-1.728412e+000 4.553399e+000 -1.215259e+001 189 182 164
-1.450882e+000 3.071347e+000 -1.140683e+001 93 72 56
-1.381648e+000 4.288321e+000 -1.166732e+001 185 178 162
-1.256524e+000 4.425256e+000 -1.152889e+001 79 71 63
-1.085542e+000 2.794524e+000 -1.097980e+001 124 75 60
-9.681703e-001 1.538425e+000 -1.048144e+001 76 74 92
-6.213854e-001 1.347276e-001 -9.766712e+000 201 217 215
-7.221203e-001 3.621229e+000 -1.058605e+001 198 184 135
-8.034425e-001 4.979012e+000 -1.092352e+001 141 113 79
-7.742061e-001 5.483774e+000 -1.088897e+001 201 221 215
-4.377800e-001 9.271207e-001 -9.636193e+000 106 86 95
-7.066644e-001 5.003464e+000 -1.061570e+001 89 64 58
-5.595758e-001 5.493832e+000 -1.060394e+001 187 201 194
-6.208987e-001 5.719229e+000 -1.066660e+001 190 197 172
-3.019647e-001 3.064384e+000 -9.746810e+000 140 107 72
-2.534667e-001 3.343903e+000 -9.846620e+000 196 192 160
-3.524894e-001 3.463125e+000 -9.924195e+000 195 171 143
-4.314045e-001 5.237950e+000 -1.033191e+001 141 104 84
-1.573178e-001 3.133648e+000 -9.472959e+000 127 89 64
-1.634687e-001 3.148324e+000 -9.474592e+000 127 89 64
-3.508903e-001 4.949490e+000 -1.010492e+001 198 173 117
-7.493300e-002 3.023617e+000 -9.303253e+000 200 177 124
-3.080950e-001 5.127794e+000 -1.003991e+001 188 157 111
-2.088456e-002 3.654343e+000 -9.320550e+000 195 181 141
-2.088456e-002 3.654343e+000 -9.320550e+000 195 181 141
6.200593e-001 -8.716011e-001 -7.490670e+000 119 115 134
-1.345143e+000 5.217485e+000 -1.167130e+001 107 101 103
-9.032170e-001 2.476239e+000 -1.065213e+001 130 69 66
-8.791371e-001 4.469031e+000 -1.094652e+001 93 67 69
-7.137848e-001 -1.178821e+000 -9.463474e+000 206 208 216
-7.422080e-001 3.444545e+000 -1.058992e+001 167 134 116
-7.904077e-001 5.212262e+000 -1.091001e+001 195 216 211
-5.802235e-001 -1.088253e+000 -9.273622e+000 86 83 85
-5.766398e-001 8.403485e-001 -9.842273e+000 114 80 104
-5.547209e-001 1.169794e+000 -9.896774e+000 99 92 107
-5.547209e-001 1.169794e+000 -9.896774e+000 99 92 107
-6.603216e-001 5.182181e+000 -1.070784e+001 205 226 216
-3.450642e-001 -7.852406e-001 -9.050766e+000 93 83 93
-6.170982e-001 5.216819e+000 -1.064243e+001 213 230 224
-8.193802e-002 3.213826e+000 -9.331006e+000 202 181 132
-1.349583e+000 4.746382e+000 -1.169948e+001 83 76 66
-1.096782e+000 3.205454e+000 -1.108042e+001 194 169 128
-9.627796e-001 4.109413e+000 -1.105409e+001 174 149 96
-1.004354e+000 4.920793e+000 -1.119351e+001 209 230 215
-7.664031e-001 4.296953e+000 -1.076741e+001 170 142 126
-7.664031e-001 4.296953e+000 -1.076741e+001 170 142 126
-6.306875e-001 2.930612e+000 -1.034031e+001 166 127 73
-3.236802e-001 1.125291e+000 -9.480089e+000 89 78 83
-5.164212e-001 3.936872e+000 -1.030068e+001 142 94 61
-5.008179e-001 3.898765e+000 -1.030027e+001 142 94 61
-2.513247e-001 1.037033e+000 -9.348296e+000 204 220 220
-4.400043e-001 4.352357e+000 -1.024018e+001 167 130 85
-4.926437e-001 4.461034e+000 -1.031817e+001 149 106 61
-5.451328e-001 4.876376e+000 -1.043059e+001 181 155 98
-3.995299e-001 5.116870e+000 -1.021765e+001 179 158 103
1.611605e-001 -7.088122e-001 -8.199402e+000 106 84 113
-3.497061e-001 5.106130e+000 -1.012644e+001 173 138 94
3.659891e-001 -6.292401e-001 -7.941914e+000 86 72 93
5.786728e-001 -4.331687e-001 -7.652269e+000 92 79 97
3.496510e-001 1.630742e+000 -8.386432e+000 211 216 219
-3.753291e-002 4.857067e+000 -9.558202e+000 84 77 96
-1.126239e-001 5.130487e+000 -9.749789e+000 199 174 133
-1.126239e-001 5.130487e+000 -9.749789e+000 199 174 133
-1.703671e+000 5.671657e+000 -1.205175e+001 126 123 132
-1.340374e+000 3.681042e+000 -1.141887e+001 149 112 83
-1.165603e+000 3.086705e+000 -1.109179e+001 95 72 68
-1.041616e+000 2.332987e+000 -1.078740e+001 206 194 156
-6.042826e-001 1.469007e+000 -9.979992e+000 213 224 228
-6.206207e-001 1.619573e+000 -1.006413e+001 90 86 105
-6.683934e-001 5.433071e+000 -1.075682e+001 156 156 155
-5.891384e-001 5.347734e+000 -1.063272e+001 186 205 201
-2.475559e-001 3.143778e+000 -9.645185e+000 120 95 65
-1.720403e-001 4.299968e+000 -9.755126e+000 203 176 126
-9.618591e-002 5.060840e+000 -9.702796e+000 86 74 92
-1.546334e-001 5.785271e+000 -9.935052e+000 198 183 134
3.094493e-004 5.869268e+000 -9.734419e+000 84 75 92
-1.821240e+000 4.096570e+000 -1.214065e+001 93 85 80
-1.337005e+000 5.944001e+000 -1.182301e+001 89 77 79
-1.349613e+000 5.941353e+000 -1.177051e+001 124 118 120
-1.188117e+000 3.897710e+000 -1.135186e+001 172 143 95
-8.194836e-001 4.451883e+000 -1.084131e+001 93 75 65
-1.225615e-001 -9.738939e-001 -8.426858e+000 71 64 97
-2.374205e-001 1.318014e+000 -9.337817e+000 116 93 101
-5.687826e-002 2.458110e+000 -9.397855e+000 74 73 68
-5.687826e-002 2.458110e+000 -9.397855e+000 74 73 68
-1.475694e-002 3.384163e+000 -9.264042e+000 102 70 58
-3.002630e-001 5.735397e+000 -1.017188e+001 199 183 131
9.972450e-002 3.686028e+000 -9.294352e+000 199 190 149
2.895578e-002 6.100644e+000 -9.684391e+000 88 82 99
-1.621960e+000 5.738209e+000 -1.194083e+001 159 162 167
-1.575814e+000 5.841154e+000 -1.194919e+001 82 77 81
-1.590339e+000 3.045120e+000 -1.169124e+001 95 74 71
-1.349163e+000 5.122695e+000 -1.206938e+001 153 158 161
-1.534760e+000 3.329379e+000 -1.160654e+001 91 68 63
-1.534760e+000 3.329379e+000 -1.160654e+001 91 68 63
-9.395568e-001 2.614217e+000 -1.073758e+001 107 72 61
-7.988621e-001 3.398736e+000 -1.065926e+001 97 77 66
-8.109887e-001 5.154513e+000 -1.091701e+001 178 188 189
-7.912012e-001 5.573427e+000 -1.096437e+001 118 111 103
-1.654061e+000 4.409395e+000 -1.200668e+001 197 187 175
-1.632534e+000 4.635784e+000 -1.212483e+001 186 180 164
-1.421631e+000 4.588976e+000 -1.173037e+001 194 182 167
-1.170999e+000 3.306379e+000 -1.117148e+001 195 174 121
-9.719939e-001 3.429354e+000 -1.098151e+001 160 136 90
-6.805610e-001 1.536722e+000 -1.010743e+001 80 77 106
-6.889304e-001 3.857308e+000 -1.052835e+001 198 182 136
-3.857582e-001 3.118034e+000 -9.806606e+000 172 146 89
-4.135957e-002 6.323411e+000 -9.870548e+000 91 85 113
1.205703e-001 5.750127e-001 -8.649341e+000 86 73 99
6.607459e-001 6.582271e+000 -1.149430e+001 43 15 43
-1.217823e+000 3.592543e+000 -1.134986e+001 102 83 73
-5.073379e-001 3.035334e+000 -1.006291e+001 200 192 156
-1.529617e+000 4.639155e+000 -1.195384e+001 199 188 168
-1.261430e+000 5.236586e+000 -1.167088e+001 121 112 111
-1.062933e+000 4.852089e+000 -1.139702e+001 209 226 225
-7.520423e-001 5.331547e+000 -1.084752e+001 192 211 209
4.080634e-001 6.068689e+000 -1.188104e+001 49 28 33
-3.460998e-002 5.473878e+000 -9.765557e+000 205 195 159
-6.057079e-001 5.403081e+000 -1.063654e+001 202 218 215
-7.837521e-001 4.530770e+000 -1.074347e+001 127 99 85
3.333388e+000 -6.230483e+001 -1.438170e+000 146 146 134
1.339964e-001 2.358220e+000 -9.088247e+000 88 78 87
8.546909e+000 -5.608946e+001 1.121645e+001 106 132 151
5.082866e+000 -5.749869e+001 8.528532e+000 140 149 150
8.927591e+000 -5.699752e+001 1.368142e+001 144 140 136
5.779911e+000 -5.825277e+001 8.979140e+000 73 99 129
1.066393e+001 -5.917816e+001 6.923050e+000 130 109 85
7.603026e+000 -5.701491e+001 9.919638e+000 105 132 155
7.457003e+000 -5.600351e+001 1.014377e+001 76 111 139
9.301324e+000 -5.651645e+001 1.172711e+001 77 100 128
1.473416e+001 -5.498034e+001 1.198967e+001 163 143 126
1.516099e+001 -5.424135e+001 1.205036e+001 105 85 69
2.916632e+000 -6.189920e+001 4.224047e+000 162 97 57
2.976367e+000 -6.008738e+001 5.999196e+000 138 94 80
3.787993e+000 -5.875838e+001 5.157790e+000 155 96 60
6.595816e+000 -5.739167e+001 6.979230e+000 146 142 130
6.595816e+000 -5.739167e+001 6.979230e+000 146 142 130
5.815294e+000 -5.698505e+001 9.258112e+000 144 148 154
7.100856e+000 -5.756837e+001 8.883650e+000 73 96 138
9.124834e+000 -5.783427e+001 7.454481e+000 74 66 55
6.456368e+000 -5.680450e+001 9.493702e+000 48 91 132
7.668306e+000 -5.760598e+001 9.517509e+000 53 99 133
1.010501e+001 -5.805025e+001 7.490132e+000 163 154 138
7.916077e+000 -5.554637e+001 1.167558e+001 146 147 143
7.937523e+000 -5.650270e+001 1.127287e+001 74 108 141
7.937523e+000 -5.650270e+001 1.127287e+001 74 108 141
9.260115e+000 -5.680326e+001 1.120009e+001 153 151 139
9.365336e+000 -5.472228e+001 1.294291e+001 150 152 156
1.001444e+001 -5.473843e+001 1.211799e+001 144 143 143
1.341998e+001 -5.650977e+001 1.062027e+001 115 84 64
1.459242e+001 -5.605642e+001 9.963350e+000 108 79 66
1.459242e+001 -5.605642e+001 9.963350e+000 108 79 66
1.058537e+001 -5.340855e+001 1.526461e+001 97 118 123
5.175505e+000 -5.776295e+001 5.170453e+000 161 93 54
7.876841e+000 -5.721330e+001 8.727815e+000 154 146 144
9.601243e+000 -6.008410e+001 9.014886e+000 153 137 117
1.389075e+001 -5.981947e+001 6.678133e+000 158 144 118
1.389075e+001 -5.981947e+001 6.678133e+000 158 144 118
9.210148e+000 -5.639439e+001 1.015775e+001 149 146 139
1.815056e+000 -6.139224e+001 4.209424e+000 151 125 92
7.607523e+000 -5.915962e+001 8.309638e+000 150 147 143
1.010442e+001 -6.031442e+001 7.328088e+000 157 149 128
6.933174e+000 -5.709771e+001 1.062239e+001 159 153 136
6.843729e+000 -5.648906e+001 1.043824e+001 159 153 136
9.160963e+000 -5.433638e+001 1.146123e+001 114 128 153
1.150454e+001 -5.521636e+001 1.163082e+001 158 149 120
6.349485e+000 -5.865805e+001 3.932694e+000 86 97 104
1.241188e+001 -5.806031e+001 3.462273e+000 138 113 79
1.204545e+001 -6.036205e+001 6.574517e+000 89 118 98
6.978536e+000 -5.744108e+001 9.383088e+000 85 114 154
8.156446e+000 -5.607496e+001 1.047627e+001 70 109 139
1.425682e+001 -5.553815e+001 1.137845e+001 164 145 128
3.791590e+000 -6.246847e+001 4.050958e+000 172 144 114
-1.725586e+000 4.109129e+000 -1.203885e+001 67 60 50
-7.579674e-001 -1.251555e+000 -9.480405e+000 154 151 158
-5.140397e-001 2.603763e+000 -1.008481e+001 119 90 74
-5.468561e-001 4.412058e+000 -1.040819e+001 158 122 70
-1.058660e+000 3.338819e+000 -1.091472e+001 193 161 102
-6.818133e-001 5.226104e+000 -1.074784e+001 134 148 148
-1.304120e-001 4.283277e+000 -9.686067e+000 196 178 122
5.912252e-001 -1.179287e+000 -7.273503e+000 138 136 178
1.529649e+000 5.550330e+000 -1.392408e+001 114 74 39
1.535145e+000 5.656630e+000 -1.397093e+001 166 126 67
1.733666e+000 6.191853e+000 -1.371378e+001 215 180 122
-1.774934e+000 3.336922e+000 -1.189181e+001 126 96 63
-1.211168e+000 2.816809e+000 -1.112696e+001 126 78 60
-1.181519e+000 3.901467e+000 -1.134147e+001 168 141 89
-1.277042e+000 4.454229e+000 -1.148699e+001 179 173 157
-1.030608e+000 2.710867e+000 -1.087663e+001 176 137 114
-7.496046e-001 -1.284992e+000 -9.473129e+000 158 156 166
-9.123635e-001 1.617279e+000 -1.047709e+001 95 93 104
-9.167151e-001 3.422376e+000 -1.083533e+001 168 154 108
-1.056942e+000 4.753805e+000 -1.127940e+001 190 175 125
-1.123567e+000 5.063990e+000 -1.140032e+001 203 226 217
-8.063420e-001 3.482997e+000 -1.071240e+001 175 146 99
-6.495996e-001 2.043785e+000 -1.017059e+001 114 80 98
-3.735824e-001 9.935120e-001 -9.525334e+000 82 77 81
-4.973053e-001 3.367384e+000 -1.030266e+001 208 191 147
-2.732459e-001 2.262067e+000 -9.617543e+000 106 99 105
-4.520343e-001 3.402826e+000 -1.011627e+001 171 141 115
-6.921778e-001 5.382538e+000 -1.080523e+001 208 221 219
-2.708404e-002 1.291894e+000 -8.999283e+000 97 93 107
-2.560611e-001 2.736833e+000 -9.672414e+000 104 77 59
-4.852958e-001 4.809884e+000 -1.033567e+001 162 133 69
2.268704e-002 4.089866e+000 -9.037320e+000 83 70 79
-1.827564e+000 4.036563e+000 -1.214983e+001 78 74 65
-1.809114e+000 4.377588e+000 -1.227913e+001 195 189 173
-1.751032e+000 3.460479e+000 -1.196085e+001 160 132 98
-1.565683e+000 4.204000e+000 -1.191480e+001 86 78 67
-1.456136e+000 3.860418e+000 -1.160875e+001 194 185 164
-1.150703e+000 2.783417e+000 -1.105747e+001 186 140 114
-1.276761e+000 3.845665e+000 -1.140340e+001 164 131 82
-9.861269e-001 8.239376e-001 -1.037120e+001 95 93 104
-1.085846e+000 1.455837e+000 -1.059895e+001 81 72 89
-1.088950e+000 2.953977e+000 -1.099271e+001 189 158 140
-1.020321e+000 2.823249e+000 -1.087981e+001 111 70 52
-7.240464e-001 -9.455281e-001 -9.522105e+000 98 96 101
-7.708674e-001 1.653030e+000 -1.028426e+001 205 212 214
-8.728485e-001 2.412050e+000 -1.052140e+001 207 183 127
-8.575301e-001 2.503356e+000 -1.057619e+001 177 150 103
-9.059426e-001 3.004013e+000 -1.073361e+001 171 127 102
-6.679321e-001 1.010603e+000 -1.001458e+001 106 83 103
-6.119435e-001 7.885477e-001 -9.870019e+000 202 220 222
-7.781306e-001 3.023374e+000 -1.060009e+001 204 190 141
-8.184852e-001 3.111694e+000 -1.065386e+001 151 113 73
-8.184852e-001 3.111694e+000 -1.065386e+001 151 113 73
-8.727445e-001 3.491315e+000 -1.080155e+001 143 119 73
-9.105230e-001 4.286960e+000 -1.099026e+001 131 104 83
-3.831172e-001 1.879116e+000 -9.730742e+000 80 76 85
-8.553984e-001 5.375088e+000 -1.103057e+001 185 201 191
-5.458721e-002 -9.110058e-001 -8.447913e+000 159 155 169
-2.672085e-001 1.435229e+000 -9.412561e+000 86 81 89
-2.186044e-001 1.434785e+000 -9.350466e+000 106 85 88
-4.943283e-001 3.425683e+000 -1.017531e+001 179 163 123
-3.791959e-001 3.294040e+000 -9.959707e+000 204 189 151
-6.709531e-001 5.002552e+000 -1.071530e+001 99 68 55
-5.429170e-001 4.890334e+000 -1.043757e+001 179 151 87
-3.768174e-001 4.618608e+000 -1.012677e+001 205 180 124
-5.480544e-002 3.240025e+000 -9.231111e+000 177 143 81
-1.885170e+000 3.360698e+000 -1.203700e+001 126 106 82
-1.770011e+000 4.084702e+000 -1.210067e+001 194 186 173
-1.083027e+000 3.369174e-001 -1.037782e+001 81 78 92
-1.422090e+000 5.833538e+000 -1.180540e+001 127 125 130
-9.144209e-001 -1.270315e+000 -9.659193e+000 84 70 77
-1.054893e+000 8.802944e-001 -1.046498e+001 209 225 232
-1.064617e+000 9.178605e-001 -1.046969e+001 209 225 232
-9.746681e-001 9.402464e-001 -1.038266e+001 211 221 228
-1.077565e+000 1.809362e+000 -1.072397e+001 211 223 228
-8.746319e-001 -1.217577e+000 -9.645310e+000 188 188 193
-8.926630e-001 1.818938e+000 -1.045022e+001 91 76 89
-9.670503e-001 2.883409e+000 -1.081418e+001 132 87 67
-6.742527e-001 -1.139656e+000 -9.395180e+000 87 80 87
-7.229370e-001 6.434189e-001 -9.998209e+000 213 226 230
-7.050702e-001 7.554182e-001 -9.988856e+000 90 72 97
-7.912392e-001 1.510506e+000 -1.024450e+001 211 220 225
-9.036572e-001 3.050148e+000 -1.077911e+001 124 82 60
-6.496517e-001 4.042021e-001 -9.811661e+000 110 82 96
-5.960219e-001 5.852034e-001 -9.834372e+000 93 82 101
-6.551431e-001 1.097219e+000 -1.000198e+001 203 216 222
-7.311044e-001 1.914500e+000 -1.022750e+001 110 93 119
-8.442755e-001 3.805706e+000 -1.081395e+001 148 111 79
-4.201554e-001 -1.013473e+000 -9.047393e+000 105 86 97
-7.690534e-001 3.220445e+000 -1.059383e+001 198 176 118
-8.848441e-001 4.264138e+000 -1.095192e+001 96 73 58
-2.800907e-001 1.760956e-002 -9.179378e+000 88 79 80
-4.781540e-001 1.186534e+000 -9.744485e+000 106 75 96
-1.764065e-001 -5.205683e-001 -8.818297e+000 99 85 102
-2.654661e-001 8.872146e-001 -9.341077e+000 88 79 74
-3.941686e-001 1.331137e+000 -9.632292e+000 219 224 230
-5.641152e-001 3.061068e+000 -1.021740e+001 199 188 143
-6.777399e-001 4.242324e+000 -1.063614e+001 116 76 59
-7.641337e-001 4.511127e+000 -1.071335e+001 95 67 51
-3.347827e-001 2.173358e+000 -9.722259e+000 82 79 90
-6.528764e-001 4.322422e+000 -1.055000e+001 177 139 101
-6.499784e-001 4.392415e+000 -1.057925e+001 126 79 63
-1.443450e-001 1.502132e+000 -9.246014e+000 215 217 223
-2.690246e-001 2.134181e+000 -9.589575e+000 79 82 85
-2.155524e-001 2.258389e+000 -9.504164e+000 97 78 84
-3.711324e-001 3.252740e+000 -9.916857e+000 120 76 57
-4.509664e-002 1.241761e+000 -9.021586e+000 202 215 221
-1.150229e-002 1.293138e+000 -8.953333e+000 210 213 222
-5.834035e-002 1.472009e+000 -9.059466e+000 92 85 103
-7.413158e-002 1.650870e+000 -9.156589e+000 84 80 91
1.285647e-001 5.071797e-001 -8.546636e+000 200 201 209
2.385308e-002 1.706968e+000 -8.983195e+000 78 78 86
1.535532e-001 1.419382e+000 -8.701326e+000 214 220 223
1.453374e-001 1.803787e+000 -8.770956e+000 209 219 221
-3.899106e-001 4.484137e+000 -1.010682e+001 180 145 89
-3.559947e-001 4.477949e+000 -1.006696e+001 177 138 83
-5.039430e-001 5.446460e+000 -1.048561e+001 192 175 116
2.918145e-001 1.565509e+000 -8.467814e+000 201 214 214
1.992984e-001 1.849711e+000 -8.678504e+000 206 216 220
2.093229e-001 1.927362e+000 -8.661175e+000 83 75 86
-2.842559e-001 5.087925e+000 -9.996142e+000 132 90 52
-1.902321e+000 3.479716e+000 -1.207001e+001 112 101 105
-1.698045e+000 3.111171e+000 -1.179589e+001 94 73 68
-1.369803e+000 2.593588e+000 -1.130332e+001 150 128 86
-1.307488e+000 3.588562e+000 -1.142594e+001 149 112 79
-9.301642e-001 5.704731e-001 -1.024091e+001 219 227 234
-1.057302e+000 1.450084e+000 -1.064316e+001 218 227 231
-8.185918e-001 1.646122e+000 -1.031608e+001 86 74 93
-7.866184e-001 1.867483e+000 -1.034611e+001 83 78 90
-9.324507e-001 2.705051e+000 -1.073055e+001 104 74 64
-3.798659e-001 1.027383e+000 -9.575216e+000 92 78 85
-3.929888e-001 1.060511e+000 -9.580079e+000 92 78 85
-4.758135e-001 2.010626e+000 -9.919413e+000 81 79 95
-1.060524e-001 -4.217276e-001 -8.731296e+000 125 104 123
-2.456124e-001 1.019647e+000 -9.344579e+000 208 221 221
-4.832169e-001 3.507139e+000 -1.018289e+001 116 75 55
-1.117534e-001 1.472106e+000 -9.173677e+000 92 88 94
-1.117534e-001 1.472106e+000 -9.173677e+000 92 88 94
-4.183749e-001 3.483150e+000 -1.007773e+001 147 107 80
3.270185e-001 -2.096783e-001 -8.131904e+000 96 87 107
3.699961e+000 -7.526938e+000 -6.815230e+000 101 92 105
1.157758e-001 1.477108e+000 -8.781346e+000 94 86 99
1.157758e-001 1.477108e+000 -8.781346e+000 94 86 99
8.815553e-002 1.650155e+000 -8.854659e+000 81 77 88
-5.330117e-001 5.512596e+000 -1.054550e+001 213 234 225
5.916440e-001 -3.933735e-001 -7.533043e+000 112 100 122
5.288600e-001 -8.982057e-002 -7.809477e+000 106 98 111
-3.779855e-001 5.162522e+000 -1.018640e+001 96 65 40
-2.770355e-001 5.201626e+000 -9.977358e+000 195 169 113
-1.405536e+000 3.650189e+000 -1.151319e+001 162 129 84
-1.212289e+000 2.657193e+000 -1.108941e+001 199 186 145
-7.555715e-001 1.787546e+000 -1.027085e+001 212 231 226
-2.545924e-001 -9.634949e-001 -8.787195e+000 201 204 213
-9.174963e-001 5.183566e+000 -1.109404e+001 209 228 222
-8.754425e-001 5.200542e+000 -1.102428e+001 205 225 219
-3.310512e-001 1.146399e+000 -9.485171e+000 81 68 69
-4.495172e-001 2.077577e+000 -9.865621e+000 207 227 225
-2.927722e-001 2.208968e+000 -9.676121e+000 210 226 225
-7.219822e-001 5.052294e+000 -1.078899e+001 102 76 63
3.788797e-002 -6.760957e-001 -8.391553e+000 130 83 117
1.233801e-001 -7.242843e-001 -8.283789e+000 206 211 217
1.487314e-001 -4.638576e-001 -8.385995e+000 126 85 115
2.773560e-003 9.844837e-001 -8.897031e+000 96 81 102
-3.890501e-003 1.464161e+000 -8.984668e+000 87 79 102
-2.817970e-001 4.177226e+000 -9.930167e+000 181 154 96
-5.785845e-001 5.693000e+000 -1.061159e+001 213 228 220
4.371158e-001 4.329975e-001 -8.029777e+000 98 87 101
8.509899e-002 2.607267e+000 -8.954962e+000 79 71 78
-1.844475e+000 4.352356e+000 -1.231568e+001 105 99 87
-1.041613e+000 3.372159e+000 -1.110896e+001 152 128 82
-8.705899e-001 1.811446e-001 -1.005327e+001 212 228 228
-1.043341e+000 3.283512e+000 -1.101538e+001 84 64 55
-1.099890e+000 4.058675e+000 -1.124475e+001 197 193 169
-1.185239e+000 5.163424e+000 -1.148922e+001 179 198 194
-6.819013e-001 4.778544e-001 -9.883164e+000 104 78 101
-3.059214e-001 5.618911e-001 -9.280305e+000 87 81 85
-3.059214e-001 5.618911e-001 -9.280305e+000 87 81 85
-2.291827e-001 1.291507e+000 -9.329790e+000 107 78 83
-5.207898e-001 3.504186e+000 -1.026849e+001 202 187 146
-7.122149e-001 4.686659e+000 -1.073323e+001 197 180 125
1.062927e-001 -3.697728e-002 -8.561336e+000 208 223 220
3.923745e-001 -4.275950e-001 -7.953481e+000 215 226 228
1.331274e-001 7.788573e-001 -8.617366e+000 73 63 89
-5.354986e-002 1.900316e+000 -9.164680e+000 208 228 225
-5.935751e-001 5.258331e+000 -1.059139e+001 219 236 224
5.112447e-001 -3.311434e-001 -7.786392e+000 213 227 228
2.632795e-001 6.689488e-001 -8.345584e+000 87 80 88
2.632795e-001 6.689488e-001 -8.345584e+000 87 80 88
2.783721e-001 9.986947e-001 -8.394226e+000 206 225 222
6.121784e-001 -2.659379e-001 -7.631249e+000 203 222 219
-9.971277e-002 3.314784e+000 -9.416013e+000 115 79 59
-1.194486e-001 3.350881e+000 -9.424232e+000 115 79 59
-4.481620e-001 5.334873e+000 -1.036261e+001 198 182 130
-8.757931e-002 4.949119e+000 -9.644825e+000 200 183 139
-1.757057e-001 5.331066e+000 -9.820103e+000 121 83 67
-1.837275e+000 3.419205e+000 -1.199402e+001 94 81 64
-1.302537e+000 5.888185e+000 -1.195427e+001 116 110 112
-7.656238e-001 -6.710359e-001 -9.717445e+000 214 229 229
-5.527932e-001 -5.564708e-001 -9.457780e+000 218 233 233
-1.848053e-001 -9.516202e-002 -9.021342e+000 70 65 82
-7.113844e-001 4.601976e+000 -1.064551e+001 90 63 49
-5.100647e-001 5.314546e+000 -1.046825e+001 212 233 225
3.776954e-001 1.186648e+000 -8.227783e+000 212 229 228
1.144645e-001 2.711462e+000 -8.901550e+000 207 223 220
1.970775e-002 3.359103e+000 -9.120091e+000 195 178 126
-1.838390e+000 4.318498e+000 -1.220676e+001 198 191 173
-1.465032e+000 4.490357e+000 -1.179850e+001 199 190 173
-1.395763e+000 4.804541e+000 -1.183098e+001 187 179 160
-1.213266e+000 4.047373e-001 -1.049030e+001 78 73 95
-2.852878e-001 5.880896e+000 -1.242814e+001 38 16 35
-4.963995e-001 1.851498e+000 -9.838279e+000 80 72 93
-1.134923e-001 1.891220e+000 -9.298303e+000 83 75 90
2.995891e-001 2.868353e+000 -8.612330e+000 129 74 80
-8.529584e-003 4.605701e+000 -9.478783e+000 88 73 93
-8.529584e-003 4.605701e+000 -9.478783e+000 88 73 93
-1.755139e+000 4.379345e+000 -1.210677e+001 198 189 172
-1.755139e+000 4.379345e+000 -1.210677e+001 198 189 172
-1.248321e+000 -4.604039e-001 -1.039013e+001 143 78 105
-5.514526e-002 3.162269e-001 -8.889663e+000 101 77 98
-5.514526e-002 3.162269e-001 -8.889663e+000 101 77 98
-2.524663e-001 5.299435e+000 -9.963323e+000 94 66 50
-1.299338e+000 2.635577e+000 -1.113786e+001 194 172 114
-1.299338e+000 2.635577e+000 -1.113786e+001 194 172 114
-1.286014e+000 5.636931e+000 -1.195708e+001 89 78 84
-7.995495e-001 5.559159e+000 -1.298800e+001 76 54 56
-5.665369e-002 3.761435e+000 -9.566961e+000 199 189 146
1.525593e+000 5.214325e+000 -1.437603e+001 124 79 46
1.227301e+000 4.380027e+000 -1.533117e+001 140 94 58
-6.909094e-001 3.374089e+000 -1.034991e+001 159 140 94
-3.531658e-001 1.485199e+000 -9.510515e+000 111 102 103
-3.531658e-001 1.485199e+000 -9.510515e+000 111 102 103
-1.444887e-001 -5.130432e-001 -8.749078e+000 57 47 60
-7.088337e-001 5.400412e+000 -1.083471e+001 171 172 148
-8.285207e-001 5.270583e+000 -1.099134e+001 165 167 146
-6.919397e-001 4.710858e+000 -1.070347e+001 160 123 67
-9.142965e-001 4.422332e+000 -1.109178e+001 93 68 37
1.626353e-001 -4.925115e-001 -8.270341e+000 160 166 167
-1.025839e+000 1.443248e+000 -1.062429e+001 63 53 64
8.768485e-001 -1.942549e+000 -7.059704e+000 145 143 163
-1.193836e+000 5.838254e+000 -1.145691e+001 111 95 82
-4.229959e-001 2.615528e+000 -1.004241e+001 78 60 79
-1.504001e+000 4.157041e+000 -1.191999e+001 178 163 134
1.493195e+000 -2.795521e+000 -1.101242e+001 68 50 36
-1.159901e+000 1.215023e+000 -1.069449e+001 69 53 62
1.621167e+000 -2.452662e+000 -7.930694e+000 46 17 39
7.635639e-001 -8.045584e-001 -7.281826e+000 71 55 86
6.556980e-001 -8.580803e-001 -7.408037e+000 88 77 114
6.147646e-001 -8.292309e-001 -7.465211e+000 193 187 195
-5.760167e-001 4.028403e+000 -1.041939e+001 167 113 77
5.052389e-001 -7.299282e-001 -7.620711e+000 79 58 88
5.861189e-001 -9.359305e-001 -7.509890e+000 70 59 87
-4.446368e-001 3.166342e+000 -1.000529e+001 197 168 121
-4.446368e-001 3.166342e+000 -1.000529e+001 197 168 121
5.476699e-001 -9.656207e-001 -7.586835e+000 72 52 80
-5.376483e-001 3.122191e+000 -1.029719e+001 206 179 124
4.513688e-001 -9.759258e-001 -7.712058e+000 72 59 82
3.900732e-001 -1.017903e+000 -7.793667e+000 202 193 208
3.824027e-001 -1.035229e+000 -7.808045e+000 67 53 78
3.734990e-001 -1.073154e+000 -7.836521e+000 74 54 93
7.748247e-001 -2.009424e+000 -7.198377e+000 103 97 113
-8.310946e-001 3.014515e+000 -1.066281e+001 178 126 86
-8.070401e-001 2.572603e+000 -1.058582e+001 162 111 58
-5.594260e-001 1.434424e+000 -9.888764e+000 208 205 195
-1.009473e+000 1.774632e+000 -1.050615e+001 77 62 65
-1.269239e+000 -2.428256e+000 -9.991670e+000 149 128 146
6.761126e-001 -6.666801e-001 -7.385856e+000 89 64 108
7.089544e-001 -8.507820e-001 -7.329528e+000 215 212 211
7.094949e-001 -8.512674e-001 -7.329659e+000 215 212 211
4.715705e-001 -1.110681e-001 -7.914998e+000 68 46 64
6.236355e-001 -6.605894e-001 -7.492599e+000 74 58 85
6.640384e-001 -8.247796e-001 -7.397603e+000 203 197 205
6.635634e-001 -8.981978e-001 -7.396286e+000 207 205 211
6.233231e-001 -8.659971e-001 -7.463526e+000 79 62 95
6.233231e-001 -8.659971e-001 -7.463526e+000 79 62 95
6.083245e-001 -8.818546e-001 -7.485033e+000 209 204 204
5.802136e-001 -8.912051e-001 -7.528692e+000 210 203 216
-7.388565e-001 4.340273e+000 -1.076221e+001 141 103 81
4.780091e-001 -8.064931e-001 -7.681890e+000 67 51 75
5.432997e-001 -9.379435e-001 -7.577160e+000 200 198 198
5.261918e-001 -9.605282e-001 -7.599711e+000 198 196 203
5.261918e-001 -9.605282e-001 -7.599711e+000 198 196 203
1.480224e+000 -2.352861e+000 -7.030012e+000 102 82 101
-9.138980e-001 4.350584e+000 -1.103500e+001 84 52 31
-8.624316e-001 4.310548e+000 -1.101073e+001 144 110 82
-5.393173e-001 3.182085e+000 -1.024496e+001 204 174 122
-7.021231e-001 3.011223e+000 -1.050153e+001 153 101 48
3.272946e-001 -9.138479e-001 -7.882813e+000 209 204 214
3.805201e-001 -9.858158e-001 -7.796563e+000 78 63 96
3.525893e-001 -1.046800e+000 -7.848146e+000 200 212 200
-7.512392e-001 1.558614e+000 -1.020652e+001 222 225 216
-1.394858e+000 2.563757e+000 -1.126682e+001 153 116 75
-3.812955e-001 -7.769959e-001 -9.024664e+000 221 221 212
7.688792e-002 -2.320902e+000 -7.733319e+000 117 118 138
-2.819106e-001 4.199443e+000 -9.979502e+000 190 151 93
2.585765e-001 1.902774e+000 -8.614078e+000 230 220 218
2.585765e-001 1.902774e+000 -8.614078e+000 230 220 218
7.658398e-001 -7.990444e-001 -7.254820e+000 207 213 196
7.417704e-001 -7.798276e-001 -7.316269e+000 66 48 89
5.612673e-001 -9.057113e-001 -7.561609e+000 64 47 87
-4.413301e-002 1.622100e+000 -9.097338e+000 221 222 215
8.071569e-001 -1.954264e+000 -7.158415e+000 109 105 130
-1.338315e+000 4.544468e+000 -1.168594e+001 195 172 140
-1.468838e+000 4.684752e+000 -1.190660e+001 144 121 87
-1.397290e+000 4.587063e+000 -1.179324e+001 192 168 137
-1.059716e+000 3.285107e+000 -1.105161e+001 98 61 44
-1.058338e+000 3.309352e+000 -1.107164e+001 98 61 44
1.659226e+000 -2.366726e+000 -7.626416e+000 56 10 50
-8.118851e-001 1.645405e+000 -1.030874e+001 70 54 62
-7.849025e-001 1.513233e+000 -1.024261e+001 223 223 216
-7.852046e-001 1.515379e+000 -1.024494e+001 223 223 216
-7.935178e-001 5.982153e-001 -1.000656e+001 208 233 209
-9.784677e-001 5.928689e-001 -1.026737e+001 79 56 72
3.192662e-001 -2.805189e+000 -8.567595e+000 72 51 60
1.486615e+000 -2.855936e+000 -1.097344e+001 80 59 46
-2.983315e-001 5.208071e+000 -1.009367e+001 140 99 52
-2.065874e-001 4.478941e+000 -9.909432e+000 138 92 42
3.269009e-001 1.635770e+000 -8.432366e+000 68 57 57
2.123138e-001 1.915303e+000 -8.711527e+000 215 227 203
1.194164e-001 1.882840e+000 -8.857384e+000 70 61 69
2.309837e-001 1.582971e+000 -8.617509e+000 73 64 65
2.121406e-001 1.481573e+000 -8.627445e+000 214 226 210
6.954299e-001 -7.456074e-001 -7.343531e+000 72 58 84
1.211897e-001 1.489741e+000 -8.776326e+000 76 59 65
-8.737835e-002 1.602298e+000 -9.173402e+000 219 225 211
8.423494e-001 -1.932046e+000 -7.051464e+000 88 82 108
-2.188980e+000 5.089352e+000 -1.273769e+001 116 115 119
-1.151772e+000 2.617328e+000 -1.103096e+001 99 57 45
-7.426740e-001 9.914658e-001 -1.005804e+001 104 80 93
-1.448551e+000 2.526479e+000 -1.135236e+001 154 119 74
-7.037653e-001 8.082797e-001 -9.989598e+000 72 63 80
-2.712103e-001 -1.086636e+000 -8.721196e+000 78 61 68
-1.036747e+000 8.750717e-001 -1.044648e+001 220 230 215
-3.451606e-001 -8.856278e-001 -8.949216e+000 93 57 68
-4.499810e-001 -8.591569e-001 -9.108405e+000 207 214 200
-6.797265e-001 -1.148511e+000 -9.330084e+000 63 52 56
-7.837668e-001 -1.238652e+000 -9.448295e+000 63 48 51
-8.147702e-001 -1.265122e+000 -9.490176e+000 217 230 210
-8.147702e-001 -1.265122e+000 -9.490176e+000 217 230 210
-1.902651e-001 2.528498e+000 -9.358748e+000 64 48 44
4.101210e-001 -1.000649e+000 -7.761228e+000 72 56 84
-2.361825e+000 5.249662e+000 -1.299350e+001 111 112 117
-1.500612e+000 2.686341e+000 -1.141638e+001 86 52 34
2.557144e-001 -2.763448e+000 -8.590028e+000 38 17 32
4.974713e-001 -2.919262e+000 -8.945948e+000 58 45 45
4.974713e-001 -2.919262e+000 -8.945948e+000 58 45 45
1.090612e-001 2.630123e+000 -8.991208e+000 77 57 58
-5.135821e-001 2.329337e+000 -9.979334e+000 76 59 79
-5.135821e-001 2.329337e+000 -9.979334e+000 76 59 79
7.386186e-001 -2.010397e+000 -7.236059e+000 34 22 36
-3.202995e-001 1.178106e+000 -9.489766e+000 83 61 60
-3.202995e-001 1.178106e+000 -9.489766e+000 83 61 60
-2.129254e+000 3.230230e+000 -1.256201e+001 68 56 57
-8.738511e-001 -1.979091e-001 -9.905569e+000 60 48 57
-8.738511e-001 -1.979091e-001 -9.905569e+000 60 48 57
2.070868e-001 -2.748935e+000 -8.649994e+000 55 38 42
3.788251e-001 -2.864427e+000 -8.828275e+000 65 51 51
-6.255499e-001 2.161410e+000 -1.007220e+001 75 62 69
1.241231e-001 -3.595584e-001 -8.362143e+000 119 53 89
1.241231e-001 -3.595584e-001 -8.362143e+000 119 53 89
-6.710202e-001 1.646760e+000 -1.016300e+001 73 60 82
-1.694749e+000 3.855814e+000 -1.197861e+001 192 172 143
2.076349e-001 1.175677e+000 -8.544216e+000 79 65 76
-1.493325e-001 1.898826e+000 -9.278232e+000 78 65 74
7.865771e-001 -2.003156e+000 -7.170994e+000 142 142 154
3.319533e-001 -2.021838e+000 -7.276025e+000 124 120 145
-2.656799e-001 5.036200e-001 -9.243433e+000 71 59 64
-2.171106e+000 5.075010e+000 -1.292885e+001 91 85 96
-2.246246e+000 4.310688e+000 -1.288473e+001 71 59 59
-1.454204e+000 2.364084e+000 -1.134245e+001 170 133 87
-6.824461e-001 4.030477e-001 -9.806860e+000 105 69 83
-1.666266e-001 3.609963e+000 -9.454297e+000 193 166 111
4.683861e-001 -2.064380e+000 -7.047596e+000 176 176 183
5.039418e-002 -8.973852e-001 -8.536264e+000 69 53 102
-9.703052e-001 2.296099e-001 -1.015950e+001 85 82 100
1.667052e+000 -2.836917e+000 -8.036246e+000 109 56 126
4.078828e+000 -1.446148e+000 -9.023660e+000 127 81 45
1.115154e+000 -2.159961e+000 -7.525740e+000 44 26 37
8.766876e+000 -5.518704e+001 1.264143e+001 84 120 149
1.345071e+001 -5.601593e+001 1.109995e+001 153 135 121
1.094134e+001 -5.601335e+001 1.140666e+001 148 125 86
6.379930e+000 -5.844711e+001 7.876996e+000 111 116 140
6.940000e+000 -5.317713e+001 1.128289e+001 144 124 91
8.586327e+000 -5.650328e+001 9.386450e+000 142 139 132
1.573307e+001 -5.810186e+001 9.745362e+000 169 139 137
9.742625e+000 -5.282116e+001 1.535838e+001 168 165 146
9.836786e+000 -5.298351e+001 1.620727e+001 72 106 137
1.084487e+001 -5.273468e+001 1.604916e+001 165 164 141
1.771774e+001 -5.308265e+001 1.494628e+001 178 137 121
1.771774e+001 -5.308265e+001 1.494628e+001 178 137 121
6.966959e+000 -5.739316e+001 9.370870e+000 69 111 151
1.285157e+001 -5.610130e+001 1.186906e+001 99 62 53
1.285157e+001 -5.610130e+001 1.186906e+001 99 62 53
1.816796e+001 -5.477087e+001 1.274303e+001 151 135 116
-1.273454e+000 4.018149e+000 -1.145179e+001 193 186 168
-1.587941e+000 3.782231e+000 -1.175126e+001 193 187 168
-7.309003e-001 3.532859e+000 -1.054666e+001 203 182 146
-1.764526e+000 5.675309e+000 -1.209709e+001 124 127 134
-6.285916e-001 4.634649e+000 -1.056285e+001 119 86 48
1.702773e+000 5.376268e+000 -1.402082e+001 118 77 47
-1.929136e-001 3.390715e+000 -9.610094e+000 205 193 151
-1.724006e+000 3.469925e+000 -1.190661e+001 166 137 90
4.502057e+000 -4.964994e+001 1.075549e+001 44 105 148
-1.171361e+000 1.649097e+000 -1.086689e+001 77 69 81
-8.895912e-001 2.897499e+000 -1.070830e+001 177 130 104
-7.745651e-001 2.553908e+000 -1.045136e+001 161 109 59
-7.745651e-001 2.553908e+000 -1.045136e+001 161 109 59
-6.565937e-001 2.056968e+000 -1.017446e+001 128 91 109
-2.516290e-001 1.519933e+000 -9.428728e+000 170 169 177
-2.516290e-001 1.519933e+000 -9.428728e+000 170 169 177
-6.243879e-001 3.967839e+000 -1.051089e+001 133 101 76
-2.757032e-001 2.857116e+000 -9.649685e+000 135 96 58
-2.224114e-001 3.123161e+000 -9.563601e+000 186 161 111
-1.742950e+000 4.180959e+000 -1.211612e+001 200 193 175
-1.547009e+000 4.305541e+000 -1.186101e+001 124 117 101
-7.872434e-001 -1.300894e+000 -9.509305e+000 79 71 75
-6.863398e-001 2.044190e+000 -1.028763e+001 74 63 69
-8.138104e-001 3.007690e+000 -1.063531e+001 196 154 106
-8.877028e-001 3.427391e+000 -1.080035e+001 175 151 105
-9.595595e-001 4.285868e+000 -1.103876e+001 109 83 50
-9.595595e-001 4.285868e+000 -1.103876e+001 109 83 50
-5.566725e-001 3.137256e+000 -1.023544e+001 154 110 72
-2.223191e-001 3.055134e+000 -9.576667e+000 187 164 105
-2.392307e-001 3.172570e+000 -9.607395e+000 121 94 52
-3.146882e-001 5.691495e+000 -1.021957e+001 153 117 60
-1.268174e+000 1.664561e+000 -1.093980e+001 211 219 221
-1.177709e+000 7.958314e-001 -1.061595e+001 215 214 221
-1.440327e+000 3.879521e+000 -1.166323e+001 195 190 170
-8.247608e-001 -1.316502e+000 -9.550233e+000 192 189 197
-5.121627e-001 -8.919429e-001 -9.278967e+000 103 93 101
-4.393862e-001 -9.519053e-001 -9.062087e+000 105 78 90
-7.184898e-002 1.646792e+000 -9.156693e+000 90 76 93
-3.048088e-002 1.614830e+000 -9.036139e+000 80 74 84
-3.429499e-001 3.276990e+000 -9.843566e+000 150 97 65
-2.782243e-001 3.515130e+000 -9.817905e+000 207 199 158
-1.774319e-001 3.451957e+000 -9.574048e+000 124 75 49
-2.553937e-002 3.670890e+000 -9.319721e+000 189 169 134
-1.893299e-001 4.393899e+000 -9.749414e+000 188 155 101
-1.296974e+000 5.075945e+000 -1.387046e+001 121 56 150
-1.811519e+000 4.462871e+000 -1.230264e+001 201 192 175
-1.379674e+000 2.478891e+000 -1.126785e+001 96 69 59
-8.875185e-001 2.860663e+000 -1.068966e+001 175 131 103
-4.927471e-002 3.292157e+000 -9.273084e+000 201 170 124
-4.133000e-001 5.394880e+000 -1.033310e+001 190 164 94
-1.141782e+000 5.283563e+000 -1.352550e+001 81 70 101
-1.808429e+000 3.168076e+000 -1.192991e+001 162 137 97
-6.014688e-001 5.113531e+000 -1.372214e+001 92 47 104
-6.132473e-001 2.080840e+000 -1.014446e+001 218 230 230
-4.997667e-001 3.722414e+000 -1.022934e+001 158 102 65
-5.650650e-001 5.714400e+000 -1.056599e+001 84 75 58
-2.200790e+000 5.068983e+000 -1.267612e+001 86 87 107
-9.250485e-001 5.152272e+000 -1.389924e+001 83 24 103
-1.600863e+000 4.232554e+000 -1.191452e+001 68 60 49
-1.302311e+000 5.976127e+000 -1.197580e+001 79 62 67
-7.521101e-001 2.008784e+000 -1.031253e+001 218 230 230
3.656955e-001 -1.107898e+000 -7.723070e+000 82 65 109
6.679260e-001 -1.337068e+000 -7.202783e+000 139 132 174
-1.770964e+000 4.422944e+000 -1.222717e+001 168 163 144
-1.676537e+000 4.183489e+000 -1.199142e+001 170 164 148
-1.276335e+000 2.755052e+000 -1.115753e+001 179 165 124
-7.322962e-001 2.592579e+000 -1.039719e+001 196 181 145
-7.784721e-001 3.090042e+000 -1.059768e+001 168 141 93
-9.236360e-001 4.392686e+000 -1.098820e+001 79 55 43
-6.279399e-001 4.510073e+000 -1.049831e+001 187 157 103
-1.261832e+000 5.901294e+000 -1.152872e+001 194 205 197
-3.895153e-002 -8.867385e-001 -8.252163e+000 90 72 110
6.270256e-001 -7.141473e-001 -7.458135e+000 190 186 201
6.659613e-001 -8.192017e-001 -7.400043e+000 209 198 200
6.043236e-002 3.651420e+000 -9.110821e+000 72 61 56
-7.126834e-002 3.142879e+000 -9.225747e+000 191 157 91
3.647508e-001 3.050203e-002 -8.136060e+000 75 62 87
3.370296e-001 -6.681086e-001 -7.921884e+000 196 192 198
3.987731e-001 -1.106927e+000 -7.773013e+000 173 171 186
-4.229593e-001 3.570816e+000 -1.015907e+001 144 111 66
-1.817545e-001 1.565104e+000 -9.216957e+000 74 65 62
1.212558e-002 -8.044555e-001 -8.349455e+000 77 56 82
-8.771461e-001 3.426990e+000 -1.087045e+001 115 79 50
-4.936220e-001 1.353114e+000 -9.751970e+000 82 78 73
-3.387551e-001 -8.024193e-001 -8.970625e+000 217 223 210
-3.387551e-001 -8.024193e-001 -8.970625e+000 217 223 210
-9.697811e-001 1.933546e+000 -1.074469e+001 80 69 65
-4.760180e-001 -8.978736e-001 -9.104238e+000 59 32 45
-1.093822e+000 1.959438e+000 -1.081827e+001 83 74 73
-1.832804e+000 4.273661e+000 -1.235447e+001 138 126 99
2.792574e-001 -2.781592e+000 -8.635102e+000 69 48 60
2.792574e-001 -2.781592e+000 -8.635102e+000 69 48 60
6.063906e-001 1.089353e-002 -7.639944e+000 78 62 88
1.273725e-001 3.653783e+000 -8.866270e+000 68 55 64
-2.703781e-003 5.976264e+000 -9.742140e+000 132 121 103
5.539856e-001 -7.878534e-001 -7.559350e+000 214 206 217
4.706977e-001 -2.101387e+000 -7.270381e+000 113 112 128
4.010426e-001 -1.079636e+000 -7.760655e+000 80 66 98
3.530742e+000 -1.669724e+000 -8.802134e+000 58 29 16
-3.067105e-001 3.048702e+000 -9.763401e+000 132 92 41
-7.746726e-002 1.700931e+000 -9.102589e+000 79 76 67
-3.029707e-002 1.291140e+000 -8.983077e+000 86 67 78
1.121587e-001 -6.284066e-001 -8.232745e+000 76 66 77
1.062294e-001 -4.936772e-001 -8.324404e+000 108 69 87
-4.628398e-001 3.623510e+000 -1.021860e+001 184 150 101
-3.315798e-001 2.768875e+000 -9.721543e+000 184 162 95
-8.133217e-001 5.452824e+000 -1.109876e+001 162 165 138
-4.803893e-001 3.579114e+000 -1.025584e+001 125 86 48
-2.850588e-001 1.444857e+000 -9.452261e+000 217 219 211
-2.850588e-001 1.444857e+000 -9.452261e+000 217 219 211
-1.866835e-002 -5.731504e-001 -8.505295e+000 82 47 65
-8.146654e-001 4.498191e+000 -1.093848e+001 111 80 52
-2.963143e-001 1.245027e+000 -9.413029e+000 82 64 64
-2.963143e-001 1.245027e+000 -9.413029e+000 82 64 64
-3.264472e-001 1.048585e+000 -9.451895e+000 80 64 63
-5.735548e-001 1.575678e+000 -9.964502e+000 65 55 61
-6.828748e-001 2.021547e+000 -1.029546e+001 124 82 91
-7.420525e-001 1.611199e+000 -1.018370e+001 68 66 78
-1.435604e+000 4.363392e+000 -1.180243e+001 148 130 94
-8.040044e-001 1.799498e+000 -1.029872e+001 91 78 77
-3.810742e-001 -7.850077e-001 -9.019496e+000 210 222 204
-1.617374e+000 4.234200e+000 -1.197684e+001 152 133 103
-1.037493e+000 9.877266e-001 -1.047544e+001 79 66 75
-8.614616e-001 -1.092395e+000 -9.633554e+000 220 228 213
-8.231672e-001 -1.110521e+000 -9.617046e+000 49 41 48
7.272192e-001 -8.078441e-001 -7.301526e+000 83 68 99
6.593553e-001 -2.545055e-001 -7.526125e+000 72 58 87
6.930856e-001 -7.519456e-001 -7.340323e+000 84 64 90
7.795308e-001 -1.871975e+000 -7.170719e+000 92 90 103
5.163035e-004 6.223233e+000 -9.768329e+000 98 88 79
-1.777158e-001 5.823420e+000 -9.990006e+000 139 114 73
2.951726e-001 1.577293e+000 -8.467147e+000 220 223 214
2.951726e-001 1.577293e+000 -8.467147e+000 220 223 214
2.546564e-001 1.473766e+000 -8.507223e+000 219 227 214
4.898269e-001 -1.008834e+000 -7.619704e+000 82 65 92
