ply
format ascii 1.0
element face 0
property list uchar int vertex_indices
element vertex 891
property float x
property float y
property float z
property uchar diffuse_red
property uchar diffuse_green
property uchar diffuse_blue
end_header
-3.890684e-001 2.397271e+000 -9.591614e+000 70 43 46
-6.060142e-001 2.252008e+000 -9.907616e+000 205 195 193
-6.060142e-001 2.252008e+000 -9.907616e+000 205 195 193
1.872255e+000 2.358279e+000 -9.189232e+000 127 108 75
7.511343e-002 2.034264e+000 -8.681665e+000 96 80 90
-3.248731e-001 2.288071e-001 -8.974799e+000 203 217 209
2.004631e+000 3.539460e-001 -7.806276e+000 86 64 25
1.857950e-001 -3.679108e-001 -8.085062e+000 80 66 84
4.708336e-001 -6.127687e-001 -7.456966e+000 76 61 90
-9.416962e-001 -1.768189e+000 -9.447204e+000 180 178 183
-4.373699e-001 2.927441e+000 -9.821886e+000 183 138 73
-3.372296e-001 2.955955e+000 -9.538187e+000 206 168 103
-1.784426e+000 2.794864e+000 -1.147964e+001 98 75 93
2.534668e+000 2.801996e+000 -9.943733e+000 131 108 74
2.587498e+000 2.835566e+000 -1.004920e+001 90 67 36
-1.102338e+000 2.411677e+000 -1.069995e+001 144 82 57
2.691804e+000 2.624313e+000 -9.994810e+000 91 68 37
2.945929e+000 2.616807e+000 -1.024760e+001 121 102 70
1.595957e+000 2.388005e+000 -8.971514e+000 121 104 61
4.107706e+000 2.347176e+000 -9.683748e+000 176 144 61
1.718612e+000 2.114384e+000 -8.925542e+000 119 99 64
-7.134358e-001 1.758308e+000 -9.996129e+000 76 58 70
-1.750983e-001 1.823437e+000 -9.121810e+000 76 62 65
1.678363e+000 1.870228e+000 -8.695964e+000 135 116 76
-6.805087e-001 1.307035e+000 -9.847315e+000 208 211 208
3.221754e+000 1.303455e+000 -9.758664e+000 104 85 55
4.221368e+000 7.509296e-001 -8.945907e+000 195 159 85
3.547284e+000 3.060916e-001 -9.419737e+000 88 70 49
4.233845e+000 1.107602e-001 -8.732743e+000 179 142 74
1.527956e+000 1.112106e-001 -7.182372e+000 123 104 62
8.316785e-002 -5.662389e-001 -8.087767e+000 90 53 78
-3.732227e-001 -9.436712e-001 -8.654661e+000 208 212 209
-3.389157e-001 -9.272812e-001 -8.647829e+000 75 58 61
3.102894e+000 -4.877699e-001 -8.430307e+000 115 96 58
2.806692e+000 -6.259747e-001 -8.042241e+000 71 50 23
-7.411000e-002 -9.994358e-001 -8.144849e+000 204 197 204
2.922827e+000 -6.938168e-001 -8.095036e+000 122 104 65
-4.243379e-001 3.076585e+000 -9.720603e+000 208 168 109
2.103782e+000 3.327383e+000 -9.934338e+000 126 110 67
2.151961e+000 3.307109e+000 -9.875965e+000 118 103 66
2.100351e+000 3.258559e+000 -9.777439e+000 80 69 37
2.150918e+000 3.212791e+000 -9.884206e+000 119 102 60
2.281867e+000 3.278124e+000 -9.966694e+000 125 113 74
2.307122e+000 3.292809e+000 -1.009128e+001 125 113 74
2.696401e+000 3.340617e+000 -1.042859e+001 73 58 29
1.135418e+000 2.853088e+000 -8.720900e+000 125 106 66
1.135418e+000 2.853088e+000 -8.720900e+000 125 106 66
2.700908e+000 3.198425e+000 -1.034166e+001 122 105 69
2.951373e+000 3.192977e+000 -1.057623e+001 63 55 36
1.960899e+000 2.792182e+000 -9.461667e+000 119 99 62
1.518268e+000 2.633266e+000 -9.049795e+000 124 107 70
1.586940e+000 2.622158e+000 -9.104515e+000 126 108 71
1.740927e+000 2.596818e+000 -9.165280e+000 125 109 70
1.809738e+000 2.591001e+000 -9.215259e+000 118 102 66
1.975374e+000 2.686924e+000 -9.435801e+000 127 109 71
2.193928e+000 2.781105e+000 -9.660747e+000 124 106 70
2.321603e+000 2.642455e+000 -9.589128e+000 125 110 69
2.312351e+000 2.537075e+000 -9.588352e+000 124 106 67
2.442945e+000 2.518214e+000 -9.671305e+000 122 104 66
2.442945e+000 2.518214e+000 -9.671305e+000 122 104 66
-1.518838e+000 2.139689e+000 -1.114506e+001 96 67 67
2.400408e+000 2.413426e+000 -9.575304e+000 120 101 61
2.812337e+000 2.504595e+000 -1.000507e+001 82 61 30
2.901767e+000 2.480860e+000 -1.007036e+001 83 63 32
1.785276e+000 2.159705e+000 -8.956309e+000 125 107 67
1.486148e+000 2.062898e+000 -8.640924e+000 79 58 21
1.512919e+000 2.101284e+000 -8.678233e+000 124 103 62
1.515329e+000 2.101364e+000 -8.685667e+000 124 103 62
3.162276e+000 2.185241e+000 -1.005883e+001 112 91 62
1.977478e+000 1.947074e+000 -9.080550e+000 122 104 64
1.274866e-001 1.628046e+000 -8.519581e+000 212 226 208
-3.089896e-001 1.464767e+000 -9.242849e+000 95 66 82
2.000093e+000 1.587209e+000 -8.826933e+000 118 99 59
4.031954e+000 1.843215e+000 -9.525939e+000 191 159 83
4.185925e+000 1.829286e+000 -9.439941e+000 177 135 62
4.176485e+000 1.759815e+000 -9.227995e+000 213 172 93
1.960300e+000 1.441098e+000 -8.629220e+000 119 102 59
2.430215e+000 1.441074e+000 -9.110791e+000 119 99 62
4.063969e+000 1.565467e+000 -9.338890e+000 190 154 78
3.005238e+000 1.403018e+000 -9.649444e+000 113 92 63
4.048714e+000 1.522512e+000 -9.364703e+000 153 113 46
-8.327069e-001 8.592222e-001 -9.922127e+000 214 225 217
-1.064404e-001 9.671199e-001 -8.712753e+000 202 224 205
1.749167e+000 1.198296e+000 -8.185633e+000 126 106 69
3.035889e+000 1.160687e+000 -9.406509e+000 123 103 70
4.062210e+000 1.398772e+000 -9.304751e+000 153 110 48
3.047969e+000 1.062990e+000 -9.357602e+000 111 91 56
3.174226e+000 1.029503e+000 -9.494622e+000 117 93 65
4.390052e+000 1.242726e+000 -8.886488e+000 188 151 70
2.329932e+000 6.753755e-001 -8.390878e+000 132 112 63
3.491987e+000 -9.718170e-002 -9.110609e+000 99 77 46
1.176608e-002 -5.058657e-001 -8.248102e+000 203 219 208
-8.309056e-001 -1.168988e+000 -9.343646e+000 66 56 60
4.436787e+000 -2.362952e-001 -8.573202e+000 156 122 48
2.003695e+000 -3.314290e-001 -7.489035e+000 122 103 63
2.231737e+000 -3.360865e-001 -7.723676e+000 134 113 68
-5.872511e-001 -1.191339e+000 -8.904750e+000 211 221 216
3.331435e-001 -9.606182e-001 -7.547046e+000 66 48 73
-1.273072e-001 3.000740e+000 -9.154573e+000 92 64 57
9.911620e-001 3.061789e+000 -8.692432e+000 83 63 26
1.623304e+000 3.213038e+000 -9.434400e+000 59 54 38
1.629038e+000 3.221530e+000 -9.511312e+000 59 54 38
-4.777555e-001 2.952692e+000 -9.806733e+000 202 177 117
1.096592e+000 3.026206e+000 -8.790858e+000 81 61 28
1.282743e+000 2.970286e+000 -9.007896e+000 93 75 39
1.282743e+000 2.970286e+000 -9.007896e+000 93 75 39
2.427175e+000 3.252976e+000 -1.015619e+001 121 104 65
3.920673e+000 3.339626e+000 -1.013041e+001 167 127 55
1.331875e+000 2.843930e+000 -8.990216e+000 74 56 20
1.331875e+000 2.843930e+000 -8.990216e+000 74 56 20
1.530189e+000 2.967023e+000 -9.296206e+000 119 100 59
2.889221e+000 3.091163e+000 -1.042181e+001 69 55 37
1.156733e+000 2.734708e+000 -8.679343e+000 128 100 61
1.252391e+000 2.755332e+000 -8.805388e+000 86 64 27
1.457820e+000 2.813882e+000 -9.106827e+000 78 60 25
1.395957e+000 2.720043e+000 -8.999482e+000 85 64 34
2.250711e+000 2.822788e+000 -9.684068e+000 93 73 38
3.994561e+000 2.962611e+000 -9.892836e+000 194 159 79
3.994561e+000 2.962611e+000 -9.892836e+000 194 159 79
-1.508034e+000 2.516802e+000 -1.125564e+001 102 69 38
1.370610e+000 2.616653e+000 -8.884734e+000 65 48 18
1.370610e+000 2.616653e+000 -8.884734e+000 65 48 18
1.937694e+000 2.737797e+000 -9.402955e+000 68 52 19
2.074773e+000 2.764650e+000 -9.505549e+000 127 105 69
2.016583e+000 2.678047e+000 -9.410740e+000 118 99 61
2.271577e+000 2.763810e+000 -9.675358e+000 123 105 68
2.271577e+000 2.763810e+000 -9.675358e+000 123 105 68
2.428123e+000 2.685183e+000 -9.744645e+000 83 67 33
2.952740e+000 2.912980e+000 -1.051509e+001 110 90 59
2.939504e+000 2.907368e+000 -1.044915e+001 110 90 59
4.040308e+000 2.921747e+000 -9.876405e+000 173 131 57
1.327871e+000 2.412764e+000 -8.684599e+000 81 65 32
1.841314e+000 2.479512e+000 -9.208889e+000 122 104 67
1.841314e+000 2.479512e+000 -9.208889e+000 122 104 67
1.960800e+000 2.468174e+000 -9.303636e+000 124 106 66
4.033384e+000 2.704973e+000 -1.006290e+001 157 120 46
-1.407195e+000 2.224457e+000 -1.103502e+001 122 85 60
-1.413932e+000 2.225121e+000 -1.107619e+001 122 85 60
-4.584995e-001 2.264299e+000 -9.694850e+000 85 69 74
1.235351e+000 2.336840e+000 -8.551235e+000 77 61 28
1.321719e+000 2.246016e+000 -8.556524e+000 124 103 62
1.434611e+000 2.278576e+000 -8.706935e+000 77 61 35
1.438878e+000 2.278962e+000 -8.726478e+000 77 61 35
2.689598e+000 2.428560e+000 -9.789037e+000 80 65 26
1.446890e+000 2.173153e+000 -8.644643e+000 89 68 37
1.583694e+000 2.187702e+000 -8.842871e+000 126 103 61
2.728328e+000 2.309668e+000 -9.710719e+000 84 63 32
2.728328e+000 2.309668e+000 -9.710719e+000 84 63 32
3.195947e-002 1.986903e+000 -8.775369e+000 210 218 205
1.428869e+000 2.034428e+000 -8.526193e+000 125 102 61
1.667308e+000 2.111127e+000 -8.856492e+000 86 68 32
1.517423e+000 1.999206e+000 -8.631178e+000 126 107 66
1.624172e+000 2.023671e+000 -8.776524e+000 81 65 31
2.555948e+000 2.109411e+000 -9.527386e+000 81 61 30
2.555948e+000 2.109411e+000 -9.527386e+000 81 61 30
2.513946e+000 2.055312e+000 -9.458775e+000 125 106 67
2.656164e+000 2.155594e+000 -9.654371e+000 121 101 64
2.656164e+000 2.155594e+000 -9.654371e+000 121 101 64
2.938129e+000 2.219719e+000 -9.879638e+000 121 96 65
3.074093e+000 2.146701e+000 -9.936130e+000 79 57 30
1.872589e+000 1.914217e+000 -8.939032e+000 118 103 59
2.235527e+000 1.976366e+000 -9.235090e+000 115 95 58
2.235527e+000 1.976366e+000 -9.235090e+000 115 95 58
4.034449e+000 2.055801e+000 -9.685756e+000 179 151 77
1.274500e+000 1.771482e+000 -8.138309e+000 124 106 60
1.889386e+000 1.807601e+000 -8.904225e+000 131 108 66
2.552505e+000 1.816498e+000 -9.446068e+000 116 98 59
3.091807e+000 1.854241e+000 -9.877506e+000 114 94 61
3.257715e+000 1.828346e+000 -9.971960e+000 115 97 67
3.943236e+000 1.909160e+000 -9.667076e+000 162 126 65
2.199155e+000 1.439464e+000 -8.897156e+000 55 39 8
2.199155e+000 1.439464e+000 -8.897156e+000 55 39 8
2.411091e+000 1.549695e+000 -9.214868e+000 77 60 34
2.527575e+000 1.532165e+000 -9.295228e+000 67 43 15
2.702814e+000 1.556860e+000 -9.481617e+000 122 101 60
2.698603e+000 1.557024e+000 -9.474567e+000 122 101 60
2.964254e+000 1.512708e+000 -9.676421e+000 113 95 60
2.964254e+000 1.512708e+000 -9.676421e+000 113 95 60
3.335017e+000 1.449876e+000 -1.004968e+001 78 61 42
3.363519e+000 1.558168e+000 -9.814460e+000 64 45 26
4.173847e+000 1.706916e+000 -9.293137e+000 181 137 62
2.072746e+000 1.416430e+000 -8.708802e+000 116 98 62
2.167451e+000 1.399227e+000 -8.807098e+000 127 108 66
2.249290e+000 1.340686e+000 -8.840103e+000 88 68 34
2.411215e+000 1.398864e+000 -9.067903e+000 64 45 21
2.590499e+000 1.371215e+000 -9.191871e+000 64 45 12
2.678897e+000 1.308449e+000 -9.247412e+000 118 98 63
2.678897e+000 1.308449e+000 -9.247412e+000 118 98 63
2.921149e+000 1.312970e+000 -9.486258e+000 79 59 30
-3.984725e-001 9.089557e-001 -9.239740e+000 214 226 214
1.681594e+000 1.300809e+000 -8.218261e+000 125 103 64
1.839425e+000 1.273012e+000 -8.376539e+000 125 101 63
1.839425e+000 1.273012e+000 -8.376539e+000 125 101 63
2.943774e+000 1.221443e+000 -9.396836e+000 68 49 21
2.808474e+000 1.199883e+000 -9.239532e+000 121 101 60
3.212973e+000 1.261197e+000 -9.733007e+000 61 43 19
-1.160400e-001 9.461221e-001 -8.803037e+000 208 229 206
1.446296e+000 1.157942e+000 -7.855298e+000 120 102 58
1.449027e+000 1.116104e+000 -7.788524e+000 92 81 61
2.166060e+000 1.070807e+000 -8.490745e+000 74 67 41
2.902880e+000 1.133435e+000 -9.265984e+000 67 47 23
3.262791e+000 1.011094e+000 -9.560034e+000 103 83 55
4.148025e+000 1.211544e+000 -9.240778e+000 201 168 92
2.102083e+000 1.042856e+000 -8.399519e+000 122 105 59
2.154209e+000 1.028087e+000 -8.434070e+000 123 105 62
2.388681e+000 9.829547e-001 -8.630142e+000 136 117 75
2.521667e+000 9.578290e-001 -8.761318e+000 129 112 68
4.204843e+000 1.088918e+000 -9.113533e+000 162 128 54
-9.811131e-001 2.862186e-001 -1.001381e+001 206 229 215
2.382564e+000 8.875356e-001 -8.545640e+000 132 115 71
1.040759e-001 5.391173e-001 -8.352390e+000 87 63 82
2.487765e+000 6.475871e-001 -8.530098e+000 126 106 68
2.910409e+000 6.609325e-001 -8.971028e+000 126 96 62
3.300947e+000 6.279761e-001 -9.364465e+000 64 51 34
2.528028e+000 5.272593e-001 -8.511836e+000 129 110 68
3.067953e+000 5.207363e-001 -9.036375e+000 121 99 60
3.379688e+000 4.493624e-001 -9.339022e+000 107 83 56
4.241954e+000 4.383618e-001 -8.908499e+000 151 117 49
4.303156e+000 5.609445e-001 -8.746196e+000 204 174 89
-3.380181e-001 -1.500659e-001 -8.960143e+000 212 226 212
1.645799e+000 4.052014e-001 -7.499909e+000 124 102 61
2.350274e+000 3.525920e-001 -8.225149e+000 131 111 68
2.140071e+000 2.908648e-001 -7.963944e+000 135 114 71
3.101618e+000 7.780207e-002 -8.841622e+000 112 89 55
3.185815e+000 6.802040e-002 -8.908548e+000 118 96 59
3.185815e+000 6.802040e-002 -8.908548e+000 118 96 59
4.275070e+000 2.598066e-001 -8.836572e+000 156 121 56
2.188312e+000 5.480405e-002 -7.911562e+000 129 108 63
3.097138e+000 -1.871069e-002 -8.747981e+000 116 92 56
2.743049e+000 -1.629321e-001 -8.322052e+000 123 102 60
3.138168e+000 -1.947636e-001 -8.722365e+000 59 41 17
3.307541e-003 -6.406296e-001 -8.218588e+000 125 71 102
1.904554e+000 -2.105992e-001 -7.490388e+000 127 108 64
3.040118e+000 -4.438969e-001 -8.485114e+000 125 106 66
3.016701e+000 -4.192712e-001 -8.417147e+000 125 106 66
3.403200e+000 -4.913468e-001 -8.737294e+000 102 78 51
6.486628e-001 -3.604057e-001 -7.243348e+000 83 68 101
3.395995e+000 -6.052823e-001 -8.687430e+000 113 93 60
4.307549e-001 -5.758967e-001 -7.507994e+000 71 58 80
3.746406e+000 -1.005175e+000 -8.903693e+000 73 55 41
1.726423e+000 3.195885e+000 -9.504343e+000 70 70 60
4.063198e+000 3.470536e+000 -9.845627e+000 176 142 56
1.116536e+000 2.913585e+000 -8.746539e+000 89 66 32
1.436665e+000 3.028909e+000 -9.160095e+000 90 70 33
1.979306e+000 3.184720e+000 -9.701942e+000 65 62 45
-2.551312e-002 2.737794e+000 -8.894704e+000 80 59 57
1.146846e+000 2.795679e+000 -8.708856e+000 80 57 27
1.599389e+000 3.002233e+000 -9.332934e+000 73 55 20
1.739855e+000 2.987120e+000 -9.444474e+000 83 66 33
3.963473e+000 3.257836e+000 -1.009608e+001 190 159 79
4.206221e+000 3.101794e+000 -9.875925e+000 210 179 89
-1.687397e+000 2.588843e+000 -1.145201e+001 80 63 78
-8.844867e-001 2.545955e+000 -1.041697e+001 185 114 78
1.804120e+000 2.647453e+000 -9.298726e+000 68 52 19
2.293493e+000 2.591175e+000 -9.563104e+000 75 55 22
-5.151149e-001 2.218571e+000 -9.772344e+000 211 220 203
1.481662e+000 2.328023e+000 -8.826717e+000 126 103 61
2.034908e+000 2.438896e+000 -9.275845e+000 125 107 67
1.839556e+000 2.202454e+000 -9.017297e+000 64 49 18
2.057316e+000 2.286324e+000 -9.245426e+000 99 80 47
2.191226e+000 2.044551e+000 -9.214033e+000 93 74 40
3.982292e+000 2.268661e+000 -9.737126e+000 187 155 80
-5.976546e-002 1.760017e+000 -8.895293e+000 83 79 83
2.475371e+000 1.942099e+000 -9.402066e+000 129 110 68
2.652993e+000 1.976151e+000 -9.553812e+000 71 54 24
2.646922e+000 1.977395e+000 -9.522916e+000 71 54 24
2.991408e+000 2.046567e+000 -9.809456e+000 73 54 24
3.999451e+000 2.143447e+000 -9.672665e+000 184 153 80
-1.801832e+001 -2.055966e+000 -6.473666e+001 164 33 38
1.488701e+000 1.754856e+000 -8.378591e+000 85 69 43
2.522241e+000 1.879429e+000 -9.411038e+000 85 69 33
2.889706e+000 1.819858e+000 -9.685316e+000 83 67 42
4.205660e+000 1.949929e+000 -9.266101e+000 185 146 70
-6.190690e-001 1.213735e+000 -9.748226e+000 107 71 93
-6.106643e-001 1.223585e+000 -9.684102e+000 107 71 93
1.795895e+000 1.476464e+000 -8.518180e+000 133 110 66
2.039333e+000 1.467585e+000 -8.748053e+000 82 63 33
2.323146e+000 1.572692e+000 -9.130905e+000 73 56 30
-5.822758e-001 1.096116e+000 -9.566100e+000 117 73 98
1.453249e+000 1.403653e+000 -8.062023e+000 79 60 35
1.453249e+000 1.403653e+000 -8.062023e+000 79 60 35
1.805269e+000 1.420356e+000 -8.471215e+000 85 70 38
3.384657e+000 1.355348e+000 -9.939386e+000 92 71 51
2.821632e-001 1.136316e+000 -8.196710e+000 86 72 77
2.846737e-001 1.143337e+000 -8.152324e+000 86 72 77
1.643719e+000 1.262148e+000 -8.139764e+000 70 54 21
2.038109e+000 1.190932e+000 -8.469501e+000 112 94 58
2.038109e+000 1.190932e+000 -8.469501e+000 112 94 58
4.158419e+000 1.362601e+000 -9.315176e+000 166 126 56
4.147722e+000 1.275762e+000 -9.307350e+000 192 156 80
1.706511e+000 1.156441e+000 -8.114975e+000 60 56 30
2.091686e+000 1.136487e+000 -8.470926e+000 124 101 62
1.999263e+000 1.110751e+000 -8.323453e+000 80 72 49
1.999263e+000 1.110751e+000 -8.323453e+000 80 72 49
2.238432e+000 1.149576e+000 -8.626885e+000 65 50 24
2.741917e+000 1.055682e+000 -9.055678e+000 65 48 22
-3.672430e-001 6.180798e-001 -9.186537e+000 84 74 72
-3.672430e-001 6.180798e-001 -9.186537e+000 84 74 72
1.559129e+000 9.908111e-001 -7.817690e+000 71 66 47
1.710894e+000 1.019200e+000 -7.980332e+000 129 112 71
1.684540e+000 9.726561e-001 -7.896086e+000 61 62 37
1.899607e+000 1.031345e+000 -8.153539e+000 59 60 36
1.845598e+000 9.418512e-001 -8.043325e+000 86 78 49
2.225706e+000 1.016595e+000 -8.511890e+000 128 106 64
3.116717e+000 9.889804e-001 -9.390073e+000 73 59 33
3.235083e-001 7.512645e-001 -7.973599e+000 81 69 80
1.763929e+000 9.052686e-001 -7.961977e+000 137 114 73
1.759756e+000 9.103828e-001 -7.940206e+000 137 114 73
1.917228e+000 8.208333e-001 -8.030710e+000 80 63 25
2.136455e+000 8.852914e-001 -8.292849e+000 66 69 41
2.729149e+000 8.643594e-001 -8.896324e+000 72 67 41
2.729522e+000 8.614941e-001 -8.907822e+000 72 67 41
3.085899e+000 7.822678e-001 -9.235088e+000 90 80 54
1.759801e+000 7.454312e-001 -7.855791e+000 78 63 34
2.020045e+000 7.972199e-001 -8.138372e+000 86 67 35
2.102948e+000 6.839106e-001 -8.142334e+000 89 69 37
2.385420e+000 7.275804e-001 -8.453657e+000 82 62 29
2.749249e+000 7.066459e-001 -8.822771e+000 132 111 68
2.829007e+000 7.341464e-001 -8.925950e+000 70 64 49
2.774213e+000 6.378911e-001 -8.817861e+000 80 63 34
3.140596e+000 6.634407e-001 -9.211442e+000 59 53 36
4.258503e+000 7.592863e-001 -8.896625e+000 166 129 58
1.491206e+000 6.972566e-001 -7.533828e+000 72 57 28
3.063414e+000 5.685679e-001 -9.095448e+000 82 62 35
3.063414e+000 5.685679e-001 -9.095448e+000 82 62 35
4.334036e-001 2.082942e-001 -7.748302e+000 87 60 85
1.821265e+000 4.154974e-001 -7.708045e+000 72 55 27
3.457519e+000 2.275490e-001 -9.282651e+000 106 84 56
4.317824e+000 3.499152e-001 -8.727210e+000 170 139 59
2.225901e+000 2.253226e-001 -8.001412e+000 81 63 31
2.225901e+000 2.253226e-001 -8.001412e+000 81 63 31
2.431829e+000 2.264382e-001 -8.232425e+000 126 106 63
-2.415412e-001 -3.525825e-001 -8.789270e+000 87 70 82
6.657777e-002 -2.154933e-001 -8.267561e+000 213 225 215
2.377050e+000 8.329852e-002 -8.088482e+000 93 72 44
2.505373e+000 4.387665e-002 -8.222081e+000 90 72 36
3.114207e+000 2.045962e-002 -8.810323e+000 82 62 29
3.230856e+000 -5.429259e-002 -8.905516e+000 113 90 54
3.085859e+000 -6.611395e-002 -8.710695e+000 71 51 24
3.319524e+000 -1.308289e-001 -8.938253e+000 74 54 29
3.372386e+000 -7.880414e-002 -8.979067e+000 110 86 51
1.610739e+000 7.794261e-002 -7.327453e+000 120 101 58
1.745747e+000 1.079917e-001 -7.438009e+000 83 68 35
2.315994e+000 -6.850190e-002 -7.970762e+000 130 107 68
3.036511e+000 -1.710796e-001 -8.633663e+000 73 57 32
3.231707e+000 -2.046177e-001 -8.768832e+000 71 50 19
2.096869e-001 -3.448132e-001 -7.954009e+000 77 61 87
2.601442e+000 -1.888118e-001 -8.179025e+000 73 53 21
3.084659e+000 -2.741349e-001 -8.574239e+000 73 48 18
3.205473e+000 -3.056748e-001 -8.694460e+000 69 50 20
3.205473e+000 -3.056748e-001 -8.694460e+000 69 50 20
1.773893e+000 -1.579731e-001 -7.324647e+000 129 107 65
2.755881e+000 -3.158794e-001 -8.227270e+000 81 62 30
2.869667e+000 -4.071889e-001 -8.337895e+000 121 95 58
3.201519e+000 -4.139336e-001 -8.616803e+000 77 56 29
3.201519e+000 -4.139336e-001 -8.616803e+000 77 56 29
3.379747e+000 -4.479399e-001 -8.778143e+000 65 39 14
3.594966e+000 -5.126904e-001 -9.013723e+000 64 46 24
1.908751e+000 -2.981325e-001 -7.387243e+000 124 104 61
2.942788e+000 -5.036881e-001 -8.272864e+000 127 103 66
-3.112165e-001 -1.089984e+000 -8.530658e+000 196 210 201
4.327379e-001 -5.019413e-001 -7.367578e+000 67 50 82
3.156881e+000 -6.623482e-001 -8.361912e+000 116 96 59
3.156881e+000 -6.623482e-001 -8.361912e+000 116 96 59
-6.534029e-001 -1.440849e+000 -8.934731e+000 66 56 64
2.826210e+000 -6.839828e-001 -7.979017e+000 120 100 57
4.377678e+000 -7.398541e-001 -8.700826e+000 160 128 63
2.268194e+000 -6.677255e-001 -7.417913e+000 123 101 60
2.518769e+000 -7.223768e-001 -7.644124e+000 126 103 62
-2.356878e+001 6.106722e+000 -6.692328e+001 124 33 38
2.421911e+000 2.277136e+000 -9.498427e+000 123 103 66
-7.602792e-001 1.698635e+000 -1.000422e+001 87 72 92
-2.794337e-001 1.608423e+000 -9.223561e+000 85 68 74
2.821912e+000 1.779557e+000 -9.633821e+000 118 96 57
3.341731e+000 1.767389e+000 -9.980929e+000 47 29 9
4.371681e+000 1.044865e+000 -8.894962e+000 192 138 78
-3.574794e-001 1.649466e-001 -9.028752e+000 211 223 209
1.725891e+000 6.582532e-001 -7.735830e+000 83 67 33
2.182537e+000 5.499735e-001 -8.168917e+000 110 90 55
2.182537e+000 5.499735e-001 -8.168917e+000 110 90 55
3.451489e+000 3.203561e-001 -9.310549e+000 96 77 49
1.688837e+000 4.380410e-001 -7.604132e+000 66 49 23
1.721531e+000 3.864419e-001 -7.567221e+000 124 105 63
2.070715e+000 4.159346e-001 -7.930596e+000 130 109 64
2.086819e+000 3.116354e-001 -7.927046e+000 125 103 56
2.086819e+000 3.116354e-001 -7.927046e+000 125 103 56
2.144235e+000 3.534052e-001 -7.982348e+000 80 64 31
2.840426e+000 2.837592e-001 -8.711363e+000 91 70 41
5.355730e-001 -7.464038e-002 -7.497458e+000 207 225 208
2.223891e+000 -8.393392e-003 -7.924121e+000 97 80 46
2.210922e+000 1.116508e-002 -7.865621e+000 97 80 46
2.299203e+000 1.257509e-002 -8.016422e+000 125 104 61
2.400817e+000 -5.007163e-002 -8.092547e+000 72 51 24
2.004678e+000 -5.114615e-002 -7.622611e+000 93 76 46
2.339925e+000 -1.311245e-001 -7.945197e+000 80 62 26
2.339925e+000 -1.311245e-001 -7.945197e+000 80 62 26
2.905330e+000 -2.532489e-001 -8.445395e+000 78 56 25
-7.009443e-001 -9.638093e-001 -9.240500e+000 74 63 69
1.660891e+000 -8.468867e-002 -7.242380e+000 76 60 34
2.979537e+000 -3.588354e-001 -8.416437e+000 82 61 32
4.318776e+000 -5.832940e-001 -8.724137e+000 161 131 67
1.727228e+000 -3.121551e-001 -7.197071e+000 71 55 25
1.727228e+000 -3.121551e-001 -7.197071e+000 71 55 25
1.790445e+000 -3.772273e-001 -7.223835e+000 124 103 60
1.960663e+000 -3.619162e-001 -7.399560e+000 72 58 31
2.318336e+000 -4.362909e-001 -7.716686e+000 62 45 15
2.459048e+000 -4.677973e-001 -7.835449e+000 101 81 46
2.625984e+000 -4.916138e-001 -7.960193e+000 78 62 29
3.515596e+000 -6.829171e-001 -8.728778e+000 62 46 23
2.695759e+000 -7.041488e-001 -7.816808e+000 75 58 31
-1.085068e+000 2.494870e+000 -1.067870e+001 145 85 64
-1.091685e+000 2.494515e+000 -1.069144e+001 145 85 64
3.231240e+000 2.810855e+000 -1.058597e+001 50 32 12
1.370304e+000 2.100524e+000 -8.445297e+000 121 97 53
3.302241e+000 1.907023e+000 -9.942204e+000 52 31 17
2.205407e+000 1.517277e+000 -8.980200e+000 94 79 38
3.191410e+000 1.350176e+000 -9.793390e+000 105 84 53
-7.300106e-001 1.506000e-001 -9.650263e+000 208 225 211
-7.365964e-001 1.407076e-001 -9.683664e+000 208 225 211
9.032583e-001 4.296218e-001 -6.994013e+000 184 181 190
3.133002e-001 -2.165697e-001 -7.883700e+000 85 65 95
1.535448e+000 1.681989e-001 -7.215179e+000 71 60 32
-2.582679e-001 -6.612295e-001 -8.673595e+000 78 59 78
2.523729e+000 -5.297761e-001 -7.833181e+000 132 110 71
-7.789551e-003 2.827563e+000 -8.965069e+000 212 224 206
4.356822e+000 1.730651e+000 -9.008665e+000 214 177 89
-1.026687e-001 1.034581e+000 -8.841154e+000 100 73 92
-5.132299e-001 7.095275e-001 -9.414595e+000 80 60 69
-3.247252e-001 8.455453e-001 -9.159167e+000 92 66 69
-1.568519e-001 8.692358e-001 -8.882637e+000 209 223 208
4.320898e+000 7.011448e-001 -8.953900e+000 188 147 78
1.537781e-001 -9.240580e-003 -8.217683e+000 88 72 99
3.163183e-001 -9.982242e-001 -7.581774e+000 105 88 112
2.013924e-001 2.990957e+000 -8.817218e+000 135 69 71
-6.888288e-002 2.376453e+000 -9.030747e+000 84 61 71
3.080035e+000 2.247125e+000 -1.000287e+001 88 69 39
1.287705e-001 1.216830e+000 -8.490234e+000 87 65 78
1.680869e+000 1.831295e-002 -7.337060e+000 129 110 65
-8.745341e-001 -1.530245e+000 -9.359996e+000 70 56 63
-2.930021e-001 2.730735e+000 -9.584798e+000 89 62 55
-9.846539e-001 2.146596e+000 -1.049159e+001 76 61 59
1.061700e+000 2.523963e+000 -8.502071e+000 123 102 55
4.310901e+000 6.373074e-001 -9.167330e+000 159 128 67
-8.175178e-001 1.868836e+000 -1.029072e+001 111 74 88
1.203708e+000 2.082562e+000 -8.392665e+000 124 102 55
1.466541e+000 8.684102e-001 -7.735797e+000 129 108 61
2.011434e-001 1.790865e+000 -8.403863e+000 221 225 219
2.591921e+000 1.716327e+000 -9.449411e+000 61 45 11
-7.388507e-001 1.018381e+000 -9.880329e+000 203 215 211
4.129409e-001 -9.365762e-001 -7.515958e+000 63 49 70
6.779665e-001 -8.898783e-001 -7.128707e+000 176 171 191
3.253741e-001 -1.189957e+000 -7.646222e+000 64 56 80
5.369162e-001 -1.052475e+000 -7.334475e+000 199 205 216
3.357340e-001 -1.223733e+000 -7.636245e+000 199 200 211
2.114895e+000 2.560711e+000 -9.407788e+000 133 119 80
5.506348e-001 -5.366806e-002 -7.497286e+000 198 228 205
-8.058725e-001 -1.218268e+000 -9.329435e+000 211 216 215
-8.058725e-001 -1.218268e+000 -9.329435e+000 211 216 215
-9.497126e-001 3.160289e+000 -1.062780e+001 138 101 49
2.697007e-002 1.794846e+000 -8.755397e+000 215 226 212
-3.316086e-001 1.557487e+000 -9.298069e+000 84 63 66
-1.028965e+000 3.116890e+000 -1.074107e+001 120 71 53
2.595322e+000 2.389444e+000 -9.687232e+000 131 116 72
-1.222931e+000 2.485106e+000 -1.085969e+001 193 171 123
3.019767e+000 1.758740e+000 -9.799754e+000 117 102 68
1.016519e-001 -9.090583e-001 -8.012213e+000 85 64 90
-5.497512e-001 1.081464e+000 -9.576827e+000 101 66 79
2.392956e+000 1.619571e+000 -9.235600e+000 117 100 57
-1.212456e+000 2.207123e+000 -1.078184e+001 177 135 111
1.829111e+000 2.382322e+000 -9.115099e+000 123 105 68
1.663758e+000 2.205492e+000 -8.892450e+000 123 104 65
-3.785982e-001 -1.032311e+000 -8.712023e+000 179 181 179
9.744086e-002 -7.046614e-001 -8.131771e+000 161 138 159
-9.405228e-001 -1.761510e+000 -9.443409e+000 180 178 183
-1.190751e+000 3.007130e+000 -1.097258e+001 179 130 100
2.102474e+000 2.646371e+000 -9.444362e+000 126 108 70
1.828895e+000 2.343346e+000 -9.091256e+000 85 69 35
3.201280e+000 1.413916e+000 -9.838126e+000 90 73 47
2.137139e+000 1.176063e+000 -8.553315e+000 61 45 9
1.638449e+000 1.515591e-001 -7.393250e+000 58 40 20
1.093172e+000 2.966758e+000 -8.718195e+000 126 105 61
2.802705e+000 3.215539e+000 -1.040553e+001 62 59 38
1.639579e+000 2.718882e+000 -9.166426e+000 126 106 64
1.637508e+000 2.178047e+000 -8.854513e+000 119 99 62
1.864883e+000 2.254756e+000 -9.058063e+000 118 106 70
1.897729e+000 1.995688e+000 -8.977959e+000 69 53 19
-8.387849e-001 8.547728e-001 -9.963525e+000 214 225 217
1.489853e+000 1.173809e+000 -7.918004e+000 69 64 41
1.562417e+000 2.569024e+000 -9.010940e+000 68 53 22
2.019166e+000 2.678123e+000 -9.415214e+000 118 99 61
2.103666e+000 1.995765e+000 -9.141910e+000 127 108 69
1.858033e+000 1.319210e+000 -8.410790e+000 74 58 24
1.643080e+000 4.014072e-001 -7.516051e+000 124 102 61
-1.687601e+000 2.587282e+000 -1.145297e+001 80 63 78
1.477987e+000 2.414071e+000 -8.852468e+000 131 109 66
2.349290e+000 1.902098e+000 -9.307585e+000 82 62 35
1.332662e-001 4.723408e-001 -8.302230e+000 210 224 209
1.349191e+000 1.042327e+000 -7.739221e+000 123 101 60
2.170487e+000 2.422902e+000 -9.417204e+000 85 72 30
2.750390e+000 2.299244e+000 -9.809299e+000 140 122 85
-7.548446e-001 2.089812e+000 -1.019641e+001 119 81 86
-4.689272e-001 2.079119e+000 -9.919211e+000 94 76 76
1.902570e+000 1.399181e+000 -8.572924e+000 133 115 77
2.724446e+000 1.690505e+000 -9.603326e+000 110 96 61
3.283398e+000 1.597064e+000 -9.994487e+000 98 83 57
-7.357309e-001 1.016707e-001 -9.656499e+000 200 217 201
3.846266e-001 -2.544439e-001 -7.944667e+000 83 66 98
-8.344171e-001 -1.984497e-001 -9.554488e+000 69 58 62
1.490160e+000 -6.231063e-001 -6.767577e+000 119 103 69
6.341464e-001 -8.083179e-001 -7.178969e+000 86 79 102
-6.354117e-001 -1.422005e+000 -8.987189e+000 207 205 206
-6.341429e-001 -1.422531e+000 -8.974197e+000 207 205 206
1.747428e+000 2.256378e+000 -9.034381e+000 95 83 43
2.046115e+000 2.334632e+000 -9.292584e+000 87 71 37
2.134556e+000 2.446246e+000 -9.420030e+000 88 77 36
2.621076e+000 2.610776e+000 -9.945943e+000 135 117 81
1.280967e+000 1.935415e+000 -8.300883e+000 136 118 70
1.801622e+000 2.203195e+000 -9.050227e+000 137 123 84
2.039040e+000 2.222233e+000 -9.232753e+000 91 77 38
2.179413e+000 2.315313e+000 -9.373945e+000 88 73 35
2.530917e+000 2.474082e+000 -9.762990e+000 136 121 76
2.734877e+000 2.435817e+000 -9.890162e+000 132 114 72
2.714264e+000 2.327507e+000 -9.811780e+000 135 120 79
2.725408e+000 2.346933e+000 -9.864775e+000 135 120 79
2.774141e+000 2.369363e+000 -9.879704e+000 99 81 46
2.840506e+000 2.354970e+000 -9.914487e+000 89 71 35
2.849353e+000 2.366587e+000 -9.944812e+000 89 71 35
-8.679816e-001 2.574307e+000 -1.042203e+001 151 102 51
1.890839e+000 1.938969e+000 -9.000804e+000 130 112 72
2.658693e+000 2.093031e+000 -9.666297e+000 127 114 71
2.368355e-001 1.623116e+000 -8.398949e+000 224 226 215
3.139207e+000 2.207309e+000 -1.010242e+001 92 81 51
2.257831e+000 1.613356e+000 -9.125062e+000 75 60 21
2.398374e+000 1.632084e+000 -9.267669e+000 130 115 74
2.658759e+000 1.786082e+000 -9.595028e+000 124 110 67
2.742054e+000 1.570788e+000 -9.547930e+000 122 107 71
2.725611e+000 1.547917e+000 -9.566621e+000 78 59 26
2.880785e+000 1.591174e+000 -9.656097e+000 69 54 25
2.961884e+000 1.581843e+000 -9.730836e+000 65 49 25
1.680865e+000 9.842072e-001 -7.957625e+000 98 88 61
3.083235e+000 1.448409e+000 -9.783076e+000 73 57 31
3.327846e+000 1.382002e+000 -9.934993e+000 38 21 6
6.342093e-002 9.787335e-001 -8.538210e+000 91 59 80
6.342093e-002 9.787335e-001 -8.538210e+000 91 59 80
1.736253e+000 7.255575e-001 -7.832151e+000 142 120 79
-1.255648e+000 1.478021e+000 -1.066302e+001 83 66 70
-4.866537e-001 8.178507e-001 -9.423482e+000 221 230 221
2.404629e+000 3.930242e-001 -8.333723e+000 84 66 26
2.898686e+000 4.949385e-001 -8.875995e+000 82 63 30
2.898686e+000 4.949385e-001 -8.875995e+000 82 63 30
3.403510e+000 4.981624e-001 -9.383231e+000 70 53 26
1.619767e+000 9.868099e-002 -7.303666e+000 126 114 76
3.405220e+000 3.410597e-001 -9.311421e+000 107 87 56
3.405220e+000 3.410597e-001 -9.311421e+000 107 87 56
-7.643824e-001 2.059411e-001 -9.715908e+000 93 59 60
3.531434e+000 -7.401141e-002 -9.170015e+000 72 55 29
6.647246e-001 -7.510480e-001 -7.136398e+000 73 60 88
2.674178e+000 -7.777915e-001 -7.774264e+000 128 109 69
6.205567e-001 -9.752856e-001 -7.206264e+000 169 172 181
-9.302865e-002 -1.053186e+000 -8.253479e+000 196 206 198
2.925636e-001 -1.102131e+000 -7.652482e+000 73 56 90
4.750412e-001 -1.078341e+000 -7.433422e+000 80 65 89
5.532830e-001 -1.084373e+000 -7.282661e+000 66 51 84
5.529768e-001 -1.084927e+000 -7.273019e+000 66 51 84
-8.299771e-001 -1.180910e+000 -9.355984e+000 71 60 62
-8.379819e-001 -1.349028e+000 -9.335758e+000 206 206 202
-7.295277e-001 -1.488459e+000 -9.118965e+000 199 206 204
-2.986257e-001 2.351340e+000 -9.483129e+000 97 75 77
1.737823e+000 2.209242e+000 -9.021298e+000 131 118 77
1.891853e+000 2.177743e+000 -9.105682e+000 124 109 66
2.004181e+000 2.144412e+000 -9.132065e+000 130 115 74
2.014841e+000 2.098066e+000 -9.142291e+000 98 78 46
2.212022e+000 2.258656e+000 -9.390171e+000 134 120 76
2.282151e+000 2.166119e+000 -9.354635e+000 77 62 23
2.562630e+000 2.435397e+000 -9.731589e+000 136 123 81
-1.251888e+000 2.921913e+000 -1.110266e+001 132 78 56
-2.393158e-001 2.279810e+000 -9.368734e+000 199 195 190
1.741111e+000 1.945673e+000 -8.876382e+000 80 66 31
2.301240e+000 2.124413e+000 -9.394354e+000 134 120 74
2.376862e+000 2.089603e+000 -9.409815e+000 129 114 72
2.543152e+000 2.089482e+000 -9.556508e+000 133 115 77
2.688355e+000 2.162668e+000 -9.740721e+000 88 72 36
2.688355e+000 2.162668e+000 -9.740721e+000 88 72 36
-9.097085e-001 2.545026e+000 -1.048184e+001 163 97 54
-9.104502e-001 2.552956e+000 -1.050035e+001 163 97 54
2.071329e+000 1.931320e+000 -9.183012e+000 129 114 72
2.138757e+000 1.915358e+000 -9.214246e+000 131 116 73
2.098862e+000 1.846793e+000 -9.137314e+000 78 62 29
2.149475e+000 1.846522e+000 -9.184542e+000 87 70 37
2.201936e+000 1.834609e+000 -9.219669e+000 82 63 30
2.470006e+000 1.958168e+000 -9.427017e+000 124 109 68
2.470006e+000 1.958168e+000 -9.427017e+000 124 109 68
2.535693e+000 1.900514e+000 -9.477144e+000 84 68 34
2.535693e+000 1.900514e+000 -9.477144e+000 84 68 34
2.599262e+000 1.892780e+000 -9.517487e+000 96 80 44
2.651831e+000 1.998311e+000 -9.582495e+000 91 75 39
2.670648e+000 2.024678e+000 -9.651246e+000 91 75 39
2.829258e+000 1.941204e+000 -9.737162e+000 129 110 73
2.065809e+000 1.584125e+000 -8.920254e+000 124 109 66
2.150465e+000 1.549490e+000 -8.960782e+000 126 111 68
3.076054e+000 1.882233e+000 -9.871260e+000 121 103 71
-1.822574e-001 1.619393e+000 -9.091560e+000 212 227 209
2.106159e-001 1.430160e+000 -8.375682e+000 218 221 211
2.532468e+000 1.661645e+000 -9.414158e+000 67 52 17
1.558589e+000 9.980966e-001 -7.832661e+000 90 84 49
3.072949e+000 1.367202e+000 -9.701791e+000 119 99 72
3.221372e+000 1.380575e+000 -9.878094e+000 113 97 72
-5.586090e-001 1.307702e+000 -9.682579e+000 216 229 215
1.818907e+000 7.927485e-001 -7.937668e+000 134 117 74
2.112088e+000 8.251383e-001 -8.243223e+000 133 115 79
2.087110e+000 6.817900e-001 -8.133465e+000 87 69 31
2.086500e+000 6.795376e-001 -8.125149e+000 87 69 31
2.319693e+000 6.238869e-001 -8.350972e+000 99 80 40
2.788092e+000 8.808327e-001 -9.023653e+000 87 80 46
2.450144e+000 5.304769e-001 -8.426041e+000 132 116 73
2.825724e+000 5.740391e-001 -8.857684e+000 134 116 76
1.898939e+000 3.383145e-001 -7.740063e+000 130 113 70
2.257516e+000 3.636682e-001 -8.155650e+000 136 115 68
2.631993e+000 3.349693e-001 -8.523128e+000 105 89 53
2.788244e+000 4.819440e-001 -8.772809e+000 129 111 70
3.027334e+000 5.598040e-001 -9.021032e+000 91 75 41
1.660390e+000 8.341312e-002 -7.355169e+000 97 81 47
3.339978e+000 2.980212e-001 -9.224424e+000 77 60 30
2.961000e+000 1.554298e-001 -8.752349e+000 89 72 42
2.958097e+000 1.537482e-001 -8.742304e+000 89 72 42
1.989866e+000 -1.333047e-001 -7.613346e+000 124 109 68
2.805634e+000 7.832665e-003 -8.495142e+000 128 110 74
3.429464e+000 -4.856948e-002 -9.087201e+000 74 58 32
2.206583e+000 -2.321846e-001 -7.793007e+000 94 80 45
2.206583e+000 -2.321846e-001 -7.793007e+000 94 80 45
3.008659e+000 -1.777026e-001 -8.589333e+000 80 64 31
3.127882e+000 -1.974194e-001 -8.714898e+000 77 60 28
4.369177e+000 -7.395017e-001 -8.509526e+000 141 111 49
-1.723787e-001 -6.507426e-001 -8.542192e+000 204 219 210
-8.036554e-002 -5.837393e-001 -8.424820e+000 193 223 210
4.487946e-002 -6.738954e-001 -8.181084e+000 199 226 203
2.420102e+000 -7.325158e-001 -7.571092e+000 124 108 70
6.528545e-001 -8.774484e-001 -7.130433e+000 63 51 78
5.062042e-001 -9.469379e-001 -7.369903e+000 189 192 197
4.041010e-001 -1.069467e+000 -7.507918e+000 56 49 68
-3.561612e-001 -1.111927e+000 -8.593148e+000 100 70 74
-3.165849e-001 -1.106811e+000 -8.581043e+000 195 201 195
-4.042275e-001 -1.162747e+000 -8.709546e+000 178 196 183
-8.506128e-001 2.966982e+000 -1.045588e+001 124 74 51
1.668330e+000 2.202780e+000 -8.912254e+000 123 111 69
1.360271e+000 1.974694e+000 -8.455082e+000 131 113 67
2.866217e+000 2.471452e+000 -1.005150e+001 129 113 79
2.858819e+000 2.455449e+000 -1.001182e+001 129 113 79
2.039756e+000 1.961984e+000 -9.109747e+000 95 79 43
4.263323e-002 1.842323e+000 -8.720637e+000 88 77 90
2.339055e+000 1.914510e+000 -9.318782e+000 94 78 44
2.704797e+000 2.001378e+000 -9.627383e+000 86 71 34
2.731246e+000 2.043549e+000 -9.739108e+000 86 71 34
2.789268e+000 2.054663e+000 -9.702191e+000 132 117 76
2.875511e+000 1.951860e+000 -9.716237e+000 95 77 39
-1.739861e+000 2.665618e+000 -1.170132e+001 75 52 72
-1.148974e+000 2.475764e+000 -1.082399e+001 140 84 63
2.962186e+000 1.899159e+000 -9.771199e+000 122 106 70
3.235942e+000 1.977241e+000 -1.001118e+001 119 102 73
3.148193e+000 1.797474e+000 -9.895983e+000 69 52 24
2.875235e+000 1.702894e+000 -9.662137e+000 79 63 38
3.136662e+000 1.675320e+000 -9.887444e+000 68 53 27
-1.187974e+000 1.813798e+000 -1.069539e+001 207 220 208
-4.736181e-001 1.441362e+000 -9.570608e+000 75 60 65
1.002773e-001 1.101423e+000 -8.452661e+000 207 226 203
1.002773e-001 1.101423e+000 -8.452661e+000 207 226 203
3.358930e+000 1.335998e+000 -9.921320e+000 106 90 68
-1.383091e+000 1.662082e+000 -1.093977e+001 211 228 212
-1.062752e+000 1.580972e+000 -1.044954e+001 216 227 214
1.500616e+000 6.881875e-001 -7.548868e+000 84 69 27
-7.127951e-001 1.258934e+000 -9.880955e+000 87 73 82
-8.791453e-001 1.140123e+000 -1.009948e+001 87 69 83
-9.561029e-001 1.086449e+000 -1.019661e+001 84 67 82
1.669294e+000 4.432343e-001 -7.585734e+000 76 60 26
2.083774e+000 3.968651e-001 -7.985988e+000 130 112 66
-1.146474e+000 9.473595e-001 -1.039953e+001 96 81 95
1.724409e+000 2.702953e-001 -7.541502e+000 126 111 71
1.634922e+000 1.863603e-001 -7.405375e+000 129 112 69
1.836987e+000 2.958793e-001 -7.650806e+000 96 77 45
2.535035e+000 3.548717e-001 -8.440279e+000 90 74 38
-5.732714e-001 5.544142e-001 -9.586413e+000 206 229 209
9.103575e-002 4.081548e-001 -8.298100e+000 207 230 209
1.710999e+000 1.527749e-001 -7.462475e+000 128 114 67
1.814097e+000 7.786047e-002 -7.520096e+000 82 73 31
2.039631e+000 2.074835e-001 -7.842874e+000 130 116 67
-6.848632e-001 4.764442e-001 -9.719365e+000 211 231 212
1.868348e+000 -4.816143e-002 -7.512366e+000 104 86 48
1.868348e+000 -4.816143e-002 -7.512366e+000 104 86 48
2.397415e+000 6.147507e-002 -8.156753e+000 99 81 43
2.438209e+000 9.880245e-002 -8.195420e+000 121 103 59
2.438209e+000 9.880245e-002 -8.195420e+000 121 103 59
2.129151e-001 4.357472e-004 -8.095491e+000 79 61 87
1.798887e+000 -1.860229e-001 -7.418990e+000 125 110 69
2.037455e+000 -7.902975e-002 -7.706606e+000 96 82 47
2.627870e+000 -6.427744e-002 -8.281403e+000 124 109 66
2.174961e+000 -2.864576e-001 -7.728391e+000 125 110 68
2.053100e+000 -3.596633e-001 -7.549678e+000 125 112 68
2.903628e+000 -4.215635e-001 -8.354367e+000 121 106 65
2.571859e+000 -4.675799e-001 -7.974080e+000 123 106 63
1.601955e-002 -5.368622e-001 -8.287043e+000 201 221 205
-4.285413e-001 -9.716762e-001 -8.807299e+000 206 211 208
-5.832450e-001 -1.436903e+000 -8.884178e+000 69 55 69
7.740548e-001 -1.521266e+000 -6.518132e+000 47 34 79
1.833905e+000 -1.700977e+000 -6.198413e+000 47 42 82
-2.159056e+000 3.662227e+000 -1.230441e+001 176 166 156
-2.022146e+000 3.528595e+000 -1.210323e+001 100 68 53
-1.028870e+000 2.881597e+000 -1.073685e+001 162 112 85
8.761625e-002 1.909547e+000 -8.638108e+000 90 78 84
1.659998e+000 1.841226e+000 -8.675513e+000 133 116 70
-1.372563e-002 9.987018e-001 -8.677911e+000 208 226 207
4.197185e+000 9.825864e-001 -9.138678e+000 172 135 65
1.746434e+000 3.705577e-001 -7.619130e+000 118 103 64
-4.278754e-001 7.932071e-001 -9.350420e+000 95 77 77
2.062139e+000 2.998578e-001 -7.916090e+000 133 115 66
-4.520531e-001 6.239737e-001 -9.404606e+000 213 227 210
1.999987e+000 -1.321247e-002 -7.673478e+000 131 115 68
2.311558e+000 3.368535e-003 -8.027624e+000 126 108 65
1.963916e+000 -7.791304e-002 -7.609317e+000 92 77 38
1.727503e+000 -3.457912e-001 -7.232909e+000 88 73 42
2.132445e+000 -4.294671e-001 -7.591294e+000 79 64 34
2.234715e+000 -3.903521e-001 -7.734935e+000 125 108 62
-2.591547e-001 -3.481366e-001 -8.837532e+000 79 63 76
2.167171e-001 -4.065693e-001 -7.924377e+000 68 51 77
6.276557e-001 -5.225212e-001 -7.273425e+000 77 58 85
-4.346143e-001 -5.890785e-001 -8.935904e+000 209 229 202
-4.345068e-001 -5.888841e-001 -8.934391e+000 209 229 202
-1.580987e-001 -5.875490e-001 -8.567531e+000 94 67 88
3.162890e-003 -6.372775e-001 -8.207516e+000 133 82 111
-3.630110e-001 -7.540521e-001 -8.753777e+000 88 70 78
-8.431559e-001 -8.680426e-001 -9.440787e+000 210 227 210
-8.437067e-001 -8.689244e-001 -9.432517e+000 210 227 210
-5.380397e-001 -8.716045e-001 -9.048047e+000 88 68 73
-3.704994e-001 -9.430293e-001 -8.724854e+000 96 66 73
-8.171924e-001 -1.064292e+000 -9.389524e+000 71 54 62
-6.210220e-001 -9.282212e-001 -9.172312e+000 79 68 74
5.217662e-001 -9.935574e-001 -7.333859e+000 72 62 85
5.217662e-001 -9.935574e-001 -7.333859e+000 72 62 85
-6.567614e-001 -1.478230e+000 -8.973124e+000 74 59 71
-1.179084e+000 3.088120e+000 -1.096153e+001 109 69 57
2.209234e+000 2.169213e+000 -9.301487e+000 123 109 62
-1.970290e+000 3.267454e+000 -1.199752e+001 159 125 87
2.287587e-001 1.673241e+000 -8.331177e+000 73 56 56
3.270169e+000 1.883586e+000 -9.884836e+000 67 47 22
2.723889e-001 1.394977e+000 -8.261137e+000 82 66 68
2.181834e-001 1.351812e+000 -8.370282e+000 79 65 65
1.273015e+000 1.182108e+000 -7.742677e+000 137 122 83
4.182468e+000 1.119824e+000 -9.207394e+000 176 147 71
-1.213695e+000 1.524448e+000 -1.063177e+001 212 231 217
-7.735227e-001 1.450458e+000 -1.001353e+001 79 67 79
-1.306832e+000 1.512254e+000 -1.076040e+001 93 73 82
3.172788e-001 7.572375e-001 -7.971454e+000 90 64 79
-6.616758e-001 5.938191e-001 -9.692498e+000 92 68 90
-7.439163e-001 5.525145e-001 -9.786448e+000 89 70 89
-3.678127e-001 1.583163e-001 -9.072091e+000 208 226 210
1.706472e-001 -1.120718e-001 -8.231480e+000 203 224 205
4.456145e-001 -2.060696e-001 -7.713772e+000 202 227 206
4.456145e-001 -2.060696e-001 -7.713772e+000 202 227 206
3.666961e-001 -6.342436e-001 -7.616577e+000 199 226 207
1.177967e-001 -8.807602e-001 -8.040473e+000 96 65 96
-2.542347e-001 -1.022409e+000 -8.545704e+000 82 65 79
-9.297158e-001 -1.148565e+000 -9.526860e+000 76 59 67
-8.253251e-001 -1.412660e+000 -9.319169e+000 67 52 55
-8.147120e-001 -1.412032e+000 -9.237338e+000 67 52 55
1.797059e+000 -1.731501e+000 -6.306422e+000 66 58 95
-8.847509e-001 2.844479e+000 -1.051102e+001 111 70 50
-1.004695e+000 2.413423e+000 -1.064315e+001 197 179 121
-7.985107e-001 1.623975e+000 -1.012116e+001 85 74 93
-3.141800e-001 8.311021e-001 -9.142878e+000 111 75 82
4.242071e+000 5.408630e-001 -9.006420e+000 151 117 57
-3.318605e-001 7.038537e-001 -9.165567e+000 209 225 207
1.602319e+000 2.319435e-001 -7.407947e+000 129 112 68
4.541557e-001 -9.236301e-001 -7.430583e+000 143 145 153
8.279551e-001 -1.479126e+000 -6.545639e+000 144 149 173
-1.447340e+000 2.915257e+000 -1.119609e+001 95 62 55
-2.860439e-001 2.083440e+000 -9.510754e+000 100 76 81
-1.269364e+000 1.601802e+000 -1.075105e+001 209 226 210
3.987016e-001 1.028028e-001 -7.800875e+000 205 226 209
1.727097e+000 4.622666e-003 -7.438548e+000 128 112 63
4.894728e-001 1.355568e-002 -7.658018e+000 155 153 160
2.554683e-001 -9.647177e-001 -7.737763e+000 77 57 94
-5.474999e-001 2.080437e+000 -9.781241e+000 217 218 208
-1.014102e+000 2.113891e+000 -1.049047e+001 81 62 59
1.212364e-002 8.625847e-001 -8.725264e+000 93 72 99
1.212364e-002 8.625847e-001 -8.725264e+000 93 72 99
1.640962e+000 -1.186622e+000 -6.660487e+000 24 18 22
-4.737906e-001 1.816939e+000 -9.757897e+000 94 72 84
1.481902e+000 2.873378e-001 -7.354100e+000 128 111 67
5.864381e-001 3.522007e-002 -7.532155e+000 85 60 91
4.334744e+000 -1.776743e+000 -8.292590e+000 89 58 29
1.273730e-001 -1.137718e+000 -7.765083e+000 81 59 98
8.101861e-001 3.712607e-001 -6.976154e+000 126 72 106
5.454304e-001 -3.506892e-001 -7.451819e+000 105 101 106
3.387978e+000 1.475158e+000 -9.543651e+000 77 47 21
-1.044174e+000 3.034866e+000 -1.074596e+001 132 72 51
-1.769047e+000 2.884168e+000 -1.152088e+001 163 125 77
-1.468045e+000 2.749366e+000 -1.123678e+001 125 92 53
-2.724769e-001 2.802600e+000 -9.448900e+000 88 61 51
-6.367379e-001 2.660887e+000 -1.002490e+001 194 174 129
-5.781127e-001 2.623623e+000 -9.932825e+000 202 174 145
-1.428679e+000 2.092917e+000 -1.107455e+001 85 66 85
-1.148448e+000 1.835563e+000 -1.066272e+001 82 66 73
1.494984e-001 2.107971e+000 -8.503218e+000 127 101 112
3.970804e+000 2.201252e+000 -9.489066e+000 157 123 47
-7.106721e-001 3.097113e+000 -1.022775e+001 213 175 110
-1.172520e+000 2.834159e+000 -1.090391e+001 197 145 117
-8.036914e-001 2.902008e+000 -1.035558e+001 195 143 102
-8.514468e-001 2.700965e+000 -1.042569e+001 199 162 118
2.944806e+000 3.232850e+000 -1.052725e+001 92 80 58
-1.327904e+000 2.596946e+000 -1.102887e+001 174 144 95
-1.155908e+000 2.607821e+000 -1.082527e+001 106 59 53
-5.399555e-001 2.617708e+000 -9.847391e+000 107 76 85
-8.117251e-001 2.467096e+000 -1.028089e+001 204 181 136
2.103142e+000 2.551860e+000 -9.354269e+000 126 111 72
1.873599e+000 2.316225e+000 -9.114969e+000 61 41 16
2.689585e+000 1.665790e+000 -9.495606e+000 114 94 63
2.689585e+000 1.665790e+000 -9.495606e+000 114 94 63
2.435644e+000 1.065894e+000 -8.752465e+000 123 108 72
4.252905e+000 -2.770564e-001 -8.770292e+000 135 95 36
2.319859e+000 3.319040e+000 -9.991958e+000 83 69 43
2.882849e+000 3.474700e+000 -1.058133e+001 118 94 68
2.810029e+000 3.366545e+000 -1.046403e+001 114 92 64
1.905699e+000 3.136685e+000 -9.565475e+000 123 108 68
1.814422e+000 2.852943e+000 -9.341928e+000 124 105 65
2.316822e+000 2.853952e+000 -9.682914e+000 121 98 66
1.770056e+000 2.705985e+000 -9.232171e+000 128 110 78
-8.674062e-001 1.687969e+000 -1.018330e+001 218 220 215
3.904831e+000 2.351334e+000 -9.747669e+000 150 117 48
2.859750e+000 1.642344e+000 -9.606782e+000 106 89 62
2.991810e+000 1.622984e+000 -9.709071e+000 108 91 63
4.138654e+000 1.827172e+000 -9.204428e+000 217 178 99
2.734590e+000 1.307819e+000 -9.260562e+000 123 97 66
4.069774e+000 1.462250e+000 -9.369832e+000 167 129 58
2.146352e+000 1.161963e+000 -8.587055e+000 89 71 36
-1.172664e+000 1.751233e-001 -1.020753e+001 214 225 218
2.663018e+000 1.019204e+000 -8.944076e+000 120 101 69
3.251850e+000 4.335887e-002 -8.979275e+000 122 99 67
3.251850e+000 4.335887e-002 -8.979275e+000 122 99 67
-6.047115e-002 -1.114550e+000 -8.298491e+000 85 66 89
9.479151e-001 3.177910e+000 -8.634963e+000 93 70 39
2.711490e+000 3.509693e+000 -1.054452e+001 118 98 62
2.891691e+000 3.536137e+000 -1.072258e+001 67 47 23
2.891691e+000 3.536137e+000 -1.072258e+001 67 47 23
1.804902e+000 3.247654e+000 -9.523948e+000 117 98 65
2.613367e+000 3.459884e+000 -1.035537e+001 84 58 33
2.613367e+000 3.459884e+000 -1.035537e+001 84 58 33
1.716016e+000 2.928148e+000 -9.302231e+000 127 107 72
1.967690e+000 2.902045e+000 -9.451994e+000 128 110 74
2.208574e+000 3.028964e+000 -9.687543e+000 76 55 26
2.288575e+000 3.061501e+000 -9.799503e+000 117 94 61
2.536364e+000 3.007410e+000 -1.000897e+001 118 98 61
3.062632e+000 3.052183e+000 -1.063658e+001 68 53 34
2.205098e+000 2.927111e+000 -9.648132e+000 76 56 23
2.621503e+000 2.933142e+000 -1.003600e+001 83 62 35
3.922146e+000 3.027509e+000 -9.743738e+000 200 164 86
-1.119836e+000 2.219510e+000 -1.065050e+001 72 56 68
-2.666415e-001 2.437054e+000 -9.386043e+000 88 68 70
3.155864e+000 2.754056e+000 -1.050016e+001 74 57 37
3.999421e+000 2.918964e+000 -9.772433e+000 172 131 55
-5.525665e-002 2.247368e+000 -8.927659e+000 213 209 205
1.964254e+000 2.253277e+000 -9.107792e+000 124 106 68
1.663822e+000 2.112250e+000 -8.839856e+000 84 67 37
2.584078e+000 2.210887e+000 -9.596294e+000 92 76 43
-9.701657e-002 1.701121e+000 -8.957190e+000 210 222 211
2.396027e+000 2.010649e+000 -9.337230e+000 69 49 24
2.244699e+000 1.857245e+000 -9.212025e+000 124 104 64
2.657226e+000 1.922883e+000 -9.499145e+000 125 107 71
2.657226e+000 1.922883e+000 -9.499145e+000 125 107 71
2.986568e+000 1.751977e+000 -9.725083e+000 117 94 60
2.526983e+000 1.589747e+000 -9.322664e+000 110 96 59
3.294773e+000 1.535912e+000 -9.913641e+000 45 30 14
1.847049e+000 1.511215e+000 -8.581378e+000 76 60 34
2.547222e+000 1.485142e+000 -9.266893e+000 117 96 56
1.739525e+000 1.283937e+000 -8.298302e+000 125 105 68
2.486413e+000 1.247802e+000 -8.973571e+000 125 106 66
2.567564e+000 1.331194e+000 -9.128696e+000 133 115 79
1.507693e+000 1.234479e+000 -8.015698e+000 118 102 68
1.507693e+000 1.234479e+000 -8.015698e+000 118 102 68
2.943577e+000 1.175427e+000 -9.341470e+000 121 101 67
3.100506e+000 1.192617e+000 -9.516038e+000 79 59 28
2.296020e+000 1.008403e+000 -8.555679e+000 127 110 69
2.747905e+000 9.179702e-001 -8.948040e+000 117 99 59
1.813897e+000 8.965700e-001 -7.997649e+000 128 110 71
2.152562e+000 7.757644e-001 -8.242615e+000 88 69 35
2.544713e+000 7.922381e-002 -8.309815e+000 126 106 68
3.712731e-002 -7.166073e-001 -8.281039e+000 209 228 216
3.545738e+000 -5.944627e-001 -8.872213e+000 69 49 24
1.850841e+000 3.176894e+000 -9.576066e+000 68 61 44
2.118004e+000 3.154102e+000 -9.762854e+000 74 67 46
2.552496e+000 3.060759e+000 -1.011847e+001 79 71 52
-1.598897e+000 2.320026e+000 -1.133844e+001 176 143 92
2.023557e+000 2.839010e+000 -9.500837e+000 71 56 27
