ply
format ascii 1.0
element face 0
property list uchar int vertex_indices
element vertex 891
property float x
property float y
property float z
property uchar diffuse_red
property uchar diffuse_green
property uchar diffuse_blue
end_header
-2.925422e+001 -5.012981e+000 -5.997070e+001 75 67 65
-2.005045e-001 2.232760e-002 -9.132128e+000 75 62 72
-3.253985e-001 -1.144237e+000 -8.744606e+000 108 66 78
-7.276390e-001 -1.448063e+000 -9.423387e+000 69 56 57
-2.019991e+001 -1.477988e-002 -6.486993e+001 35 20 47
1.838678e+000 2.735652e+000 -9.365069e+000 122 108 71
2.324614e+000 2.919031e+000 -9.895502e+000 128 112 76
-9.972886e-001 3.074839e+000 -1.101460e+001 165 126 88
-8.298110e-001 2.962498e+000 -1.074112e+001 175 123 93
1.416632e+000 2.423156e+000 -8.827091e+000 120 106 69
-1.096563e+000 3.084145e+000 -1.126841e+001 111 73 57
-1.072603e+000 2.929045e+000 -1.105712e+001 110 75 55
-3.424070e-001 2.562138e+000 -9.886792e+000 185 167 141
2.159704e+000 2.507096e+000 -9.530875e+000 130 116 78
-8.787616e-001 2.738051e+000 -1.078561e+001 125 78 56
-1.958099e-001 2.399874e+000 -9.653336e+000 87 69 69
-1.328486e-001 2.380649e+000 -9.496259e+000 73 55 51
1.837015e+000 2.208292e+000 -9.070810e+000 132 118 82
2.211855e+000 2.227005e+000 -9.400158e+000 127 114 70
1.642913e+000 1.953763e+000 -8.762744e+000 128 113 73
1.964351e+000 2.024322e+000 -9.143391e+000 126 112 73
2.942204e+000 2.338107e+000 -1.004342e+001 76 61 30
-1.013087e+000 2.327131e+000 -1.080469e+001 179 161 110
-9.704487e-001 2.352774e+000 -1.077822e+001 187 160 116
-8.728217e-001 2.272775e+000 -1.064414e+001 149 123 88
-1.264153e+000 2.133081e+000 -1.113069e+001 138 106 73
-5.874049e-001 2.032333e+000 -1.018451e+001 87 72 72
3.776727e-001 1.575250e+000 -8.461804e+000 218 224 218
2.245185e+000 1.526680e+000 -9.083244e+000 134 119 79
2.762085e+000 1.623869e+000 -9.625203e+000 113 100 66
2.762085e+000 1.623869e+000 -9.625203e+000 113 100 66
-1.053936e+000 1.749140e+000 -1.080362e+001 97 90 87
-1.053936e+000 1.749140e+000 -1.080362e+001 97 90 87
-1.732494e-001 1.490093e+000 -9.422710e+000 205 222 207
2.146925e+000 1.481523e+000 -8.931600e+000 129 114 75
2.735843e+000 1.424680e+000 -9.460772e+000 120 108 71
2.724117e+000 1.366367e+000 -9.423652e+000 119 107 69
2.255021e+000 1.128529e+000 -8.689229e+000 125 111 75
2.344983e+000 1.076322e+000 -8.720801e+000 114 105 72
1.947425e+000 8.970684e-001 -8.164203e+000 84 81 48
2.712892e+000 1.005102e+000 -9.042249e+000 120 109 80
4.324467e+000 9.656202e-001 -8.998264e+000 184 145 66
1.407499e+000 7.324947e-001 -7.621019e+000 66 49 28
-1.132011e+000 8.189759e-001 -1.065375e+001 213 215 212
-1.060704e+000 8.643977e-001 -1.057436e+001 208 213 212
-3.388952e-001 7.824715e-001 -9.520853e+000 92 67 76
1.896561e+000 6.799520e-001 -7.960278e+000 127 114 72
1.831917e+000 5.500564e-001 -7.824964e+000 115 100 67
-6.492888e-001 5.919080e-001 -9.906720e+000 211 221 218
-7.161679e-001 5.539614e-001 -1.001068e+001 203 229 215
-1.057341e+000 3.360561e-001 -1.035648e+001 195 197 204
2.903273e+000 2.347788e-001 -8.799979e+000 120 102 66
2.489149e+000 -9.607207e-002 -8.173464e+000 128 113 74
3.493728e+000 -9.300228e-002 -9.119209e+000 117 97 72
4.274383e+000 -4.079319e-002 -8.721250e+000 169 139 66
2.282000e+000 -1.564924e-001 -7.946351e+000 129 116 72
3.215130e-001 -2.955855e-001 -8.188386e+000 215 218 223
3.215062e-001 -2.955197e-001 -8.194264e+000 215 218 223
4.351398e+000 -4.685263e-001 -8.621694e+000 164 140 68
2.045357e-001 -5.535080e-001 -8.277853e+000 86 56 76
2.098133e-001 -6.072861e-001 -8.285016e+000 74 59 73
2.650961e+000 -6.002417e-001 -7.994730e+000 61 44 12
2.674606e+000 -5.934627e-001 -8.001276e+000 126 107 73
-2.019644e-001 -7.664399e-001 -8.844747e+000 71 58 59
2.437467e+000 -6.530794e-001 -7.748687e+000 58 44 10
3.125918e+000 -7.321560e-001 -8.351432e+000 118 105 63
-8.155487e-001 -1.135684e+000 -9.616799e+000 201 204 205
-2.865529e-001 -9.388109e-001 -8.894933e+000 85 60 64
-2.865529e-001 -9.388109e-001 -8.894933e+000 85 60 64
5.709711e-001 -8.264038e-001 -7.600740e+000 206 201 220
-1.574171e-001 -1.059224e+000 -8.663156e+000 89 58 82
-4.885028e-001 -1.341767e+000 -9.082024e+000 213 208 215
4.184922e-001 -1.034471e+000 -7.802068e+000 71 61 83
-7.970421e-001 -1.675323e+000 -9.493758e+000 177 165 170
1.795586e+000 2.769043e+000 -9.410636e+000 134 120 81
1.447258e+000 2.540972e+000 -8.997384e+000 122 110 69
1.495098e+000 2.570735e+000 -9.057762e+000 73 59 24
1.490436e+000 2.520751e+000 -9.026844e+000 126 114 73
1.490436e+000 2.520751e+000 -9.026844e+000 126 114 73
1.379704e+000 2.449233e+000 -8.830843e+000 130 115 76
1.637192e+000 2.457679e+000 -9.054832e+000 125 111 73
1.841452e+000 2.555181e+000 -9.345583e+000 130 118 79
1.904837e+000 2.524249e+000 -9.313914e+000 134 120 82
2.873644e+000 2.991121e+000 -1.045897e+001 102 92 61
3.038680e+000 2.948087e+000 -1.063996e+001 107 91 65
-1.051555e-001 2.417791e+000 -9.450794e+000 82 67 63
1.504090e+000 2.240160e+000 -8.794240e+000 78 64 29
1.558800e+000 2.288835e+000 -8.943186e+000 128 114 77
1.837167e+000 2.450121e+000 -9.288070e+000 124 110 73
1.933872e+000 2.491502e+000 -9.297874e+000 89 75 40
1.933872e+000 2.491502e+000 -9.297874e+000 89 75 40
1.975957e+000 2.428095e+000 -9.364695e+000 131 119 79
2.058801e+000 2.447571e+000 -9.372529e+000 91 75 41
2.476685e+000 2.580642e+000 -9.782729e+000 123 109 71
2.505397e+000 2.466323e+000 -9.742684e+000 128 116 74
2.505397e+000 2.466323e+000 -9.742684e+000 128 116 74
2.905300e+000 2.709310e+000 -1.037705e+001 90 72 42
2.905300e+000 2.709310e+000 -1.037705e+001 90 72 42
3.027170e+000 2.785682e+000 -1.054767e+001 66 53 21
-1.090851e+000 2.722646e+000 -1.110075e+001 166 116 90
-1.449242e-001 2.288609e+000 -9.543084e+000 88 69 70
1.546813e+000 2.234677e+000 -8.867184e+000 71 56 25
1.546813e+000 2.234677e+000 -8.867184e+000 71 56 25
1.688420e+000 2.224833e+000 -8.966303e+000 127 114 72
1.961800e+000 2.253888e+000 -9.193599e+000 60 45 11
1.949175e+000 2.198469e+000 -9.138438e+000 124 110 74
2.324474e+000 2.364790e+000 -9.507755e+000 125 112 70
2.190736e+000 2.283766e+000 -9.377226e+000 126 109 66
-8.733794e-001 2.528551e+000 -1.069761e+001 119 68 48
-2.980426e-001 2.256867e+000 -9.781291e+000 72 70 66
2.645762e+000 2.212304e+000 -9.703564e+000 127 112 75
2.554387e+000 2.126628e+000 -9.601804e+000 129 111 71
2.554387e+000 2.126628e+000 -9.601804e+000 129 111 71
2.931519e+000 2.288647e+000 -9.989567e+000 120 105 71
1.739155e+000 1.924471e+000 -8.847441e+000 121 107 69
2.014338e+000 1.917626e+000 -9.150180e+000 75 61 26
3.000047e+000 2.055314e+000 -9.909853e+000 126 112 75
3.178581e+000 2.069751e+000 -1.003611e+001 79 64 35
1.486047e+000 1.452202e+000 -8.187681e+000 126 111 69
2.013636e+000 1.570768e+000 -8.864278e+000 124 111 68
2.701287e+000 1.697500e+000 -9.611993e+000 124 107 69
2.701287e+000 1.697500e+000 -9.611993e+000 124 107 69
3.119458e+000 1.687315e+000 -9.867075e+000 101 88 54
1.728139e+000 1.382344e+000 -8.394827e+000 127 111 72
2.043038e+000 1.411818e+000 -8.740623e+000 122 110 71
2.286362e+000 1.409813e+000 -8.994529e+000 72 58 21
2.286362e+000 1.409813e+000 -8.994529e+000 72 58 21
2.242756e+000 1.371847e+000 -8.909511e+000 124 110 71
2.512021e+000 1.471515e+000 -9.291034e+000 125 108 72
2.698939e+000 1.445368e+000 -9.484956e+000 130 111 78
3.388347e+000 1.510340e+000 -1.004677e+001 89 72 52
4.173546e+000 1.461008e+000 -9.281464e+000 188 156 71
1.551765e+000 1.139925e+000 -7.976159e+000 123 113 78
1.962089e+000 1.154795e+000 -8.401621e+000 125 113 71
2.083384e+000 1.313445e+000 -8.696443e+000 126 112 71
2.396324e+000 1.296736e+000 -8.996594e+000 89 75 38
2.396324e+000 1.296736e+000 -8.996594e+000 89 75 38
3.394451e+000 1.455493e+000 -1.000128e+001 90 75 54
3.394451e+000 1.455493e+000 -1.000128e+001 90 75 54
2.291112e+000 1.083013e+000 -8.679660e+000 122 112 78
2.808435e+000 1.134113e+000 -9.244560e+000 69 55 20
2.742884e+000 1.096787e+000 -9.091391e+000 119 105 66
3.852765e-002 9.540524e-001 -8.920267e+000 210 229 210
3.852765e-002 9.540524e-001 -8.920267e+000 210 229 210
2.382826e+000 9.861376e-001 -8.691664e+000 119 109 72
-6.607678e-001 9.014620e-001 -1.002169e+001 89 82 87
1.858363e+000 6.882898e-001 -7.941767e+000 125 107 67
-6.494404e-001 8.178590e-001 -9.996685e+000 94 80 91
1.952660e+000 6.666048e-001 -8.031142e+000 126 115 70
2.324952e+000 6.850519e-001 -8.433320e+000 125 110 67
4.338704e+000 6.491708e-001 -8.792425e+000 209 184 95
1.726686e+000 5.042729e-001 -7.706145e+000 125 108 72
1.726686e+000 5.042729e-001 -7.706145e+000 125 108 72
1.624218e+000 4.323506e-001 -7.561051e+000 119 105 67
1.807104e+000 4.835598e-001 -7.774604e+000 116 105 65
7.014214e-001 -3.265337e-002 -7.659948e+000 87 70 112
4.295740e+000 -3.299472e-002 -8.827140e+000 144 111 44
1.934874e+000 -1.821435e-001 -7.575074e+000 123 108 69
2.181324e+000 -1.520196e-001 -7.852793e+000 90 76 41
2.181324e+000 -1.520196e-001 -7.852793e+000 90 76 41
2.231158e+000 -1.501532e-001 -7.916037e+000 125 112 70
3.340687e+000 -1.706765e-001 -8.993838e+000 111 95 62
2.124134e+000 -3.945571e-001 -7.667607e+000 64 49 20
2.150961e+000 -4.090272e-001 -7.655443e+000 129 115 78
-3.532936e-002 -5.935880e-001 -8.641940e+000 209 225 214
8.174261e-002 -5.803766e-001 -8.440951e+000 203 226 216
8.174261e-002 -5.803766e-001 -8.440951e+000 203 226 216
3.789807e+000 -9.238773e-001 -9.114614e+000 73 56 36
-6.748382e-001 -1.056249e+000 -9.453823e+000 201 217 206
-6.748382e-001 -1.056249e+000 -9.453823e+000 201 217 206
-6.883588e-001 -1.106666e+000 -9.485072e+000 68 61 59
7.791361e-001 -6.940225e-001 -7.312742e+000 68 55 85
7.567945e-001 -7.401425e-001 -7.301909e+000 74 62 87
7.245952e-001 -7.927037e-001 -7.365464e+000 70 51 79
7.245952e-001 -7.927037e-001 -7.365464e+000 70 51 79
7.867774e-001 -7.437375e-001 -7.265576e+000 71 58 86
7.867774e-001 -7.437375e-001 -7.265576e+000 71 58 86
-2.535383e-001 -1.092760e+000 -8.802274e+000 208 219 211
-1.717545e-001 -1.035053e+000 -8.667405e+000 197 223 216
-4.229162e-002 -1.089539e+000 -8.487786e+000 64 57 68
-7.364142e-003 -1.049947e+000 -8.384072e+000 65 54 70
4.787293e-002 -9.828646e-001 -8.349199e+000 210 217 214
4.649768e-002 -9.904929e-001 -8.386533e+000 210 217 214
6.646879e-001 -8.891530e-001 -7.424373e+000 62 52 76
7.194135e-001 -9.001362e-001 -7.393067e+000 68 52 79
4.455503e-001 -1.071954e+000 -7.792732e+000 63 49 77
5.292256e-001 -1.058362e+000 -7.637802e+000 68 53 76
6.726997e-001 -1.010257e+000 -7.428427e+000 66 52 78
2.223670e+000 2.872828e+000 -9.751367e+000 92 81 44
1.741522e+000 2.621862e+000 -9.312070e+000 105 91 56
1.741522e+000 2.621862e+000 -9.312070e+000 105 91 56
2.022903e+000 2.681353e+000 -9.513505e+000 78 65 31
2.075265e+000 2.658049e+000 -9.485047e+000 88 74 39
2.227416e+000 2.602490e+000 -9.561345e+000 124 113 71
1.278433e+000 2.303643e+000 -8.559545e+000 85 69 35
1.338985e+000 2.290229e+000 -8.624927e+000 92 76 42
1.519102e+000 2.326244e+000 -8.861952e+000 92 78 43
1.699417e+000 2.447816e+000 -9.115736e+000 128 115 71
1.741594e+000 2.387643e+000 -9.127252e+000 77 63 34
1.742487e+000 2.385743e+000 -9.118559e+000 77 63 34
1.741038e+000 2.332219e+000 -9.081957e+000 123 112 68
1.863998e+000 2.411136e+000 -9.211232e+000 128 114 77
2.030686e+000 2.399493e+000 -9.318969e+000 119 105 66
2.043448e+000 2.415842e+000 -9.389372e+000 119 105 66
2.114557e+000 2.403500e+000 -9.455901e+000 128 116 74
2.321736e+000 2.442494e+000 -9.605955e+000 71 58 19
2.515817e+000 2.499659e+000 -9.721256e+000 88 74 37
1.897831e+000 2.223071e+000 -9.161110e+000 130 116 78
2.050643e+000 2.194711e+000 -9.235399e+000 128 114 76
2.296149e+000 2.385877e+000 -9.560788e+000 127 114 72
2.470705e+000 2.359346e+000 -9.662907e+000 127 111 70
2.542006e+000 2.328991e+000 -9.634907e+000 125 110 71
2.631192e+000 2.376233e+000 -9.743080e+000 100 86 51
-7.481863e-002 2.188931e+000 -9.362817e+000 211 206 203
1.548578e+000 1.984869e+000 -8.654017e+000 123 106 61
1.548578e+000 1.984869e+000 -8.654017e+000 123 106 61
1.961616e+000 2.090898e+000 -9.115792e+000 127 113 75
1.959050e+000 1.988942e+000 -9.080120e+000 119 103 69
2.597254e+000 2.106847e+000 -9.580233e+000 128 113 74
2.742339e+000 2.205946e+000 -9.763288e+000 125 110 70
2.808827e+000 2.260619e+000 -9.883606e+000 90 76 41
1.660785e+000 1.892021e+000 -8.706857e+000 82 67 33
1.828715e+000 1.923062e+000 -8.917498e+000 128 114 77
1.959163e+000 1.871051e+000 -9.031179e+000 128 114 72
2.332843e+000 2.030720e+000 -9.344604e+000 123 109 65
2.618815e+000 2.061058e+000 -9.631564e+000 79 63 29
2.714769e+000 2.112932e+000 -9.751449e+000 126 111 72
2.714769e+000 2.112932e+000 -9.751449e+000 126 111 72
2.588966e+000 2.005893e+000 -9.577448e+000 130 117 75
2.588966e+000 2.005893e+000 -9.577448e+000 130 117 75
2.662599e+000 1.987788e+000 -9.605579e+000 120 107 69
2.727978e+000 1.977125e+000 -9.644319e+000 123 109 69
3.107907e+000 2.094864e+000 -1.001467e+001 81 63 33
-1.117713e+000 2.124921e+000 -1.095241e+001 78 62 73
1.646538e+000 1.662653e+000 -8.515220e+000 124 111 67
1.736716e+000 1.687470e+000 -8.670709e+000 61 46 15
1.736716e+000 1.687470e+000 -8.670709e+000 61 46 15
1.787187e+000 1.674698e+000 -8.688197e+000 98 83 49
1.877073e+000 1.646214e+000 -8.774103e+000 82 66 36
1.877864e+000 1.646663e+000 -8.778084e+000 82 66 36
2.035451e+000 1.802801e+000 -9.067960e+000 77 61 27
3.237009e+000 1.968076e+000 -1.006589e+001 73 59 31
4.170447e+000 1.763778e+000 -9.361332e+000 197 160 79
-4.014641e-002 1.596018e+000 -9.192397e+000 211 223 211
1.484481e+000 1.493432e+000 -8.214950e+000 95 80 45
1.680242e+000 1.441211e+000 -8.390407e+000 80 66 31
2.321115e+000 1.564342e+000 -9.204351e+000 74 58 22
2.509313e+000 1.614868e+000 -9.383496e+000 55 42 8
2.509313e+000 1.614868e+000 -9.383496e+000 55 42 8
-1.024302e+000 1.791886e+000 -1.074668e+001 207 227 218
1.790782e+000 1.372614e+000 -8.450107e+000 118 101 59
1.823076e+000 1.408976e+000 -8.513987e+000 75 59 25
1.955156e+000 1.427748e+000 -8.650903e+000 125 110 67
1.887003e+000 1.393739e+000 -8.566789e+000 89 76 37
2.576860e+000 1.498608e+000 -9.384608e+000 76 63 31
2.797048e+000 1.570754e+000 -9.640167e+000 62 47 21
2.781406e+000 1.521988e+000 -9.607927e+000 122 105 74
2.781406e+000 1.521988e+000 -9.607927e+000 122 105 74
1.943336e+000 1.294075e+000 -8.530864e+000 79 62 29
1.907784e+000 1.161781e+000 -8.371092e+000 130 117 80
1.971765e+000 1.201440e+000 -8.476211e+000 86 73 38
1.971765e+000 1.201440e+000 -8.476211e+000 86 73 38
2.112416e+000 1.267174e+000 -8.685121e+000 81 67 32
2.112416e+000 1.267174e+000 -8.685121e+000 81 67 32
2.241725e+000 1.289520e+000 -8.822110e+000 128 114 76
2.233709e+000 1.240059e+000 -8.759904e+000 82 67 32
2.233709e+000 1.240059e+000 -8.759904e+000 82 67 32
2.306477e+000 1.185047e+000 -8.770913e+000 124 110 73
1.803380e+000 1.004915e+000 -8.119559e+000 122 113 71
1.895118e+000 1.037674e+000 -8.221465e+000 55 57 28
2.165830e+000 1.118703e+000 -8.568838e+000 125 116 77
2.389826e+000 1.028788e+000 -8.731707e+000 70 73 55
-2.244683e-001 9.660885e-001 -9.338453e+000 99 72 74
2.119476e+000 9.487650e-001 -8.389871e+000 115 107 70
2.119476e+000 9.487650e-001 -8.389871e+000 115 107 70
2.182570e+000 9.756089e-001 -8.471296e+000 88 86 62
2.182570e+000 9.756089e-001 -8.471296e+000 88 86 62
2.470663e+000 9.143167e-001 -8.722163e+000 73 70 49
2.667340e+000 9.695619e-001 -8.960229e+000 65 60 42
2.820761e+000 1.032718e+000 -9.171771e+000 66 50 22
3.393513e+000 1.073580e+000 -9.797858e+000 103 83 64
3.325491e+000 1.038464e+000 -9.731507e+000 56 40 15
-2.271748e-003 7.970162e-001 -8.959432e+000 89 58 74
2.065413e+000 7.546461e-001 -8.202995e+000 132 118 79
2.297234e+000 8.064811e-001 -8.459824e+000 126 112 68
2.700651e+000 8.219582e-001 -8.885455e+000 120 106 64
2.794460e+000 8.982177e-001 -9.025859e+000 121 112 73
2.971199e+000 8.633884e-001 -9.227457e+000 125 114 69
3.024860e+000 8.437750e-001 -9.246186e+000 115 100 61
3.469250e+000 8.566722e-001 -9.632716e+000 52 33 19
-2.550525e-001 6.830859e-001 -9.383561e+000 209 230 216
2.146678e+000 6.289480e-001 -8.184881e+000 127 112 70
2.146678e+000 6.289480e-001 -8.184881e+000 127 112 70
2.688378e+000 6.097138e-001 -8.763129e+000 122 105 62
3.095802e+000 7.220167e-001 -9.245660e+000 109 99 63
4.399413e+000 6.193978e-001 -8.735127e+000 180 144 60
1.905151e+000 5.247515e-001 -7.921974e+000 130 115 72
2.357216e+000 4.731467e-001 -8.351625e+000 127 113 68
2.286792e-001 4.191747e-001 -8.465670e+000 206 229 216
2.287644e-001 4.191368e-001 -8.447083e+000 206 229 216
2.202083e+000 2.977633e-001 -8.071977e+000 122 107 62
2.615995e+000 1.961679e-001 -8.462393e+000 127 107 72
2.783436e+000 2.727454e-001 -8.693573e+000 118 104 62
3.362380e+000 2.503751e-001 -9.256766e+000 104 88 55
1.748924e+000 1.075749e-001 -7.495232e+000 102 89 57
2.002741e+000 1.320301e-001 -7.796489e+000 124 108 65
3.056053e+000 -9.726894e-002 -8.746146e+000 120 104 66
3.056053e+000 -9.726894e-002 -8.746146e+000 120 104 66
3.139833e+000 -1.444133e-002 -8.881152e+000 115 99 63
3.134736e+000 -1.397673e-002 -8.872011e+000 115 99 63
1.977703e+000 -1.828495e-001 -7.634023e+000 117 104 61
2.155652e+000 -1.168295e-001 -7.862755e+000 127 112 68
2.630853e+000 -2.166635e-001 -8.242433e+000 129 111 68
3.131442e+000 -2.167777e-001 -8.742729e+000 120 102 66
2.132312e+000 -2.759205e-001 -7.731560e+000 124 109 66
1.444907e-001 -4.825550e-001 -8.412172e+000 200 228 209
2.693925e+000 -4.392930e-001 -8.207223e+000 124 111 67
2.943688e+000 -5.300926e-001 -8.358228e+000 54 41 7
2.943688e+000 -5.300926e-001 -8.358228e+000 54 41 7
3.677654e+000 -8.179108e-001 -8.985808e+000 42 23 6
6.525687e-001 -7.936599e-001 -7.506601e+000 67 57 83
-2.238237e-001 -1.054029e+000 -8.780002e+000 91 52 63
8.995999e-002 -9.666683e-001 -8.212514e+000 88 64 90
4.676027e-001 -9.888648e-001 -7.720379e+000 64 53 76
6.066746e-001 -1.031434e+000 -7.527164e+000 162 162 174
1.901220e+000 2.598318e+000 -9.414477e+000 86 72 37
1.886447e+000 2.576229e+000 -9.329753e+000 86 72 37
-8.320762e-001 2.791764e+000 -1.071287e+001 166 119 91
1.874626e+000 2.469597e+000 -9.254361e+000 88 75 40
3.303744e+000 2.747880e+000 -1.080947e+001 57 39 19
2.117166e+000 2.291111e+000 -9.323485e+000 129 116 71
2.139983e+000 2.231002e+000 -9.322162e+000 76 62 25
2.134015e+000 2.227341e+000 -9.306570e+000 76 62 25
3.025867e+000 2.462517e+000 -1.018230e+001 97 84 49
1.476221e+000 1.949405e+000 -8.517544e+000 82 68 23
1.932940e+000 2.162044e+000 -9.177560e+000 80 67 33
2.052214e+000 2.145046e+000 -9.235434e+000 89 74 41
2.052214e+000 2.145046e+000 -9.235434e+000 89 74 41
2.000904e+000 2.030893e+000 -9.122242e+000 75 60 27
2.327192e+000 2.207469e+000 -9.468441e+000 84 70 33
2.213623e+000 2.123112e+000 -9.359098e+000 63 51 15
2.357260e+000 2.090134e+000 -9.410901e+000 76 64 22
2.813413e+000 2.166880e+000 -9.791945e+000 125 108 65
-9.589020e-001 2.398077e+000 -1.080204e+001 129 74 56
1.811600e+000 1.854149e+000 -8.857593e+000 61 47 12
2.233815e+000 1.934120e+000 -9.285931e+000 119 105 68
2.412155e+000 1.918759e+000 -9.413801e+000 122 109 67
2.516438e+000 1.957309e+000 -9.513162e+000 76 64 26
2.716289e+000 2.041154e+000 -9.665837e+000 99 84 50
2.708949e+000 2.035388e+000 -9.633801e+000 99 84 50
2.588261e+000 1.944515e+000 -9.534970e+000 113 99 61
2.834035e+000 1.973340e+000 -9.725756e+000 126 113 69
1.505535e+000 1.543951e+000 -8.263495e+000 123 109 62
2.133132e+000 1.841584e+000 -9.168037e+000 131 117 75
2.412832e+000 1.856723e+000 -9.389067e+000 81 66 33
2.569400e+000 1.898935e+000 -9.562078e+000 125 112 70
2.640332e+000 1.880700e+000 -9.542134e+000 124 111 67
2.743291e+000 1.807214e+000 -9.611347e+000 82 68 33
2.744590e+000 1.807353e+000 -9.610768e+000 82 68 33
3.003215e+000 1.925873e+000 -9.859850e+000 111 98 56
3.080003e+000 1.863549e+000 -9.860600e+000 73 59 24
3.947557e+000 1.870354e+000 -9.864174e+000 129 92 45
4.019732e+000 1.853464e+000 -9.613153e+000 174 145 69
4.156031e-001 1.449642e+000 -8.364430e+000 211 224 208
1.484205e+000 1.398506e+000 -8.122724e+000 82 66 32
2.685758e+000 1.745831e+000 -9.556991e+000 128 111 69
2.599380e+000 1.605236e+000 -9.474518e+000 65 50 19
2.599380e+000 1.605236e+000 -9.474518e+000 65 50 19
2.924856e+000 1.654580e+000 -9.725995e+000 73 56 30
3.212337e+000 1.673075e+000 -9.931032e+000 105 93 55
1.620713e+000 1.357890e+000 -8.248252e+000 77 62 28
-8.808784e-001 1.551415e+000 -1.045870e+001 202 234 213
-3.294899e-001 1.423379e+000 -9.666101e+000 94 77 87
1.672020e+000 1.212840e+000 -8.164998e+000 123 107 72
1.598061e+000 1.045802e+000 -7.961828e+000 130 117 73
2.522635e+000 1.092008e+000 -8.920405e+000 75 59 30
4.144336e+000 1.174550e+000 -9.317924e+000 184 152 77
-7.301565e-001 1.136307e+000 -1.020167e+001 79 67 84
2.077581e+000 9.943694e-001 -8.405830e+000 73 74 45
2.708643e+000 9.176285e-001 -8.960804e+000 123 111 70
-2.612329e-003 7.914874e-001 -8.940068e+000 100 68 86
1.601536e+000 6.981367e-001 -7.757954e+000 66 52 21
1.592591e+000 6.966307e-001 -7.707522e+000 66 52 21
1.892358e+000 7.877878e-001 -8.020852e+000 125 113 65
1.998647e+000 8.133344e-001 -8.160828e+000 102 90 51
2.000422e+000 8.135584e-001 -8.167181e+000 102 90 51
2.073888e+000 7.009660e-001 -8.174277e+000 84 69 36
2.186860e+000 8.253597e-001 -8.367891e+000 128 113 70
2.178286e+000 7.333121e-001 -8.297923e+000 117 104 61
2.569583e+000 7.939825e-001 -8.739056e+000 82 78 54
2.569583e+000 7.939825e-001 -8.739056e+000 82 78 54
1.818473e+000 6.550851e-001 -7.882161e+000 78 63 30
1.921952e+000 6.320753e-001 -7.978655e+000 85 72 40
2.017653e+000 6.581103e-001 -8.081957e+000 122 111 66
1.991202e+000 5.657956e-001 -8.003811e+000 126 110 67
2.166313e+000 6.778385e-001 -8.232247e+000 99 87 50
2.175931e+000 6.787971e-001 -8.270243e+000 99 87 50
2.116335e+000 5.853267e-001 -8.152135e+000 68 53 20
2.450839e+000 7.166425e-001 -8.576773e+000 80 66 29
2.836645e+000 6.318319e-001 -8.965878e+000 76 59 30
2.836645e+000 6.318319e-001 -8.965878e+000 76 59 30
2.876485e+000 7.224328e-001 -9.026693e+000 61 59 45
2.871252e+000 7.219214e-001 -9.003874e+000 61 59 45
2.991846e+000 6.989343e-001 -9.123160e+000 60 62 43
2.889946e+000 6.656696e-001 -9.003685e+000 123 106 63
3.308928e+000 6.228573e-001 -9.393538e+000 77 69 50
-4.232694e-001 5.691070e-001 -9.649887e+000 206 232 217
-2.085939e-001 6.276504e-001 -9.231655e+000 96 74 83
-2.085939e-001 6.276504e-001 -9.231655e+000 96 74 83
1.913162e+000 4.810902e-001 -7.871609e+000 128 110 69
1.906565e+000 4.813488e-001 -7.851380e+000 128 110 69
1.957664e+000 5.185174e-001 -7.944315e+000 52 41 9
1.953696e+000 5.191560e-001 -7.935942e+000 52 41 9
1.904956e+000 4.241282e-001 -7.846602e+000 62 45 13
2.214367e+000 4.552042e-001 -8.187356e+000 80 64 28
2.652102e+000 5.626340e-001 -8.703814e+000 69 53 19
2.984714e+000 5.918679e-001 -9.081606e+000 67 50 20
2.895732e+000 5.050956e-001 -8.918255e+000 70 54 21
2.908372e+000 5.045371e-001 -8.947594e+000 70 54 21
3.080101e+000 5.687186e-001 -9.147273e+000 70 54 22
3.080101e+000 5.687186e-001 -9.147273e+000 70 54 22
3.317229e+000 5.230908e-001 -9.398418e+000 76 56 29
2.052397e+000 3.366960e-001 -7.953998e+000 124 109 66
2.316642e+000 3.245723e-001 -8.237430e+000 60 46 20
2.593319e+000 3.622685e-001 -8.542786e+000 69 54 20
2.588852e+000 3.625993e-001 -8.525569e+000 69 54 20
2.650362e+000 2.974594e-001 -8.569599e+000 125 111 64
2.650362e+000 2.974594e-001 -8.569599e+000 125 111 64
2.877725e+000 3.588624e-001 -8.811034e+000 110 95 52
3.076474e+000 3.617972e-001 -9.026599e+000 62 43 16
4.254183e+000 3.744901e-001 -8.890996e+000 183 154 76
1.800404e+000 1.796758e-001 -7.625476e+000 129 114 73
1.874694e+000 2.742093e-001 -7.720328e+000 126 112 70
2.431539e+000 1.919896e-001 -8.265818e+000 80 63 33
2.520730e+000 2.183905e-001 -8.402808e+000 125 111 66
3.122101e+000 2.478729e-001 -9.017366e+000 66 51 24
3.005609e+000 1.697575e-001 -8.857316e+000 74 57 27
3.472540e+000 2.369764e-001 -9.357253e+000 109 92 63
1.974003e+000 3.515408e-002 -7.743208e+000 123 111 63
2.137107e+000 4.471055e-002 -7.878642e+000 73 54 22
2.504497e+000 1.226268e-001 -8.328275e+000 130 110 69
2.484745e+000 2.004662e-002 -8.258357e+000 119 104 62
2.822577e+000 6.003636e-002 -8.633958e+000 113 102 56
2.987817e+000 1.271770e-002 -8.731649e+000 116 102 62
3.078368e+000 3.896463e-003 -8.838128e+000 114 99 56
2.324035e+000 -7.872397e-002 -8.062156e+000 123 106 60
2.556121e+000 -9.985463e-002 -8.250697e+000 122 105 62
2.728022e+000 -8.364398e-002 -8.443239e+000 76 60 24
2.724375e+000 -8.279131e-002 -8.432098e+000 76 60 24
3.219839e+000 -2.784408e-002 -8.917785e+000 111 96 56
3.370317e+000 -6.052228e-002 -9.067113e+000 112 97 65
2.290631e-001 -2.337828e-001 -8.327537e+000 104 65 95
2.645755e+000 -1.668859e-001 -8.284809e+000 86 69 34
2.738810e+000 -1.413919e-001 -8.417278e+000 128 115 71
3.054510e+000 -1.473918e-001 -8.710187e+000 55 37 7
3.152155e+000 -1.717491e-001 -8.792869e+000 67 52 23
3.152155e+000 -1.717491e-001 -8.792869e+000 67 52 23
3.124202e+000 -2.662735e-001 -8.714096e+000 74 61 28
3.262725e+000 -1.917659e-001 -8.897416e+000 78 61 31
3.417332e+000 -1.706709e-001 -9.039765e+000 101 84 55
2.191897e+000 -2.842501e-001 -7.797096e+000 75 56 21
2.195645e+000 -3.345235e-001 -7.780527e+000 126 112 67
2.388170e+000 -2.707917e-001 -8.004780e+000 118 100 60
2.875552e+000 -3.653166e-001 -8.404762e+000 127 113 68
3.049369e+000 -2.955185e-001 -8.623617e+000 120 105 66
3.241491e+000 -4.002401e-001 -8.768530e+000 77 60 29
3.241491e+000 -4.002401e-001 -8.768530e+000 77 60 29
3.492968e+000 -3.431837e-001 -9.019357e+000 69 51 28
3.452819e+000 -3.870519e-001 -8.975717e+000 98 82 49
3.452819e+000 -3.870519e-001 -8.975717e+000 98 82 49
2.358113e+000 -3.686882e-001 -7.904099e+000 128 114 66
2.422477e+000 -3.777203e-001 -7.966080e+000 126 111 67
2.907731e+000 -4.807667e-001 -8.384740e+000 124 106 59
2.982960e+000 -4.904995e-001 -8.419113e+000 128 113 69
3.312736e+000 -4.502140e-001 -8.752388e+000 115 99 63
3.291744e+000 -5.019593e-001 -8.725080e+000 64 55 25
3.477995e+000 -5.835866e-001 -8.817687e+000 106 89 63
2.317860e+000 -5.729432e-001 -7.684786e+000 128 111 67
2.599596e+000 -6.166206e-001 -7.914348e+000 130 112 72
2.599596e+000 -6.166206e-001 -7.914348e+000 130 112 72
2.383453e+000 -6.591010e-001 -7.628825e+000 129 112 69
2.673933e+000 -7.114125e-001 -7.889083e+000 121 108 63
2.931787e+000 -7.225124e-001 -8.110930e+000 58 45 12
3.330460e+000 -7.237312e-001 -8.599189e+000 64 46 22
3.309641e+000 -7.686277e-001 -8.524338e+000 107 91 55
3.252675e+000 -7.977745e-001 -8.463034e+000 63 50 24
1.519425e-002 -1.025518e+000 -8.397366e+000 70 57 77
6.201601e-001 -9.171749e-001 -7.494152e+000 69 57 81
6.447106e-001 -9.199767e-001 -7.480607e+000 67 55 80
7.725897e-001 -8.094380e-001 -7.284241e+000 58 48 72
5.785528e-001 -9.840097e-001 -7.627323e+000 66 60 83
5.785528e-001 -9.840097e-001 -7.627323e+000 66 60 83
-7.347347e-001 3.055623e+000 -1.071440e+001 197 169 106
2.487421e+000 2.214418e+000 -9.576817e+000 129 114 71
2.207524e-001 1.876523e+000 -8.762044e+000 91 84 93
3.592407e-001 1.707708e+000 -8.522476e+000 78 64 63
3.586967e-001 1.713037e+000 -8.561495e+000 78 64 63
3.721527e-001 1.631680e+000 -8.459136e+000 84 65 67
2.986621e+000 1.834233e+000 -9.789135e+000 114 99 58
3.337847e+000 1.851946e+000 -1.006288e+001 55 37 15
-2.366591e-002 1.659582e+000 -9.181012e+000 80 68 72
2.052318e+000 1.523233e+000 -8.819341e+000 119 104 65
5.792260e-002 1.450292e+000 -8.987036e+000 89 72 85
3.194604e+000 1.620191e+000 -9.988508e+000 74 59 36
-7.924300e-001 1.530588e+000 -1.038164e+001 80 62 74
-7.924300e-001 1.530588e+000 -1.038164e+001 80 62 74
6.764742e-002 1.366196e+000 -8.953459e+000 101 74 93
6.823323e-002 1.368887e+000 -8.951376e+000 101 74 93
-6.468980e-001 1.188441e+000 -1.009401e+001 85 73 83
-4.302557e-001 1.085411e+000 -9.672187e+000 111 73 86
4.185114e+000 9.615846e-001 -9.222879e+000 178 146 70
4.281162e+000 1.030513e+000 -8.967056e+000 208 178 90
4.345553e+000 1.033476e+000 -8.951237e+000 193 145 80
4.345553e+000 1.033476e+000 -8.951237e+000 193 145 80
-9.873043e-001 9.564167e-001 -1.045532e+001 95 83 97
-4.238254e-001 9.804855e-001 -9.678370e+000 113 77 91
-4.216325e-001 9.793621e-001 -9.658402e+000 113 77 91
-5.548381e-001 8.731790e-001 -9.880306e+000 101 69 90
-3.973464e-001 8.521738e-001 -9.574155e+000 118 82 99
-3.973464e-001 8.521738e-001 -9.574155e+000 118 82 99
-2.911243e-001 6.198151e-001 -9.384049e+000 210 227 211
1.765771e+000 4.507151e-001 -7.706030e+000 72 61 29
4.369024e+000 5.000869e-001 -8.790279e+000 176 150 63
4.367579e+000 5.706081e-001 -8.747624e+000 199 174 81
1.830517e+000 3.866029e-001 -7.750158e+000 126 109 66
1.868922e+000 3.273338e-001 -7.766042e+000 72 56 22
1.868922e+000 3.273338e-001 -7.766042e+000 72 56 22
2.214844e+000 3.540524e-001 -8.133863e+000 50 39 8
-5.785311e-001 2.623662e-001 -9.699124e+000 103 75 84
2.044787e+000 2.780999e-001 -7.923539e+000 93 78 45
2.110034e+000 2.182983e-001 -7.917411e+000 127 110 67
2.120203e+000 2.167362e-001 -7.956307e+000 127 110 67
2.197300e+000 2.472942e-001 -8.054322e+000 81 68 33
2.301986e+000 2.226333e-001 -8.168937e+000 87 74 39
2.301986e+000 2.226333e-001 -8.168937e+000 87 74 39
3.432719e-001 3.078889e-002 -8.188805e+000 90 78 99
2.084146e+000 9.017598e-002 -7.878450e+000 125 108 60
2.313210e+000 1.117326e-001 -8.124836e+000 73 56 28
2.567215e+000 5.246223e-002 -8.383649e+000 65 50 17
6.244230e-001 -1.595723e-002 -7.772192e+000 85 66 88
1.951857e+000 -1.415135e-002 -7.679178e+000 79 63 34
2.091658e+000 1.360451e-002 -7.847707e+000 129 113 67
2.452079e+000 -2.650596e-002 -8.193706e+000 70 56 21
2.372131e+000 -5.042178e-002 -8.088457e+000 124 102 61
2.661822e+000 -2.279231e-002 -8.378580e+000 121 107 62
2.607933e+000 -6.062120e-002 -8.347957e+000 71 56 21
2.779989e+000 5.156248e-003 -8.525643e+000 76 63 21
2.999353e+000 -9.707551e-002 -8.708005e+000 117 102 61
1.863090e+000 -1.505023e-001 -7.514627e+000 122 106 63
2.325265e+000 -1.466890e-001 -7.996010e+000 122 109 65
2.944246e+000 -2.316485e-001 -8.561991e+000 63 48 16
3.048404e+000 -2.164545e-001 -8.699268e+000 112 102 59
-1.028586e-001 -3.115770e-001 -8.879272e+000 84 78 85
2.068455e+000 -2.626854e-001 -7.664125e+000 76 62 29
2.068455e+000 -2.626854e-001 -7.664125e+000 76 62 29
1.997300e+000 -2.915649e-001 -7.593535e+000 127 114 72
2.382166e+000 -3.256316e-001 -7.958715e+000 87 73 44
2.599722e+000 -2.604871e-001 -8.184050e+000 96 80 48
2.599722e+000 -2.604871e-001 -8.184050e+000 96 80 48
3.035670e+000 -3.522714e-001 -8.572550e+000 72 56 24
3.035670e+000 -3.522714e-001 -8.572550e+000 72 56 24
3.314968e+000 -3.659690e-001 -8.849864e+000 108 93 52
2.049643e+000 -3.560566e-001 -7.608300e+000 54 48 21
2.386726e+000 -4.223132e-001 -7.883354e+000 68 55 23
2.638184e+000 -4.214947e-001 -8.148973e+000 119 105 61
2.684205e+000 -4.801056e-001 -8.124985e+000 62 50 26
2.859825e+000 -4.195733e-001 -8.375129e+000 53 39 10
2.850743e+000 -4.161306e-001 -8.354469e+000 53 39 10
3.101490e+000 -4.668004e-001 -8.579679e+000 61 45 12
-6.805784e-001 -8.035407e-001 -9.502596e+000 203 227 206
1.966764e+000 -5.508792e-001 -7.389521e+000 59 43 20
2.094294e+000 -5.680318e-001 -7.472066e+000 112 97 68
2.473698e+000 -5.452988e-001 -7.871771e+000 74 64 33
2.491986e+000 -6.035017e-001 -7.837379e+000 129 116 72
2.802007e+000 -5.582747e-001 -8.188330e+000 124 107 62
3.066538e+000 -5.570914e-001 -8.470829e+000 80 65 32
-5.688220e-001 -9.212558e-001 -9.345358e+000 78 65 72
1.362856e-001 -6.780779e-001 -8.334859e+000 121 73 96
2.040269e+000 -6.011921e-001 -7.379613e+000 120 105 62
3.116196e+000 -7.690221e-001 -8.329656e+000 73 53 28
3.112034e+000 -7.667891e-001 -8.319212e+000 73 53 28
3.524719e+000 -7.851291e-001 -8.816644e+000 68 56 32
3.510812e+000 -7.795787e-001 -8.784990e+000 68 56 32
2.421222e-001 -8.381782e-001 -8.043328e+000 85 64 90
-5.108899e-001 -1.395391e+000 -9.088542e+000 60 51 64
3.134000e+000 3.101595e+000 -1.084227e+001 86 80 52
-1.017608e+000 3.031163e+000 -1.106730e+001 112 74 55
-7.882432e-002 2.468126e+000 -9.428888e+000 213 220 204
1.771588e+000 7.264979e-001 -7.906170e+000 124 110 63
4.412956e+000 6.835192e-001 -8.933971e+000 209 182 93
-2.121238e-001 1.828326e-001 -9.116937e+000 200 227 210
5.582327e-001 2.328680e-001 -7.862173e+000 103 71 96
1.758280e+000 -7.916196e-002 -7.440735e+000 57 41 14
1.762226e+000 -8.131471e-002 -7.463817e+000 57 41 14
1.822440e+000 -3.050229e-001 -7.401370e+000 68 53 22
4.425942e+000 -3.244977e-001 -8.723728e+000 176 155 74
-2.409299e-002 -5.409305e-001 -8.677148e+000 90 69 88
3.639453e-001 1.317647e+000 -8.451613e+000 81 65 68
-1.142935e+000 1.619099e+000 -1.084912e+001 206 227 212
1.129840e-001 1.107860e+000 -8.815466e+000 92 66 93
-5.301773e-001 5.904403e-001 -9.793844e+000 82 68 91
1.649977e+000 1.570814e-001 -7.468012e+000 78 66 42
1.645063e+000 1.589462e-001 -7.434653e+000 78 66 42
-9.333737e-002 -3.953984e-001 -8.824302e+000 202 226 210
-2.929504e+001 -1.206996e+001 -5.728913e+001 86 86 78
-7.671410e-001 2.329587e+000 -1.050050e+001 176 156 98
1.816169e+000 1.522133e+000 -8.638911e+000 130 114 66
1.461720e-001 8.715474e-001 -8.795178e+000 96 77 109
1.472055e-001 8.711682e-001 -8.808511e+000 96 77 109
4.353824e+000 8.334719e-001 -8.976225e+000 201 171 85
-5.566312e-002 7.087425e-001 -9.081940e+000 114 72 88
3.564665e+000 -9.952821e-001 -8.821983e+000 88 64 37
-3.482385e-001 -1.072816e+000 -8.971715e+000 100 58 70
1.213971e+000 -7.857053e-001 -6.569704e+000 145 153 172
-1.560345e-001 2.668286e+000 -9.665844e+000 102 71 66
9.168589e-002 2.323765e+000 -9.062892e+000 92 68 78
-2.892867e-001 2.467677e+000 -9.781250e+000 93 70 81
7.379585e-001 1.975302e+000 -7.783788e+000 95 54 68
-1.014509e+000 2.547335e+000 -1.098622e+001 128 90 70
-4.837038e-001 2.323518e+000 -1.005384e+001 90 73 82
-4.837038e-001 2.323518e+000 -1.005384e+001 90 73 82
-4.136703e-001 2.696291e+000 -9.939699e+000 199 186 137
-4.283112e-001 2.031474e+000 -9.924057e+000 93 74 80
-4.283112e-001 2.031474e+000 -9.924057e+000 93 74 80
1.188355e+000 2.479658e+000 -8.680306e+000 124 111 59
1.312149e+000 2.039935e+000 -8.462773e+000 127 113 64
-6.358489e-001 1.844990e+000 -1.027023e+001 129 109 116
-6.358489e-001 1.844990e+000 -1.027023e+001 129 109 116
-2.178750e-001 1.784361e+000 -9.593944e+000 96 77 83
1.572658e+000 3.152635e-001 -7.510402e+000 120 104 60
2.987086e+000 1.937989e+000 -9.807663e+000 121 106 70
2.416169e-001 1.630521e+000 -8.646228e+000 175 178 173
1.571138e+000 8.754916e-001 -7.847820e+000 129 113 65
1.769586e+000 -4.765612e-001 -7.249453e+000 126 109 64
-6.447836e-001 3.114624e+000 -1.050211e+001 204 170 108
-9.965865e-002 2.771931e+000 -9.533116e+000 89 65 52
-1.544002e+000 2.583901e+000 -1.151095e+001 85 64 68
-1.214162e+000 2.594772e+000 -1.120204e+001 153 127 68
2.887582e+000 2.167326e+000 -9.827301e+000 116 102 66
2.887128e+000 2.168079e+000 -9.833590e+000 116 102 66
-8.432593e-001 1.850045e+000 -1.049247e+001 96 86 85
-1.159539e+000 1.569143e+000 -1.087442e+001 74 69 69
3.366065e+000 1.306782e+000 -9.954216e+000 92 81 58
1.935364e+000 8.708285e-001 -8.143640e+000 126 115 77
-5.865676e-001 2.412419e+000 -1.022539e+001 89 72 51
3.122870e+000 1.685219e+000 -9.885764e+000 101 88 54
3.095414e+000 1.559085e+000 -9.839853e+000 112 96 65
2.953025e+000 1.382020e+000 -9.643703e+000 112 97 65
3.151821e+000 1.347447e+000 -9.797027e+000 114 97 68
2.067081e+000 -1.625796e-001 -7.757399e+000 80 66 29
2.159665e+000 -4.110561e-001 -7.690760e+000 129 115 78
2.261036e+000 -3.591603e-001 -7.804869e+000 119 106 62
1.772144e+000 2.426545e+000 -9.137514e+000 132 120 78
2.281406e+000 2.573597e+000 -9.587746e+000 128 114 75
2.514519e+000 2.494571e+000 -9.709786e+000 88 74 37
2.443757e+000 2.404120e+000 -9.624886e+000 91 78 41
-1.043849e+000 2.439932e+000 -1.087560e+001 191 167 121
1.827886e+000 1.921948e+000 -8.921829e+000 128 114 77
1.955665e+000 1.869558e+000 -9.025847e+000 128 114 72
2.095906e+000 1.962903e+000 -9.182413e+000 120 105 66
-1.406674e+000 2.181597e+000 -1.130774e+001 84 66 77
1.822718e+000 1.408271e+000 -8.515718e+000 75 59 25
-1.088162e+000 1.469067e+000 -1.071247e+001 85 68 69
2.969414e+000 1.424849e+000 -9.678461e+000 57 40 14
2.207623e+000 4.056120e-001 -8.164397e+000 131 112 69
-9.076858e-001 3.137798e+000 -1.089132e+001 194 155 96
-1.073363e-001 2.386425e+000 -9.460614e+000 87 69 68
2.090782e+000 2.019237e+000 -9.173499e+000 91 78 46
2.999365e+000 1.766166e+000 -9.800450e+000 51 40 10
3.338411e+000 1.349824e+000 -9.984385e+000 41 28 13
-5.298173e-001 1.329025e+000 -9.944120e+000 208 229 215
-5.267980e-001 1.331296e+000 -9.947133e+000 208 229 215
1.732790e+000 2.934750e-001 -7.617309e+000 119 106 64
3.122446e+000 2.481092e-001 -9.007643e+000 66 51 24
3.230988e+000 -5.293070e-001 -8.629978e+000 109 96 54
-2.906210e-001 -8.976060e-001 -8.923602e+000 200 207 204
3.077660e+000 -6.160143e-001 -8.418793e+000 124 106 63
6.601660e-001 -6.704680e-002 -7.715473e+000 197 225 207
2.324918e+000 -5.187932e-001 -7.768475e+000 127 111 67
-1.762177e+000 3.088903e+000 -1.190163e+001 100 77 84
-1.166943e+000 3.094670e+000 -1.125489e+001 124 81 53
-1.166943e+000 3.094670e+000 -1.125489e+001 124 81 53
-9.022703e-001 2.957060e+000 -1.079472e+001 185 134 105
-6.221734e-001 2.766478e+000 -1.039208e+001 192 154 108
-3.788906e-001 2.561256e+000 -9.946013e+000 104 74 82
-3.132162e-001 2.578077e+000 -9.852876e+000 97 74 66
2.122492e+000 2.578356e+000 -9.416980e+000 129 116 72
2.122492e+000 2.578356e+000 -9.416980e+000 129 116 72
-1.161438e+000 2.677676e+000 -1.114313e+001 197 168 124
-5.986591e-001 2.427868e+000 -1.026640e+001 87 70 53
-1.142631e+000 2.451309e+000 -1.105615e+001 147 107 48
-9.310515e-001 2.260052e+000 -1.071857e+001 144 111 82
3.227990e+000 2.095736e+000 -1.005060e+001 102 81 56
3.271242e+000 1.920620e+000 -9.955981e+000 49 31 11
-6.045609e-001 1.723986e+000 -1.015239e+001 204 219 205
2.018207e+000 1.507853e+000 -8.794819e+000 126 111 68
-5.705998e-001 1.352873e+000 -1.000356e+001 84 68 68
4.206602e+000 7.353844e-001 -9.022148e+000 196 160 86
1.756828e+000 -1.065125e-001 -7.468949e+000 74 58 28
1.343457e-001 -5.183135e-001 -8.432040e+000 95 72 92
3.124565e+000 -6.720230e-001 -8.456646e+000 66 50 14
3.124565e+000 -6.720230e-001 -8.456646e+000 66 50 14
3.726132e-001 -9.886740e-001 -7.933041e+000 154 148 162
5.468808e-001 -1.141567e+000 -7.696091e+000 62 48 73
2.265570e+000 2.915191e+000 -9.677577e+000 85 70 39
2.092826e+000 2.701342e+000 -9.473753e+000 127 113 73
2.273978e+000 2.825001e+000 -9.643467e+000 81 62 29
-1.244547e+000 2.592831e+000 -1.117082e+001 190 166 109
2.266304e+000 2.511280e+000 -9.485787e+000 123 110 68
-7.611997e-001 2.338141e+000 -1.050801e+001 179 155 93
1.100666e-001 2.210939e+000 -8.995766e+000 214 207 201
-1.090713e+000 2.195103e+000 -1.088964e+001 134 93 63
1.291126e-001 1.904865e+000 -8.908585e+000 87 73 77
2.244813e-001 1.826694e+000 -8.771042e+000 224 225 217
2.027877e+000 1.955173e+000 -9.127753e+000 119 105 66
2.365660e+000 1.344410e+000 -8.983017e+000 114 99 56
2.884085e+000 1.395142e+000 -9.562170e+000 113 97 64
2.483468e+000 9.572607e-001 -8.754719e+000 115 109 73
3.040184e+000 7.519404e-001 -9.205161e+000 116 102 71
3.629035e-001 -1.883254e-001 -8.200429e+000 196 212 202
2.037847e+000 -1.020933e-001 -7.766373e+000 121 104 61
2.707660e+000 -3.544284e-001 -8.287798e+000 118 103 59
2.128830e+000 -4.005370e-001 -7.686481e+000 71 57 29
2.315150e+000 -5.939265e-001 -7.720119e+000 127 110 67
4.208438e-001 -1.146857e+000 -7.886026e+000 179 176 185
1.562596e+000 2.770702e+000 -9.106887e+000 128 113 72
3.007874e+000 3.187187e+000 -1.062411e+001 61 47 21
1.340415e+000 2.634004e+000 -8.805009e+000 123 108 66
1.402140e+000 2.622063e+000 -8.892736e+000 113 99 60
1.678234e+000 2.765260e+000 -9.275169e+000 119 106 63
1.678234e+000 2.765260e+000 -9.275169e+000 119 106 63
2.061584e+000 2.820957e+000 -9.579517e+000 122 110 69
-1.047246e+000 2.778127e+000 -1.099146e+001 133 82 59
1.425760e+000 2.499908e+000 -8.805467e+000 121 105 69
1.631774e+000 2.452811e+000 -9.010292e+000 121 106 65
2.638024e+000 2.785881e+000 -1.002532e+001 113 96 60
2.688478e+000 2.789347e+000 -1.013588e+001 117 103 66
2.777419e+000 2.798481e+000 -1.017892e+001 79 64 33
-1.207479e+000 2.738238e+000 -1.118775e+001 184 156 116
-1.136924e+000 2.600754e+000 -1.103870e+001 189 177 117
2.173614e+000 2.435409e+000 -9.457157e+000 73 60 25
2.369080e+000 2.466436e+000 -9.593191e+000 127 112 69
-1.254686e+000 2.444410e+000 -1.119726e+001 176 146 82
1.464553e+000 2.142525e+000 -8.626666e+000 71 56 17
1.593788e+000 2.153108e+000 -8.796556e+000 119 105 60
1.687557e+000 2.271277e+000 -8.962739e+000 81 69 29
2.315161e+000 2.361359e+000 -9.470462e+000 120 107 63
2.760193e+000 2.396304e+000 -9.823158e+000 124 104 67
2.728392e+000 2.360166e+000 -9.797035e+000 91 74 37
2.980160e-001 1.912158e+000 -8.643230e+000 81 66 73
1.578181e+000 2.013686e+000 -8.678049e+000 69 54 14
2.368446e+000 2.141541e+000 -9.412512e+000 130 115 72
2.375035e+000 2.143883e+000 -9.438008e+000 130 115 72
2.751751e+000 2.300969e+000 -9.802807e+000 122 108 63
2.144326e+000 2.059568e+000 -9.209353e+000 120 105 62
1.914097e+000 1.880201e+000 -8.967349e+000 121 108 64
2.908402e+000 1.945916e+000 -9.736247e+000 118 98 62
2.913073e+000 1.830236e+000 -9.702190e+000 115 100 59
-1.055038e+000 1.622827e+000 -1.076033e+001 84 64 66
1.546983e+000 1.429576e+000 -8.210440e+000 127 108 68
2.586639e+000 1.452071e+000 -9.325184e+000 115 100 62
3.389965e+000 1.509570e+000 -1.005211e+001 94 78 54
4.352403e+000 1.579552e+000 -9.064100e+000 213 177 91
2.143736e+000 1.303815e+000 -8.723727e+000 122 107 67
2.284210e+000 1.270633e+000 -8.798376e+000 129 114 71
2.588965e+000 1.175271e+000 -9.049890e+000 77 61 27
2.661494e+000 1.159872e+000 -9.105793e+000 85 70 31
2.578758e+000 9.951270e-001 -8.878393e+000 69 73 46
4.208029e+000 1.109385e+000 -9.151298e+000 191 163 78
2.772353e+000 5.923179e-001 -8.836098e+000 118 103 64
4.267694e+000 5.141966e-001 -8.858416e+000 157 130 48
2.663465e+000 2.186929e-001 -8.541019e+000 78 59 27
2.177952e+000 7.847415e-002 -8.001690e+000 130 115 74
-1.613156e+000 -8.381066e-001 -1.123168e+001 109 70 89
1.415512e-001 -4.907876e-001 -8.452525e+000 198 220 206
2.931373e+000 -3.199641e-001 -8.512299e+000 91 72 40
-7.920098e-001 -1.330069e+000 -9.520697e+000 83 59 64
5.732459e-001 -9.120597e-001 -7.643710e+000 154 143 162
6.610384e-001 -8.411400e-001 -7.462841e+000 62 49 76
4.089462e-001 -1.019683e+000 -7.881141e+000 181 184 192
4.681187e-001 -1.009956e+000 -7.789351e+000 56 47 68
5.278007e-001 -1.018562e+000 -7.710247e+000 55 44 68
6.854010e-001 -9.341484e-001 -7.500769e+000 154 148 165
-9.041621e-001 3.138407e+000 -1.087450e+001 201 161 103
1.227084e+000 2.627384e+000 -8.669851e+000 67 50 19
2.131444e+000 2.872976e+000 -9.651670e+000 85 72 37
2.208624e+000 2.916542e+000 -9.704360e+000 125 110 67
1.911704e+000 2.742411e+000 -9.410821e+000 122 108 71
1.973301e+000 2.707359e+000 -9.406049e+000 126 112 73
2.497429e+000 2.930165e+000 -9.966070e+000 122 106 70
1.530582e+000 2.524187e+000 -8.952753e+000 87 73 38
1.997399e+000 2.519103e+000 -9.348209e+000 126 111 72
2.285351e+000 2.640747e+000 -9.646440e+000 91 75 42
1.428047e+000 2.243977e+000 -8.680559e+000 86 71 38
1.809409e+000 2.367984e+000 -9.134791e+000 105 89 55
1.802027e+000 2.362558e+000 -9.097274e+000 105 89 55
1.902097e+000 2.366095e+000 -9.212342e+000 79 66 32
1.989918e+000 2.456953e+000 -9.313806e+000 98 84 49
1.983918e+000 2.450820e+000 -9.274973e+000 98 84 49
2.007446e+000 2.298913e+000 -9.248025e+000 122 110 68
2.199961e+000 2.328042e+000 -9.384195e+000 86 72 35
1.745192e+000 2.123057e+000 -8.940595e+000 117 104 59
2.239719e+000 2.211355e+000 -9.344222e+000 78 63 24
2.194388e+000 2.108499e+000 -9.262882e+000 88 74 37
2.635010e+000 2.147747e+000 -9.606813e+000 90 76 39
1.429530e-001 1.871534e+000 -8.933082e+000 213 221 205
1.429530e-001 1.871534e+000 -8.933082e+000 213 221 205
1.314875e+000 1.810421e+000 -8.198993e+000 73 54 24
1.314875e+000 1.810421e+000 -8.198993e+000 73 54 24
1.999566e+000 2.030679e+000 -9.118253e+000 72 56 24
1.961603e+000 1.989621e+000 -9.086848e+000 125 110 71
2.991812e+000 2.097117e+000 -9.888443e+000 96 77 45
2.980831e+000 2.092082e+000 -9.841453e+000 96 77 45
1.513408e+000 1.745868e+000 -8.408364e+000 73 58 25
3.133457e-001 1.621802e+000 -8.559455e+000 208 226 212
-1.467431e-001 1.503177e+000 -9.355084e+000 204 225 210
2.301136e+000 1.558040e+000 -9.136853e+000 66 47 21
2.578617e+000 1.659588e+000 -9.453569e+000 112 97 60
2.578617e+000 1.659588e+000 -9.453569e+000 112 97 60
3.231019e+000 1.670920e+000 -9.982022e+000 113 94 62
1.666226e+000 1.300261e+000 -8.224921e+000 119 104 65
1.841472e+000 1.355239e+000 -8.486471e+000 125 110 71
1.841472e+000 1.355239e+000 -8.486471e+000 125 110 71
1.797581e+000 1.321173e+000 -8.393224e+000 76 60 26
1.800295e+000 1.320633e+000 -8.407867e+000 76 60 26
1.975460e+000 1.338353e+000 -8.568732e+000 128 111 65
2.877582e+000 1.497230e+000 -9.641057e+000 110 96 61
2.881496e+000 1.497305e+000 -9.650395e+000 110 96 61
2.874077e+000 1.442282e+000 -9.618414e+000 66 49 24
3.087019e+000 1.466171e+000 -9.808134e+000 112 93 63
2.440528e+000 1.332638e+000 -9.070060e+000 122 107 66
3.324529e+000 1.423775e+000 -9.991486e+000 66 54 32
1.671785e+000 1.115304e+000 -8.088990e+000 121 109 68
1.745956e+000 1.107669e+000 -8.158758e+000 121 109 72
1.969619e+000 1.061320e+000 -8.334043e+000 114 102 61
1.969619e+000 1.061320e+000 -8.334043e+000 114 102 61
2.164325e+000 1.118778e+000 -8.575006e+000 120 107 66
2.312590e+000 1.127554e+000 -8.741850e+000 82 67 38
2.446271e+000 1.156484e+000 -8.885565e+000 129 112 72
2.938794e+000 1.110836e+000 -9.337160e+000 76 59 31
1.712547e+000 1.017420e+000 -8.048538e+000 120 108 68
2.284671e+000 1.006481e+000 -8.593448e+000 133 118 75
2.612803e+000 1.070041e+000 -8.971103e+000 74 61 29
1.992062e+000 8.690502e-001 -8.196605e+000 126 113 68
2.992570e+000 9.541883e-001 -9.293855e+000 112 99 57
3.274528e+000 9.385053e-001 -9.582219e+000 70 62 39
-5.308223e-001 4.913331e-001 -9.783609e+000 207 225 210
2.642900e+000 7.217230e-001 -8.775347e+000 120 103 59
2.969224e+000 8.038832e-001 -9.161648e+000 74 68 42
2.969224e+000 8.038832e-001 -9.161648e+000 74 68 42
2.675510e+000 6.632834e-001 -8.760268e+000 77 58 26
2.947455e+000 5.491380e-001 -9.002624e+000 119 99 61
2.661830e-001 4.029159e-001 -8.450033e+000 84 67 82
2.661830e-001 4.029159e-001 -8.450033e+000 84 67 82
2.436822e+000 4.521135e-001 -8.434645e+000 122 101 56
2.491609e+000 4.450611e-001 -8.471567e+000 126 106 59
3.319297e+000 4.699773e-001 -9.333531e+000 103 87 51
4.338200e+000 4.440134e-001 -8.717704e+000 182 156 69
3.064208e+000 2.083522e-001 -8.948028e+000 112 97 54
3.146313e+000 -1.220668e-001 -8.839828e+000 117 97 63
3.457644e+000 -3.262335e-002 -9.186435e+000 60 41 16
2.213239e+000 -1.266411e-001 -7.883864e+000 125 108 61
2.514755e+000 -4.106039e-001 -8.070303e+000 122 102 69
7.515770e-001 -4.446896e-001 -7.475710e+000 80 60 104
3.308408e+000 -5.620096e-001 -8.704393e+000 112 95 59
-2.675587e-001 -9.698790e-001 -8.892240e+000 95 65 73
2.782851e+000 -6.526254e-001 -8.071289e+000 126 103 69
-5.685661e-001 -1.257256e+000 -9.249438e+000 205 222 207
1.521280e-002 -1.023931e+000 -8.388140e+000 83 69 84
1.156134e+000 -5.712193e-001 -6.809323e+000 66 58 95
1.628423e+000 -6.092281e-001 -7.066550e+000 117 103 66
-8.510010e-001 3.048668e+000 -1.075407e+001 125 71 47
2.077706e+000 2.548533e+000 -9.433209e+000 92 78 42
-1.005678e+000 2.702346e+000 -1.094136e+001 179 131 98
-1.076624e+000 2.627442e+000 -1.101752e+001 104 65 58
-1.423374e+000 2.283206e+000 -1.138761e+001 179 146 100
-3.496519e-001 2.175721e+000 -9.829799e+000 211 224 209
2.476051e+000 2.136302e+000 -9.498528e+000 119 104 61
2.349741e+000 1.967722e+000 -9.352170e+000 111 100 60
2.813700e+000 2.085862e+000 -9.769958e+000 129 110 68
2.805861e+000 2.084021e+000 -9.735015e+000 129 110 68
2.460488e+000 1.670914e+000 -9.380206e+000 121 105 62
2.934598e+000 1.771672e+000 -9.742888e+000 98 81 54
-5.622782e-001 1.253120e+000 -9.960104e+000 84 68 78
-5.677397e-001 1.251529e+000 -9.975704e+000 84 68 78
-9.084445e-001 1.014813e+000 -1.040254e+001 90 80 92
-8.099015e-001 1.080813e+000 -1.031511e+001 91 78 89
-5.862680e-001 9.585451e-001 -1.005021e+001 129 82 101
1.860670e+000 8.432043e-001 -8.038553e+000 98 83 47
1.860670e+000 8.432043e-001 -8.038553e+000 98 83 47
2.369588e+000 8.403845e-001 -8.557826e+000 81 81 57
