ply
format ascii 1.0
element face 0
property list uchar int vertex_indices
element vertex 880
property float x
property float y
property float z
property uchar diffuse_red
property uchar diffuse_green
property uchar diffuse_blue
end_header
8.408211e-002 -1.025542e+000 -8.186957e+000 72 54 97
-6.263637e-001 3.212163e+000 -1.028389e+001 194 169 113
8.329288e-001 -1.954104e+000 -6.907122e+000 163 163 173
8.329288e-001 -1.954104e+000 -6.907122e+000 163 163 173
-4.024030e-002 -2.495682e+000 -8.183656e+000 138 139 159
9.220729e-002 -3.169114e+000 -8.649219e+000 32 17 25
-1.002815e+000 4.368875e+000 -1.099804e+001 148 107 85
-1.985075e+000 3.523288e+000 -1.194315e+001 120 90 81
-1.849187e+000 3.288931e+000 -1.184267e+001 173 137 92
-3.042015e-001 4.462752e+000 -9.789193e+000 154 109 80
-8.272785e-001 3.142028e+000 -1.047378e+001 191 158 105
-1.158098e+000 2.741365e+000 -1.088815e+001 193 138 116
6.986454e-001 4.225573e+000 -9.005455e+000 61 43 28
-7.496260e-001 3.011082e+000 -1.038460e+001 206 157 98
-1.340887e+000 2.222347e+000 -1.097393e+001 155 109 88
-5.005783e-001 2.987918e+000 -9.931966e+000 186 168 127
-1.424290e-001 3.499192e+000 -9.320586e+000 147 100 72
-1.031137e+000 2.317586e+000 -1.064723e+001 151 123 97
-8.339612e-001 2.487981e+000 -1.036530e+001 188 152 98
-1.175048e-001 3.279452e+000 -9.197818e+000 176 144 97
-1.178891e+000 1.639251e+000 -1.067141e+001 91 68 81
-1.182210e+000 1.411317e+000 -1.063386e+001 85 82 95
-1.182384e+000 1.415531e+000 -1.062796e+001 85 82 95
-1.058095e+000 9.713436e-001 -1.035982e+001 225 215 240
3.244071e+000 2.384930e+000 -1.032274e+001 56 30 17
-1.213042e+000 3.176158e-001 -1.039632e+001 209 205 220
-6.915491e-001 8.296022e-001 -9.836615e+000 217 216 229
-5.013039e-001 8.194200e-001 -9.579838e+000 74 66 74
-5.013039e-001 8.194200e-001 -9.579838e+000 74 66 74
-5.716376e-001 4.575227e+000 -1.026947e+001 149 80 47
-4.649379e-001 4.496351e+000 -1.009310e+001 145 91 55
-4.649379e-001 4.496351e+000 -1.009310e+001 145 91 55
-1.675032e+000 3.166798e+000 -1.161531e+001 164 124 83
-3.343565e-001 4.225181e+000 -9.827306e+000 209 173 115
-1.774468e+000 2.973868e+000 -1.170675e+001 154 116 80
-1.234519e+000 3.409988e+000 -1.112933e+001 204 171 121
-1.201551e+000 3.415627e+000 -1.110992e+001 114 75 43
-8.405629e-001 3.614539e+000 -1.058235e+001 212 182 145
-5.878192e-001 3.906750e+000 -1.023447e+001 199 154 99
-1.172032e+000 3.196184e+000 -1.099048e+001 139 92 49
-7.756396e-001 3.631629e+000 -1.048512e+001 210 178 135
-1.144713e+000 3.152559e+000 -1.095799e+001 187 148 91
-6.709892e-001 3.555087e+000 -1.029449e+001 183 155 108
-1.276729e+000 2.781254e+000 -1.106637e+001 124 69 52
-9.039745e-001 3.166579e+000 -1.059982e+001 128 82 48
-6.921551e-001 3.373982e+000 -1.031715e+001 93 64 38
1.246119e+000 4.203734e+000 -9.559595e+000 75 53 32
-1.089239e+000 2.569230e+000 -1.074801e+001 113 65 50
-1.080516e+000 2.611986e+000 -1.076806e+001 191 158 126
-3.504958e-002 3.800488e+000 -9.123916e+000 145 99 85
-8.233574e-001 2.712333e+000 -1.041071e+001 204 166 130
-1.083271e+000 2.305951e+000 -1.070406e+001 142 112 86
-1.300418e+000 1.725169e+000 -1.082810e+001 75 65 69
-1.108497e+000 1.868581e+000 -1.060131e+001 79 60 78
-1.108497e+000 1.868581e+000 -1.060131e+001 79 60 78
-1.191526e+000 1.729978e+000 -1.070234e+001 204 216 218
2.631165e+000 3.288618e+000 -1.036672e+001 117 98 74
-6.900395e-001 1.890036e+000 -1.004093e+001 106 71 95
-1.887932e-001 2.222737e+000 -9.302354e+000 206 203 214
-5.725279e-001 1.677083e+000 -9.788960e+000 64 54 80
3.783204e+000 3.035177e+000 -1.032523e+001 131 93 44
1.913200e-001 2.117514e+000 -8.596786e+000 158 117 136
-9.110661e-001 4.269732e+000 -1.082224e+001 105 61 53
2.301858e+000 5.155218e+000 -1.096774e+001 108 84 59
2.364372e+000 5.159189e+000 -1.106492e+001 49 23 8
-2.932312e-001 4.496579e+000 -9.802549e+000 166 118 92
-1.762210e+000 3.281287e+000 -1.173156e+001 146 107 86
-7.067719e-001 4.130677e+000 -1.042358e+001 103 61 46
2.683869e+000 4.973597e+000 -1.124993e+001 50 22 17
-6.459612e-001 3.821049e+000 -1.032654e+001 122 71 48
-5.644460e-001 3.584892e+000 -1.013062e+001 119 75 58
-8.368155e-001 3.198680e+000 -1.051144e+001 141 83 57
-9.652931e-001 2.857602e+000 -1.062357e+001 186 148 127
-6.647668e-001 3.022425e+000 -1.022109e+001 216 193 146
-1.069198e+000 2.428283e+000 -1.069573e+001 136 74 57
-6.920568e-001 2.887145e+000 -1.025753e+001 194 158 85
1.390079e+000 3.849179e+000 -9.573774e+000 127 106 77
2.902320e+000 3.566827e+000 -1.074322e+001 113 89 63
-1.301644e+000 1.720070e+000 -1.083739e+001 75 65 69
-5.900606e-001 2.252093e+000 -9.944840e+000 210 230 222
1.172938e+000 3.410746e+000 -9.097305e+000 85 78 62
3.641868e+000 3.519202e+000 -1.060307e+001 166 131 77
-9.887325e-001 1.632514e+000 -1.044949e+001 73 60 78
-7.804697e-001 1.808774e+000 -1.018705e+001 75 57 83
-7.823342e-001 1.813521e+000 -1.017960e+001 75 57 83
1.507617e+000 3.175366e+000 -9.358525e+000 141 116 86
2.597731e+000 2.807110e+000 -1.008122e+001 82 56 32
-6.556564e-001 1.317862e+000 -9.899111e+000 211 225 222
-5.825097e-001 1.449675e+000 -9.842962e+000 67 49 73
-6.123933e-001 1.386698e+000 -9.815330e+000 78 59 89
1.918248e+000 2.635520e+000 -9.348078e+000 126 100 71
1.814807e+000 2.584637e+000 -9.273891e+000 129 104 74
1.814807e+000 2.584637e+000 -9.273891e+000 129 104 74
1.907652e+000 2.565265e+000 -9.335829e+000 127 103 75
2.382746e+000 2.518380e+000 -9.630426e+000 128 100 70
-8.274904e-001 8.699978e-001 -1.000254e+001 215 225 225
-7.713023e-001 8.806628e-001 -9.970690e+000 207 223 227
-4.413011e-001 8.927119e-001 -9.467148e+000 77 67 76
-1.867110e+000 3.198928e+000 -1.183760e+001 168 131 90
-1.866722e+000 3.213791e+000 -1.182008e+001 168 131 90
-1.335489e+000 3.676808e+000 -1.128500e+001 104 71 62
-2.169734e-001 4.466844e+000 -9.671584e+000 193 141 83
-9.443965e-001 3.572237e+000 -1.071619e+001 157 116 70
-5.221871e-001 3.825462e+000 -1.014235e+001 209 182 127
-1.647047e+000 2.610460e+000 -1.143593e+001 76 69 95
-1.187303e+000 2.879553e+000 -1.091637e+001 116 62 49
-8.784017e-001 3.138181e+000 -1.055918e+001 210 182 136
-4.577830e-001 3.612489e+000 -9.971920e+000 208 182 151
-1.472689e+000 2.523912e+000 -1.122856e+001 107 75 56
1.207129e+000 4.117657e+000 -9.501169e+000 130 106 78
1.207129e+000 4.117657e+000 -9.501169e+000 130 106 78
1.246176e+000 4.158610e+000 -9.559991e+000 134 114 84
-1.567855e+000 2.291475e+000 -1.122272e+001 73 63 89
-2.767739e-001 3.259645e+000 -9.547615e+000 203 180 140
-2.804065e-001 3.182515e+000 -9.512453e+000 97 58 45
-6.439287e-002 3.368405e+000 -9.157186e+000 121 66 43
8.494481e-003 3.480690e+000 -9.046771e+000 74 60 73
-5.883674e-001 2.654297e+000 -1.002108e+001 116 70 57
-5.904216e-001 2.653595e+000 -1.002208e+001 116 70 57
2.046378e+000 3.614746e+000 -1.006200e+001 127 104 73
2.886808e+000 3.523202e+000 -1.070713e+001 76 55 34
-1.224140e-001 3.000883e+000 -9.200358e+000 69 51 63
1.921062e+000 3.429687e+000 -9.832702e+000 128 109 79
2.236276e+000 3.480190e+000 -1.014615e+001 136 111 81
2.929388e+000 3.458972e+000 -1.071443e+001 112 91 70
2.983035e+000 3.403669e+000 -1.071524e+001 86 64 46
-1.314320e+000 1.605194e+000 -1.080239e+001 77 69 83
-8.355893e-001 2.061082e+000 -1.029461e+001 218 229 230
-8.651958e-001 1.944795e+000 -1.031880e+001 82 72 97
2.165704e+000 3.383637e+000 -1.000956e+001 139 116 85
2.280834e+000 3.368060e+000 -1.008874e+001 124 100 72
2.453525e+000 3.279405e+000 -1.019119e+001 76 63 54
-9.882717e-001 1.642926e+000 -1.043972e+001 77 62 82
2.687107e+000 3.137428e+000 -1.031400e+001 94 80 64
2.984854e+000 3.167483e+000 -1.062344e+001 57 48 41
2.821629e+000 3.042463e+000 -1.040168e+001 107 91 68
9.699684e-001 3.157962e+000 -8.690936e+000 89 68 44
1.473714e+000 2.955602e+000 -9.208013e+000 128 105 74
1.475221e+000 2.953571e+000 -9.211244e+000 128 105 74
1.788237e+000 2.694633e+000 -9.319834e+000 127 102 76
1.952935e+000 2.715381e+000 -9.453975e+000 80 59 37
-2.763301e-001 1.552506e+000 -9.284911e+000 215 224 225
2.687273e+000 2.420248e+000 -9.820426e+000 106 80 56
-1.161811e+000 2.022937e-001 -1.025257e+001 212 228 225
-1.161811e+000 2.022937e-001 -1.025257e+001 212 228 225
-5.188224e-001 1.058673e+000 -9.621256e+000 215 227 227
2.749260e+000 2.288269e+000 -9.814741e+000 93 68 46
-1.476870e+000 4.032712e+000 -1.154785e+001 115 102 87
-1.261742e+000 4.153924e+000 -1.132784e+001 97 84 68
-1.524556e+000 3.863618e+000 -1.152354e+001 156 120 73
-1.923785e+000 3.402022e+000 -1.193788e+001 100 66 57
-1.267858e+000 2.951202e+000 -1.108427e+001 215 184 163
-8.564314e-001 3.393087e+000 -1.055035e+001 118 71 61
-1.376989e+000 2.795774e+000 -1.118028e+001 204 188 153
-7.382647e-001 3.253478e+000 -1.036978e+001 100 62 55
-1.200804e+000 2.501252e+000 -1.086449e+001 210 187 153
-1.009362e+000 2.694037e+000 -1.068159e+001 101 60 53
-3.962869e-001 3.132026e+000 -9.762682e+000 197 166 119
1.937207e+000 3.702369e+000 -1.000056e+001 124 103 74
3.680057e+000 3.762078e+000 -1.119169e+001 133 98 58
-1.549069e-002 3.426452e+000 -9.026632e+000 212 184 145
1.484629e+000 3.666145e+000 -9.585016e+000 85 62 44
2.040085e+000 3.562479e+000 -1.002677e+001 95 73 44
2.326013e+000 3.563065e+000 -1.027371e+001 134 107 78
2.619245e+000 3.571876e+000 -1.050766e+001 82 60 35
1.288268e+000 3.562005e+000 -9.316848e+000 143 117 90
1.803896e+000 3.486451e+000 -9.795805e+000 93 77 52
1.803896e+000 3.486451e+000 -9.795805e+000 93 77 52
2.272689e+000 3.425830e+000 -1.011900e+001 93 71 48
2.646874e+000 3.452469e+000 -1.048333e+001 82 61 37
2.646874e+000 3.452469e+000 -1.048333e+001 82 61 37
-9.276623e-001 1.957185e+000 -1.036656e+001 218 232 232
-9.276623e-001 1.957185e+000 -1.036656e+001 218 232 232
1.740534e+000 3.351277e+000 -9.640188e+000 124 106 84
2.628755e+000 3.237249e+000 -1.034647e+001 85 75 63
-1.175175e+000 1.496619e+000 -1.064809e+001 214 230 229
1.767193e+000 3.290797e+000 -9.631451e+000 76 72 66
1.767193e+000 3.290797e+000 -9.631451e+000 76 72 66
1.901913e+000 3.276966e+000 -9.712095e+000 90 89 77
2.132746e+000 3.248358e+000 -9.865023e+000 96 86 74
2.132746e+000 3.248358e+000 -9.865023e+000 96 86 74
2.164765e+000 3.181913e+000 -9.861755e+000 129 108 79
2.718774e+000 3.173288e+000 -1.038341e+001 118 98 73
-8.392619e-001 1.703149e+000 -1.023275e+001 211 230 229
-7.248034e-001 1.798903e+000 -1.007056e+001 217 225 227
-1.866299e-001 2.521101e+000 -9.266658e+000 216 227 225
2.122555e+000 3.141076e+000 -9.793993e+000 84 82 67
1.603706e+000 2.989019e+000 -9.341366e+000 104 82 59
2.536013e+000 2.933865e+000 -1.009470e+001 100 78 57
3.174482e+000 2.751490e+000 -1.060715e+001 102 79 64
1.957850e+000 2.780392e+000 -9.481788e+000 125 104 75
2.377969e+000 2.789107e+000 -9.780722e+000 89 69 45
2.559310e+000 2.778485e+000 -1.001509e+001 124 100 72
-7.280314e-001 1.260196e+000 -9.971825e+000 72 54 80
2.996255e+000 2.574167e+000 -1.029906e+001 103 81 57
2.922429e+000 2.549277e+000 -1.019147e+001 93 69 55
-5.966988e-001 1.255428e+000 -9.705138e+000 100 64 92
-5.970656e-001 1.273055e+000 -9.687926e+000 100 64 92
1.404880e+000 2.704895e+000 -8.999985e+000 85 61 33
1.822676e+000 2.633968e+000 -9.316585e+000 97 74 50
1.943100e+000 2.568983e+000 -9.368035e+000 130 107 76
2.497074e+000 2.604244e+000 -9.772296e+000 129 103 74
2.714648e+000 2.477855e+000 -9.877566e+000 118 93 62
-7.083526e-001 9.775334e-001 -9.889627e+000 133 86 122
-5.743736e-001 1.071356e+000 -9.688854e+000 100 61 94
-5.746938e-001 1.078325e+000 -9.682340e+000 100 61 94
1.130557e+000 2.677330e+000 -8.635669e+000 73 52 33
1.658139e+000 2.440158e+000 -9.082694e+000 69 48 28
2.838739e+000 2.339084e+000 -9.920289e+000 129 103 70
-2.704443e-002 1.785573e+000 -8.891431e+000 63 54 79
2.342513e+000 2.233500e+000 -9.481638e+000 120 99 65
2.866162e+000 2.156629e+000 -9.857136e+000 94 70 46
-1.682932e+000 3.904613e+000 -1.176062e+001 127 113 98
-2.458820e-001 4.506042e+000 -9.723371e+000 99 62 53
1.525363e+000 5.090373e+000 -9.813137e+000 109 89 65
-1.562030e+000 2.331621e+000 -1.133117e+001 180 146 110
-9.608575e-001 2.625939e+000 -1.061264e+001 198 174 140
-1.041253e+000 2.391514e+000 -1.065297e+001 207 188 156
1.521649e+000 3.721672e+000 -9.642521e+000 133 109 75
3.514222e+000 3.962291e+000 -1.077666e+001 123 83 47
-3.987636e-001 2.846070e+000 -9.725810e+000 197 180 140
1.418057e+000 3.629605e+000 -9.488517e+000 139 119 87
2.107989e+000 3.444171e+000 -9.998927e+000 93 72 45
-1.274180e+000 1.665249e+000 -1.080838e+001 216 233 227
1.957807e+000 3.367551e+000 -9.821744e+000 96 91 73
1.163238e+000 3.309068e+000 -9.039289e+000 81 76 64
-8.466001e-001 1.525700e+000 -1.016760e+001 218 232 234
1.297261e+000 3.053693e+000 -9.067828e+000 85 67 40
-6.503202e-001 1.407124e+000 -9.881657e+000 211 226 226
-6.521494e-001 1.407390e+000 -9.880781e+000 211 226 226
1.553985e+000 2.784731e+000 -9.181109e+000 100 76 49
1.553985e+000 2.784731e+000 -9.181109e+000 100 76 49
2.688762e+000 2.558212e+000 -9.927452e+000 133 99 73
-2.233992e-001 1.671648e+000 -9.195762e+000 70 57 75
-1.252104e-001 1.729657e+000 -9.053948e+000 72 63 94
1.579549e+000 2.451542e+000 -9.016035e+000 98 78 54
-8.359418e-001 5.737671e-001 -9.997313e+000 85 70 93
5.277528e-002 1.867030e+000 -8.805141e+000 69 62 93
-8.620857e-001 4.406917e+000 -1.073674e+001 191 146 123
-5.270098e-001 4.485226e+000 -1.017617e+001 180 131 82
-1.444944e+000 3.688147e+000 -1.143404e+001 159 116 74
-1.233588e+000 3.287555e+000 -1.107423e+001 187 154 101
-1.228756e+000 2.851291e+000 -1.099931e+001 122 66 50
-1.283518e+000 2.149096e+000 -1.091624e+001 79 65 94
3.592606e+000 3.799980e+000 -1.066297e+001 169 135 78
3.109233e+000 3.390054e+000 -1.075861e+001 60 39 22
-9.211517e-001 1.593094e+000 -1.027136e+001 78 63 94
9.335471e-001 3.101435e+000 -8.659357e+000 131 104 74
-1.189290e+000 3.493772e-001 -1.042996e+001 78 72 87
-5.827619e-001 6.484081e-001 -9.644995e+000 79 63 89
-5.392869e-002 4.616942e+000 -9.426146e+000 94 68 83
-1.224066e+000 2.618639e+000 -1.097157e+001 96 63 56
-1.225962e+000 2.616778e+000 -1.096778e+001 96 63 56
-7.383024e-001 1.713556e+000 -1.001724e+001 75 65 106
-7.810028e-001 1.404053e+000 -1.009459e+001 65 51 82
2.711207e+000 4.768968e+000 -1.111727e+001 49 28 27
-1.422538e+000 2.984501e+000 -1.125205e+001 94 68 66
-1.421407e+000 2.983976e+000 -1.125206e+001 94 68 66
8.772568e-001 4.026073e+000 -9.105617e+000 131 107 79
-9.777625e-001 1.318321e+000 -1.033894e+001 68 54 80
-6.319579e-001 2.694317e+000 -1.024217e+001 203 188 149
8.618502e-002 3.704456e+000 -8.941494e+000 72 60 78
-2.646789e+001 -2.699914e+001 -7.377746e+001 116 117 109
-2.105750e+001 -4.656995e+001 -7.198479e+001 127 113 85
-2.702083e+001 -4.748887e+001 -7.070635e+001 151 97 59
-3.153072e+001 -2.700218e+001 -7.753632e+001 133 137 120
-1.718627e+001 -4.147201e+001 -7.201198e+001 153 146 130
-3.116675e+001 -2.686828e+001 -7.491300e+001 118 120 105
-3.317859e+001 -2.867750e+001 -7.083686e+001 111 116 110
-2.204321e+001 -3.034333e+001 -7.346682e+001 117 112 96
-2.155102e+001 -4.308330e+001 -7.166469e+001 106 98 77
-2.907891e+001 -2.810867e+001 -7.253088e+001 160 165 158
-1.765598e+001 -3.310878e+001 -7.504070e+001 72 64 53
-1.785282e+001 -4.052082e+001 -7.357895e+001 150 146 132
-1.678899e+001 -4.051875e+001 -7.375625e+001 75 56 49
-1.678899e+001 -4.051875e+001 -7.375625e+001 75 56 49
-3.343328e+001 -2.903336e+001 -6.805661e+001 87 70 63
-1.858316e+001 -3.409242e+001 -7.472107e+001 135 129 115
-3.126096e+001 -4.373080e+001 -6.679471e+001 142 136 121
-1.906914e+001 -4.704674e+001 -7.719560e+001 175 176 158
-2.494824e+001 -8.030315e+001 -9.647647e+001 136 98 66
-2.494824e+001 -8.030315e+001 -9.647647e+001 136 98 66
-2.971806e+001 -4.269735e+001 -6.968458e+001 27 22 22
-5.105854e-001 3.551018e+000 -1.004669e+001 186 138 118
-1.266082e+000 2.743379e+000 -1.102649e+001 140 89 72
2.343673e+000 3.371495e+000 -1.014618e+001 93 71 49
-5.196613e-001 4.414384e+000 -1.017771e+001 162 114 79
-1.243436e+000 3.469959e+000 -1.114193e+001 198 160 114
-1.838352e-001 4.292915e+000 -9.543390e+000 185 158 113
-1.340765e+000 2.909883e+000 -1.113683e+001 103 70 63
7.215005e-001 4.238488e+000 -9.054112e+000 141 121 97
-2.864660e-001 2.342718e+000 -9.437992e+000 53 40 52
-1.284817e+000 2.651843e+000 -1.102988e+001 194 170 136
1.820280e+000 3.441172e+000 -9.772511e+000 124 111 77
-1.287455e+000 3.934990e+000 -1.131011e+001 184 144 94
2.294394e+000 3.667949e+000 -1.029488e+001 131 105 71
2.502145e+000 3.536349e+000 -1.040262e+001 135 110 79
2.502145e+000 3.536349e+000 -1.040262e+001 135 110 79
-6.892868e-001 1.764411e+000 -1.000482e+001 83 75 99
2.103625e+000 2.876923e+000 -9.625305e+000 130 111 82
-3.655968e-001 9.445646e-001 -9.374914e+000 75 60 64
2.726569e+000 5.195580e+000 -1.154334e+001 85 50 43
1.956753e+000 3.165322e+000 -9.679704e+000 69 64 64
2.052774e+000 2.766209e+000 -9.532354e+000 133 110 76
1.765196e+000 2.965739e+000 -9.454120e+000 86 66 42
-9.580621e-001 5.670154e+000 -1.098107e+001 100 78 79
-7.193121e-001 5.852811e+000 -1.070535e+001 192 161 98
-1.084597e+000 5.476286e+000 -1.118291e+001 218 224 220
-1.926642e-001 6.195976e+000 -9.850596e+000 151 129 106
-1.905862e+000 4.606596e+000 -1.227037e+001 81 65 50
-1.523439e+000 4.864077e+000 -1.181592e+001 202 188 171
-1.226998e+000 5.161098e+000 -1.139119e+001 219 225 223
-9.361013e-001 5.391468e+000 -1.097374e+001 145 150 144
-1.284290e+000 5.002933e+000 -1.145647e+001 214 229 227
-1.135210e+000 5.108136e+000 -1.126233e+001 218 229 225
-1.051442e+000 5.167190e+000 -1.115276e+001 218 228 227
-9.381085e-001 5.156842e+000 -1.097758e+001 220 229 224
-1.837939e+000 4.242646e+000 -1.208831e+001 201 188 172
-1.313693e+000 4.802575e+000 -1.153123e+001 209 189 155
-1.158976e+000 4.856799e+000 -1.127906e+001 189 161 110
-6.366984e-001 5.335206e+000 -1.051099e+001 198 180 142
-1.819180e+000 4.217402e+000 -1.199802e+001 199 186 170
-1.819180e+000 4.217402e+000 -1.199802e+001 199 186 170
-1.682582e+000 4.336452e+000 -1.188649e+001 200 186 173
-4.695649e-001 5.432529e+000 -1.024490e+001 204 175 133
-9.170372e-001 4.751976e+000 -1.088864e+001 169 127 85
-4.145365e-001 5.235458e+000 -1.009004e+001 189 138 107
-3.608500e-001 5.375082e+000 -9.996494e+000 166 120 90
-1.962517e+000 3.631278e+000 -1.201299e+001 106 84 59
-8.479002e-001 4.755633e+000 -1.075480e+001 144 106 57
-8.479002e-001 4.755633e+000 -1.075480e+001 144 106 57
-1.292276e+000 4.033804e+000 -1.131821e+001 174 134 76
-1.025106e+000 4.353589e+000 -1.100327e+001 119 82 57
-1.157306e+000 4.023489e+000 -1.123196e+001 125 80 57
-3.367246e-001 4.894304e+000 -9.920525e+000 180 150 90
-1.924403e+000 3.223789e+000 -1.191421e+001 165 133 86
-1.831295e+000 3.258543e+000 -1.182112e+001 99 65 41
-1.831295e+000 3.258543e+000 -1.182112e+001 99 65 41
-7.375173e-001 4.325792e+000 -1.053765e+001 160 113 88
-6.848031e-001 4.385998e+000 -1.045595e+001 183 133 91
-6.034661e-001 4.523962e+000 -1.030773e+001 189 145 96
-5.579870e-001 4.504892e+000 -1.026560e+001 153 101 59
1.535926e+000 5.356074e+000 -1.028702e+001 59 34 10
1.535926e+000 5.356074e+000 -1.028702e+001 59 34 10
1.569534e+000 5.299765e+000 -1.027768e+001 67 44 20
1.565782e+000 5.304728e+000 -1.026540e+001 67 44 20
1.610242e+000 5.285797e+000 -1.030915e+001 133 110 77
1.724245e+000 5.220319e+000 -1.037873e+001 59 37 15
1.888081e+000 5.175239e+000 -1.053270e+001 63 42 13
2.677455e+000 5.114675e+000 -1.128826e+001 35 17 13
-1.212627e+000 3.448692e+000 -1.113309e+001 131 93 48
-6.687656e-001 4.160391e+000 -1.033257e+001 140 90 57
2.625696e+000 4.966209e+000 -1.122936e+001 46 23 16
-9.609610e-001 3.484244e+000 -1.074995e+001 191 164 128
-7.240171e-001 3.636517e+000 -1.039907e+001 202 178 132
-1.654763e+000 2.457677e+000 -1.142833e+001 87 63 85
-1.354834e+000 2.656746e+000 -1.111548e+001 134 96 47
-1.144883e+000 2.953590e+000 -1.093450e+001 109 58 49
-1.178786e+000 2.866183e+000 -1.094594e+001 109 53 40
-1.181007e+000 2.832466e+000 -1.093318e+001 129 71 55
-1.098753e+000 2.936816e+000 -1.085378e+001 116 63 49
-1.099751e+000 2.936547e+000 -1.085411e+001 116 63 49
-1.021992e+000 3.082563e+000 -1.077490e+001 190 145 111
-8.536936e-001 3.230570e+000 -1.052959e+001 199 162 103
-6.932040e-001 3.488992e+000 -1.034015e+001 209 193 150
-6.269375e-001 3.535884e+000 -1.024127e+001 128 98 63
-5.548816e-001 3.600189e+000 -1.019635e+001 150 84 46
-1.045127e+000 2.866501e+000 -1.077864e+001 114 58 45
-5.270197e-001 3.577252e+000 -1.009945e+001 205 196 165
1.487106e+000 4.598670e+000 -9.947901e+000 125 109 86
-1.115598e+000 2.618672e+000 -1.079665e+001 97 57 55
-7.162419e-001 3.017836e+000 -1.039690e+001 189 149 89
-4.088335e-001 3.557140e+000 -9.876528e+000 209 188 159
-1.112708e+000 2.270032e+000 -1.071871e+001 181 147 114
-4.904277e-001 3.154424e+000 -9.920436e+000 200 180 147
-4.792332e-001 3.036153e+000 -9.899922e+000 209 187 145
-4.376657e-001 3.195784e+000 -9.846513e+000 213 159 113
-4.098110e-001 3.279945e+000 -9.810287e+000 204 156 134
-2.388943e-001 3.510883e+000 -9.552494e+000 126 74 45
-6.380626e-002 3.835761e+000 -9.254681e+000 155 117 95
1.257943e+000 4.184471e+000 -9.592533e+000 62 37 15
2.839003e+000 3.995098e+000 -1.087555e+001 60 37 21
-3.467340e-001 3.204135e+000 -9.672039e+000 128 91 40
-3.865529e-001 3.071366e+000 -9.712504e+000 199 170 120
-3.490341e-001 3.171632e+000 -9.656780e+000 165 128 84
-2.245122e-001 3.400331e+000 -9.480258e+000 128 75 53
7.441586e-001 4.243650e+000 -9.063670e+000 77 52 29
-5.081576e-001 2.637126e+000 -9.940831e+000 205 185 153
-1.152269e-001 3.500992e+000 -9.269689e+000 125 87 59
7.620522e-001 4.018775e+000 -8.957689e+000 124 99 73
7.837436e-001 4.043868e+000 -8.970214e+000 99 76 45
1.692320e+000 3.826811e+000 -9.867589e+000 132 105 69
-2.858158e-001 3.002062e+000 -9.527765e+000 180 141 84
-2.858158e-001 3.002062e+000 -9.527765e+000 180 141 84
1.501419e+000 3.799403e+000 -9.633228e+000 128 105 73
1.833275e+000 3.482333e+000 -9.776716e+000 76 54 30
2.169373e+000 3.527298e+000 -1.011614e+001 71 45 21
-1.143355e+000 9.401175e-001 -1.042844e+001 190 191 213
-1.060029e+000 1.023937e+000 -1.030585e+001 201 200 223
-7.104765e-001 1.253211e+000 -1.009341e+001 68 63 80
1.675551e+000 3.169676e+000 -9.494836e+000 62 56 48
1.853934e+000 3.114863e+000 -9.617323e+000 126 111 82
-7.201411e-001 1.023368e+000 -9.924001e+000 196 201 220
-3.479366e-001 1.498090e+000 -9.405493e+000 202 200 214
-3.479366e-001 1.498090e+000 -9.405493e+000 202 200 214
-3.686422e-001 1.428204e+000 -9.392438e+000 70 56 72
2.114362e+000 2.584159e+000 -9.518855e+000 78 54 26
2.010350e+000 2.532439e+000 -9.402294e+000 138 107 79
-9.159306e-002 1.514724e+000 -8.986608e+000 205 205 220
-1.041981e-001 1.440418e+000 -9.021961e+000 66 62 84
-1.433565e+000 5.285754e+000 -1.164980e+001 185 174 173
3.564849e-001 6.506798e+000 -9.808263e+000 146 138 153
3.639924e-001 6.505800e+000 -9.767999e+000 43 27 28
-1.325524e-001 6.221927e+000 -9.782838e+000 155 136 119
-1.973827e+000 4.502822e+000 -1.232212e+001 80 64 49
-1.559647e+000 4.850268e+000 -1.183741e+001 76 63 46
-1.291916e+000 5.053186e+000 -1.146590e+001 214 230 221
-1.174220e+000 5.261864e+000 -1.131283e+001 213 228 225
-1.140084e+000 5.290126e+000 -1.126566e+001 218 227 226
-7.942988e-001 5.547543e+000 -1.078868e+001 218 222 222
-5.334460e-001 5.793729e+000 -1.036143e+001 176 133 79
-3.872078e-001 5.834008e+000 -1.018316e+001 166 119 67
-3.622182e-001 5.911384e+000 -1.014703e+001 172 128 77
-1.734879e-001 5.993177e+000 -9.825392e+000 189 157 99
1.689611e-001 6.238682e+000 -9.495886e+000 78 58 49
-1.968493e+000 4.461408e+000 -1.230063e+001 69 51 37
-1.783625e+000 4.579631e+000 -1.209584e+001 75 59 43
-1.784501e+000 4.577685e+000 -1.210065e+001 75 59 43
-1.708619e+000 4.659944e+000 -1.200506e+001 82 69 52
-1.550489e+000 4.788093e+000 -1.182845e+001 86 70 55
-1.546449e+000 4.729930e+000 -1.185388e+001 72 57 38
-1.543364e+000 4.745912e+000 -1.181523e+001 72 57 38
-1.095979e+000 5.133994e+000 -1.120772e+001 221 230 227
-9.975169e-001 5.214850e+000 -1.104954e+001 226 235 234
-9.405193e-001 5.253443e+000 -1.098396e+001 214 225 221
-7.662022e-001 5.386214e+000 -1.073431e+001 213 222 220
-7.350265e-001 5.412161e+000 -1.069063e+001 214 223 220
-7.076856e-001 5.433275e+000 -1.064942e+001 217 226 224
6.076061e-002 6.171947e+000 -9.460387e+000 118 95 80
-1.786716e+000 4.335629e+000 -1.200509e+001 79 63 48
-6.087170e-001 5.328464e+000 -1.045130e+001 202 180 142
-1.934306e+000 4.112593e+000 -1.218394e+001 87 74 60
-1.850757e+000 4.215027e+000 -1.204005e+001 68 55 39
-1.778268e+000 4.228002e+000 -1.197512e+001 71 55 40
-1.588552e+000 4.383152e+000 -1.175731e+001 75 61 50
-1.587796e+000 4.378752e+000 -1.176562e+001 75 61 50
-1.496755e+000 4.469988e+000 -1.169590e+001 196 184 172
-1.404131e+000 4.482327e+000 -1.158867e+001 74 57 49
-1.331028e+000 4.522619e+000 -1.147856e+001 82 66 51
-4.515307e-001 5.318512e+000 -1.017092e+001 207 162 138
-4.251283e-001 5.131370e+000 -1.007986e+001 170 126 96
-4.251283e-001 5.131370e+000 -1.007986e+001 170 126 96
-2.201848e-001 5.303468e+000 -9.748464e+000 111 68 60
-1.947987e+000 3.539940e+000 -1.196031e+001 96 66 63
-1.920880e+000 3.557634e+000 -1.199970e+001 179 147 104
-1.473252e+000 3.907127e+000 -1.153642e+001 170 133 85
-1.408791e+000 4.056733e+000 -1.148069e+001 200 193 175
-1.146125e+000 4.144372e+000 -1.116733e+001 135 89 53
-8.256272e-001 4.587842e+000 -1.070754e+001 154 118 102
-8.256272e-001 4.587842e+000 -1.070754e+001 154 118 102
-7.391194e-001 4.727849e+000 -1.056619e+001 152 109 75
-2.195403e-001 5.264715e+000 -9.746892e+000 143 92 72
-1.443304e+000 3.835372e+000 -1.147459e+001 172 135 91
-1.362237e+000 3.888627e+000 -1.140175e+001 168 135 83
-1.054188e+000 4.132925e+000 -1.102731e+001 126 83 67
-7.304605e-001 4.440703e+000 -1.053227e+001 131 80 59
-5.050995e-001 4.614928e+000 -1.020711e+001 163 99 64
-1.817184e+000 2.949327e+000 -1.171952e+001 80 72 100
-1.228613e+000 3.530598e+000 -1.116305e+001 123 76 59
-1.228767e+000 3.527265e+000 -1.116271e+001 123 76 59
-6.270455e-001 4.189080e+000 -1.036978e+001 88 55 46
1.943804e+000 5.279161e+000 -1.063810e+001 135 101 75
1.968919e+000 5.226451e+000 -1.062451e+001 118 93 63
-1.207709e+000 3.358545e+000 -1.109885e+001 182 149 102
-6.451103e-001 4.158667e+000 -1.036590e+001 186 140 106
-2.827173e-001 4.548398e+000 -9.802522e+000 146 94 55
-6.686009e-001 3.901858e+000 -1.036909e+001 127 84 42
-1.962744e-001 4.530694e+000 -9.709939e+000 131 84 68
-6.823376e-001 3.453899e+000 -1.033482e+001 153 117 64
-1.223666e-001 4.312795e+000 -9.438366e+000 191 171 116
-9.397448e-001 3.075077e+000 -1.063931e+001 134 67 50
-1.016782e+000 2.875492e+000 -1.072498e+001 199 142 123
-6.008631e-001 3.531582e+000 -1.020945e+001 208 193 154
-5.655810e-001 3.497775e+000 -1.013591e+001 193 163 125
-5.367905e-001 3.513574e+000 -1.014229e+001 106 69 47
1.534173e+000 4.608201e+000 -9.966543e+000 132 112 87
2.222867e+000 4.491404e+000 -1.057600e+001 119 95 70
-1.215279e+000 2.560101e+000 -1.093760e+001 99 65 59
-8.087243e-001 3.026300e+000 -1.042519e+001 147 84 62
-6.442207e-001 3.185648e+000 -1.022277e+001 137 66 42
1.279304e-001 4.456802e+000 -8.983957e+000 105 110 130
-1.107958e+000 2.463033e+000 -1.075175e+001 115 61 49
-1.019842e+000 2.586621e+000 -1.066493e+001 107 48 40
-7.656826e-001 2.835371e+000 -1.035842e+001 201 157 121
-2.756132e-001 3.578165e+000 -9.629052e+000 140 97 53
-1.029718e+000 2.273002e+000 -1.060918e+001 193 166 148
-9.431791e-001 2.471478e+000 -1.054175e+001 185 145 85
-8.324208e-001 2.536125e+000 -1.040774e+001 163 85 51
8.337015e-001 4.283586e+000 -9.186560e+000 137 113 86
9.025538e-001 4.295366e+000 -9.290432e+000 129 109 79
9.203478e-001 4.262860e+000 -9.289480e+000 60 40 16
1.137071e+000 4.203072e+000 -9.496255e+000 69 47 23
1.318708e+000 4.179906e+000 -9.630979e+000 53 27 3
1.318708e+000 4.179906e+000 -9.630979e+000 53 27 3
-9.788938e-001 2.283126e+000 -1.052168e+001 67 53 44
-2.414064e-001 3.434532e+000 -9.491121e+000 202 179 143
-2.143316e-001 3.468526e+000 -9.456848e+000 119 57 44
-2.071848e-001 3.402135e+000 -9.438207e+000 176 125 104
1.035458e+000 4.120112e+000 -9.371573e+000 65 43 19
1.045709e+000 4.049456e+000 -9.347260e+000 65 44 25
1.045709e+000 4.049456e+000 -9.347260e+000 65 44 25
1.290128e+000 4.044315e+000 -9.554526e+000 130 107 75
2.931090e+000 3.828511e+000 -1.088412e+001 53 32 12
-5.655287e-001 2.543875e+000 -9.988787e+000 170 141 127
-1.543632e-001 3.272387e+000 -9.322300e+000 128 85 46
-3.329308e-002 3.633541e+000 -9.135241e+000 168 130 111
2.603414e+000 3.641320e+000 -1.050216e+001 123 93 67
2.667973e+000 3.621810e+000 -1.055888e+001 119 89 61
-2.384528e-001 3.118121e+000 -9.405591e+000 198 163 109
-1.527467e-001 3.157116e+000 -9.260933e+000 182 148 87
-1.234840e-002 3.477618e+000 -9.056781e+000 82 67 67
-1.739848e-002 3.514989e+000 -9.066776e+000 193 163 144
1.306922e+000 3.575107e+000 -9.396889e+000 125 102 71
2.180535e+000 3.471777e+000 -1.009369e+001 132 107 79
2.437123e+000 3.446646e+000 -1.027353e+001 124 98 75
-7.849920e-001 1.753964e+000 -1.013094e+001 85 77 112
-6.672134e-001 1.858081e+000 -9.966925e+000 92 77 109
-3.562060e-001 2.397397e+000 -9.607432e+000 60 45 58
-3.426322e-001 2.331212e+000 -9.547000e+000 83 71 91
-3.430711e-001 2.335377e+000 -9.542920e+000 83 71 91
-1.276427e+000 8.366185e-001 -1.059058e+001 206 209 226
-1.276861e+000 8.444209e-001 -1.058607e+001 206 209 226
1.062654e+000 3.472089e+000 -8.999222e+000 76 69 63
-8.051226e-001 9.063758e-001 -1.001182e+001 77 69 92
-6.952761e-001 1.259348e+000 -9.935136e+000 69 54 79
-1.078861e+000 4.409572e-001 -1.021445e+001 195 197 218
-5.671429e-001 1.268796e+000 -9.713957e+000 86 70 98
-7.274946e-001 6.218122e-001 -9.853407e+000 207 206 228
2.102673e+000 2.690955e+000 -9.582083e+000 135 106 77
2.116915e+000 2.626111e+000 -9.522574e+000 140 110 82
-4.276135e-001 6.717087e-001 -9.401648e+000 64 58 68
-3.141305e-001 9.346224e-001 -9.270284e+000 208 212 220
-1.136761e+000 5.499486e+000 -1.125574e+001 216 227 219
-1.021995e+000 5.585514e+000 -1.109857e+001 211 223 219
-9.202523e-001 5.658574e+000 -1.096083e+001 218 230 225
-8.607399e-001 5.708187e+000 -1.086808e+001 216 226 221
-7.053580e-001 5.820572e+000 -1.065411e+001 215 224 221
-8.043898e-001 5.573311e+000 -1.080420e+001 120 75 66
-7.537088e-001 5.612438e+000 -1.072516e+001 105 61 50
-7.539465e-001 5.722900e+000 -1.073568e+001 218 225 225
-6.469273e-001 5.688256e+000 -1.058345e+001 137 84 69
-6.469273e-001 5.688256e+000 -1.058345e+001 137 84 69
-9.756671e-002 6.211360e+000 -9.691286e+000 102 85 104
-9.760196e-002 6.180456e+000 -9.645019e+000 105 87 100
-1.479390e+000 4.908721e+000 -1.174552e+001 81 65 50
-1.232018e+000 5.210387e+000 -1.140336e+001 214 226 226
-1.211356e+000 5.115204e+000 -1.137237e+001 220 229 226
-1.082376e+000 5.331276e+000 -1.117479e+001 222 233 226
-1.038279e+000 5.248328e+000 -1.112278e+001 220 230 228
-7.275623e-001 5.591091e+000 -1.069288e+001 211 224 224
-6.173816e-001 5.675112e+000 -1.053775e+001 217 230 231
-4.145519e-001 5.879621e+000 -1.017829e+001 202 162 105
-3.204740e-001 5.922312e+000 -1.007394e+001 181 144 75
-8.754281e-002 6.137869e+000 -9.637640e+000 88 62 70
-8.785874e-002 6.081911e+000 -9.678978e+000 94 79 90
4.959889e-002 6.266436e+000 -9.500610e+000 80 51 52
-1.838988e+000 4.544807e+000 -1.216169e+001 201 185 169
-1.838988e+000 4.544807e+000 -1.216169e+001 201 185 169
-1.149361e+000 5.062969e+000 -1.127963e+001 199 203 202
-8.355832e-001 5.320361e+000 -1.084261e+001 213 223 222
-6.691985e-001 5.457679e+000 -1.058976e+001 219 230 227
-5.946469e-001 5.573237e+000 -1.050061e+001 219 224 216
1.078759e-001 6.183869e+000 -9.479534e+000 111 93 71
-1.710347e+000 4.373600e+000 -1.193284e+001 71 57 46
-1.000792e+000 5.042288e+000 -1.105937e+001 128 78 72
-5.456155e-001 5.461682e+000 -1.034303e+001 195 172 120
-5.144606e-001 5.396035e+000 -1.030817e+001 210 184 144
-4.827035e-001 5.503485e+000 -1.031373e+001 195 164 110
-4.827035e-001 5.503485e+000 -1.031373e+001 195 164 110
2.356458e-001 6.119307e+000 -9.457803e+000 47 32 27
-1.567847e+000 4.429733e+000 -1.176901e+001 193 184 169
-1.566393e+000 4.432232e+000 -1.176430e+001 193 184 169
-1.513428e+000 4.401815e+000 -1.173045e+001 67 50 40
-1.380665e+000 4.565152e+000 -1.154080e+001 203 188 174
-1.349335e+000 4.604753e+000 -1.153448e+001 84 68 53
-1.348248e+000 4.600586e+000 -1.154472e+001 84 68 53
-6.658577e-001 5.217400e+000 -1.052982e+001 202 172 131
-5.244331e-001 5.359159e+000 -1.030331e+001 145 98 88
-3.351241e-001 5.485836e+000 -9.995521e+000 207 175 124
-5.044291e-001 5.244642e+000 -1.025721e+001 197 149 134
-4.362756e-001 5.250436e+000 -1.011855e+001 115 66 51
-8.893489e-001 4.702304e+000 -1.083538e+001 209 176 131
-8.598509e-001 4.646542e+000 -1.077191e+001 181 149 106
-1.231972e+000 4.061974e+000 -1.126500e+001 172 137 84
-1.955370e+000 3.300884e+000 -1.196253e+001 164 130 92
-8.071755e-001 4.390899e+000 -1.061420e+001 116 70 57
1.084805e+000 5.541815e+000 -9.931586e+000 131 109 83
1.144248e+000 5.396722e+000 -9.924618e+000 67 45 23
1.638796e+000 5.349928e+000 -1.034473e+001 62 36 15
2.351521e+000 5.223736e+000 -1.111657e+001 79 51 39
2.311490e+000 5.062994e+000 -1.098265e+001 81 56 34
-8.799697e-001 3.551316e+000 -1.063752e+001 107 69 58
-3.405600e-001 4.383904e+000 -9.872830e+000 169 111 67
1.443261e+000 4.939698e+000 -1.007075e+001 54 36 21
-1.607219e+000 2.685880e+000 -1.141755e+001 175 145 94
-1.255271e+000 2.955264e+000 -1.107663e+001 217 193 164
-8.125668e-001 3.400740e+000 -1.054222e+001 204 184 142
-1.147456e+000 2.828826e+000 -1.089193e+001 199 153 130
-8.808308e-001 3.120942e+000 -1.059397e+001 213 186 146
-6.536791e-001 3.395895e+000 -1.027694e+001 205 183 147
1.615150e+000 4.586767e+000 -1.004144e+001 121 101 69
-9.723092e-001 2.839302e+000 -1.064616e+001 194 150 120
-9.325958e-001 2.829768e+000 -1.057725e+001 97 53 49
-6.662131e-001 3.267452e+000 -1.022339e+001 210 184 139
-4.165207e-001 3.463233e+000 -9.886933e+000 205 190 149
-7.077352e-001 2.996582e+000 -1.028526e+001 178 113 70
-7.074135e-001 2.991481e+000 -1.029198e+001 178 113 70
-4.272691e-001 3.374369e+000 -9.864526e+000 207 190 150
-3.580550e-001 3.427786e+000 -9.710788e+000 208 151 92
-2.300639e-001 3.482088e+000 -9.509624e+000 118 68 49
-1.119060e-002 3.918785e+000 -9.131098e+000 207 190 152
7.866928e-001 4.266279e+000 -9.140821e+000 127 104 73
1.195276e+000 4.197527e+000 -9.533534e+000 59 34 17
2.936482e+000 3.879634e+000 -1.093092e+001 99 73 58
-1.239571e+000 1.782265e+000 -1.078100e+001 210 220 226
-7.548935e-001 2.471261e+000 -1.026184e+001 71 53 52
-7.548935e-001 2.471261e+000 -1.026184e+001 71 53 52
-3.596873e-001 3.113236e+000 -9.666815e+000 99 66 47
-8.872367e-002 3.633779e+000 -9.258060e+000 102 69 56
-8.838622e-002 3.629885e+000 -9.262561e+000 102 69 56
7.825402e-001 4.224027e+000 -9.079050e+000 133 107 80
1.046857e+000 4.090230e+000 -9.355196e+000 129 107 76
1.047486e+000 4.089028e+000 -9.356995e+000 129 107 76
1.294982e+000 3.996945e+000 -9.564708e+000 65 43 19
-1.206872e+000 1.743901e+000 -1.075384e+001 71 57 75
-6.372401e-001 2.558069e+000 -1.009010e+001 203 183 150
-5.279007e-001 2.614955e+000 -9.921885e+000 84 55 100
-4.501770e-001 2.883521e+000 -9.822729e+000 181 140 65
-1.850182e-001 3.324707e+000 -9.374577e+000 99 54 48
1.450791e+000 3.822236e+000 -9.638241e+000 128 102 72
2.035358e+000 3.724242e+000 -1.009354e+001 135 105 69
2.903538e+000 3.612713e+000 -1.079657e+001 120 93 68
-2.900194e-001 2.905768e+000 -9.504724e+000 193 160 91
-5.450679e-001 2.226444e+000 -9.932268e+000 53 46 81
-5.396237e-001 2.211682e+000 -9.879618e+000 217 229 231
-5.556583e-001 2.179612e+000 -9.837325e+000 64 50 79
-5.545495e-001 2.158542e+000 -9.857515e+000 64 50 79
-2.701912e-001 2.783225e+000 -9.471668e+000 65 55 54
1.385854e+000 3.518498e+000 -9.422492e+000 131 106 76
2.984436e+000 3.169556e+000 -1.062105e+001 76 62 53
2.832133e+000 3.151126e+000 -1.046429e+001 120 98 83
-3.813864e-001 2.073451e+000 -9.606691e+000 212 219 225
-3.417888e-001 2.144355e+000 -9.550246e+000 67 54 79
-3.473467e-001 2.193365e+000 -9.502040e+000 67 54 79
-2.582916e-001 2.433242e+000 -9.451144e+000 54 47 59
-2.582916e-001 2.433242e+000 -9.451144e+000 54 47 59
-1.749484e-001 2.585124e+000 -9.272532e+000 68 47 65
-1.749484e-001 2.585124e+000 -9.272532e+000 68 47 65
2.248093e+000 3.141892e+000 -9.958391e+000 133 105 68
2.370343e+000 3.130441e+000 -1.004671e+001 130 107 72
2.370343e+000 3.130441e+000 -1.004671e+001 130 107 72
3.737562e+000 3.534903e+000 -1.051514e+001 182 148 86
-9.740072e-001 1.033540e+000 -1.024517e+001 212 215 230
3.010314e+000 2.774756e+000 -1.054780e+001 74 51 34
-7.252212e-001 1.186187e+000 -9.955365e+000 211 217 229
-6.560854e-001 1.324954e+000 -9.892668e+000 214 222 228
-5.791686e-001 1.308358e+000 -9.748742e+000 209 212 227
-5.791686e-001 1.308358e+000 -9.748742e+000 209 212 227
2.262363e+000 2.958988e+000 -9.803187e+000 131 103 79
2.260051e+000 2.964434e+000 -9.797522e+000 131 103 79
3.018749e+000 2.658849e+000 -1.042295e+001 111 85 62
3.018749e+000 2.658849e+000 -1.042295e+001 111 85 62
1.330475e+000 2.974903e+000 -9.083929e+000 138 111 84
1.773034e+000 2.800828e+000 -9.359772e+000 132 106 79
3.076647e+000 2.590879e+000 -1.035279e+001 112 86 61
3.076647e+000 2.590879e+000 -1.035279e+001 112 86 61
-3.842439e-001 1.364200e+000 -9.404875e+000 211 222 228
2.338896e+000 2.583172e+000 -9.697255e+000 134 105 75
2.338896e+000 2.583172e+000 -9.697255e+000 134 105 75
2.243197e-002 1.893767e+000 -8.935052e+000 64 55 85
1.286072e+000 2.790662e+000 -8.902198e+000 136 106 75
1.538601e+000 2.604267e+000 -9.091672e+000 140 109 79
1.758259e+000 2.594008e+000 -9.233078e+000 133 104 75
1.786981e+000 2.535757e+000 -9.293271e+000 133 104 75
2.337638e+000 2.483757e+000 -9.635443e+000 133 104 74
2.337638e+000 2.483757e+000 -9.635443e+000 133 104 74
2.526958e+000 2.499450e+000 -9.731350e+000 141 109 79
2.601890e+000 2.465674e+000 -9.802123e+000 142 113 79
2.601890e+000 2.465674e+000 -9.802123e+000 142 113 79
2.698269e+000 2.452298e+000 -9.874661e+000 129 104 73
-3.793493e-001 8.910438e-001 -9.355472e+000 206 206 216
-7.771102e-001 5.928266e+000 -1.073396e+001 117 88 64
-1.557784e-001 6.106717e+000 -9.824017e+000 131 88 62
-1.179433e+000 5.140624e+000 -1.133410e+001 223 232 229
-1.101488e+000 5.203043e+000 -1.121173e+001 218 229 225
-4.224491e-001 5.859208e+000 -1.021957e+001 203 163 104
-1.907149e-002 6.212239e+000 -9.582572e+000 78 66 82
-6.666914e-001 5.534614e+000 -1.058128e+001 217 228 223
5.276120e-002 6.099521e+000 -9.496415e+000 205 189 150
-9.281653e-001 5.047927e+000 -1.095395e+001 209 181 139
-9.282750e-001 5.055242e+000 -1.093511e+001 209 181 139
-7.663240e-001 5.137771e+000 -1.067837e+001 95 59 48
-7.275199e-001 5.027409e+000 -1.065104e+001 112 72 58
-4.003758e-001 5.375172e+000 -1.006402e+001 212 179 139
-4.010443e-001 5.381130e+000 -1.004920e+001 212 179 139
-3.723165e-001 5.299568e+000 -1.005483e+001 179 133 97
-2.345864e-001 5.482547e+000 -9.838261e+000 206 180 147
-8.009157e-001 4.747981e+000 -1.070801e+001 183 151 94
-3.736483e-001 5.266530e+000 -9.996869e+000 146 85 62
-3.421757e-001 5.166499e+000 -9.948710e+000 118 77 55
4.379103e-001 5.784087e+000 -9.463743e+000 93 58 56
4.362588e-001 5.787434e+000 -9.457180e+000 93 58 56
-1.198376e+000 4.123356e+000 -1.124252e+001 195 191 172
-5.487262e-001 4.925143e+000 -1.027149e+001 173 125 74
-5.534428e-001 4.854075e+000 -1.031598e+001 197 158 93
-1.173711e-001 5.384448e+000 -9.592679e+000 88 75 104
-1.406898e+000 3.824331e+000 -1.141938e+001 125 85 69
1.109715e+000 5.443697e+000 -9.926236e+000 130 103 84
1.418123e+000 5.409545e+000 -1.019762e+001 70 47 31
-7.523210e-001 4.060204e+000 -1.051786e+001 188 144 93
-3.330447e-001 4.434966e+000 -9.877939e+000 109 66 55
2.424797e+000 5.084786e+000 -1.103492e+001 124 96 70
-1.032463e+000 3.432123e+000 -1.085901e+001 195 173 125
-6.036793e-001 4.016397e+000 -1.028370e+001 139 71 55
-5.401906e-001 4.009022e+000 -1.019002e+001 197 164 110
1.498523e+000 4.615048e+000 -1.041426e+001 96 79 59
-1.413925e+000 2.596627e+000 -1.119357e+001 200 171 119
-8.887727e-001 3.290218e+000 -1.061228e+001 209 190 148
-1.231347e+000 2.686814e+000 -1.101395e+001 92 61 49
-1.088554e+000 2.766586e+000 -1.083079e+001 180 130 112
-5.632827e-001 3.578649e+000 -1.014231e+001 101 62 48
-1.151141e+000 2.555202e+000 -1.087382e+001 105 67 61
-4.729816e-001 3.470430e+000 -9.977146e+000 210 183 152
-9.933609e-001 2.497738e+000 -1.062692e+001 103 50 44
-9.933609e-001 2.497738e+000 -1.062692e+001 103 50 44
1.053192e+000 4.173267e+000 -9.399755e+000 130 109 78
1.051866e+000 4.173611e+000 -9.398140e+000 130 109 78
-2.765301e-001 3.264523e+000 -9.543217e+000 203 181 136
-2.308757e-001 3.312555e+000 -9.491104e+000 106 48 50
-1.739822e-001 3.441775e+000 -9.370070e+000 97 60 51
-3.895925e-003 3.832191e+000 -9.140655e+000 190 155 127
7.530791e-001 4.151961e+000 -9.050013e+000 142 114 85
-3.865167e-001 2.959869e+000 -9.701046e+000 164 117 59
-2.266496e-001 3.255914e+000 -9.435115e+000 211 183 144
-7.099248e-002 3.576527e+000 -9.205770e+000 94 52 53
1.495672e+000 3.825689e+000 -9.651472e+000 124 99 71
-8.661012e-001 1.957961e+000 -1.030706e+001 71 66 87
-3.191719e-001 2.923144e+000 -9.588356e+000 202 174 133
1.567439e+000 3.752078e+000 -9.709108e+000 77 54 30
2.533183e+000 3.596433e+000 -1.044073e+001 77 52 29
2.533183e+000 3.596433e+000 -1.044073e+001 77 52 29
2.888148e+000 3.519720e+000 -1.070947e+001 74 49 30
-2.079825e-001 2.852710e+000 -9.358827e+000 57 48 53
-1.616474e-001 2.958447e+000 -9.273733e+000 206 185 156
1.209979e+000 3.679289e+000 -9.319269e+000 134 109 78
1.757297e+000 3.558621e+000 -9.784752e+000 134 110 76
1.942204e+000 3.518451e+000 -9.926832e+000 126 101 72
2.648341e+000 3.420257e+000 -1.043254e+001 123 95 72
2.781442e+000 3.431068e+000 -1.057593e+001 79 55 31
-6.050451e-001 2.049011e+000 -9.941189e+000 217 227 229
-6.045689e-001 2.049167e+000 -9.941079e+000 217 227 229
1.299449e+000 3.547896e+000 -9.337376e+000 131 106 75
1.930074e+000 3.413120e+000 -9.853751e+000 133 108 78
2.343010e+000 3.304245e+000 -1.009799e+001 76 60 50
2.836395e+000 3.197293e+000 -1.050186e+001 72 63 53
-3.017396e-001 2.375640e+000 -9.492967e+000 212 221 224
1.279042e+000 3.390658e+000 -9.231140e+000 97 84 66
1.367315e+000 3.369988e+000 -9.312073e+000 92 81 61
1.579762e+000 3.325233e+000 -9.500119e+000 82 70 54
1.581526e+000 3.322639e+000 -9.503494e+000 82 70 54
1.794617e+000 3.237857e+000 -9.613085e+000 132 108 82
2.053970e+000 3.208992e+000 -9.778379e+000 123 103 73
2.710504e+000 3.009030e+000 -1.028600e+001 66 58 48
2.859521e+000 3.106124e+000 -1.044832e+001 79 65 56
2.383049e+000 3.073228e+000 -1.002682e+001 80 66 47
2.347936e+000 3.038955e+000 -9.964821e+000 127 96 70
2.432865e+000 3.034906e+000 -1.001314e+001 132 106 78
2.613953e+000 2.978623e+000 -1.017528e+001 127 103 77
2.614129e+000 3.021277e+000 -1.021180e+001 64 54 45
-5.455256e-001 1.473059e+000 -9.651121e+000 69 56 82
2.367134e+000 2.870859e+000 -9.876285e+000 58 35 4
2.346921e+000 2.902265e+000 -9.838684e+000 58 35 4
2.399083e+000 2.791739e+000 -9.875671e+000 126 100 68
2.448643e+000 2.866362e+000 -9.938592e+000 75 48 23
2.798453e+000 2.714750e+000 -1.022629e+001 119 93 67
2.888276e+000 2.716855e+000 -1.028148e+001 125 99 72
3.140660e+000 2.693437e+000 -1.055642e+001 70 43 32
3.160862e+000 2.667386e+000 -1.059096e+001 70 43 32
9.770846e-001 3.139083e+000 -8.708392e+000 87 61 36
1.562913e+000 2.934954e+000 -9.287673e+000 136 111 80
1.846166e+000 2.917608e+000 -9.459770e+000 127 103 75
1.955330e+000 2.785336e+000 -9.475374e+000 138 112 87
2.175744e+000 2.888767e+000 -9.650834e+000 137 111 78
2.367649e+000 2.749232e+000 -9.728555e+000 135 109 85
2.364366e+000 2.751398e+000 -9.725277e+000 135 109 85
-9.662403e-001 3.342100e-001 -1.003132e+001 206 224 228
-9.681268e-001 3.399127e-001 -1.002632e+001 206 224 228
-3.021139e-001 1.439178e+000 -9.336648e+000 70 58 80
1.458105e+000 2.809514e+000 -9.093781e+000 90 61 37
1.786506e+000 2.700002e+000 -9.315437e+000 131 105 79
1.948106e+000 2.727309e+000 -9.440521e+000 92 70 48
2.486357e+000 2.539067e+000 -9.745887e+000 78 51 24
2.855263e+000 2.449022e+000 -9.988372e+000 127 101 71
-1.439012e+000 -5.801341e-001 -1.035565e+001 86 60 99
-8.404975e-001 4.138869e-001 -9.887700e+000 217 226 233
-6.210985e-001 7.159400e-001 -9.716378e+000 215 222 234
-6.223853e-001 7.179492e-001 -9.714880e+000 215 222 234
-6.029250e-002 1.900625e+000 -9.004286e+000 62 55 87
1.496056e+000 2.674728e+000 -9.091303e+000 95 69 44
1.678612e+000 2.609486e+000 -9.182641e+000 133 103 75
2.708144e+000 2.392039e+000 -9.854131e+000 83 57 33
2.734194e+000 2.451487e+000 -9.909734e+000 128 104 71
3.060065e+000 2.274305e+000 -1.009856e+001 114 89 59
-4.909686e-001 8.280154e-001 -9.517464e+000 215 219 229
8.267431e-003 1.768837e+000 -8.851582e+000 215 214 227
1.198077e+000 2.722494e+000 -8.736136e+000 135 105 73
3.009803e+000 2.235010e+000 -1.002117e+001 85 60 36
-8.186974e-001 5.793684e+000 -1.077675e+001 112 91 89
-7.654613e-001 5.769301e+000 -1.072901e+001 220 226 228
-1.015768e+000 5.521026e+000 -1.109175e+001 185 190 186
-7.094191e-001 5.756803e+000 -1.066907e+001 161 165 166
-6.381983e-001 5.757231e+000 -1.055267e+001 218 225 223
-2.127570e-001 6.146498e+000 -9.940815e+000 150 128 106
-6.880398e-001 5.568249e+000 -1.062584e+001 136 138 135
-1.180744e-001 6.110626e+000 -9.702198e+000 185 164 121
-5.674420e-002 6.192340e+000 -9.659907e+000 155 134 125
1.327740e-001 6.294807e+000 -9.538335e+000 126 106 102
1.402238e-001 6.212708e+000 -9.496506e+000 159 149 133
-6.256445e-001 5.442301e+000 -1.051984e+001 134 140 138
-1.174993e+000 4.852492e+000 -1.126992e+001 200 168 113
-8.169320e-001 5.227546e+000 -1.080448e+001 224 227 221
-7.406799e-001 5.194777e+000 -1.065935e+001 207 175 130
-5.920476e-001 5.411949e+000 -1.044906e+001 221 226 220
-1.293314e+000 4.569061e+000 -1.149806e+001 192 180 166
-5.442778e-001 5.247905e+000 -1.033397e+001 133 81 68
-4.329117e-001 5.290258e+000 -1.013161e+001 111 69 53
-2.274908e-001 5.449524e+000 -9.743415e+000 109 73 61
-7.863208e-001 4.714585e+000 -1.064034e+001 99 65 66
-3.729587e-001 5.207932e+000 -9.993676e+000 200 158 116
-3.995566e-001 5.119825e+000 -1.004710e+001 103 62 58
-1.858210e-001 5.277228e+000 -9.667797e+000 214 184 153
-7.399414e-001 4.527658e+000 -1.052065e+001 126 69 60
1.281375e+000 5.384774e+000 -1.005052e+001 96 70 48
1.285068e+000 5.381343e+000 -1.006019e+001 96 70 48
1.708098e+000 5.389182e+000 -1.048245e+001 122 95 69
1.363010e+000 5.330204e+000 -1.010780e+001 130 103 76
1.363626e+000 5.327967e+000 -1.011202e+001 130 103 76
2.662224e+000 5.090612e+000 -1.136346e+001 106 83 65
-1.567103e+000 3.085038e+000 -1.140825e+001 163 127 83
2.498607e+000 5.067749e+000 -1.106507e+001 49 29 28
-2.866196e-001 4.397667e+000 -9.791633e+000 181 142 81
-1.022972e+000 3.227591e+000 -1.080614e+001 202 181 125
-1.022972e+000 3.227591e+000 -1.080614e+001 202 181 125
-8.593014e-001 3.406174e+000 -1.053371e+001 118 76 65
-5.622407e-001 3.757088e+000 -1.015625e+001 169 96 70
-6.847926e-001 3.086713e+000 -1.028036e+001 211 187 143
-5.925721e-001 3.252556e+000 -1.016780e+001 211 193 155
-8.342770e-001 2.660484e+000 -1.042700e+001 194 175 140
-2.760404e-001 3.468716e+000 -9.586390e+000 206 191 150
-2.760404e-001 3.468716e+000 -9.586390e+000 206 191 150
-4.633508e-001 2.932224e+000 -9.867514e+000 201 185 151
-1.075764e-001 3.568474e+000 -9.258605e+000 202 187 158
-1.029088e-001 3.572847e+000 -9.252594e+000 202 187 158
-8.809184e-002 3.719672e+000 -9.239254e+000 205 189 161
-8.777535e-002 3.721334e+000 -9.235915e+000 205 189 161
-1.026365e+000 1.847442e+000 -1.051033e+001 70 60 80
-1.026365e+000 1.847442e+000 -1.051033e+001 70 60 80
-3.334338e-001 3.031732e+000 -9.580574e+000 174 125 68
-1.441460e-001 3.323205e+000 -9.295363e+000 130 83 65
-1.176809e+000 1.488330e+000 -1.065554e+001 213 230 237
-8.075332e-001 2.038784e+000 -1.022586e+001 215 226 228
1.263472e+000 3.846801e+000 -9.422774e+000 70 49 29
1.263472e+000 3.846801e+000 -9.422774e+000 70 49 29
1.339600e+000 3.728124e+000 -9.429859e+000 78 54 26
1.339600e+000 3.728124e+000 -9.429859e+000 78 54 26
1.627189e+000 3.640530e+000 -9.710053e+000 83 58 36
1.709991e+000 3.746851e+000 -9.807367e+000 90 70 46
1.835424e+000 3.641893e+000 -9.899152e+000 129 99 71
1.828157e+000 3.697035e+000 -9.921378e+000 109 83 58
1.828157e+000 3.697035e+000 -9.921378e+000 109 83 58
