ply
format ascii 1.0
element face 0
property list uchar int vertex_indices
element vertex 889
property float x
property float y
property float z
property uchar diffuse_red
property uchar diffuse_green
property uchar diffuse_blue
end_header
3.288613e+000 -4.781227e-001 -8.642949e+000 115 99 63
3.266824e+000 -5.317960e-001 -8.614115e+000 64 55 25
3.460569e+000 -6.147529e-001 -8.710036e+000 106 89 63
2.256546e+000 -6.163537e-001 -7.545233e+000 128 111 67
2.549308e+000 -6.587302e-001 -7.781425e+000 130 112 72
2.549308e+000 -6.587302e-001 -7.781425e+000 130 112 72
2.324861e+000 -7.054351e-001 -7.487437e+000 129 112 69
2.626809e+000 -7.565254e-001 -7.755331e+000 121 108 63
2.894482e+000 -7.653254e-001 -7.983442e+000 58 45 12
3.307665e+000 -7.614138e-001 -8.484016e+000 64 46 22
3.286893e+000 -8.086668e-001 -8.408776e+000 107 91 55
3.228005e+000 -8.394993e-001 -8.345927e+000 63 50 24
-1.211899e-001 -1.095775e+000 -8.293304e+000 70 57 77
4.996590e-001 -9.844289e-001 -7.357079e+000 69 57 81
5.250361e-001 -9.872367e-001 -7.342938e+000 67 55 80
6.558339e-001 -8.729194e-001 -7.138828e+000 58 48 72
4.576295e-001 -1.053198e+000 -7.495075e+000 66 60 83
4.576295e-001 -1.053198e+000 -7.495075e+000 66 60 83
-9.092361e-001 3.125595e+000 -1.067186e+001 197 169 106
2.420587e+000 2.275384e+000 -9.488558e+000 129 114 71
7.471275e-002 1.909632e+000 -8.660571e+000 91 84 93
2.179074e-001 1.735134e+000 -8.411923e+000 78 64 63
2.174608e-001 1.740848e+000 -8.453357e+000 78 64 63
2.313926e-001 1.656423e+000 -8.347448e+000 84 65 67
2.939681e+000 1.885902e+000 -9.705966e+000 114 99 58
3.303109e+000 1.907012e+000 -9.985659e+000 55 37 15
-1.744675e-001 1.684619e+000 -9.094828e+000 80 68 72
1.972322e+000 1.555882e+000 -8.711416e+000 119 104 65
-8.970258e-002 1.468059e+000 -8.893452e+000 89 72 85
3.156461e+000 1.666440e+000 -9.910885e+000 74 59 36
-9.612566e-001 1.549388e+000 -1.033592e+001 80 62 74
-9.612566e-001 1.549388e+000 -1.033592e+001 80 62 74
-7.927496e-002 1.381047e+000 -8.858905e+000 101 74 93
-7.879446e-002 1.383881e+000 -8.858416e+000 101 74 93
-8.103906e-001 1.195941e+000 -1.003969e+001 85 73 83
-5.882624e-001 1.089574e+000 -9.603992e+000 111 73 86
4.183037e+000 9.896194e-001 -9.119268e+000 178 146 70
4.281206e+000 1.060684e+000 -8.854014e+000 208 178 90
4.348123e+000 1.064156e+000 -8.838139e+000 193 145 80
4.348123e+000 1.064156e+000 -8.838139e+000 193 145 80
-1.158321e+000 9.551484e-001 -1.041432e+001 95 83 97
-5.810086e-001 9.811674e-001 -9.611349e+000 113 77 91
-5.786528e-001 9.800009e-001 -9.589547e+000 113 77 91
-7.144899e-001 8.700456e-001 -9.819991e+000 101 69 90
-5.533808e-001 8.483432e-001 -9.503839e+000 118 82 99
-5.533808e-001 8.483432e-001 -9.503839e+000 118 82 99
-4.431649e-001 6.081426e-001 -9.308447e+000 210 227 211
1.678357e+000 4.403190e-001 -7.566143e+000 72 61 29
4.375462e+000 5.119484e-001 -8.673678e+000 176 150 63
4.373209e+000 5.847424e-001 -8.628901e+000 199 174 81
1.745985e+000 3.744997e-001 -7.611685e+000 126 109 66
1.785868e+000 3.135875e-001 -7.626402e+000 72 56 22
1.785868e+000 3.135875e-001 -7.626402e+000 72 56 22
2.145506e+000 3.446784e-001 -8.006553e+000 50 39 8
-7.360595e-001 2.379299e-001 -9.635342e+000 103 75 84
1.969127e+000 2.641735e-001 -7.789982e+000 93 78 45
2.037093e+000 2.026415e-001 -7.783787e+000 127 110 67
2.047702e+000 2.012512e-001 -7.823650e+000 127 110 67
2.127739e+000 2.337454e-001 -7.924782e+000 81 68 33
2.236664e+000 2.093232e-001 -8.042822e+000 87 74 39
2.236664e+000 2.093232e-001 -8.042822e+000 87 74 39
2.104116e-001 -1.653438e-003 -8.073255e+000 90 78 99
2.010775e+000 6.972976e-002 -7.743266e+000 125 108 60
2.248831e+000 9.442075e-002 -7.997563e+000 73 56 28
2.512958e+000 3.572205e-002 -8.263934e+000 65 50 17
4.996697e-001 -4.995132e-002 -7.641487e+000 85 66 88
1.873914e+000 -4.001707e-002 -7.539063e+000 79 63 34
2.019033e+000 -9.672889e-003 -7.712193e+000 129 113 67
2.393678e+000 -4.751369e-002 -8.068516e+000 70 56 21
2.310731e+000 -7.321364e-002 -7.960252e+000 124 102 61
2.611320e+000 -4.157630e-002 -8.258461e+000 121 107 62
2.555132e+000 -8.093447e-002 -8.225190e+000 71 56 21
2.733884e+000 -1.130523e-002 -8.409720e+000 76 63 21
2.962016e+000 -1.149401e-001 -8.597282e+000 117 102 61
1.782223e+000 -1.824756e-001 -7.369741e+000 122 106 63
2.262510e+000 -1.735560e-001 -7.865257e+000 122 109 65
2.905058e+000 -2.550161e-001 -8.446064e+000 63 48 16
3.013281e+000 -2.381191e-001 -8.587768e+000 112 102 59
-2.452742e-001 -3.557661e-001 -8.788954e+000 84 78 85
1.996179e+000 -2.967132e-001 -7.523781e+000 76 62 29
1.996179e+000 -2.967132e-001 -7.523781e+000 76 62 29
1.922190e+000 -3.272411e-001 -7.450257e+000 127 114 72
2.322443e+000 -3.586195e-001 -7.827123e+000 87 73 44
2.547966e+000 -2.888147e-001 -8.058695e+000 96 80 48
2.547966e+000 -2.888147e-001 -8.058695e+000 96 80 48
3.000877e+000 -3.793513e-001 -8.458299e+000 72 56 24
3.000877e+000 -3.793513e-001 -8.458299e+000 72 56 24
3.290641e+000 -3.905265e-001 -8.743277e+000 108 93 52
1.977092e+000 -3.937747e-001 -7.466486e+000 54 48 21
2.327546e+000 -4.590317e-001 -7.749611e+000 68 55 23
2.588521e+000 -4.553211e-001 -8.022302e+000 119 105 61
2.636657e+000 -5.158857e-001 -7.998144e+000 62 50 26
2.818545e+000 -4.509025e-001 -8.254767e+000 53 39 10
2.808852e+000 -4.473827e-001 -8.232793e+000 53 39 10
3.069430e+000 -4.973001e-001 -8.464884e+000 61 45 12
-8.357141e-001 -8.651992e-001 -9.436102e+000 203 227 206
1.891606e+000 -5.970318e-001 -7.241033e+000 59 43 20
2.024215e+000 -6.136568e-001 -7.326193e+000 112 97 68
2.417953e+000 -5.856421e-001 -7.736347e+000 74 64 33
2.437552e+000 -6.461843e-001 -7.702294e+000 129 116 72
2.758814e+000 -5.955300e-001 -8.061881e+000 124 107 62
3.033551e+000 -5.914437e-001 -8.353019e+000 80 65 32
-7.203835e-001 -9.869280e-001 -9.273870e+000 78 65 72
1.600565e-003 -7.356164e-001 -8.226066e+000 121 73 96
1.968145e+000 -6.487840e-001 -7.230969e+000 120 105 62
3.085900e+000 -8.110962e-001 -8.207788e+000 73 53 28
3.081256e+000 -8.086902e-001 -8.196184e+000 73 53 28
3.510208e+000 -8.229751e-001 -8.709577e+000 68 56 32
3.494982e+000 -8.171450e-001 -8.675067e+000 68 56 32
1.105494e-001 -9.022986e-001 -7.926176e+000 85 64 90
-6.589484e-001 -1.477970e+000 -9.010110e+000 60 51 64
3.086345e+000 3.197941e+000 -1.078384e+001 86 80 52
-1.198966e+000 3.098984e+000 -1.103638e+001 112 74 55
-2.353474e-001 2.521070e+000 -9.348070e+000 213 220 204
1.683398e+000 7.266409e-001 -7.772064e+000 124 110 63
4.419959e+000 7.024978e-001 -8.821110e+000 209 182 93
-3.601382e-001 1.557907e-001 -9.033631e+000 200 227 210
4.299854e-001 2.076100e-001 -7.734130e+000 103 71 96
1.672925e+000 -1.095597e-001 -7.293545e+000 57 41 14
1.677060e+000 -1.116517e-001 -7.317208e+000 57 41 14
1.740668e+000 -3.432675e-001 -7.253311e+000 68 53 22
4.438904e+000 -3.409598e-001 -8.606630e+000 176 155 74
-1.634091e-001 -5.934094e-001 -8.580885e+000 90 69 88
2.248786e-001 1.331344e+000 -8.341100e+000 81 65 68
-1.320735e+000 1.639756e+000 -1.081779e+001 206 227 212
-3.155714e-002 1.113686e+000 -8.718541e+000 92 66 93
-6.876879e-001 5.776776e-001 -9.731728e+000 82 68 91
1.559313e+000 1.345667e-001 -7.321318e+000 78 66 42
1.554118e+000 1.363289e-001 -7.286985e+000 78 66 42
-2.350541e-001 -4.424977e-001 -8.731798e+000 202 226 210
-2.884492e+001 -1.198688e+001 -5.684197e+001 86 86 78
-9.395666e-001 2.375364e+000 -1.045573e+001 176 156 98
1.727335e+000 1.552777e+000 -8.526457e+000 130 114 66
4.213148e-003 8.693195e-001 -8.697696e+000 96 77 109
5.347237e-003 8.689961e-001 -8.712061e+000 96 77 109
4.357892e+000 8.573821e-001 -8.864406e+000 201 171 85
-2.019504e-001 7.005686e-001 -8.995034e+000 114 72 88
3.552785e+000 -1.040059e+000 -8.715481e+000 88 64 37
-4.934599e-001 -1.143861e+000 -8.887092e+000 100 58 70
1.109834e+000 -8.490782e-001 -6.397115e+000 145 153 172
-3.150244e-001 2.727665e+000 -9.590923e+000 102 71 66
-6.006519e-002 2.372153e+000 -8.970066e+000 92 68 78
-4.509217e-001 2.519823e+000 -9.712098e+000 93 70 81
6.045413e-001 2.012814e+000 -7.645983e+000 95 54 68
-1.193400e+000 2.599563e+000 -1.095589e+001 128 90 70
-6.493748e-001 2.370070e+000 -9.994463e+000 90 73 82
-6.493748e-001 2.370070e+000 -9.994463e+000 90 73 82
-5.800848e-001 2.755688e+000 -9.875545e+000 199 186 137
-5.910153e-001 2.068304e+000 -9.861526e+000 93 74 80
-5.910153e-001 2.068304e+000 -9.861526e+000 93 74 80
1.071637e+000 2.539501e+000 -8.568026e+000 124 111 59
1.201661e+000 2.084956e+000 -8.344882e+000 127 113 64
-8.022079e-001 1.875016e+000 -1.021969e+001 129 109 116
-8.022079e-001 1.875016e+000 -1.021969e+001 129 109 116
-3.736879e-001 1.813330e+000 -9.519965e+000 96 77 83
1.478331e+000 2.981055e-001 -7.364581e+000 120 104 60
2.939407e+000 1.993142e+000 -9.724240e+000 121 106 70
9.729092e-002 1.654888e+000 -8.541584e+000 175 178 173
1.474690e+000 8.794622e-001 -7.712446e+000 129 113 65
1.686429e+000 -5.219774e-001 -7.097015e+000 126 109 64
-8.180578e-001 3.187020e+000 -1.045327e+001 204 170 108
-2.582023e-001 2.835169e+000 -9.454063e+000 89 65 52
-1.736162e+000 2.634430e+000 -1.149499e+001 85 64 68
-1.398317e+000 2.647519e+000 -1.117803e+001 153 127 68
2.835221e+000 2.229675e+000 -9.744395e+000 116 102 66
2.834707e+000 2.230442e+000 -9.750645e+000 116 102 66
-1.015144e+000 1.879396e+000 -1.044928e+001 96 86 85
-1.337252e+000 1.588113e+000 -1.084326e+001 74 69 69
3.335437e+000 1.343457e+000 -9.875338e+000 92 81 58
1.852950e+000 8.779053e-001 -8.016228e+000 126 115 77
-7.551852e-001 2.461582e+000 -1.017118e+001 89 72 51
3.081254e+000 1.733067e+000 -9.803973e+000 101 88 54
3.053890e+000 1.602236e+000 -9.758201e+000 112 96 65
2.907335e+000 1.417759e+000 -9.557449e+000 112 97 65
3.113379e+000 1.383691e+000 -9.714379e+000 114 97 68
1.994366e+000 -1.926443e-001 -7.619560e+000 80 66 29
2.091563e+000 -4.496356e-001 -7.551070e+000 129 115 78
2.196449e+000 -3.946650e-001 -7.667757e+000 119 106 62
1.677914e+000 2.489361e+000 -9.038092e+000 132 120 78
2.205227e+000 2.645427e+000 -9.499187e+000 128 114 75
2.447329e+000 2.565565e+000 -9.624932e+000 88 74 37
2.374378e+000 2.471361e+000 -9.537601e+000 91 78 41
-1.223625e+000 2.488366e+000 -1.084208e+001 191 167 121
1.738007e+000 1.967273e+000 -8.817135e+000 128 114 77
1.870883e+000 1.914091e+000 -8.923816e+000 128 114 72
2.015927e+000 2.011908e+000 -9.084371e+000 120 105 66
-1.593670e+000 2.220125e+000 -1.128900e+001 84 66 77
1.734377e+000 1.434643e+000 -8.399562e+000 75 59 25
-1.264181e+000 1.484780e+000 -1.067762e+001 85 68 69
2.924104e+000 1.462240e+000 -9.593050e+000 57 40 14
2.137755e+000 3.981098e-001 -8.037696e+000 131 112 69
-1.086797e+000 3.210014e+000 -1.085314e+001 194 155 96
-2.640276e-001 2.436385e+000 -9.379968e+000 87 69 68
2.010249e+000 2.070140e+000 -9.075062e+000 91 78 46
2.953250e+000 1.815635e+000 -9.717634e+000 51 40 10
3.306715e+000 1.387858e+000 -9.906581e+000 41 28 13
-6.904870e-001 1.341129e+000 -9.880053e+000 208 229 215
-6.881066e-001 1.343922e+000 -9.887507e+000 208 229 215
1.644736e+000 2.769492e-001 -7.474461e+000 119 106 64
3.087813e+000 2.441343e-001 -8.904120e+000 66 51 24
3.203926e+000 -5.609463e-001 -8.516382e+000 109 96 54
-4.354156e-001 -9.627573e-001 -8.837257e+000 200 207 204
3.045084e+000 -6.525198e-001 -8.298838e+000 124 106 63
5.367068e-001 -1.028529e-001 -7.582712e+000 197 225 207
2.263633e+000 -5.598016e-001 -7.631038e+000 127 111 67
-1.962043e+000 3.154808e+000 -1.189701e+001 100 77 84
-1.352371e+000 3.163933e+000 -1.123027e+001 124 81 53
-1.352371e+000 3.163933e+000 -1.123027e+001 124 81 53
-1.081236e+000 3.023032e+000 -1.075660e+001 185 134 105
-7.933604e-001 2.827593e+000 -1.034257e+001 192 154 108
-5.432093e-001 2.616292e+000 -9.882143e+000 104 74 82
-4.759779e-001 2.633939e+000 -9.785864e+000 97 74 66
2.040366e+000 2.649102e+000 -9.324392e+000 129 116 72
2.040366e+000 2.649102e+000 -9.324392e+000 129 116 72
-1.344996e+000 2.733493e+000 -1.111787e+001 197 168 124
-7.672480e-001 2.477340e+000 -1.021156e+001 87 70 53
-1.324645e+000 2.499687e+000 -1.102882e+001 147 107 48
-1.107066e+000 2.302875e+000 -1.068104e+001 144 111 82
3.188116e+000 2.158283e+000 -9.972998e+000 102 81 56
3.233675e+000 1.977350e+000 -9.875856e+000 49 31 11
-7.697689e-001 1.749846e+000 -1.009798e+001 204 219 205
1.937080e+000 1.539695e+000 -8.686380e+000 126 111 68
-7.331522e-001 1.366134e+000 -9.945494e+000 84 68 68
4.205967e+000 7.551517e-001 -8.912084e+000 196 160 86
1.671612e+000 -1.377265e-001 -7.322491e+000 74 58 28
-9.981273e-004 -5.700677e-001 -8.326726e+000 95 72 92
3.094011e+000 -7.098442e-001 -8.337804e+000 66 50 14
3.094011e+000 -7.098442e-001 -8.337804e+000 66 50 14
2.459808e-001 -1.057708e+000 -7.811833e+000 154 148 162
4.261671e-001 -1.216114e+000 -7.566743e+000 62 48 73
2.187024e+000 2.998669e+000 -9.591079e+000 85 70 39
2.009101e+000 2.776188e+000 -9.382677e+000 127 113 73
2.196189e+000 2.905435e+000 -9.556218e+000 81 62 29
-1.430057e+000 2.645379e+000 -1.114692e+001 190 166 109
2.189745e+000 2.580759e+000 -9.394802e+000 123 110 68
-9.334491e-001 2.384252e+000 -1.046344e+001 179 155 93
-4.072528e-002 2.255450e+000 -8.901409e+000 214 207 201
-1.270386e+000 2.235080e+000 -1.085777e+001 134 93 63
-1.952611e-002 1.938710e+000 -8.812301e+000 87 73 77
7.891690e-002 1.858117e+000 -8.670107e+000 224 225 217
1.945327e+000 2.003332e+000 -9.027982e+000 119 105 66
2.298196e+000 1.373309e+000 -8.879231e+000 114 99 56
2.835744e+000 1.430674e+000 -9.473593e+000 113 97 64
2.421724e+000 9.728305e-001 -8.644123e+000 115 109 73
3.000097e+000 7.654614e-001 -9.106488e+000 116 102 71
2.321739e-001 -2.282044e-001 -8.085503e+000 196 212 202
1.963694e+000 -1.300867e-001 -7.628531e+000 121 104 61
2.660264e+000 -3.847111e-001 -8.164613e+000 118 103 59
2.059475e+000 -4.388573e-001 -7.546485e+000 71 57 29
2.253702e+000 -6.377293e-001 -7.580965e+000 127 110 67
2.966804e-001 -1.221368e+000 -7.763574e+000 179 176 185
1.458865e+000 2.844012e+000 -9.006824e+000 128 113 72
2.955593e+000 3.285859e+000 -1.056226e+001 61 47 21
1.228624e+000 2.700721e+000 -8.696963e+000 123 108 66
1.292923e+000 2.688874e+000 -8.786911e+000 113 99 60
1.579296e+000 2.839492e+000 -9.180469e+000 119 106 63
1.579296e+000 2.839492e+000 -9.180469e+000 119 106 63
1.976711e+000 2.900068e+000 -9.493140e+000 122 110 69
-1.228853e+000 2.837828e+000 -1.096181e+001 133 82 59
1.317800e+000 2.562512e+000 -8.697438e+000 121 105 69
1.532093e+000 2.515451e+000 -8.907915e+000 121 106 65
2.573986e+000 2.867842e+000 -9.947880e+000 113 96 60
2.626851e+000 2.872174e+000 -1.006316e+001 117 103 66
2.718417e+000 2.881964e+000 -1.010530e+001 79 64 33
-1.392822e+000 2.795891e+000 -1.116464e+001 184 156 116
-1.320459e+000 2.654147e+000 -1.101404e+001 189 177 117
2.094356e+000 2.501710e+000 -9.366301e+000 73 60 25
2.296752e+000 2.535282e+000 -9.505506e+000 127 112 69
-1.438157e+000 2.491400e+000 -1.116923e+001 176 146 82
1.359495e+000 2.192587e+000 -8.513828e+000 71 56 17
1.493856e+000 2.204708e+000 -8.688502e+000 119 105 60
1.590781e+000 2.327904e+000 -8.859154e+000 81 69 29
2.241173e+000 2.426005e+000 -9.379229e+000 120 107 63
2.702142e+000 2.465587e+000 -9.740282e+000 124 104 67
2.669527e+000 2.428032e+000 -9.714032e+000 91 74 37
1.537870e-001 1.946741e+000 -8.537554e+000 81 66 73
1.478119e+000 2.060079e+000 -8.566685e+000 69 54 14
2.297341e+000 2.198840e+000 -9.319169e+000 130 115 72
2.304341e+000 2.201414e+000 -9.346111e+000 130 115 72
2.694047e+000 2.366981e+000 -9.719973e+000 122 108 63
2.065542e+000 2.112281e+000 -9.111844e+000 120 105 62
1.827658e+000 1.924729e+000 -8.863917e+000 121 108 64
2.857946e+000 2.000722e+000 -9.651355e+000 118 98 62
2.863391e+000 1.881071e+000 -9.616521e+000 115 100 59
-1.230624e+000 1.643963e+000 -1.072623e+001 84 64 66
1.447563e+000 1.454089e+000 -8.085053e+000 127 108 68
2.527157e+000 1.487013e+000 -9.230681e+000 115 100 62
3.359104e+000 1.553486e+000 -9.975358e+000 94 78 54
4.351633e+000 1.629358e+000 -8.952085e+000 213 177 91
2.067879e+000 1.329158e+000 -8.612502e+000 122 107 67
2.213775e+000 1.295937e+000 -8.689311e+000 129 114 71
2.530318e+000 1.199952e+000 -8.947177e+000 77 61 27
2.605709e+000 1.184646e+000 -9.004869e+000 85 70 31
2.520450e+000 1.013005e+000 -8.771135e+000 69 73 46
4.205398e+000 1.142388e+000 -9.044231e+000 191 163 78
2.723048e+000 5.973854e-001 -8.727601e+000 118 103 64
4.270211e+000 5.261928e-001 -8.743499e+000 157 130 48
2.611806e+000 2.090599e-001 -8.424636e+000 78 59 27
2.108457e+000 5.871231e-002 -7.870464e+000 130 115 74
-1.787152e+000 -8.982545e-001 -1.121868e+001 109 70 89
6.390454e-003 -5.414503e-001 -8.347748e+000 198 220 206
2.892167e+000 -3.466287e-001 -8.395173e+000 91 72 40
-9.475305e-001 -1.410438e+000 -9.457599e+000 83 59 64
4.517362e-001 -9.786135e-001 -7.511681e+000 154 143 162
5.412890e-001 -9.051798e-001 -7.322993e+000 62 49 76
2.835229e-001 -1.089842e+000 -7.758154e+000 181 184 192
3.442493e-001 -1.079876e+000 -7.663014e+000 56 47 68
4.056957e-001 -1.088817e+000 -7.581023e+000 55 44 68
5.673143e-001 -1.001506e+000 -7.363485e+000 154 148 165
-1.083818e+000 3.210372e+000 -1.083791e+001 201 161 103
1.110865e+000 2.693005e+000 -8.558424e+000 67 50 19
2.048913e+000 2.954411e+000 -9.567086e+000 85 72 37
2.128459e+000 2.999954e+000 -9.619994e+000 125 110 67
1.821416e+000 2.817525e+000 -9.319145e+000 122 108 71
1.885217e+000 2.781550e+000 -9.313461e+000 126 112 73
2.427559e+000 3.015999e+000 -9.887082e+000 122 106 70
1.426710e+000 2.588550e+000 -8.848819e+000 87 73 38
1.911176e+000 2.586955e+000 -9.254522e+000 126 111 72
2.209388e+000 2.715175e+000 -9.560995e+000 91 75 42
1.321292e+000 2.297460e+000 -8.569354e+000 86 71 38
1.716909e+000 2.429061e+000 -9.035824e+000 105 89 55
1.709138e+000 2.423318e+000 -8.997072e+000 105 89 55
1.813086e+000 2.427838e+000 -9.115333e+000 79 66 32
1.903735e+000 2.522575e+000 -9.219361e+000 98 84 49
1.897370e+000 2.516085e+000 -9.179111e+000 98 84 49
1.922534e+000 2.359047e+000 -9.151489e+000 122 110 68
2.122014e+000 2.390688e+000 -9.291184e+000 86 72 35
1.651271e+000 2.174870e+000 -8.836466e+000 117 104 59
2.163694e+000 2.270157e+000 -9.249951e+000 78 63 24
2.117190e+000 2.163321e+000 -9.166626e+000 88 74 37
2.573672e+000 2.207401e+000 -9.518784e+000 90 76 39
-4.826125e-003 1.904324e+000 -8.837111e+000 213 221 205
-4.826125e-003 1.904324e+000 -8.837111e+000 213 221 205
1.204877e+000 1.846907e+000 -8.073876e+000 73 54 24
1.204877e+000 1.846907e+000 -8.073876e+000 73 54 24
1.915671e+000 2.081286e+000 -9.018712e+000 72 56 24
1.876407e+000 2.038453e+000 -8.985994e+000 125 110 71
2.943667e+000 2.157909e+000 -9.807431e+000 96 77 45
2.932173e+000 2.152514e+000 -9.758914e+000 96 77 45
1.411689e+000 1.781843e+000 -8.289335e+000 73 58 25
1.710813e-001 1.646123e+000 -8.451814e+000 208 226 212
-2.997501e-001 1.522480e+000 -9.274758e+000 204 225 210
2.230546e+000 1.594296e+000 -9.037344e+000 66 47 21
2.517855e+000 1.701891e+000 -9.362215e+000 112 97 60
2.517855e+000 1.701891e+000 -9.362215e+000 112 97 60
3.193418e+000 1.719073e+000 -9.902920e+000 113 94 62
1.571866e+000 1.321021e+000 -8.099760e+000 119 104 65
1.754013e+000 1.379792e+000 -8.369390e+000 125 110 71
1.754013e+000 1.379792e+000 -8.369390e+000 125 110 71
1.708351e+000 1.343981e+000 -8.272911e+000 76 60 26
1.711059e+000 1.343509e+000 -8.287196e+000 76 60 26
1.893087e+000 1.363399e+000 -8.453689e+000 128 111 65
2.828544e+000 1.536394e+000 -9.554496e+000 110 96 61
2.832612e+000 1.536519e+000 -9.564131e+000 110 96 61
2.825173e+000 1.479498e+000 -9.531298e+000 66 49 24
3.045722e+000 1.506054e+000 -9.725864e+000 112 93 63
2.375997e+000 1.361849e+000 -8.968688e+000 122 107 66
3.291847e+000 1.464239e+000 -9.913423e+000 66 54 32
1.578242e+000 1.129182e+000 -7.959782e+000 121 109 68
1.655439e+000 1.121954e+000 -8.032043e+000 121 109 72
1.887909e+000 1.075935e+000 -8.212106e+000 114 102 61
1.887909e+000 1.075935e+000 -8.212106e+000 114 102 61
2.089919e+000 1.137377e+000 -8.459806e+000 120 107 66
2.243553e+000 1.147950e+000 -8.630135e+000 82 67 38
2.382426e+000 1.179119e+000 -8.778770e+000 129 112 72
2.893327e+000 1.136391e+000 -9.241884e+000 76 59 31
1.620986e+000 1.027965e+000 -7.918566e+000 120 108 68
2.215088e+000 1.022001e+000 -8.478082e+000 133 118 75
2.555489e+000 1.091008e+000 -8.866408e+000 74 61 29
1.911727e+000 8.766369e-001 -8.070071e+000 126 113 68
2.949768e+000 9.746087e-001 -9.197383e+000 112 99 57
3.242208e+000 9.610914e-001 -9.493485e+000 70 62 39
-6.877710e-001 4.752294e-001 -9.721220e+000 207 225 210
2.588163e+000 7.302238e-001 -8.665211e+000 120 103 59
2.926284e+000 8.185837e-001 -9.061832e+000 74 68 42
2.926284e+000 8.185837e-001 -9.061832e+000 74 68 42
2.622210e+000 6.699203e-001 -8.649644e+000 77 58 26
2.904875e+000 5.544315e-001 -8.898574e+000 119 99 61
1.295646e-001 3.840082e-001 -8.342166e+000 84 67 82
1.295646e-001 3.840082e-001 -8.342166e+000 84 67 82
2.375534e+000 4.487432e-001 -8.315296e+000 122 101 56
2.432379e+000 4.419339e-001 -8.353134e+000 126 106 59
3.290705e+000 4.761264e-001 -9.238145e+000 103 87 51
4.343359e+000 4.535331e-001 -8.598186e+000 182 156 69
3.027529e+000 2.025140e-001 -8.842565e+000 112 97 54
3.113694e+000 -1.388437e-001 -8.730096e+000 117 97 63
3.436246e+000 -4.315313e-002 -9.086759e+000 60 41 16
2.145682e+000 -1.537431e-001 -7.748471e+000 125 108 61
2.460317e+000 -4.450617e-001 -7.941156e+000 122 102 69
6.325854e-001 -4.941429e-001 -7.334781e+000 80 60 104
3.284131e+000 -5.937090e-001 -8.592222e+000 112 95 59
-4.112385e-001 -1.037421e+000 -8.804841e+000 95 65 73
2.738989e+000 -6.935550e-001 -7.940681e+000 126 103 69
-7.183803e-001 -1.334344e+000 -9.174881e+000 205 222 207
-1.212223e-001 -1.093971e+000 -8.283150e+000 83 69 84
1.049480e+000 -6.259965e-001 -6.644741e+000 66 58 95
1.540190e+000 -6.611090e-001 -6.908673e+000 117 103 66
-1.028699e+000 3.117479e+000 -1.071154e+001 125 71 47
1.994391e+000 2.618072e+000 -9.341848e+000 92 78 42
-1.185252e+000 2.759522e+000 -1.090751e+001 179 131 98
-1.257727e+000 2.682057e+000 -1.098751e+001 104 65 58
-1.611025e+000 2.324855e+000 -1.137074e+001 179 146 100
-5.111882e-001 2.217707e+000 -9.763411e+000 211 224 209
2.409000e+000 2.194374e+000 -9.407784e+000 119 104 61
2.279047e+000 2.018890e+000 -9.258317e+000 111 100 60
2.759295e+000 2.144896e+000 -9.686275e+000 129 110 68
2.751173e+000 2.142885e+000 -9.650593e+000 129 110 68
2.395448e+000 1.712675e+000 -9.287229e+000 121 105 62
2.886147e+000 1.820761e+000 -9.658686e+000 98 81 54
-7.239989e-001 1.263018e+000 -9.900223e+000 84 68 78
-7.297656e-001 1.261333e+000 -9.917508e+000 84 68 78
-1.077546e+000 1.015824e+000 -1.035882e+001 90 80 92
-9.767277e-001 1.084374e+000 -1.026817e+001 91 78 89
-7.465404e-001 9.586377e-001 -9.994996e+000 129 82 101
1.775283e+000 8.485323e-001 -7.907449e+000 98 83 47
1.775283e+000 8.485323e-001 -7.907449e+000 98 83 47
2.303979e+000 8.505337e-001 -8.441772e+000 81 81 57
4.319251e+000 8.987026e-001 -8.803951e+000 213 191 102
3.577510e-001 5.858092e-001 -7.940485e+000 91 77 87
2.042173e+000 5.829330e-001 -8.027191e+000 83 63 36
2.427592e+000 6.016763e-001 -8.433992e+000 87 71 37
3.137045e+000 6.645240e-001 -9.201347e+000 68 66 51
1.963415e+000 4.380619e-001 -7.881746e+000 121 104 58
2.508061e+000 4.767209e-001 -8.464360e+000 78 66 30
3.002804e+000 4.790449e-001 -8.946733e+000 80 61 28
2.233961e+000 3.745555e-001 -8.132316e+000 124 107 63
2.254705e+000 3.121155e-001 -8.127521e+000 76 62 33
2.351726e+000 2.919884e-001 -8.188048e+000 90 70 43
2.660616e+000 3.297892e-001 -8.542118e+000 92 78 36
1.699756e+000 2.157582e-001 -7.506159e+000 69 57 24
2.534187e+000 1.894874e-001 -8.343893e+000 116 99 56
2.544214e+000 1.860215e-001 -8.366957e+000 116 99 56
2.974410e+000 1.594248e-001 -8.764712e+000 71 57 28
3.392235e+000 1.814184e-001 -9.172670e+000 62 48 22
3.361022e+000 1.263399e-001 -9.115721e+000 118 98 65
1.814205e+000 1.466452e-001 -7.554199e+000 120 101 58
2.020125e+000 6.409424e-002 -7.779706e+000 120 105 61
2.664956e+000 1.149080e-001 -8.417574e+000 87 71 37
2.858557e+000 7.272422e-002 -8.606833e+000 74 54 29
2.960285e+000 1.052437e-001 -8.720141e+000 109 92 49
3.109231e+000 2.338864e-002 -8.796841e+000 84 67 35
3.393215e+000 2.347470e-002 -9.101524e+000 98 79 49
3.292619e+000 -6.974753e-003 -8.963333e+000 80 61 30
2.665275e+000 6.494790e-004 -8.386750e+000 80 62 24
2.868574e+000 -3.328420e-002 -8.543223e+000 77 61 27
3.218506e+000 -4.853064e-002 -8.877202e+000 115 97 59
3.312010e+000 -1.265229e-001 -8.918259e+000 66 49 22
2.608453e+000 -1.974061e-001 -8.202507e+000 83 68 29
1.780477e+000 -2.467791e-001 -7.382773e+000 68 53 22
2.169833e+000 -2.744516e-001 -7.723744e+000 129 113 64
2.767895e+000 -3.325088e-001 -8.274577e+000 74 58 25
2.133420e+000 -3.250802e-001 -7.695563e+000 70 53 23
2.364911e+000 -4.125336e-001 -7.834743e+000 122 105 59
2.741202e+000 -3.916080e-001 -8.254615e+000 122 103 61
2.730493e+000 -4.823233e-001 -8.135021e+000 118 101 62
2.962706e+000 -4.848239e-001 -8.405003e+000 110 90 58
2.962706e+000 -4.848239e-001 -8.405003e+000 110 90 58
3.067133e+000 -4.948283e-001 -8.456299e+000 70 53 21
3.271607e+000 -5.352375e-001 -8.623738e+000 58 43 13
3.564193e+000 -4.927784e-001 -8.943853e+000 63 47 22
2.867936e+000 -6.689208e-001 -8.105230e+000 74 58 27
2.850389e+000 -7.146288e-001 -8.042239e+000 127 110 69
2.923018e+000 -7.273421e-001 -8.113962e+000 125 104 65
2.923018e+000 -7.273421e-001 -8.113962e+000 125 104 65
3.109730e+000 -7.168189e-001 -8.304879e+000 82 66 33
3.122123e+000 -7.257889e-001 -8.338618e+000 82 66 33
3.045636e+000 -7.491391e-001 -8.206420e+000 113 91 50
3.441683e+000 -7.487359e-001 -8.667917e+000 99 81 49
3.582756e+000 -7.859698e-001 -8.787555e+000 93 76 48
2.159180e+000 -6.983431e-001 -7.430738e+000 117 98 55
3.230131e+000 -9.173664e-001 -8.376879e+000 102 82 43
4.091351e-001 -9.863336e-001 -7.531391e+000 67 53 82
4.334447e+000 -9.566213e-001 -8.460844e+000 153 121 62
-1.681399e+000 3.289355e+000 -1.151310e+001 105 69 53
3.149767e+000 3.140871e+000 -1.059314e+001 48 29 12
-1.614618e+000 2.461083e+000 -1.136021e+001 170 140 99
-1.221410e+000 1.548031e+000 -1.065857e+001 208 226 210
2.951506e+000 1.684203e+000 -9.684537e+000 76 65 37
3.360154e+000 1.317846e+000 -9.880784e+000 90 76 48
3.239604e-001 7.517578e-001 -7.965226e+000 87 76 84
4.276152e+000 4.923618e-001 -8.874476e+000 205 180 100
4.371526e+000 5.852469e-001 -8.625304e+000 200 175 85
1.657956e+000 3.302849e-001 -7.536299e+000 70 56 27
2.296843e+000 4.126186e-001 -8.206121e+000 93 77 44
1.428464e-001 -2.212613e-001 -8.171928e+000 85 63 90
1.916089e+000 6.049205e-002 -7.631623e+000 70 57 19
1.918458e+000 5.897088e-002 -7.647143e+000 70 57 19
2.955991e+000 -1.126317e-001 -8.580563e+000 119 100 57
2.017251e+000 -7.049998e-002 -7.668526e+000 88 75 41
2.409019e+000 -2.662863e-001 -7.974566e+000 62 47 16
1.836389e+000 -3.609101e-001 -7.342348e+000 81 67 32
2.501356e+000 -3.935674e-001 -8.008609e+000 79 63 27
2.501356e+000 -3.935674e-001 -8.008609e+000 79 63 27
-8.181461e-001 -1.063691e+000 -9.425711e+000 67 56 59
9.949611e-001 -4.062655e-001 -6.719570e+000 63 47 88
2.548425e+000 -6.146253e-001 -7.840198e+000 62 46 20
2.714986e+000 -6.452059e-001 -7.977144e+000 70 56 29
3.054540e+000 -6.625562e-001 -8.321886e+000 116 101 60
-2.557999e-001 -1.141699e+000 -8.575751e+000 82 63 82
2.539259e+000 -7.071903e-001 -7.744298e+000 69 54 25
4.341555e+000 -8.307625e-001 -8.543889e+000 159 126 63
-3.584355e-001 7.150342e-001 -9.231443e+000 206 225 209
1.529860e+000 4.650023e-001 -7.466434e+000 77 61 35
1.563687e+000 3.750970e-001 -7.458712e+000 121 107 60
6.041211e-001 -4.395663e-001 -7.340376e+000 202 223 210
2.133855e+000 -4.213988e-001 -7.584125e+000 90 75 44
2.363963e+000 -5.510471e-001 -7.799001e+000 126 105 58
1.979288e+000 -5.757004e-001 -7.380298e+000 126 110 59
-8.748543e-001 2.794995e+000 -1.041599e+001 111 69 51
3.016783e-001 1.248371e+000 -8.169317e+000 204 224 205
1.400382e+000 1.314467e+000 -7.941062e+000 128 107 60
5.277117e-002 1.043164e+000 -8.589322e+000 204 227 206
2.316371e-001 -7.577675e-002 -8.070681e+000 204 225 207
3.662745e-001 6.743728e-001 -7.930889e+000 206 227 210
-5.137957e-001 -9.954507e-001 -9.041049e+000 85 71 72
1.552074e+000 -6.603983e-002 -7.272037e+000 127 110 66
5.013082e-001 -3.627677e-001 -7.496995e+000 203 226 208
2.160503e-001 1.917148e+000 -8.351507e+000 69 53 58
1.209962e+000 1.861269e+000 -8.042421e+000 127 114 69
-8.760156e-002 1.875540e+000 -8.912567e+000 72 61 65
-1.412819e+000 2.132106e+000 -1.103335e+001 173 156 131
-9.374609e-001 1.977484e+000 -1.033695e+001 88 76 71
-4.233562e-001 1.426964e+000 -9.480958e+000 217 219 212
-4.842391e-001 1.385817e+000 -9.592648e+000 214 230 213
-3.835269e-001 1.385042e+000 -9.388217e+000 86 58 55
-8.961344e-001 1.085042e+000 -1.014343e+001 207 218 213
-1.163007e+000 8.960776e-001 -1.043126e+001 201 213 211
-4.411027e-001 8.666880e-001 -9.388031e+000 213 230 219
-3.577486e-001 9.217734e-001 -9.282604e+000 90 60 65
-2.380259e-001 8.537845e-001 -9.066583e+000 202 229 210
-8.785744e-001 5.385540e-001 -9.932368e+000 203 229 215
-5.521951e-001 -9.317724e-001 -9.083240e+000 203 211 208
2.815844e-001 -8.353607e-001 -7.728234e+000 205 208 215
-6.664608e-001 -1.264110e+000 -9.085689e+000 51 40 46
4.767743e-001 -9.486501e-001 -7.424780e+000 67 55 79
5.892248e-001 -9.982003e-001 -7.255105e+000 188 199 202
-9.556940e-001 -1.425326e+000 -9.556424e+000 76 66 67
-6.942348e-001 -1.363778e+000 -9.221885e+000 74 59 64
-7.297933e-001 -1.489419e+000 -9.123201e+000 217 205 209
-9.629944e-001 -1.784662e+000 -9.512402e+000 177 165 170
-9.337843e-001 -1.794757e+000 -9.543968e+000 64 52 66
-1.792175e+000 3.660035e+000 -1.173640e+001 157 127 74
-1.084297e+000 2.961142e+000 -1.072003e+001 137 86 60
2.238485e+000 2.414738e+000 -9.365311e+000 125 112 70
-7.717405e-001 1.761119e+000 -1.007186e+001 216 217 207
1.561690e-001 1.598016e+000 -8.506019e+000 76 53 68
-1.226713e+000 1.639633e+000 -1.069762e+001 81 69 70
3.324292e+000 1.520770e+000 -9.968579e+000 33 18 1
-7.259937e-001 1.367287e+000 -9.890430e+000 77 67 73
2.165207e+000 1.033204e+000 -8.473181e+000 127 113 74
-4.675491e-001 9.120476e-001 -9.370351e+000 88 67 66
4.165527e+000 8.624849e-001 -9.110728e+000 142 110 46
-8.146230e-001 8.149919e-001 -9.972131e+000 94 80 91
2.578027e-001 6.500841e-001 -8.090834e+000 204 228 212
-1.015725e+000 4.561417e-001 -1.009245e+001 201 216 210
-7.645004e-001 2.061087e-001 -9.721524e+000 92 72 70
-8.803342e-001 -1.347212e+000 -9.400792e+000 62 51 50
-3.188152e-001 -1.113067e+000 -8.622304e+000 197 223 216
-1.247828e+000 2.905780e+000 -1.107206e+001 138 86 65
2.658032e+000 2.424588e+000 -9.706332e+000 96 82 48
-1.221470e+000 2.495208e+000 -1.087415e+001 191 167 121
1.869406e+000 2.042763e+000 -8.991243e+000 119 103 69
1.948322e+000 2.003696e+000 -9.007483e+000 118 104 65
2.406121e+000 2.030186e+000 -9.414802e+000 85 71 34
2.406121e+000 2.030186e+000 -9.414802e+000 85 71 34
2.354974e+000 1.843889e+000 -9.298249e+000 127 113 71
2.876422e+000 2.016359e+000 -9.740499e+000 119 106 65
-7.987163e-002 1.700725e+000 -8.919853e+000 206 222 209
-2.873732e-001 1.526579e+000 -9.257341e+000 208 220 208
1.379545e+000 1.175887e+000 -7.802304e+000 124 110 63
3.020405e+000 1.460391e+000 -9.725602e+000 62 44 20
3.094746e+000 1.499762e+000 -9.803998e+000 116 95 66
3.273995e+000 1.546799e+000 -9.968672e+000 43 32 10
-7.027318e-001 1.189071e+000 -9.875516e+000 204 227 213
1.827728e+000 5.197338e-001 -7.809467e+000 130 115 72
1.981470e+000 3.251548e-001 -7.853093e+000 125 110 67
2.118535e+000 1.811203e-001 -7.927097e+000 129 111 63
2.690394e+000 1.643010e-001 -8.512056e+000 123 107 71
2.764733e+000 1.435498e-001 -8.587358e+000 123 106 62
2.861161e+000 -1.895770e-001 -8.498058e+000 122 107 68
3.455903e+000 -5.658577e-001 -8.851207e+000 68 51 23
-4.198407e-001 -1.034177e+000 -8.838158e+000 93 64 65
3.806414e+000 -1.009288e+000 -9.058660e+000 80 64 47
-7.150540e-001 -1.333173e+000 -9.150720e+000 206 218 209
-6.162522e-001 -1.261338e+000 -9.030353e+000 204 220 213
-1.442609e+000 3.355847e+000 -1.125238e+001 151 114 66
1.885597e+000 2.204715e+000 -9.040506e+000 91 76 46
-4.928501e-001 2.199022e+000 -9.683523e+000 212 222 213
2.093193e+000 1.942738e+000 -9.120440e+000 82 66 34
2.787658e+000 2.146470e+000 -9.740071e+000 128 111 68
-5.918627e-002 1.753817e+000 -8.902788e+000 81 75 76
3.065417e+000 1.806518e+000 -9.820627e+000 62 51 23
6.047415e-002 1.285834e+000 -8.573650e+000 206 222 209
-1.280950e+000 8.640040e-001 -1.053029e+001 87 72 85
3.197083e+000 6.640313e-001 -9.333489e+000 47 41 26
-1.227335e+000 6.151118e-001 -1.044613e+001 199 218 207
1.030423e-001 5.461184e-001 -8.320625e+000 88 70 80
-1.706621e+001 1.273542e+000 -6.605323e+001 201 54 72
1.673754e+000 3.919792e-001 -7.597897e+000 119 105 65
-9.925493e-001 2.787668e-001 -1.010554e+001 203 225 214
4.483849e+000 2.877423e-001 -8.595366e+000 214 187 99
1.747353e+000 9.885698e-002 -7.478023e+000 75 63 31
1.748862e+000 9.924246e-002 -7.483764e+000 75 63 31
1.781353e+000 -2.423064e-001 -7.378515e+000 74 61 29
2.117831e+000 -3.190463e-001 -7.654592e+000 75 56 21
3.152314e+000 -6.771787e-001 -8.412507e+000 121 102 62
3.447127e+000 -7.443068e-001 -8.718246e+000 108 93 62
4.581531e+000 -6.450416e-001 -8.307567e+000 203 184 92
1.061529e+000 -1.545189e+000 -6.472359e+000 69 61 100
-1.727240e+000 3.300591e+000 -1.168073e+001 95 60 42
-1.727240e+000 3.300591e+000 -1.168073e+001 95 60 42
-1.960102e+000 3.240332e+000 -1.194412e+001 151 122 80
-1.880437e+000 3.327478e+000 -1.184748e+001 150 121 78
-1.030062e+000 2.505752e+000 -1.060856e+001 137 69 63
-1.715159e-001 1.682041e+000 -9.083635e+000 80 68 72
2.988541e+000 1.692856e+000 -9.774982e+000 72 56 30
2.900984e-001 1.140155e+000 -8.176826e+000 78 67 75
-1.089849e-002 9.986974e-001 -8.685784e+000 205 226 211
3.630026e-001 5.840371e-001 -7.916428e+000 88 71 87
9.108346e-002 4.326578e-001 -8.389653e+000 205 226 207
4.297868e+000 4.943726e-001 -8.909764e+000 192 165 86
-8.553566e-001 3.481669e-001 -9.918081e+000 198 228 206
3.489662e+000 3.189779e-001 -9.405647e+000 97 81 55
1.917497e+000 6.644202e-002 -7.680203e+000 75 57 28
2.961866e+000 -2.007180e-001 -8.584590e+000 118 103 62
-6.431687e-001 -7.278009e-001 -9.206921e+000 204 229 211
2.437033e+000 -5.931447e-001 -7.808488e+000 74 64 33
4.349363e+000 -5.915399e-001 -8.573896e+000 139 110 46
2.294088e+000 -6.683917e-001 -7.587311e+000 78 62 33
3.022781e+000 -7.999364e-001 -8.198720e+000 94 80 48
3.395656e+000 -8.985126e-001 -8.600103e+000 56 36 12
3.310713e+000 -9.290735e-001 -8.505589e+000 102 87 46
5.949752e-001 -9.444095e-001 -7.259825e+000 84 66 88
-1.654181e+000 3.390731e+000 -1.160429e+001 102 65 49
-1.655944e+000 3.393303e+000 -1.161063e+001 102 65 49
-1.569067e+000 2.295897e+000 -1.119207e+001 171 139 93
-6.350909e-001 1.231723e+000 -9.814756e+000 99 72 85
-2.255341e+001 1.274753e+000 -6.273237e+001 178 34 47
-6.793724e-001 1.659577e-001 -9.623785e+000 209 225 212
4.212539e-001 2.071656e-001 -7.719159e+000 103 71 96
-7.938161e-001 1.286450e-001 -9.764334e+000 204 228 210
5.488537e-001 -1.066408e-001 -7.573706e+000 197 225 207
1.336429e-001 -2.192876e-001 -8.186003e+000 78 58 85
-2.414377e-001 -8.518916e-001 -8.615927e+000 78 64 81
-2.535036e-001 -1.146884e+000 -8.521681e+000 78 65 80
-1.321192e+000 3.037626e+000 -1.108118e+001 94 65 51
-8.069552e-001 1.638056e+000 -1.017473e+001 89 74 93
-2.461023e-001 9.612572e-001 -9.019766e+000 120 79 85
-3.189517e-001 8.297548e-001 -9.147193e+000 86 65 67
2.895159e-001 6.584773e-001 -8.039265e+000 205 226 209
3.989655e-001 6.806208e-001 -7.868622e+000 204 226 207
-1.773301e+001 2.117619e+000 -6.709356e+001 174 38 52
4.433599e+000 1.332868e-001 -8.568729e+000 175 140 62
-7.278127e-001 2.228016e+000 -1.003478e+001 93 71 74
1.492806e+000 1.146838e+000 -7.888923e+000 121 115 81
1.490686e-001 6.547648e-003 -8.112658e+000 81 65 92
1.722238e-001 -7.944952e-001 -7.854702e+000 96 69 104
4.470805e-001 -8.236536e-001 -7.452240e+000 70 53 89
1.258157e+000 1.373712e+000 -7.834293e+000 131 114 71
4.379543e+000 6.726305e-001 -8.787629e+000 211 186 96
3.110202e-001 -1.984724e-001 -7.938076e+000 81 60 96
3.569431e+000 -5.827392e-001 -8.966874e+000 68 51 25
-8.429985e-001 -1.015669e+000 -9.393706e+000 63 54 58
-9.655140e-001 1.377401e+000 -1.036062e+001 77 61 79
3.757408e+000 -9.011035e-001 -8.907166e+000 51 34 18
-8.602157e-001 3.044403e+000 -1.048080e+001 199 154 105
-8.135777e-001 2.860852e+000 -1.035404e+001 141 89 65
-1.866506e+000 2.906652e+000 -1.178966e+001 93 73 87
-6.274107e-001 2.585504e+000 -1.002619e+001 133 91 66
1.796550e+000 2.338259e+000 -9.044571e+000 123 109 69
-1.666007e+000 2.407379e+000 -1.146862e+001 169 137 93
-1.149388e+000 2.306694e+000 -1.072564e+001 199 182 138
2.357790e+000 2.179323e+000 -9.381154e+000 124 110 65
-6.734667e-001 1.999636e+000 -9.988012e+000 92 60 70
1.953062e+000 1.976318e+000 -9.028903e+000 124 111 71
-1.026196e+000 1.621766e+000 -1.041111e+001 84 68 70
-3.063302e+001 2.744785e+000 -7.467454e+001 104 63 57
-1.014026e+000 4.545365e-001 -1.008743e+001 211 227 223
4.258574e+000 4.023187e-001 -8.934879e+000 134 106 41
1.878496e+000 -2.632017e-001 -7.441295e+000 104 91 57
-1.436243e+000 2.808353e+000 -1.117953e+001 95 61 52
-1.009218e+000 1.878547e+000 -1.043047e+001 80 75 72
3.126610e+000 1.382596e+000 -9.731499e+000 102 81 54
-1.738453e-001 -6.470536e-001 -8.539328e+000 211 225 217
4.381643e+000 -4.757214e-001 -8.492491e+000 141 118 42
2.278718e+000 -6.270273e-001 -7.572440e+000 128 111 67
2.842540e-001 -8.327697e-001 -7.717316e+000 187 198 199
6.247861e-001 -1.050670e+000 -7.213436e+000 172 171 182
-8.373740e-001 2.935873e+000 -1.038162e+001 130 76 52
-1.013735e+000 2.484815e+000 -1.057311e+001 123 62 48
1.537928e+000 2.142279e+000 -8.731548e+000 90 76 38
2.029290e+000 2.014164e+000 -9.104561e+000 119 104 62
1.459125e+000 1.716767e+000 -8.307150e+000 132 109 70
1.898579e+000 1.611421e+000 -8.710516e+000 122 109 64
1.625190e+000 6.731215e-001 -7.653574e+000 79 64 30
1.581232e+000 4.206459e-001 -7.495004e+000 66 51 20
1.866671e+000 -1.874121e-001 -7.473599e+000 82 67 29
6.437680e-001 -3.960805e-001 -7.295795e+000 69 57 84
2.065331e+000 -3.128331e-001 -7.610100e+000 117 103 58
2.084931e+000 -4.501993e-001 -7.519822e+000 123 108 65
6.635600e-001 -5.578218e-001 -7.216442e+000 174 179 182
2.491392e+000 -5.720547e-001 -7.835623e+000 122 105 58
1.815396e+000 2.910978e+000 -9.382953e+000 123 108 69
1.732744e+000 2.869370e+000 -9.310422e+000 85 72 37
2.201917e+000 2.716314e+000 -9.521226e+000 91 75 42
1.812902e+000 2.429776e+000 -9.109842e+000 79 66 32
1.873838e+000 2.419550e+000 -9.160892e+000 97 82 51
-1.705318e+000 2.603574e+000 -1.153823e+001 80 63 75
2.687098e+000 2.489324e+000 -9.772774e+000 132 114 74
-2.533248e+001 9.126740e+000 -6.738654e+001 132 95 146
1.831163e+000 2.204209e+000 -9.002547e+000 74 59 28
2.285167e+000 2.147808e+000 -9.318191e+000 78 63 24
2.439016e+000 1.886749e+000 -9.359403e+000 76 61 28
2.439016e+000 1.886749e+000 -9.359403e+000 76 61 28
2.499210e+000 1.822789e+000 -9.407204e+000 122 107 66
3.298255e+000 1.702683e+000 -9.952037e+000 92 72 47
-7.134943e-001 1.192765e+000 -9.883939e+000 202 229 208
-1.785196e+001 -6.781797e-002 -6.477915e+001 151 57 57
-1.672100e+001 -2.494045e-002 -6.571045e+001 179 97 97
1.720346e+000 7.165030e-001 -7.771583e+000 125 107 59
4.240604e+000 5.841757e-001 -8.857244e+000 190 162 81
5.879079e-001 -8.013125e-001 -7.247887e+000 79 61 86
-1.142345e-001 9.249786e-001 -8.851753e+000 204 227 206
-1.142345e-001 9.249786e-001 -8.851753e+000 204 227 206
1.836726e+000 7.279833e-001 -7.886048e+000 91 73 37
-9.399775e-001 -1.151404e+000 -9.604839e+000 72 58 60
-2.328849e+001 -2.726199e+000 -6.545839e+001 32 24 44
6.623222e-001 -7.709135e-001 -7.126547e+000 132 138 149
6.600760e-001 -7.720282e-001 -7.156982e+000 132 138 149
-3.188104e+001 -3.431277e+000 -7.406776e+001 56 34 32
-1.058153e+000 3.076044e+000 -1.078828e+001 174 120 93
-1.397230e+000 2.927575e+000 -1.130955e+001 101 67 53
-9.820699e-001 2.848427e+000 -1.061728e+001 184 137 107
-7.548803e-001 2.812138e+000 -1.027888e+001 180 143 93
-9.765653e-001 2.681557e+000 -1.059188e+001 186 138 99
-6.147825e-001 2.657134e+000 -1.007868e+001 119 86 54
-5.854196e-001 2.621686e+000 -9.988254e+000 205 174 148
-1.406790e+000 2.424829e+000 -1.107121e+001 171 136 82
-3.891591e-001 2.396159e+000 -9.591183e+000 70 43 46
-6.061174e-001 2.250880e+000 -9.907215e+000 205 195 193
-6.061174e-001 2.250880e+000 -9.907215e+000 205 195 193
1.872538e+000 2.357335e+000 -9.188723e+000 127 108 75
7.509740e-002 2.033052e+000 -8.681199e+000 96 80 90
-3.247770e-001 2.272649e-001 -8.974484e+000 203 217 209
2.005071e+000 3.525538e-001 -7.805786e+000 86 64 25
1.860088e-001 -3.695422e-001 -8.084585e+000 80 66 84
4.710893e-001 -6.144711e-001 -7.456487e+000 76 61 90
-9.414454e-001 -1.769963e+000 -9.446744e+000 180 178 183
-4.375049e-001 2.926427e+000 -9.821406e+000 183 138 73
-3.373623e-001 2.954928e+000 -9.537686e+000 206 168 103
-1.784713e+000 2.793857e+000 -1.147934e+001 98 75 93
2.535046e+000 2.801254e+000 -9.943191e+000 131 108 74
2.587886e+000 2.834844e+000 -1.004866e+001 90 67 36
-1.102513e+000 2.410602e+000 -1.069963e+001 144 82 57
2.692234e+000 2.623563e+000 -9.994292e+000 91 68 37
2.946414e+000 2.616102e+000 -1.024708e+001 121 102 70
1.596179e+000 2.387020e+000 -8.970995e+000 121 104 61
4.108361e+000 2.346481e+000 -9.683144e+000 176 144 61
1.718883e+000 2.113362e+000 -8.925043e+000 119 99 64
-7.135116e-001 1.757094e+000 -9.995804e+000 76 58 70
-1.751197e-001 1.822206e+000 -9.121398e+000 76 62 65
1.678642e+000 1.869140e+000 -8.695473e+000 135 116 76
-6.805448e-001 1.305730e+000 -9.847020e+000 208 211 208
3.222440e+000 1.302506e+000 -9.758280e+000 104 85 55
4.222209e+000 7.499084e-001 -8.945428e+000 195 159 85
3.548087e+000 3.049685e-001 -9.419337e+000 88 70 49
4.234737e+000 1.096143e-001 -8.732273e+000 179 142 74
1.528304e+000 1.096869e-001 -7.181853e+000 123 104 62
8.338144e-002 -5.679320e-001 -8.087356e+000 90 53 78
-3.730242e-001 -9.454165e-001 -8.654297e+000 208 212 209
-3.387135e-001 -9.290219e-001 -8.647465e+000 75 58 61
3.103621e+000 -4.891333e-001 -8.429830e+000 115 96 58
2.807354e+000 -6.274104e-001 -8.041733e+000 71 50 23
-7.387470e-002 -1.001189e+000 -8.144424e+000 204 197 204
2.923516e+000 -6.952467e-001 -8.094528e+000 122 104 65
-4.244979e-001 3.075586e+000 -9.720130e+000 208 168 109
2.104022e+000 3.326674e+000 -9.933720e+000 126 110 67
2.152291e+000 3.306434e+000 -9.875839e+000 118 103 66
2.100609e+000 3.257841e+000 -9.776969e+000 80 69 37
2.151177e+000 3.212067e+000 -9.883605e+000 119 102 60
2.282167e+000 3.277446e+000 -9.966246e+000 125 113 74
2.307405e+000 3.292129e+000 -1.009067e+001 125 113 74
2.696889e+000 3.340052e+000 -1.042852e+001 73 58 29
1.135501e+000 2.852108e+000 -8.720330e+000 125 106 66
1.135501e+000 2.852108e+000 -8.720330e+000 125 106 66
2.701278e+000 3.197792e+000 -1.034106e+001 122 105 69
2.951794e+000 3.192388e+000 -1.057563e+001 63 55 36
1.961159e+000 2.791340e+000 -9.461120e+000 119 99 62
1.518454e+000 2.632321e+000 -9.049256e+000 124 107 70
1.587141e+000 2.621222e+000 -9.103978e+000 126 108 71
1.741159e+000 2.595899e+000 -9.164798e+000 125 109 70
1.809987e+000 2.590093e+000 -9.214783e+000 118 102 66
1.975649e+000 2.686065e+000 -9.435265e+000 127 109 71
2.194239e+000 2.780302e+000 -9.660204e+000 124 106 70
2.321963e+000 2.641640e+000 -9.588692e+000 125 110 69
2.312707e+000 2.536238e+000 -9.587835e+000 124 106 67
2.443330e+000 2.517394e+000 -9.670793e+000 122 104 66
2.443330e+000 2.517394e+000 -9.670793e+000 122 104 66
-1.519047e+000 2.138569e+000 -1.114483e+001 96 67 67
2.400794e+000 2.412576e+000 -9.574799e+000 120 101 61
2.812802e+000 2.503838e+000 -1.000457e+001 82 61 30
2.902254e+000 2.480113e+000 -1.006986e+001 83 63 32
1.785552e+000 2.158699e+000 -8.955831e+000 125 107 67
1.486371e+000 2.061820e+000 -8.640417e+000 79 58 21
1.513135e+000 2.100216e+000 -8.677732e+000 124 103 62
1.515554e+000 2.100299e+000 -8.685159e+000 124 103 62
3.162844e+000 2.184468e+000 -1.005836e+001 112 91 62
1.977820e+000 1.946062e+000 -9.080070e+000 122 104 64
1.275112e-001 1.626757e+000 -8.519135e+000 212 226 208
-3.089969e-001 1.463472e+000 -9.242481e+000 95 66 82
2.000466e+000 1.586115e+000 -8.826465e+000 118 99 59
4.032669e+000 1.842416e+000 -9.525419e+000 191 159 83
4.186656e+000 1.828491e+000 -9.439398e+000 177 135 62
4.177237e+000 1.758980e+000 -9.227536e+000 213 172 93
1.960666e+000 1.439957e+000 -8.628740e+000 119 102 59
2.430696e+000 1.440019e+000 -9.110349e+000 119 99 62
4.064739e+000 1.564600e+000 -9.338452e+000 190 154 78
3.005850e+000 1.402058e+000 -9.649028e+000 113 92 63
4.049489e+000 1.521639e+000 -9.364270e+000 153 113 46
-8.327277e-001 8.578264e-001 -9.921879e+000 214 225 217
-1.063867e-001 9.657081e-001 -8.712375e+000 202 224 205
1.749503e+000 1.197053e+000 -8.185151e+000 126 106 69
3.036520e+000 1.159664e+000 -9.406090e+000 123 103 70
4.062975e+000 1.397879e+000 -9.304263e+000 153 110 48
3.048610e+000 1.061947e+000 -9.357185e+000 111 91 56
3.174899e+000 1.028477e+000 -9.494215e+000 117 93 65
4.390852e+000 1.241803e+000 -8.885947e+000 188 151 70
2.330431e+000 6.741148e-001 -8.390419e+000 132 112 63
3.492795e+000 -9.840037e-002 -9.110186e+000 99 77 46
1.196774e-002 -5.075468e-001 -8.247710e+000 203 219 208
-8.307356e-001 -1.170759e+000 -9.343350e+000 66 56 60
4.437736e+000 -2.374918e-001 -8.572724e+000 156 122 48
2.004173e+000 -3.329430e-001 -7.488513e+000 122 103 63
2.232266e+000 -3.375623e-001 -7.723165e+000 134 113 68
-5.870515e-001 -1.193116e+000 -8.904400e+000 211 221 216
3.334156e-001 -9.623629e-001 -7.546558e+000 66 48 73
-1.274258e-001 2.999702e+000 -9.154041e+000 92 64 57
9.911976e-001 3.060822e+000 -8.691839e+000 83 63 26
1.623516e+000 3.212206e+000 -9.434419e+000 59 54 38
1.629196e+000 3.220723e+000 -9.510711e+000 59 54 38
-4.779080e-001 2.951667e+000 -9.806133e+000 202 177 117
1.096653e+000 3.025254e+000 -8.790271e+000 81 61 28
1.282851e+000 2.969364e+000 -9.007320e+000 93 75 39
1.282851e+000 2.969364e+000 -9.007320e+000 93 75 39
2.427486e+000 3.252308e+000 -1.015558e+001 121 104 65
3.921147e+000 3.339087e+000 -1.012960e+001 167 127 55
1.332003e+000 2.842992e+000 -8.989654e+000 74 56 20
1.332003e+000 2.842992e+000 -8.989654e+000 74 56 20
1.530351e+000 2.966151e+000 -9.295637e+000 119 100 59
2.889688e+000 3.090558e+000 -1.042143e+001 69 55 37
1.156830e+000 2.733709e+000 -8.678783e+000 128 100 61
1.252507e+000 2.754357e+000 -8.804830e+000 86 64 27
1.457978e+000 2.812963e+000 -9.106271e+000 78 60 25
1.396110e+000 2.719094e+000 -8.998933e+000 85 64 34
2.251026e+000 2.821998e+000 -9.683519e+000 93 73 38
3.995104e+000 2.962012e+000 -9.892113e+000 194 159 79
3.995104e+000 2.962012e+000 -9.892113e+000 194 159 79
-1.508263e+000 2.515757e+000 -1.125535e+001 102 69 38
1.370765e+000 2.615675e+000 -8.884191e+000 65 48 18
1.370765e+000 2.615675e+000 -8.884191e+000 65 48 18
1.937955e+000 2.736939e+000 -9.402413e+000 68 52 19
2.075069e+000 2.763823e+000 -9.505097e+000 127 105 69
2.016924e+000 2.677191e+000 -9.410524e+000 118 99 61
2.271903e+000 2.763012e+000 -9.674816e+000 123 105 68
2.271903e+000 2.763012e+000 -9.674816e+000 123 105 68
2.428488e+000 2.684394e+000 -9.744114e+000 83 67 33
2.953199e+000 2.912347e+000 -1.051454e+001 110 90 59
2.940026e+000 2.906744e+000 -1.044884e+001 110 90 59
4.040862e+000 2.921146e+000 -9.875684e+000 173 131 57
1.328031e+000 2.411732e+000 -8.684067e+000 81 65 32
1.841579e+000 2.478587e+000 -9.208369e+000 122 104 67
1.841579e+000 2.478587e+000 -9.208369e+000 122 104 67
1.961091e+000 2.467267e+000 -9.303119e+000 124 106 66
4.033995e+000 2.704361e+000 -1.006226e+001 157 120 46
-1.406885e+000 2.224102e+000 -1.103322e+001 122 85 60
-1.414129e+000 2.224019e+000 -1.107592e+001 122 85 60
-4.585863e-001 2.263169e+000 -9.694442e+000 85 69 74
1.235498e+000 2.335775e+000 -8.550705e+000 77 61 28
1.321890e+000 2.244945e+000 -8.556001e+000 124 103 62
1.434796e+000 2.277532e+000 -8.706426e+000 77 61 35
1.439073e+000 2.277923e+000 -8.725959e+000 77 61 35
2.690042e+000 2.427759e+000 -9.788535e+000 80 65 26
1.447094e+000 2.172090e+000 -8.644128e+000 89 68 37
1.583930e+000 2.186672e+000 -8.842363e+000 126 103 61
2.728811e+000 2.308844e+000 -9.710314e+000 84 63 32
2.728811e+000 2.308844e+000 -9.710314e+000 84 63 32
3.194444e-002 1.985688e+000 -8.774913e+000 210 218 205
1.429070e+000 2.033328e+000 -8.525683e+000 125 102 61
1.667567e+000 2.110094e+000 -8.855991e+000 86 68 32
