ply
format ascii 1.0
element face 0
property list uchar int vertex_indices
element vertex 876
property float x
property float y
property float z
property uchar diffuse_red
property uchar diffuse_green
property uchar diffuse_blue
end_header
2.529690e+000 2.048473e-001 -8.502014e+000 102 86 50
2.568116e+000 1.441866e-001 -8.503351e+000 147 135 97
2.718648e+000 2.360554e-001 -8.736990e+000 150 138 100
2.802171e+000 1.602560e-001 -8.771597e+000 110 93 63
2.942828e+000 1.798362e-001 -8.919150e+000 145 131 96
3.001122e+000 1.488472e-001 -8.942021e+000 143 126 94
-1.123152e+000 1.348162e+000 -1.050148e+001 88 64 68
5.969188e-001 4.720003e-002 -7.715905e+000 205 227 218
1.771236e+000 -1.466472e-001 -7.533633e+000 94 75 41
1.823341e+000 -1.979467e-001 -7.577741e+000 150 135 98
1.898396e+000 -1.721310e-001 -7.650226e+000 106 87 53
1.929816e+000 -2.272969e-001 -7.651228e+000 156 141 104
2.056112e+000 -2.145979e-001 -7.813745e+000 147 131 95
2.546882e+000 -5.389337e-003 -8.411153e+000 111 95 59
2.546882e+000 -5.389337e-003 -8.411153e+000 111 95 59
2.541766e+000 -1.417071e-001 -8.349215e+000 151 135 101
2.758913e+000 1.382248e-002 -8.631709e+000 152 136 102
2.758913e+000 1.382248e-002 -8.631709e+000 152 136 102
2.836238e+000 5.319202e-002 -8.748351e+000 103 87 53
2.576943e+000 -1.039495e-001 -8.391152e+000 100 82 47
2.576943e+000 -1.039495e-001 -8.391152e+000 100 82 47
2.663031e+000 -7.525506e-002 -8.503556e+000 153 135 101
2.719870e+000 -8.544160e-002 -8.541793e+000 150 134 97
2.719870e+000 -8.544160e-002 -8.541793e+000 150 134 97
2.786106e+000 -6.107323e-002 -8.613925e+000 109 93 62
2.950452e+000 2.762974e-002 -8.834753e+000 95 74 45
3.383103e+000 1.350957e-001 -9.299915e+000 101 85 59
-7.479585e-001 9.027355e-001 -1.007225e+001 207 227 212
2.440502e+000 -2.767800e-001 -8.148300e+000 116 100 68
2.440502e+000 -2.767800e-001 -8.148300e+000 116 100 68
2.326096e+000 -3.569474e-001 -7.980630e+000 103 84 50
2.411882e+000 -3.251120e-001 -8.087823e+000 151 135 99
2.626066e+000 -1.676535e-001 -8.389516e+000 153 137 101
2.654121e+000 -2.747245e-001 -8.342670e+000 151 135 101
2.607472e+000 -3.175242e-001 -8.275486e+000 102 86 52
2.607472e+000 -3.175242e-001 -8.275486e+000 102 86 52
2.753445e+000 -1.928143e-001 -8.506364e+000 144 128 94
2.753445e+000 -1.928143e-001 -8.506364e+000 144 128 94
2.791127e+000 -2.141449e-001 -8.512095e+000 149 133 100
2.845051e+000 -1.680473e-001 -8.599972e+000 92 76 43
2.845051e+000 -1.680473e-001 -8.599972e+000 92 76 43
2.784019e+000 -2.969715e-001 -8.470151e+000 151 137 102
3.067583e+000 -1.098550e-001 -8.854088e+000 89 74 43
3.176467e+000 -1.322369e-001 -8.950708e+000 91 75 46
3.123535e+000 -1.564400e-001 -8.905600e+000 138 122 89
2.909263e+000 -2.810537e-001 -8.589190e+000 113 97 64
2.909263e+000 -2.810537e-001 -8.589190e+000 113 97 64
3.048282e+000 -2.030851e-001 -8.792489e+000 113 94 62
3.321454e+000 -1.139078e-001 -9.082182e+000 144 129 100
3.243567e+000 -1.847623e-001 -8.998039e+000 140 123 95
3.155949e+000 -2.173341e-001 -8.905386e+000 96 85 50
3.302193e+000 -1.545710e-001 -9.067647e+000 93 76 47
3.302193e+000 -1.545710e-001 -9.067647e+000 93 76 47
-6.445917e-001 6.914329e-001 -9.869955e+000 215 218 213
1.952742e+000 -5.203474e-001 -7.459648e+000 148 135 100
2.075566e+000 -5.160930e-001 -7.580544e+000 102 86 54
2.426256e+000 -3.797212e-001 -8.058262e+000 102 86 52
2.160668e+000 -5.351704e-001 -7.644919e+000 90 71 41
2.417331e+000 -5.415115e-001 -7.897402e+000 153 142 110
2.678293e+000 -3.616498e-001 -8.342390e+000 146 131 98
2.785507e+000 -3.543884e-001 -8.431338e+000 92 76 43
2.566994e+000 -4.757877e-001 -8.097549e+000 145 130 97
2.658987e+000 -5.364548e-001 -8.146217e+000 88 72 41
2.990419e+000 -4.025682e-001 -8.585181e+000 107 87 59
2.990419e+000 -4.025682e-001 -8.585181e+000 107 87 59
3.419812e+000 -2.798366e-001 -9.110690e+000 89 67 46
3.324574e+000 -4.128752e-001 -8.937637e+000 139 119 95
3.488154e+000 -3.481886e-001 -9.131757e+000 138 120 97
4.435048e+000 -7.074174e-001 -8.376719e+000 171 133 58
4.399689e+000 -7.724341e-001 -8.276359e+000 178 145 63
2.181173e-001 -8.912052e-002 -8.266444e+000 203 228 217
2.181173e-001 -8.912052e-002 -8.266444e+000 203 228 217
2.898119e+000 -5.273250e-001 -8.404614e+000 147 131 97
2.898119e+000 -5.273250e-001 -8.404614e+000 147 131 97
2.943418e+000 -5.426669e-001 -8.416699e+000 148 133 100
2.993818e+000 -5.521574e-001 -8.470227e+000 146 132 97
2.943159e+000 -6.767910e-001 -8.302409e+000 77 62 29
3.231885e+000 -5.527804e-001 -8.711558e+000 95 78 52
3.221905e+000 -6.576544e-001 -8.611388e+000 76 60 35
3.221905e+000 -6.576544e-001 -8.611388e+000 76 60 35
3.342467e+000 -5.750380e-001 -8.816042e+000 82 65 39
3.342467e+000 -5.750380e-001 -8.816042e+000 82 65 39
-1.116845e+000 3.940179e-001 -1.040599e+001 202 196 207
-1.099582e+000 3.680704e-001 -1.029499e+001 202 196 207
2.214074e-001 -2.033116e-001 -8.319232e+000 91 61 85
2.214074e-001 -2.033116e-001 -8.319232e+000 91 61 85
1.081986e+000 -8.547850e-001 -6.803805e+000 70 46 93
3.490582e+000 -7.889921e-001 -8.890468e+000 123 102 81
6.472359e-001 -7.247961e-001 -7.382048e+000 68 60 82
-1.098101e-002 -4.702008e-001 -8.539404e+000 214 228 220
5.719357e-001 -7.753799e-001 -7.543397e+000 66 54 75
6.830170e-001 -8.433684e-001 -7.345132e+000 62 41 72
-3.720315e-001 -5.108533e-001 -9.110028e+000 210 224 217
-3.720315e-001 -5.108533e-001 -9.110028e+000 210 224 217
4.091579e-001 -8.012706e-001 -7.740937e+000 63 49 74
5.081577e-001 -8.867861e-001 -7.575855e+000 67 53 79
5.546840e-001 -9.147162e-001 -7.549647e+000 57 49 72
3.445989e-001 -9.574386e-001 -7.843469e+000 69 55 78
4.565954e-001 -9.925763e-001 -7.657623e+000 63 43 73
4.682512e-001 -1.042074e+000 -7.675587e+000 63 52 73
-3.153864e-001 -8.251477e-001 -8.897867e+000 90 55 68
-2.822196e-001 -8.667570e-001 -8.774774e+000 202 219 211
-5.457896e-001 -8.608046e-001 -9.247766e+000 210 213 212
-2.404254e-001 -9.659594e-001 -8.706633e+000 206 228 218
-2.504220e-001 -1.000183e+000 -8.731163e+000 218 231 217
1.721151e+000 -1.607110e+000 -6.536718e+000 24 18 44
-4.790642e-001 3.481335e+000 -1.019509e+001 115 78 46
1.912926e+000 2.580312e+000 -9.438253e+000 155 142 107
-1.421648e+000 4.333252e+000 -1.176049e+001 145 131 104
-3.361241e-001 3.047767e+000 -9.825746e+000 193 159 98
1.510121e+000 2.385817e+000 -9.023375e+000 156 144 106
-1.666337e+000 4.630135e+000 -1.238251e+001 189 175 148
-1.153943e+000 3.946200e+000 -1.130096e+001 175 150 114
1.602691e+000 1.873975e+000 -8.776315e+000 152 134 98
-1.781905e+000 4.325183e+000 -1.225839e+001 185 171 145
-1.819710e+000 4.431594e+000 -1.245310e+001 185 171 145
-6.259692e-001 3.107810e+000 -1.039116e+001 203 173 113
1.662237e+000 1.837663e+000 -8.795451e+000 154 140 101
2.311692e+000 1.955686e+000 -9.421740e+000 152 138 103
-7.739039e-001 3.049650e+000 -1.059803e+001 195 168 113
-2.550778e-001 2.350199e+000 -9.597436e+000 208 222 209
-2.083354e-001 2.325228e+000 -9.565430e+000 80 65 66
2.826468e+000 1.937847e+000 -9.804399e+000 123 108 77
2.828531e+000 1.823469e+000 -9.777198e+000 102 87 57
2.820511e+000 1.809978e+000 -9.745780e+000 102 87 57
-1.666113e+000 3.632938e+000 -1.190720e+001 153 121 74
-1.114963e+000 3.060742e+000 -1.112249e+001 104 67 48
2.409538e-001 1.652549e+000 -8.577789e+000 211 224 214
3.278352e-001 1.511882e+000 -8.436761e+000 213 223 214
2.657639e+000 1.747289e+000 -9.655040e+000 93 79 47
3.162363e+000 1.673064e+000 -1.004438e+001 87 73 46
-4.001463e-001 2.149966e+000 -9.853608e+000 77 70 72
3.576325e-001 1.232317e+000 -8.380423e+000 78 61 70
3.576325e-001 1.232317e+000 -8.380423e+000 78 61 70
-1.214216e+000 2.523379e+000 -1.109757e+001 135 103 53
1.217009e-001 1.331304e+000 -8.745783e+000 214 222 215
1.652057e+000 6.885456e-001 -7.846016e+000 151 137 100
2.139727e-002 1.240455e+000 -8.895181e+000 211 232 220
-1.437818e+000 2.199829e+000 -1.129588e+001 80 57 73
1.724523e+000 3.536050e-001 -7.738629e+000 150 134 98
1.708943e+000 2.356862e-001 -7.644752e+000 158 142 106
-5.900467e-001 1.352734e+000 -9.926161e+000 210 224 213
1.856404e+000 1.064647e-001 -7.746782e+000 152 137 96
2.040894e+000 2.582326e-001 -8.004560e+000 152 134 96
2.040894e+000 2.582326e-001 -8.004560e+000 152 134 96
2.432396e+000 2.775448e-001 -8.446660e+000 147 131 95
4.647952e-001 2.792910e-001 -7.993472e+000 98 79 93
4.647952e-001 2.792910e-001 -7.993472e+000 98 79 93
1.653647e+000 -1.796891e-002 -7.452475e+000 104 88 52
1.653647e+000 -1.796891e-002 -7.452475e+000 104 88 52
2.469563e+000 1.211988e-001 -8.415694e+000 104 88 53
2.723745e+000 1.232865e-001 -8.651763e+000 152 136 100
-2.712843e-001 6.872440e-001 -9.282439e+000 91 68 71
1.776471e+000 -1.937539e-001 -7.516093e+000 155 141 105
1.775547e+000 -2.968254e-001 -7.450350e+000 147 134 90
1.839853e+000 -2.514271e-001 -7.565891e+000 87 74 42
2.157663e+000 -1.818199e-001 -7.923118e+000 158 139 106
2.364131e+000 -1.691764e-001 -8.137072e+000 104 88 52
-5.769103e-001 7.493283e-001 -9.810263e+000 210 224 218
4.433757e-001 -5.891096e-002 -7.889252e+000 77 63 82
1.995605e+000 -2.913828e-001 -7.697017e+000 85 68 38
2.046659e+000 -3.027211e-001 -7.746004e+000 102 85 54
2.479962e+000 -2.874116e-001 -8.185719e+000 98 82 48
2.952486e+000 -1.518686e-001 -8.719916e+000 146 132 98
-1.096206e+000 9.566066e-001 -1.053693e+001 93 76 88
-1.161744e+000 9.141107e-001 -1.061241e+001 80 78 81
2.394559e+000 -4.791496e-001 -7.938746e+000 90 75 43
2.394559e+000 -4.791496e-001 -7.938746e+000 90 75 43
3.282043e+000 -7.773553e-001 -8.644442e+000 60 39 20
3.573402e+000 -7.050181e-001 -9.043450e+000 119 99 75
-1.414773e-001 -4.973411e-001 -8.767885e+000 96 70 84
-3.400962e-001 -8.818758e-001 -8.942236e+000 103 64 73
1.245573e+000 -1.481287e+000 -6.500411e+000 133 141 164
-5.077872e-001 -1.277819e+000 -9.082353e+000 73 55 70
1.411063e+000 2.235756e+000 -8.768912e+000 121 102 71
1.667480e+000 2.165206e+000 -8.990466e+000 155 144 108
-1.587067e+000 4.147504e+000 -1.183061e+001 144 128 103
-1.511196e+000 4.386970e+000 -1.184663e+001 187 171 143
-5.947202e-001 3.290576e+000 -1.037261e+001 93 65 43
-6.024488e-001 3.316508e+000 -1.040686e+001 93 65 43
-1.881748e+000 4.244858e+000 -1.230871e+001 189 177 151
1.622346e+000 1.591626e+000 -8.540802e+000 151 138 100
1.622346e+000 1.591626e+000 -8.540802e+000 151 138 100
-1.379317e+000 3.644824e+000 -1.156486e+001 150 109 68
1.766349e+000 1.567251e+000 -8.689670e+000 155 141 104
-1.566008e+000 3.443839e+000 -1.168206e+001 160 124 85
3.261907e+000 1.769730e+000 -1.008900e+001 92 62 32
-3.967513e-001 2.190804e+000 -9.800398e+000 209 229 213
-6.183574e-001 2.100862e+000 -1.015683e+001 214 221 214
-1.829678e-001 1.585932e+000 -9.259916e+000 82 66 69
1.597940e+000 5.229664e-001 -7.725146e+000 129 117 86
2.044039e+000 3.706337e-001 -8.073911e+000 156 140 97
-7.015339e-001 1.221220e+000 -1.007028e+001 90 70 81
-1.401266e-001 8.813874e-001 -9.121895e+000 207 231 211
-1.394914e-001 8.787842e-001 -9.114303e+000 207 231 211
1.549710e-001 4.924636e-001 -8.473269e+000 210 230 218
-5.011210e-001 9.387321e-001 -9.818852e+000 118 81 98
2.931555e+000 -3.205897e-002 -8.798742e+000 146 130 94
-3.119947e-001 1.948517e-001 -9.226791e+000 213 232 220
-8.706191e-001 3.502116e-001 -1.013718e+001 213 234 224
3.498567e+000 -8.988979e-001 -8.893745e+000 120 101 70
3.988069e-001 -9.894670e-001 -7.771686e+000 70 66 87
-4.980159e-002 -9.438317e-001 -8.415573e+000 84 67 85
1.106162e+000 -1.381796e+000 -6.623829e+000 47 41 79
-9.075825e-001 -8.649223e-001 -9.719540e+000 215 226 219
2.037083e+000 2.405883e+000 -9.440625e+000 152 139 104
3.197633e+000 3.104868e+000 -1.095000e+001 91 63 34
2.717728e+000 2.174997e+000 -9.813653e+000 156 142 107
-1.054250e+000 3.324372e+000 -1.109971e+001 86 52 43
-1.054250e+000 3.324372e+000 -1.109971e+001 86 52 43
1.666462e+000 7.770633e-001 -7.859097e+000 155 140 101
-1.134907e-002 1.478568e+000 -9.034439e+000 85 73 89
2.789570e-002 1.171177e+000 -8.896645e+000 98 70 92
-1.356964e+000 2.174092e+000 -1.118805e+001 157 130 95
-2.968902e-001 1.374744e+000 -9.479304e+000 210 215 208
5.750528e-002 1.045230e+000 -8.804887e+000 211 230 212
-4.516694e-001 1.360830e+000 -9.638167e+000 89 73 82
3.388069e+000 3.442800e-001 -9.437021e+000 133 116 86
-6.117352e-001 9.171350e-001 -9.860049e+000 97 62 83
-4.684457e-001 9.036910e-001 -9.571085e+000 119 75 92
-4.684457e-001 9.036910e-001 -9.571085e+000 119 75 92
2.262894e-001 -1.915885e-002 -8.361467e+000 210 229 219
-8.434642e-001 5.096072e-001 -1.015798e+001 121 84 101
-8.434642e-001 5.096072e-001 -1.015798e+001 121 84 101
3.691100e+000 -4.769884e-001 -9.305244e+000 81 48 28
-9.714779e-001 4.045990e-001 -1.026313e+001 82 71 94
-9.538769e-001 3.738519e-001 -1.012932e+001 82 71 94
-6.538630e-001 3.290039e-001 -9.791590e+000 111 79 82
-4.625273e-001 -6.154941e-001 -9.089426e+000 83 67 74
9.116324e-001 -1.249033e+000 -6.751575e+000 62 44 99
-6.271116e-001 -8.642772e-001 -9.389828e+000 82 65 71
-3.915237e-001 -9.656688e-001 -8.978577e+000 104 66 74
1.104755e+000 -1.463070e+000 -6.619014e+000 60 54 90
1.361739e+000 -1.520867e+000 -6.563069e+000 138 147 174
8.296757e-001 1.908678e+000 -7.904520e+000 64 48 50
-1.395809e-001 2.486832e+000 -9.422056e+000 207 228 210
3.023603e+000 2.281570e+000 -1.019010e+001 140 124 92
-1.816321e+000 3.151422e+000 -1.217051e+001 77 65 75
-1.240554e+000 2.685501e+000 -1.114434e+001 193 170 125
2.288889e-001 1.348935e+000 -8.637597e+000 82 65 69
-5.339039e-001 1.259726e+000 -9.873802e+000 105 72 88
-4.525492e-001 7.043740e-001 -9.578521e+000 90 79 87
3.389094e+000 -3.242135e-002 -9.254918e+000 116 101 72
4.406803e+000 -6.893117e-001 -8.466686e+000 195 164 81
4.362743e+000 -7.838083e-001 -8.315141e+000 192 163 83
3.492428e+000 -4.668574e-001 -9.085555e+000 97 77 52
4.423284e+000 -8.739262e-001 -8.369505e+000 200 176 88
6.461900e-001 -5.711809e-001 -7.429946e+000 84 62 97
4.162048e-001 -5.099065e-001 -7.800668e+000 206 228 214
8.618093e-001 -1.316914e+000 -6.781983e+000 158 167 185
1.908735e+000 -1.550610e+000 -6.552257e+000 142 146 172
-3.134746e-001 -9.270098e-001 -8.860027e+000 185 167 167
1.028047e+000 -1.456548e+000 -6.675328e+000 55 44 84
-7.942978e-001 3.123495e+000 -1.063302e+001 170 140 79
1.273027e+000 1.406262e+000 -8.008092e+000 157 139 99
-1.156417e+000 3.262028e+000 -1.118342e+001 187 158 102
-1.121500e+000 2.848235e+000 -1.108539e+001 131 85 54
-1.306222e+000 2.856833e+000 -1.119243e+001 96 65 60
-7.407375e-001 2.118656e+000 -1.023674e+001 78 68 63
-2.452365e-001 7.531662e-001 -9.249488e+000 211 232 215
3.440419e+000 -9.168586e-001 -8.824696e+000 111 90 61
-2.028712e-001 -3.274013e-001 -8.952743e+000 208 227 211
-2.051678e-001 -3.326671e-001 -8.926583e+000 208 227 211
-9.307699e-002 -4.536472e-001 -8.663526e+000 103 68 88
3.586512e+000 -9.778261e-001 -8.975363e+000 100 79 59
1.283980e+000 -1.568406e+000 -6.617033e+000 63 59 94
-5.820705e-001 -1.140182e+000 -9.263821e+000 216 207 208
2.475997e+000 -2.403160e+000 -6.623281e+000 109 78 59
8.344374e-001 -2.330492e+000 -7.109183e+000 44 31 49
-2.025580e+000 4.429360e+000 -1.255098e+001 173 164 157
-1.416451e+000 3.507871e+000 -1.161144e+001 97 60 46
-1.419606e+000 2.288525e+000 -1.128362e+001 173 141 91
3.195271e+000 6.480486e-001 -9.385961e+000 104 97 71
3.581255e+000 5.880965e-001 -9.829275e+000 89 59 31
2.950866e-001 -3.631105e-001 -8.042939e+000 80 56 78
1.169633e+000 -1.337279e+000 -6.630067e+000 45 30 71
1.258240e+000 -1.736155e+000 -6.593976e+000 81 70 113
2.408094e+000 -2.323534e+000 -6.433812e+000 46 31 34
3.007553e+000 2.009625e+000 -1.001520e+001 143 127 93
-2.594543e-001 6.311063e-002 -9.121572e+000 87 67 78
-5.168978e-001 2.891425e+000 -1.017857e+001 200 186 139
1.475098e+000 9.684897e-001 -7.952512e+000 157 143 104
-7.595510e-001 9.222694e-001 -1.005199e+001 212 212 214
1.303303e+000 -1.498100e+000 -6.578317e+000 99 104 134
4.825391e-001 -1.859984e+000 -7.306215e+000 75 60 103
6.759699e-001 -8.002281e-001 -7.211489e+000 103 88 122
4.158898e-001 -9.776006e-001 -7.732835e+000 81 71 94
7.818170e-001 -4.656521e-001 -7.322509e+000 82 59 102
8.875546e-001 -1.906416e+000 -6.956130e+000 47 35 83
-3.241839e+001 1.669670e+001 -8.181239e+001 87 68 90
-3.161222e+001 2.264325e+001 -8.139620e+001 108 93 117
-3.138181e+001 1.901127e+001 -8.135038e+001 187 78 94
-2.474308e+001 1.213053e+001 -6.953438e+001 163 171 156
-2.763197e+001 1.837383e+001 -7.333698e+001 134 63 83
-2.529994e+001 2.176647e+001 -7.600981e+001 203 53 72
-2.813531e+001 2.117539e+001 -7.659159e+001 221 63 76
-2.061951e+001 2.023573e+001 -7.576527e+001 205 55 70
-1.531691e+001 -1.215578e+000 -6.682652e+001 32 27 50
-2.697367e+001 1.630614e+001 -7.270212e+001 100 62 115
-2.638034e+001 1.751140e+001 -7.268807e+001 207 209 196
-2.638034e+001 1.751140e+001 -7.268807e+001 207 209 196
-2.480052e+001 1.753209e+001 -7.240064e+001 190 43 53
-2.049088e+001 1.843553e+001 -7.656099e+001 189 43 56
-1.845110e+001 1.252259e+001 -7.265523e+001 176 50 53
-3.522992e+001 1.804613e+001 -8.553250e+001 167 146 101
-2.259165e+001 1.922726e+001 -7.629764e+001 39 28 58
-5.088967e+001 7.887336e+000 -8.833478e+001 63 36 46
-4.981625e+001 3.023350e-001 -8.664504e+001 218 199 195
-3.043503e+001 2.117957e+000 -7.654974e+001 83 49 64
1.843308e-001 6.138813e-001 -8.459702e+000 91 75 81
6.209264e-001 4.068488e-002 -7.665322e+000 74 56 95
7.439216e-001 -7.346483e-001 -7.254397e+000 133 128 151
7.400075e-001 -7.047570e-001 -7.243230e+000 69 58 92
3.965978e-001 -8.277763e-001 -7.762153e+000 167 166 170
1.072868e-001 1.815501e+000 -8.891353e+000 213 224 210
2.915657e+000 1.758988e+000 -9.830104e+000 126 109 76
-1.441483e-001 1.668465e+000 -9.248204e+000 88 71 77
6.906714e-001 -7.469380e-001 -7.324920e+000 63 51 78
-7.984488e-001 1.621628e+000 -1.027023e+001 92 71 87
7.602059e-001 -8.207206e-001 -7.229071e+000 179 191 182
-1.148164e+000 4.687121e+000 -1.148549e+001 163 130 82
-5.232125e-001 3.808621e+000 -1.027403e+001 175 130 84
-1.114294e+000 4.325141e+000 -1.134464e+001 155 124 76
-3.260521e-001 3.274757e+000 -9.883361e+000 149 106 68
-1.281583e-001 2.513115e+000 -9.311481e+000 83 69 61
-1.349500e+000 3.873982e+000 -1.155711e+001 168 160 125
-8.773353e-001 3.312418e+000 -1.068143e+001 141 113 76
-5.738678e-001 3.037549e+000 -1.028160e+001 178 157 92
-3.463807e-001 2.776565e+000 -9.822613e+000 196 171 122
9.166769e-002 1.748219e+000 -8.855221e+000 80 73 74
-9.908349e-001 2.585626e+000 -1.082415e+001 172 131 106
-1.258989e+000 2.617176e+000 -1.115850e+001 161 135 75
-6.136452e-001 2.081843e+000 -1.021810e+001 206 219 207
4.487008e+000 2.019041e-001 -8.424230e+000 180 138 54
-4.885800e-001 1.402255e+000 -9.600810e+000 79 64 73
1.626153e-001 -4.874350e-001 -8.278932e+000 215 219 220
7.078167e-002 -4.432374e-001 -8.463356e+000 93 65 68
1.378274e-001 -5.364312e-001 -8.308780e+000 73 48 68
5.969980e-001 -7.546044e-001 -7.508060e+000 74 60 82
5.969980e-001 -7.546044e-001 -7.508060e+000 74 60 82
5.638491e-001 -7.985980e-001 -7.473491e+000 68 58 82
4.049811e-001 -9.082616e-001 -7.773880e+000 70 53 75
3.321571e-001 -9.061654e-001 -7.844982e+000 58 51 68
4.362623e-001 -1.043870e+000 -7.706225e+000 65 57 81
4.866994e-001 -1.082149e+000 -7.673149e+000 73 56 92
8.098267e-001 -1.314443e+000 -6.703755e+000 60 50 103
-2.914728e-001 3.518151e+000 -9.844057e+000 197 185 133
-1.246711e+000 4.418812e+000 -1.151426e+001 127 112 83
-5.773529e-001 3.737059e+000 -1.034959e+001 120 81 41
-1.682789e+000 4.609458e+000 -1.214525e+001 186 175 147
-1.615769e+000 4.555293e+000 -1.207458e+001 144 130 101
-2.968822e-001 2.755711e+000 -9.608347e+000 190 162 101
2.190520e+000 2.092988e+000 -9.369782e+000 157 143 106
-6.354686e-001 2.984699e+000 -1.039895e+001 170 136 72
-8.659971e-001 3.126526e+000 -1.065079e+001 200 168 115
-9.319664e-001 3.091964e+000 -1.085325e+001 125 81 50
-3.074862e-001 2.374103e+000 -9.656690e+000 80 65 68
2.054317e-001 1.892732e+000 -8.678955e+000 217 220 215
2.054317e-001 1.892732e+000 -8.678955e+000 217 220 215
2.384387e+000 1.832960e+000 -9.457428e+000 150 138 101
3.051873e+000 1.951148e+000 -9.972260e+000 150 134 101
2.747243e+000 1.613739e+000 -9.695214e+000 104 89 58
-1.164616e+000 2.907829e+000 -1.112728e+001 188 155 120
4.607426e+000 2.710417e-001 -8.249906e+000 188 146 60
3.992925e-001 7.967982e-001 -8.070347e+000 75 62 67
-2.700020e-001 1.382666e+000 -9.454318e+000 210 220 208
-1.399278e-001 1.093480e+000 -9.118686e+000 198 223 213
-1.399278e-001 1.093480e+000 -9.118686e+000 198 223 213
1.863619e+000 1.496047e-001 -7.756042e+000 96 78 44
-3.715379e-001 9.618465e-001 -9.468772e+000 101 74 77
-8.116280e-001 1.115591e+000 -1.010926e+001 85 70 81
-7.865889e-001 1.120047e+000 -1.018952e+001 209 204 203
-9.988710e-001 9.993552e-001 -1.034808e+001 91 78 90
6.169968e-001 -4.109723e-001 -7.519554e+000 217 230 227
3.703472e+000 -8.919131e-001 -9.153732e+000 113 95 73
6.214706e-001 -8.839252e-001 -7.441464e+000 69 50 76
-9.050610e-001 4.343953e+000 -1.103829e+001 92 60 39
-8.230137e-001 4.267087e+000 -1.088639e+001 151 116 94
-1.017422e-001 3.159385e+000 -9.355259e+000 191 164 109
-1.477036e+000 4.528769e+000 -1.165359e+001 191 177 150
-1.455656e+000 4.665228e+000 -1.187848e+001 133 116 85
-4.947091e-001 3.734943e+000 -1.028235e+001 155 107 63
-2.385577e-001 3.083816e+000 -9.598152e+000 110 77 46
-1.724962e-001 3.084110e+000 -9.469509e+000 119 86 41
-1.495673e+000 4.266342e+000 -1.181366e+001 145 131 104
-9.714627e-001 3.335708e+000 -1.090813e+001 173 143 91
2.013261e+000 1.940090e+000 -9.193216e+000 119 105 68
-9.012170e-001 3.016248e+000 -1.081046e+001 162 113 82
2.015523e-001 1.703547e+000 -8.636123e+000 76 73 72
2.606643e+000 1.800945e+000 -9.624212e+000 148 134 99
2.904973e+000 1.963324e+000 -9.865883e+000 152 137 104
-1.778337e+000 3.413090e+000 -1.195445e+001 161 127 80
-1.066573e+000 2.723192e+000 -1.094594e+001 170 125 97
-6.505239e-001 2.428322e+000 -1.026813e+001 80 62 70
3.217478e+000 1.555139e+000 -1.007623e+001 56 39 19
4.625900e+000 4.318824e-001 -8.247856e+000 190 150 63
-1.154639e+000 2.564350e+000 -1.102957e+001 112 77 58
-1.654817e+000 2.673480e+000 -1.164470e+001 83 65 79
-9.609603e-001 1.069917e+000 -1.042721e+001 102 88 103
-8.549113e-001 1.056728e+000 -1.024447e+001 211 226 219
1.947353e+000 -2.926384e-001 -7.630139e+000 99 84 49
1.435218e+000 -1.360540e+000 -6.481735e+000 59 47 49
-2.446333e-001 -8.537117e-001 -8.770606e+000 215 231 221
-6.439959e-001 -9.194108e-001 -9.405348e+000 209 218 213
1.309372e+000 -1.751441e+000 -6.584381e+000 63 51 84
-1.322660e+000 4.428441e+000 -1.152012e+001 188 174 147
-1.322660e+000 4.428441e+000 -1.152012e+001 188 174 147
-4.310490e-001 3.589580e+000 -1.012100e+001 198 177 123
-3.922853e-001 3.366092e+000 -1.003151e+001 188 153 112
1.620826e+000 2.491219e+000 -9.125914e+000 156 140 106
-2.212086e+000 4.980675e+000 -1.264393e+001 72 70 81
2.970444e+000 3.076791e+000 -1.065566e+001 129 123 100
2.384421e+000 2.191858e+000 -9.542361e+000 159 146 108
3.836843e+000 1.947186e+000 -9.878179e+000 161 114 56
-1.366402e+000 2.474612e+000 -1.125602e+001 119 85 57
-3.800129e-001 7.811103e-001 -9.491867e+000 94 74 73
-1.104659e+000 2.839782e-001 -1.030245e+001 79 65 83
4.007579e-001 -9.869274e-001 -7.783941e+000 70 66 87
-8.253578e-001 -1.220863e+000 -9.537719e+000 215 231 220
-1.204456e+000 4.444387e+000 -1.128719e+001 191 178 146
-6.629143e-001 3.878838e+000 -1.057045e+001 193 160 107
2.892037e+000 1.901921e+000 -9.824662e+000 142 127 96
-1.196937e+000 2.998387e+000 -1.115425e+001 88 60 56
-1.960894e+000 3.491478e+000 -1.209292e+001 170 164 160
-4.154238e-001 2.003371e+000 -9.821932e+000 207 231 209
2.967422e+000 3.319632e-001 -9.011015e+000 144 128 95
-6.483318e-001 6.184187e-001 -9.872266e+000 97 74 100
-1.108164e+000 6.714533e-001 -1.046964e+001 211 218 215
-2.061967e-001 -5.735673e-001 -8.835823e+000 88 70 82
1.069899e+000 -1.543075e+000 -6.710488e+000 56 44 92
-2.727205e-001 -1.087382e+000 -8.731892e+000 97 57 78
3.418941e-001 2.368172e+000 -8.437807e+000 139 67 91
-2.075034e-001 1.989451e-001 -9.165117e+000 87 71 82
4.435886e-001 -7.336047e-001 -7.656291e+000 86 64 102
1.211428e-001 2.754195e+000 -8.961284e+000 213 226 209
1.534186e+000 1.370453e+000 -8.253242e+000 124 106 73
-9.882444e-001 3.255078e-001 -1.026044e+001 82 73 105
-1.155321e+000 4.132095e+000 -1.134481e+001 193 182 150
-2.788131e-001 2.231592e+000 -9.583856e+000 113 115 104
-2.788131e-001 2.231592e+000 -9.583856e+000 113 115 104
-4.512360e-001 2.089978e+000 -9.889342e+000 216 226 215
-1.858384e-001 1.956139e+000 -9.432540e+000 89 72 82
-1.075706e+000 2.040538e+000 -1.078299e+001 82 59 74
-1.257632e+000 1.909139e+000 -1.097749e+001 96 74 94
6.582033e-001 -2.244574e+000 -7.254400e+000 62 45 77
-1.035540e+000 7.247228e-001 -1.039005e+001 206 206 204
7.867463e-001 -1.443621e+000 -6.831051e+000 54 40 78
-1.185739e+000 1.176876e+000 -1.064169e+001 71 55 66
3.884829e-001 5.906703e-001 -8.092116e+000 88 70 89
-1.737520e+000 4.518703e+000 -1.215327e+001 176 164 139
-6.164602e-001 3.364173e+000 -1.029275e+001 193 173 118
-2.595096e-001 2.860129e+000 -9.729048e+000 135 86 49
-3.387929e-001 2.187363e+000 -9.751305e+000 99 82 82
1.303590e-001 1.358417e+000 -8.709181e+000 81 70 72
-6.396882e-001 1.062853e+000 -9.960721e+000 210 210 210
-1.131696e+000 8.280391e-001 -1.054698e+001 106 95 99
-7.735312e-001 6.007506e-001 -1.000062e+001 201 213 211
-7.111363e-001 6.337774e-001 -9.915984e+000 207 214 213
-1.147861e+000 4.131342e-001 -1.042516e+001 90 78 86
6.955251e-001 -7.044780e-001 -7.341162e+000 195 209 217
4.760482e-001 -7.658355e-001 -7.656313e+000 71 53 80
6.100517e-001 -8.351875e-001 -7.457611e+000 172 171 189
6.100517e-001 -8.351875e-001 -7.457611e+000 172 171 189
6.508449e-001 -8.659447e-001 -7.405814e+000 76 59 93
1.055506e-003 -9.200937e-001 -8.386833e+000 63 50 63
-1.505000e+000 4.305844e+000 -1.187000e+001 128 116 90
2.078113e+000 2.112569e+000 -9.300934e+000 156 143 108
2.255735e+000 2.139972e+000 -9.446033e+000 105 91 54
-5.574245e-001 2.580584e+000 -1.011931e+001 198 179 137
-9.891974e-001 2.574970e+000 -1.080746e+001 176 132 106
-7.213060e-001 2.097726e+000 -1.029860e+001 96 77 70
-1.152969e+000 1.570805e+000 -1.077998e+001 209 222 208
-2.498877e-001 1.004748e+000 -9.276729e+000 212 230 219
4.605690e-001 -1.076995e-001 -7.929703e+000 81 60 82
-3.133628e-001 1.795038e-001 -9.216359e+000 192 228 214
7.125993e-001 -5.934833e-001 -7.325809e+000 183 187 197
-2.845842e-001 3.033519e+000 -9.718504e+000 134 97 50
2.493010e+000 1.770262e+000 -9.519451e+000 86 75 43
-1.768214e+000 3.237910e+000 -1.190904e+001 152 121 74
-1.768214e+000 3.237910e+000 -1.190904e+001 152 121 74
3.674706e+000 1.251414e+000 -9.959262e+000 102 66 32
-7.703309e-001 1.494771e+000 -1.020020e+001 205 230 216
-7.703309e-001 1.494771e+000 -1.020020e+001 205 230 216
5.084575e-001 -8.822587e-001 -7.614963e+000 71 55 81
-1.659752e-001 2.389735e+000 -9.427046e+000 88 71 64
1.613854e-001 1.897306e+000 -8.737026e+000 89 79 82
-7.002940e-001 3.332491e+000 -1.052806e+001 200 179 130
1.660027e-001 3.458853e-002 -8.399479e+000 88 71 94
-7.546162e-001 2.765576e+000 -1.046005e+001 107 63 50
-3.869905e+001 2.529680e+001 -9.024637e+001 60 47 35
-2.517421e+001 3.087652e+001 -8.083739e+001 159 109 116
-2.830433e+001 2.785343e+001 -8.010925e+001 203 49 62
-3.008603e+001 2.579977e+001 -8.098323e+001 207 60 68
-2.441676e+001 3.118089e+001 -8.141343e+001 175 40 47
-2.177107e+001 2.766570e+001 -8.036843e+001 198 50 63
-2.177107e+001 2.766570e+001 -8.036843e+001 198 50 63
-1.990386e+001 2.350339e+001 -8.074272e+001 199 57 66
-2.335884e+001 3.088958e+001 -8.109255e+001 191 87 94
-2.461229e+001 3.046499e+001 -8.195590e+001 213 114 118
-2.357901e+001 3.041433e+001 -8.222921e+001 170 35 48
-2.785176e+001 2.761773e+001 -8.073767e+001 193 107 119
-2.168407e+001 2.459270e+001 -8.004043e+001 205 56 67
-1.856654e+001 2.232621e+001 -7.862152e+001 192 144 152
-2.557585e+001 2.527666e+001 -7.898968e+001 62 54 108
-1.971307e+001 2.448223e+001 -8.092895e+001 185 137 145
-2.341145e+001 2.933622e+001 -8.265448e+001 211 131 127
-2.104270e+001 2.746283e+001 -8.172163e+001 196 125 124
-3.082198e+001 2.544383e+001 -8.081655e+001 153 173 178
-2.362247e+001 2.378244e+001 -7.956656e+001 69 60 104
-2.388721e+001 2.692341e+001 -7.884556e+001 67 49 79
-2.961758e+001 2.796008e+001 -8.111706e+001 203 121 116
-3.153458e+001 2.760239e+001 -8.061128e+001 57 37 39
-2.417779e+001 2.525102e+001 -7.925847e+001 223 186 97
-2.414018e+001 2.521305e+001 -7.914454e+001 223 186 97
-1.647975e-001 2.142695e+000 -9.458365e+000 74 62 66
8.831970e-002 1.839411e+000 -8.869336e+000 74 63 68
-2.476136e-001 -3.711111e-002 -9.106280e+000 222 232 226
-2.476136e-001 -3.711111e-002 -9.106280e+000 222 232 226
7.142971e-001 -5.904584e-001 -7.336671e+000 213 214 226
7.058233e-001 -6.230317e-001 -7.322539e+000 60 43 75
-3.578493e-001 2.250638e+000 -9.783864e+000 85 67 73
3.082088e+000 1.678584e+000 -9.987504e+000 97 83 56
4.985195e-001 2.873902e-001 -7.872761e+000 105 66 71
-6.119301e-001 7.215691e-001 -9.827767e+000 78 63 72
4.297341e+000 -5.027498e-002 -8.733450e+000 165 118 48
-2.491428e-001 3.536788e+000 -9.742977e+000 203 184 133
-1.532989e-001 3.177650e+000 -9.540985e+000 136 102 57
-9.793556e-001 3.083059e+000 -1.092425e+001 117 76 57
4.517653e-001 6.715481e-001 -8.042730e+000 209 226 220
-7.271316e-001 1.527184e+000 -1.022635e+001 64 51 78
-4.623183e-001 1.125518e+000 -9.676811e+000 106 77 82
5.465938e-001 -2.551559e-002 -7.770463e+000 69 60 71
-5.078761e-001 8.314728e-001 -9.666164e+000 102 76 90
-2.482930e-001 3.095526e-001 -9.225995e+000 216 221 219
7.469584e-001 -7.223613e-001 -7.288033e+000 155 157 156
3.447613e-001 -6.766254e-001 -7.865461e+000 65 50 74
-9.048670e-001 2.360602e-001 -1.011658e+001 93 80 93
5.400706e-001 -9.514246e-001 -7.562622e+000 175 176 193
3.533071e-001 -9.207497e-001 -7.831337e+000 172 186 192
3.762867e-001 -1.050493e+000 -7.785661e+000 70 60 88
-2.823306e-001 -8.524795e-001 -8.847149e+000 213 230 222
-1.286213e+000 5.118791e+000 -1.170462e+001 119 105 84
-5.240625e-001 3.567305e+000 -1.026759e+001 202 180 130
-4.743660e-001 3.354287e+000 -1.019317e+001 125 87 53
-6.908983e-001 3.232093e+000 -1.055362e+001 143 111 55
-3.695400e-001 2.612848e+000 -9.884479e+000 76 57 80
3.180907e+000 1.872428e+000 -1.009926e+001 140 126 97
3.180907e+000 1.872428e+000 -1.009926e+001 140 126 97
-8.360068e-001 3.107267e+000 -1.068387e+001 152 109 62
-7.257687e-002 1.198783e+000 -9.023373e+000 96 67 81
5.542593e-001 -9.797796e-004 -7.755305e+000 205 228 211
7.372218e-001 -6.221850e-001 -7.308897e+000 68 55 98
6.576419e-001 -6.802918e-001 -7.406710e+000 180 183 196
7.167471e-001 -7.598499e-001 -7.307525e+000 172 172 188
5.926532e-001 -6.765589e-001 -7.500293e+000 183 183 195
6.138377e-001 -6.916528e-001 -7.467487e+000 64 55 84
-9.461205e-001 5.021265e-001 -1.011185e+001 84 63 78
-6.092708e-001 1.598184e-001 -9.698622e+000 86 70 73
-6.092708e-001 1.598184e-001 -9.698622e+000 86 70 73
4.944841e-001 -7.619855e-001 -7.623925e+000 183 186 195
4.778046e-001 -7.564489e-001 -7.676367e+000 68 54 83
6.031390e-001 -9.067965e-001 -7.460935e+000 164 182 187
-9.180981e-001 2.856668e-001 -1.007637e+001 90 76 96
-1.012301e+000 2.496624e-001 -1.031257e+001 75 78 106
3.254886e-001 -9.354303e-001 -7.849267e+000 200 206 218
3.749779e-001 -9.321952e-001 -7.787058e+000 61 57 80
-5.990381e-001 -1.160718e+000 -9.192030e+000 207 209 208
-1.269275e+000 5.216158e+000 -1.169498e+001 195 207 192
-1.557817e-001 3.302895e+000 -9.539488e+000 137 92 60
-5.151658e-001 3.969041e+000 -1.037213e+001 154 111 64
-1.464793e+000 4.718190e+000 -1.194473e+001 130 116 89
9.453693e-003 1.708736e+000 -9.034844e+000 216 227 221
1.724990e-001 6.202714e-001 -8.472002e+000 77 60 79
-7.985671e-001 1.619036e+000 -1.026628e+001 70 56 71
-1.252910e+000 1.662288e+000 -1.092572e+001 210 229 225
1.072493e-001 -1.536531e-001 -8.471498e+000 206 231 215
1.072493e-001 -1.536531e-001 -8.471498e+000 206 231 215
5.490970e-001 -8.124669e-001 -7.540193e+000 187 204 204
6.598215e-001 -9.067240e-001 -7.389359e+000 195 202 209
1.094436e-001 -5.565382e-001 -8.313356e+000 209 231 211
4.996413e-001 -9.878692e-001 -7.612698e+000 58 49 80
4.364063e+000 7.225636e-001 -8.881617e+000 197 153 66
3.616230e-001 1.216882e+000 -8.346296e+000 72 56 63
3.616230e-001 1.216882e+000 -8.346296e+000 72 56 63
-4.390452e-001 1.423225e+000 -9.775391e+000 81 63 78
5.317144e-001 -8.453562e-001 -7.554196e+000 77 62 98
4.187544e-001 -1.058577e+000 -7.696781e+000 65 55 88
3.511511e-001 -1.104322e+000 -7.823559e+000 79 62 89
-2.135528e-001 -1.055183e+000 -8.665263e+000 76 56 78
-7.097561e-001 -1.010312e+000 -9.439803e+000 204 224 217
-7.110341e-001 -1.008249e+000 -9.444260e+000 204 224 217
7.624080e-001 -2.372094e+000 -7.236198e+000 26 13 30
-2.299141e+000 5.201060e+000 -1.290409e+001 81 85 97
-2.233641e-001 2.168472e+000 -9.511732e+000 208 230 217
1.671276e-001 1.134992e+000 -8.612663e+000 212 234 215
1.681911e-001 1.143897e+000 -8.627479e+000 212 234 215
-8.740547e-002 1.082342e+000 -9.058337e+000 97 75 84
-1.590136e+000 2.565657e+000 -1.156250e+001 74 63 78
-1.911253e-001 1.002656e+000 -9.219580e+000 103 61 75
-6.150497e-001 9.322477e-001 -9.881066e+000 107 72 96
-3.075912e-001 1.944969e-001 -9.191437e+000 214 235 221
-9.168442e-001 4.431955e-001 -1.015046e+001 95 73 94
-9.228007e-001 4.555709e-001 -1.017529e+001 95 73 94
-1.149510e+000 4.893977e+000 -1.148664e+001 209 224 203
2.946608e-001 1.723539e+000 -8.524909e+000 72 60 64
-8.193484e-003 1.478844e+000 -9.039053e+000 86 72 95
1.093312e-001 1.237971e+000 -8.732612e+000 88 72 87
6.525874e-001 -5.745831e-001 -7.409022e+000 79 60 93
3.792253e-001 -1.071720e+000 -7.812347e+000 171 180 186
-3.409728e-001 2.506172e+000 -9.788431e+000 78 61 79
-3.409728e-001 2.506172e+000 -9.788431e+000 78 61 79
-1.427748e+000 3.513043e+000 -1.160067e+001 98 67 49
1.713101e-001 1.084369e+000 -8.641578e+000 208 230 218
-2.321599e-001 7.603755e-001 -9.274836e+000 210 229 216
-1.119129e+000 1.581783e+000 -1.073499e+001 213 231 218
1.570074e-001 2.784306e-002 -8.352349e+000 81 65 93
-8.226773e-001 -1.019426e+000 -9.573176e+000 60 48 54
-1.335628e+000 4.093657e+000 -1.164259e+001 191 182 153
-5.593218e-001 2.032202e+000 -1.009700e+001 147 140 140
-1.340419e+000 4.910858e+000 -1.174427e+001 192 181 150
-6.302550e-001 3.586995e+000 -1.039079e+001 179 160 104
-1.612467e+000 4.697460e+000 -1.202905e+001 182 177 148
-2.856139e+001 3.487413e+001 -8.111302e+001 140 112 142
-2.728690e+001 3.460612e+001 -8.096006e+001 216 106 123
-2.560189e+001 3.275999e+001 -8.234514e+001 204 123 122
-2.560189e+001 3.275999e+001 -8.234514e+001 204 123 122
-2.433831e+001 3.233104e+001 -7.903431e+001 177 15 35
-2.726934e-001 3.147211e-001 -9.195366e+000 80 73 78
-1.285966e+000 2.206503e+000 -1.109129e+001 126 93 60
-2.408433e-001 3.149255e+000 -9.688697e+000 113 81 34
7.859998e-001 -1.298823e+000 -6.786585e+000 59 46 91
9.974689e-002 3.462883e+000 -9.247604e+000 61 47 35
-2.186539e-001 3.479285e+000 -9.690726e+000 146 118 73
-3.928564e-001 3.196492e+000 -1.001271e+001 133 96 54
7.421515e-001 -7.369469e-001 -7.263738e+000 175 166 183
6.501206e-001 -8.699972e-001 -7.399991e+000 96 75 127
-1.104308e+000 1.647750e+000 -1.073175e+001 101 95 95
5.231502e-001 -7.949230e-001 -7.572779e+000 187 200 209
1.617850e-001 -4.963492e-001 -8.264633e+000 200 214 213
4.439690e-001 -8.949208e-001 -7.693667e+000 189 198 217
5.210662e-001 -9.673136e-001 -7.592944e+000 201 204 225
5.210662e-001 -9.673136e-001 -7.592944e+000 201 204 225
-3.004476e-002 -9.462276e-001 -8.383206e+000 67 57 75
-1.119485e-001 -9.829859e-001 -8.498214e+000 221 220 228
-4.888793e-001 -1.058409e+000 -9.073219e+000 79 59 70
-7.309436e-001 -1.029078e+000 -9.475127e+000 88 54 66
-7.383318e-001 -1.212829e+000 -9.394420e+000 219 212 215
-8.224159e-001 5.380421e+000 -1.109011e+001 154 162 145
-8.616033e-001 5.328478e+000 -1.112057e+001 169 173 158
-6.757644e-001 4.645263e+000 -1.076391e+001 101 65 39
-6.689302e-001 4.492642e+000 -1.061320e+001 101 65 39
-5.564508e-001 3.903919e+000 -1.044172e+001 158 115 69
-1.848195e-001 3.187521e+000 -9.608681e+000 123 89 44
-2.417723e-001 3.185782e+000 -9.722700e+000 116 84 36
-8.407187e-001 4.448998e+000 -1.097651e+001 102 67 47
-8.627085e-001 4.251591e+000 -1.098691e+001 139 107 82
-2.869244e-001 3.029669e+000 -9.720677e+000 132 98 51
2.994953e-001 1.618212e+000 -8.490605e+000 201 221 215
3.307593e-001 1.593838e+000 -8.452448e+000 59 48 46
-5.433824e-001 3.238089e+000 -1.031794e+001 198 178 127
-8.440862e-002 2.543361e+000 -9.420706e+000 76 58 71
-1.620038e-001 2.417711e+000 -9.442324e+000 80 57 58
-1.429401e+000 4.365587e+000 -1.180794e+001 136 120 95
-1.515421e+000 4.371034e+000 -1.194676e+001 146 130 105
-2.704223e-001 2.173971e+000 -9.612644e+000 72 56 67
-1.398706e+000 3.744457e+000 -1.159443e+001 144 104 68
-8.248506e-001 3.020705e+000 -1.066482e+001 168 123 84
6.164438e-001 3.675975e-003 -7.626070e+000 74 51 96
-1.165047e+000 2.920781e+000 -1.114283e+001 181 143 116
2.054636e-001 4.816580e-001 -8.434476e+000 78 58 67
-5.447833e-001 1.316581e+000 -9.876319e+000 84 60 77
7.148830e-001 -7.682242e-001 -7.293555e+000 197 196 216
7.337488e-001 -8.057044e-001 -7.293951e+000 64 49 88
7.051398e-001 -8.703326e-001 -7.307153e+000 197 197 207
7.051398e-001 -8.703326e-001 -7.307153e+000 197 197 207
1.716484e+000 -1.643407e+000 -6.565682e+000 24 16 31
-7.155568e-001 1.166673e+000 -1.011662e+001 198 219 211
4.722748e-001 -7.896208e-001 -7.616122e+000 84 64 92
4.937925e-001 -7.638495e-001 -7.621156e+000 199 213 218
5.638231e-001 -7.753575e-001 -7.527634e+000 63 52 83
-6.454834e-001 6.899640e-001 -9.855787e+000 203 219 219
5.062850e-001 -8.737691e-001 -7.608231e+000 70 51 83
4.455890e-001 -8.811630e-001 -7.664803e+000 72 54 94
-1.045150e+000 9.519842e-001 -1.051600e+001 206 220 213
-7.169999e-001 6.448817e-001 -9.938770e+000 202 219 215
3.235131e-001 -9.257269e-001 -7.867342e+000 197 207 218
-8.429793e-001 5.498600e-001 -1.006765e+001 194 217 209
-1.113899e+000 3.956106e-001 -1.039275e+001 202 201 214
-1.114996e+000 3.903023e-001 -1.038106e+001 202 201 214
-3.271965e-001 -1.021931e+000 -8.825371e+000 205 224 219
-3.271965e-001 -1.021931e+000 -8.825371e+000 205 224 219
-5.821523e-001 -1.192274e+000 -9.195514e+000 83 60 68
-5.207410e-001 -1.276323e+000 -9.107208e+000 77 60 78
-8.946816e-001 -1.058545e+000 -9.644595e+000 83 54 65
7.748576e-001 -2.408059e+000 -7.243581e+000 32 19 38
-5.823529e-001 3.771338e+000 -1.041674e+001 138 101 56
2.580219e-001 1.828815e+000 -8.566040e+000 206 215 214
-1.258697e+000 4.497730e+000 -1.162360e+001 142 124 98
-2.554554e-001 2.323366e+000 -9.570561e+000 208 225 212
9.393414e-002 1.781896e+000 -8.946061e+000 77 71 75
2.187002e-002 1.760583e+000 -9.017818e+000 74 69 73
1.563082e-001 1.399664e+000 -8.657624e+000 215 224 221
1.563082e-001 1.399664e+000 -8.657624e+000 215 224 221
-3.553990e-001 2.234802e+000 -9.764302e+000 71 59 68
-8.402953e-002 1.676186e+000 -9.167482e+000 83 71 79
3.510504e-001 7.931879e-001 -8.176193e+000 75 63 75
-1.697342e+000 4.267005e+000 -1.214806e+001 151 139 115
-9.626193e-002 1.628345e+000 -9.194205e+000 209 227 216
1.330298e-001 1.033509e+000 -8.695943e+000 86 60 77
-1.129674e+000 3.084466e+000 -1.115366e+001 107 70 51
-3.118819e-001 1.466013e+000 -9.514034e+000 77 63 69
-3.282589e-001 1.422353e+000 -9.558758e+000 214 217 212
6.689914e-001 -2.768328e-001 -7.495963e+000 76 55 99
-1.211842e+000 2.511640e+000 -1.108225e+001 141 104 48
7.428309e-001 -7.040107e-001 -7.254780e+000 63 47 93
1.444826e+000 -1.323185e+000 -6.598393e+000 53 39 54
-1.231173e+000 2.394501e+000 -1.105200e+001 168 132 70
-3.780287e-001 9.358083e-001 -9.425641e+000 88 60 72
6.938454e-001 -7.257831e-001 -7.362387e+000 65 52 82
1.772565e+000 -1.667397e+000 -6.483120e+000 88 80 108
-1.425923e+000 2.197549e+000 -1.129316e+001 77 59 85
-7.012900e-001 1.241846e+000 -1.010886e+001 92 72 88
-2.647095e-001 6.962705e-001 -9.296606e+000 88 71 77
-2.647095e-001 6.962705e-001 -9.296606e+000 88 71 77
6.211861e-001 -8.269890e-001 -7.421159e+000 72 56 92
1.704477e+000 -1.637865e+000 -6.531853e+000 89 79 106
-8.490877e-001 1.055894e+000 -1.024790e+001 210 227 221
-7.469150e-001 8.855113e-001 -1.003253e+001 211 226 222
-9.519209e-001 1.044474e+000 -1.037499e+001 97 83 102
9.129160e-002 -4.330914e-001 -8.410753e+000 207 228 221
7.943918e-002 -4.876980e-001 -8.393818e+000 77 52 69
-9.087895e-001 5.208510e-001 -1.014635e+001 195 227 218
-9.087895e-001 5.208510e-001 -1.014635e+001 195 227 218
7.920981e-004 -4.868798e-001 -8.530123e+000 203 224 213
7.920981e-004 -4.868798e-001 -8.530123e+000 203 224 213
-8.959924e-002 -4.989672e-001 -8.647572e+000 84 56 82
-8.725295e-002 -5.473237e-001 -8.650198e+000 204 223 221
-2.414037e-001 -6.627812e-001 -8.851713e+000 204 225 216
-8.489003e-001 -9.046793e-001 -9.617201e+000 76 55 62
-6.190184e-001 -1.187391e+000 -9.238816e+000 214 213 211
8.079088e-001 -2.339107e+000 -7.317173e+000 60 47 65
-8.350008e-001 5.538276e+000 -1.108447e+001 195 208 191
-7.541384e-001 5.239951e+000 -1.098246e+001 190 204 187
-2.556350e-002 3.403958e+000 -9.306949e+000 112 68 45
2.977403e-001 1.978471e+000 -8.546719e+000 209 220 212
-1.341203e+000 5.053333e+000 -1.172548e+001 182 175 149
3.534646e-001 1.575597e+000 -8.329899e+000 212 223 215
3.534646e-001 1.575597e+000 -8.329899e+000 212 223 215
2.571433e-001 1.619019e+000 -8.458203e+000 66 58 60
3.983076e-001 1.341502e+000 -8.263330e+000 198 229 213
-3.845103e-001 2.173036e+000 -9.787128e+000 217 227 218
4.700893e-002 1.042938e+000 -8.819388e+000 214 231 220
4.700893e-002 1.042938e+000 -8.819388e+000 214 231 220
4.466762e-001 2.375867e-001 -7.908537e+000 102 68 98
-7.400339e-001 2.030162e+000 -1.034510e+001 211 229 217
1.488590e-001 5.200780e-001 -8.535440e+000 206 230 216
1.488590e-001 5.200780e-001 -8.535440e+000 206 230 216
-3.553420e-001 8.701857e-001 -9.500853e+000 73 63 63
-3.812787e-001 7.640353e-001 -9.475230e+000 63 63 61
2.191583e-001 -1.025379e-002 -8.372947e+000 203 232 220
6.389248e-001 -7.860955e-001 -7.432646e+000 73 61 91
5.691103e-001 -8.783553e-001 -7.487177e+000 69 59 92
-1.172372e+000 1.532502e+000 -1.080178e+001 83 67 71
-3.678232e-001 -7.004728e-001 -9.048787e+000 84 53 67
-2.063202e-001 -1.016493e+000 -8.674320e+000 78 60 84
-2.671648e-001 -1.085577e+000 -8.710107e+000 90 55 66
-6.732977e-001 -7.687479e-001 -9.414504e+000 79 60 66
-6.257274e-001 -8.719097e-001 -9.380652e+000 78 61 69
-6.253662e-001 -9.430647e-001 -9.351856e+000 219 225 224
-6.243474e-001 -9.448228e-001 -9.348785e+000 219 225 224
9.098979e-001 -2.560641e+000 -7.597867e+000 60 31 43
2.591011e-002 -2.491847e+000 -7.837881e+000 50 39 82
-4.797752e-002 3.155404e+000 -9.318731e+000 191 162 106
-7.713426e-001 4.062028e+000 -1.078435e+001 100 68 54
-5.433387e-001 3.491516e+000 -1.027439e+001 195 174 118
3.202546e-001 1.462557e+000 -8.455724e+000 67 56 58
-5.517875e-002 1.874932e+000 -9.133573e+000 210 228 212
-3.291366e-001 2.313568e+000 -9.736444e+000 218 226 213
-2.371081e+000 5.259150e+000 -1.318472e+001 150 167 175
-4.610976e-003 1.378498e+000 -8.911766e+000 90 71 90
1.274221e-002 1.200529e+000 -8.932918e+000 93 71 97
-1.957785e-001 1.040950e+000 -9.269399e+000 110 68 75
-1.739234e+000 2.958628e+000 -1.178716e+001 71 64 80
-1.308865e+000 2.578972e+000 -1.120405e+001 187 158 100
-8.464020e-001 1.885593e+000 -1.043600e+001 212 231 223
-6.514531e-001 6.111674e-001 -9.859111e+000 86 72 97
-7.944339e-001 5.511955e-001 -1.004711e+001 102 62 88
-6.496490e-001 2.725367e-001 -9.685428e+000 108 74 88
-9.046393e-001 -8.871229e-001 -9.677869e+000 218 233 225
-9.046393e-001 -8.871229e-001 -9.677869e+000 218 233 225
-5.631323e-001 -1.337817e+000 -9.032662e+000 70 62 74
-1.480207e-001 3.452250e+000 -9.605028e+000 121 83 63
-2.135561e+000 4.568413e+000 -1.280164e+001 167 169 158
5.445077e-001 -1.136744e-001 -7.740376e+000 81 66 93
-6.759088e-001 1.512873e+000 -1.000779e+001 77 65 90
-6.817579e-001 1.584246e+000 -1.010932e+001 77 65 90
-4.926958e-001 1.013341e+000 -9.719077e+000 112 72 94
6.017645e-001 -7.270700e-001 -7.466088e+000 145 142 161
3.737286e-001 -5.367610e-001 -7.907208e+000 74 60 95
-8.371491e-001 4.309606e-001 -1.005167e+001 116 76 98
3.800074e-001 -1.078666e+000 -7.800578e+000 198 210 217
1.645743e+000 -2.442676e+000 -7.503828e+000 60 19 59
4.123271e-001 -2.690578e+000 -7.929963e+000 31 11 20
4.123271e-001 -2.690578e+000 -7.929963e+000 31 11 20
-5.943362e-001 4.620507e+000 -1.060451e+001 184 154 94
1.265918e-001 2.737789e+000 -8.948034e+000 208 225 209
-2.981292e-001 3.332922e+000 -9.878726e+000 185 153 110
3.262494e-001 7.314620e-001 -8.206758e+000 205 225 213
2.773672e-001 6.975165e-001 -8.322375e+000 80 68 79
3.697828e-001 5.358973e-001 -8.192603e+000 214 231 221
3.697828e-001 5.358973e-001 -8.192603e+000 214 231 221
-8.311517e-001 2.468521e+000 -1.057145e+001 182 152 100
-2.698650e-002 8.813166e-001 -8.930188e+000 206 230 217
3.435291e-001 -1.242691e-001 -8.144479e+000 82 61 99
-1.428868e+000 2.296679e+000 -1.129348e+001 171 140 89
-1.428868e+000 2.296679e+000 -1.129348e+001 171 140 89
-1.116789e+000 1.571977e+000 -1.072586e+001 216 228 219
4.685459e-001 -1.027891e+000 -7.686085e+000 67 54 81
8.381489e-001 -2.349822e+000 -7.349969e+000 55 41 66
-9.488833e-001 5.129659e+000 -1.115911e+001 194 202 188
-1.161631e+000 5.058934e+000 -1.152936e+001 195 206 190
2.306730e-001 4.990382e-001 -8.357907e+000 210 230 221
3.968556e-001 -4.747910e-001 -7.826905e+000 206 226 215
1.584408e+000 -1.692230e+000 -6.794102e+000 51 43 56
8.157398e-001 -1.939314e+000 -7.239452e+000 79 77 116
8.033977e-001 -1.961315e+000 -7.194031e+000 79 77 116
6.630413e-001 -2.222691e+000 -7.230251e+000 50 33 75
1.657360e+000 -2.539316e+000 -7.752758e+000 79 26 103
9.311956e-002 7.502079e-001 -8.619392e+000 80 64 92
-1.191700e+000 2.499936e+000 -1.109299e+001 186 152 97
-1.173797e+000 2.410627e+000 -1.097806e+001 186 152 97
1.409013e+000 -1.305769e+000 -6.634604e+000 110 98 134
6.111780e-001 -5.111179e-001 -7.548390e+000 66 51 82
-9.215770e-001 1.476731e+000 -1.057362e+001 72 58 75
2.544000e-001 -9.164514e-001 -7.999935e+000 76 55 97
2.544000e-001 -9.164514e-001 -7.999935e+000 76 55 97
-4.569911e-002 -7.961643e-001 -8.497091e+000 123 111 127
1.699142e+000 -2.501805e+000 -7.625065e+000 157 127 191
1.699142e+000 -2.501805e+000 -7.625065e+000 157 127 191
1.722044e-001 2.487063e-001 -8.411618e+000 71 60 90
-8.764100e-001 -3.873023e-001 -9.751139e+000 214 233 224
-7.081938e-002 -1.137055e+000 -8.527577e+000 77 64 108
1.503149e+000 -2.568959e+000 -7.631112e+000 60 27 51
-3.762010e+001 -1.841469e+001 -6.827436e+001 86 79 72
-4.260525e+001 -2.159192e+001 -7.345704e+001 168 151 143
-4.047163e+001 -2.130340e+001 -7.164925e+001 162 156 144
-3.968863e+001 -2.083251e+001 -7.034411e+001 162 156 144
-3.500097e+001 -2.867551e+001 -7.108776e+001 116 121 115
-2.906584e+001 -2.836965e+001 -7.093823e+001 122 134 124
-2.541895e+001 -2.898827e+001 -7.424110e+001 123 129 115
-2.575517e+001 -2.985274e+001 -6.997792e+001 178 182 165
-2.962040e+001 -2.776147e+001 -7.426119e+001 121 130 117
-2.721669e+001 -3.223711e+001 -6.810561e+001 107 115 100
-3.146418e+001 -2.842320e+001 -6.982817e+001 170 180 169
-3.030901e+001 -2.896968e+001 -6.901902e+001 96 78 65
-2.507870e+001 -2.975456e+001 -7.117564e+001 95 72 64
-2.348911e+001 -2.918543e+001 -7.218733e+001 155 165 156
-3.001724e+001 -3.151296e+001 -6.746562e+001 154 152 139
-2.842568e+001 -3.138260e+001 -6.750289e+001 193 197 182
-2.842568e+001 -3.138260e+001 -6.750289e+001 193 197 182
-2.909990e+001 -1.337672e+001 -5.821846e+001 45 39 35
-2.773269e+001 -2.847112e+001 -7.093373e+001 177 187 176
-3.454073e+001 -2.930907e+001 -6.563028e+001 130 132 121
-2.487445e+001 -3.265485e+001 -7.020683e+001 44 39 39
-3.007478e+001 -3.027006e+001 -6.836144e+001 207 219 208
-3.266757e+001 -2.866664e+001 -6.825387e+001 89 80 74
-3.283291e+001 -3.096588e+001 -6.788056e+001 188 188 178
-2.597774e+001 -3.129250e+001 -6.977028e+001 197 206 187
-1.075489e+000 2.653618e+000 -1.093642e+001 105 58 48
-1.381801e+000 2.445602e+000 -1.129034e+001 105 69 37
6.899347e-002 2.253110e+000 -9.009484e+000 94 64 81
3.145901e+000 1.513069e+000 -9.945399e+000 45 29 12
-5.679429e-001 3.034278e+000 -1.029252e+001 183 146 87
2.064967e+000 2.707252e+000 -9.612824e+000 125 104 73
-1.190626e+000 1.611478e+000 -1.077297e+001 80 67 68
1.963550e+000 8.062938e-001 -8.208829e+000 128 108 71
