ply
format ascii 1.0
element face 0
property list uchar int vertex_indices
element vertex 886
property float x
property float y
property float z
property uchar diffuse_red
property uchar diffuse_green
property uchar diffuse_blue
end_header
1.954679e+000 -7.449279e-003 -7.581611e+000 93 76 46
2.301246e+000 -9.280607e-002 -7.912795e+000 80 62 26
2.301246e+000 -9.280607e-002 -7.912795e+000 80 62 26
2.884676e+000 -2.231332e-001 -8.425571e+000 78 56 25
-8.495461e-001 -9.455820e-001 -9.246596e+000 74 63 69
1.598132e+000 -3.956112e-002 -7.190460e+000 76 60 34
2.960628e+000 -3.325685e-001 -8.395266e+000 82 61 32
4.336499e+000 -5.693699e-001 -8.707066e+000 161 131 67
1.665640e+000 -2.757877e-001 -7.143316e+000 71 55 25
1.665640e+000 -2.757877e-001 -7.143316e+000 71 55 25
1.730772e+000 -3.435572e-001 -7.170498e+000 124 103 60
1.907275e+000 -3.288431e-001 -7.351201e+000 72 58 31
2.277051e+000 -4.080942e-001 -7.676510e+000 62 45 15
2.422391e+000 -4.416076e-001 -7.798372e+000 101 81 46
2.594761e+000 -4.672222e-001 -7.926277e+000 78 62 29
3.511029e+000 -6.704185e-001 -8.713431e+000 62 46 23
2.665488e+000 -6.870362e-001 -7.778070e+000 75 58 31
-1.227032e+000 2.626979e+000 -1.074511e+001 145 85 64
-1.232725e+000 2.627107e+000 -1.076438e+001 145 85 64
3.232183e+000 2.930281e+000 -1.063930e+001 50 32 12
1.309001e+000 2.221888e+000 -8.444086e+000 121 97 53
3.294494e+000 2.005245e+000 -9.940196e+000 52 31 17
2.171221e+000 1.610286e+000 -8.989085e+000 94 79 38
3.188125e+000 1.427772e+000 -9.820441e+000 105 84 53
-8.795647e-001 1.963745e-001 -9.708098e+000 208 225 211
-8.795647e-001 1.963745e-001 -9.708098e+000 208 225 211
8.146372e-001 4.986379e-001 -6.937130e+000 184 181 190
2.010515e-001 -1.725851e-001 -7.852875e+000 85 65 95
1.469416e+000 2.235110e-001 -7.163382e+000 71 60 32
-3.915334e-001 -6.330918e-001 -8.664783e+000 78 59 78
2.488852e+000 -5.059925e-001 -7.795700e+000 132 110 71
-1.143128e-001 2.977842e+000 -8.986598e+000 212 224 206
4.387537e+000 1.817770e+000 -9.014514e+000 214 177 89
-2.220584e-001 1.122241e+000 -8.849743e+000 100 73 92
-6.475440e-001 7.844837e-001 -9.439277e+000 80 60 69
-4.522964e-001 9.257643e-001 -9.176708e+000 92 66 69
-2.788983e-001 9.509288e-001 -8.891236e+000 209 223 208
4.346613e+000 7.554026e-001 -8.951638e+000 188 147 78
3.839143e-002 4.539440e-002 -8.188164e+000 88 72 99
1.995967e-001 -9.828318e-001 -7.540662e+000 105 88 112
1.027937e-001 3.146632e+000 -8.834042e+000 135 69 71
-1.787790e-001 2.511238e+000 -9.047486e+000 84 61 71
3.093602e+000 2.353955e+000 -1.009284e+001 88 69 39
1.794980e-002 1.311932e+000 -8.488457e+000 87 65 78
1.619420e+000 6.701481e-002 -7.287990e+000 129 110 65
-1.030930e+000 -1.530097e+000 -9.365469e+000 70 56 63
-4.085144e-001 2.874973e+000 -9.625287e+000 89 62 55
-1.124954e+000 2.268383e+000 -1.055842e+001 76 61 59
9.908125e-001 2.660349e+000 -8.522142e+000 123 102 55
4.336012e+000 6.885729e-001 -9.170115e+000 159 128 67
-9.542884e-001 1.981577e+000 -1.035050e+001 111 74 88
1.136296e+000 2.204515e+000 -8.390307e+000 124 102 55
1.401034e+000 9.500302e-001 -7.694820e+000 129 108 61
9.538934e-002 1.907472e+000 -8.404663e+000 221 225 219
2.571480e+000 1.810736e+000 -9.470940e+000 61 45 11
-8.786223e-001 1.102932e+000 -9.922580e+000 203 215 211
2.966115e-001 -9.174022e-001 -7.479707e+000 63 49 70
5.747781e-001 -8.702521e-001 -7.072821e+000 176 171 191
2.089780e-001 -1.181784e+000 -7.605905e+000 64 56 80
4.286339e-001 -1.038967e+000 -7.280596e+000 199 205 216
2.185085e-001 -1.216573e+000 -7.600073e+000 199 200 211
2.080658e+000 2.685277e+000 -9.430615e+000 133 119 80
4.473937e-001 -3.255315e-003 -7.457500e+000 198 228 205
-9.593783e-001 -1.212429e+000 -9.347379e+000 211 216 215
-9.593783e-001 -1.212429e+000 -9.347379e+000 211 216 215
-1.076383e+000 3.297899e+000 -1.065586e+001 138 101 49
-8.432274e-002 1.910115e+000 -8.766318e+000 215 226 212
-4.557857e-001 1.662750e+000 -9.324331e+000 84 63 66
-1.163578e+000 3.264982e+000 -1.080705e+001 120 71 53
2.576635e+000 2.504057e+000 -9.716429e+000 131 116 72
-1.367121e+000 2.614134e+000 -1.092777e+001 193 171 123
3.015329e+000 1.852268e+000 -9.839239e+000 117 102 68
-1.703378e-002 -8.916346e-001 -7.963003e+000 85 64 90
-6.832967e-001 1.169000e+000 -9.609568e+000 101 66 79
2.365825e+000 1.713671e+000 -9.253111e+000 117 100 57
-1.358356e+000 2.330229e+000 -1.085775e+001 177 135 111
1.784792e+000 2.506452e+000 -9.127300e+000 123 105 68
1.613105e+000 2.326018e+000 -8.897113e+000 123 104 65
-5.168890e-001 -1.016683e+000 -8.702659e+000 179 181 179
-2.368561e-002 -6.773072e-001 -8.104079e+000 161 138 159
-1.100092e+000 -1.771969e+000 -9.457140e+000 180 178 183
-1.330052e+000 3.154941e+000 -1.105524e+001 179 130 100
2.068034e+000 2.775391e+000 -9.466984e+000 126 108 70
1.784406e+000 2.466322e+000 -9.102516e+000 85 69 35
3.194366e+000 1.496340e+000 -9.848816e+000 90 73 47
2.097176e+000 1.260277e+000 -8.540680e+000 61 45 9
1.575220e+000 2.062873e-001 -7.342425e+000 58 40 20
1.026142e+000 3.117067e+000 -8.724388e+000 126 105 61
2.791550e+000 3.351212e+000 -1.045588e+001 62 59 38
1.590372e+000 2.854925e+000 -9.182815e+000 126 106 64
1.585831e+000 2.298019e+000 -8.857880e+000 119 99 62
1.821181e+000 2.374761e+000 -9.067620e+000 118 106 70
1.854019e+000 2.107232e+000 -8.983442e+000 69 53 19
-9.811169e-001 9.341472e-001 -1.000333e+001 214 225 217
1.427093e+000 1.264906e+000 -7.884483e+000 69 64 41
1.509971e+000 2.701595e+000 -9.021968e+000 68 53 22
1.975416e+000 2.806966e+000 -9.421003e+000 118 99 61
2.066791e+000 2.105144e+000 -9.152076e+000 127 108 69
1.809271e+000 1.410783e+000 -8.394180e+000 74 58 24
1.591170e+000 4.560237e-001 -7.501822e+000 124 102 61
-1.844463e+000 2.720610e+000 -1.155006e+001 80 63 78
1.422196e+000 2.543319e+000 -8.852721e+000 131 109 66
2.320037e+000 2.005899e+000 -9.321911e+000 82 62 35
1.792830e-002 5.342834e-001 -8.310458e+000 210 224 209
1.280605e+000 1.130388e+000 -7.699231e+000 123 101 60
2.136112e+000 2.538649e+000 -9.431742e+000 85 72 30
2.734610e+000 2.405415e+000 -9.832003e+000 140 122 85
-8.875785e-001 2.206937e+000 -1.024298e+001 119 81 86
-5.928011e-001 2.196509e+000 -9.957742e+000 94 76 76
1.856472e+000 1.490996e+000 -8.569355e+000 133 115 77
2.707341e+000 1.780404e+000 -9.623098e+000 110 96 61
3.282993e+000 1.677555e+000 -1.002008e+001 98 83 57
-8.809443e-001 1.544204e-001 -9.691861e+000 200 217 201
2.750530e-001 -2.130702e-001 -7.917330e+000 83 66 98
-9.847251e-001 -1.560999e-001 -9.585187e+000 69 58 62
1.417069e+000 -5.956742e-001 -6.696821e+000 119 103 69
5.295333e-001 -7.900701e-001 -7.086384e+000 86 79 102
-7.753252e-001 -1.423768e+000 -8.921203e+000 207 205 206
-7.753252e-001 -1.423768e+000 -8.921203e+000 207 205 206
1.698517e+000 2.372832e+000 -9.042081e+000 95 83 43
2.007760e+000 2.449975e+000 -9.305805e+000 87 71 37
2.099051e+000 2.562820e+000 -9.434582e+000 88 77 36
2.601474e+000 2.725146e+000 -9.970294e+000 135 117 81
1.213825e+000 2.049501e+000 -8.291605e+000 136 118 70
1.754525e+000 2.317863e+000 -9.058684e+000 137 123 84
2.000010e+000 2.334702e+000 -9.244614e+000 91 77 38
2.145293e+000 2.428589e+000 -9.388466e+000 88 73 35
2.508336e+000 2.586696e+000 -9.784328e+000 136 121 76
2.718713e+000 2.545264e+000 -9.914062e+000 132 114 72
2.697875e+000 2.435149e+000 -9.835638e+000 135 120 79
2.709028e+000 2.454358e+000 -9.888873e+000 135 120 79
2.759139e+000 2.476794e+000 -9.903497e+000 99 81 46
2.827723e+000 2.461490e+000 -9.939356e+000 89 71 35
2.836729e+000 2.473066e+000 -9.969967e+000 89 71 35
-1.004543e+000 2.718782e+000 -1.050693e+001 151 102 51
1.846254e+000 2.045756e+000 -9.008703e+000 130 112 72
2.639949e+000 2.195032e+000 -9.687009e+000 127 114 71
1.314676e-001 1.732130e+000 -8.395632e+000 224 226 215
3.135287e+000 2.306314e+000 -1.013054e+001 92 81 51
2.225091e+000 1.706826e+000 -9.135024e+000 75 60 21
2.370451e+000 1.724382e+000 -9.280679e+000 130 115 74
2.639771e+000 1.879500e+000 -9.614965e+000 124 110 67
2.726132e+000 1.658144e+000 -9.569479e+000 122 107 71
2.708274e+000 1.633517e+000 -9.585458e+000 78 59 26
2.868878e+000 1.677247e+000 -9.678700e+000 69 54 25
2.951882e+000 1.665795e+000 -9.752204e+000 65 49 25
1.624603e+000 1.066170e+000 -7.936028e+000 98 88 61
3.076584e+000 1.526897e+000 -9.804712e+000 73 57 31
3.328147e+000 1.455666e+000 -9.958401e+000 38 21 6
-5.097662e-002 1.065758e+000 -8.538942e+000 91 59 80
-5.097662e-002 1.065758e+000 -8.538942e+000 91 59 80
1.680735e+000 7.983009e-001 -7.804948e+000 142 120 79
-1.408502e+000 1.576447e+000 -1.072967e+001 83 66 70
-6.160553e-001 8.896606e-001 -9.421426e+000 221 230 221
2.370976e+000 4.468323e-001 -8.314761e+000 84 66 26
2.881569e+000 5.467467e-001 -8.869764e+000 82 63 30
2.881569e+000 5.467467e-001 -8.869764e+000 82 63 30
3.401460e+000 5.444967e-001 -9.386915e+000 70 53 26
1.556269e+000 1.508370e-001 -7.255778e+000 126 114 76
3.402295e+000 3.823897e-001 -9.312099e+000 107 87 56
3.402295e+000 3.823897e-001 -9.312099e+000 107 87 56
-9.033992e-001 2.551586e-001 -9.711534e+000 93 59 60
3.529118e+000 -4.678764e-002 -9.162724e+000 72 55 29
5.606307e-001 -7.269156e-001 -7.073776e+000 73 60 88
2.640857e+000 -7.648337e-001 -7.728359e+000 128 109 69
5.142634e-001 -9.606059e-001 -7.132306e+000 169 172 181
-2.199959e-001 -1.041783e+000 -8.222364e+000 196 206 198
1.749626e-001 -1.091208e+000 -7.611399e+000 73 56 90
3.639045e-001 -1.066539e+000 -7.382352e+000 80 65 89
4.445487e-001 -1.073116e+000 -7.217140e+000 66 51 84
4.442088e-001 -1.073041e+000 -7.218696e+000 66 51 84
-9.760052e-001 -1.174299e+000 -9.316684e+000 71 60 62
-9.827514e-001 -1.348610e+000 -9.287519e+000 206 206 202
-8.733327e-001 -1.491800e+000 -9.068037e+000 199 206 204
-4.160454e-001 2.476897e+000 -9.505295e+000 97 75 77
1.688548e+000 2.324638e+000 -9.029156e+000 131 118 77
1.848056e+000 2.291087e+000 -9.116025e+000 124 109 66
1.963765e+000 2.255535e+000 -9.141925e+000 130 115 74
1.974777e+000 2.207788e+000 -9.152654e+000 98 78 46
2.179242e+000 2.370442e+000 -9.406100e+000 134 120 76
2.267462e+000 2.300925e+000 -9.436650e+000 77 62 23
2.540978e+000 2.546973e+000 -9.752357e+000 136 123 81
-1.407295e+000 3.096898e+000 -1.125936e+001 132 78 56
-3.554190e-001 2.403941e+000 -9.388452e+000 199 195 190
1.691236e+000 2.054321e+000 -8.881515e+000 80 66 31
2.270906e+000 2.231452e+000 -9.409807e+000 134 120 74
2.355072e+000 2.205930e+000 -9.452407e+000 129 114 72
2.520912e+000 2.193211e+000 -9.576049e+000 133 115 77
2.670641e+000 2.265980e+000 -9.762782e+000 88 72 36
2.670641e+000 2.265980e+000 -9.762782e+000 88 72 36
-1.054677e+000 2.713576e+000 -1.062961e+001 163 97 54
-1.054677e+000 2.713576e+000 -1.062961e+001 163 97 54
2.033091e+000 2.035669e+000 -9.195007e+000 129 114 72
2.103244e+000 2.019253e+000 -9.228579e+000 131 116 73
2.061337e+000 1.948663e+000 -9.148239e+000 78 62 29
2.113943e+000 1.948236e+000 -9.197778e+000 87 70 37
2.168175e+000 1.935412e+000 -9.233659e+000 82 63 30
2.445557e+000 2.059745e+000 -9.445119e+000 124 109 68
2.445557e+000 2.059745e+000 -9.445119e+000 124 109 68
2.513065e+000 1.999390e+000 -9.495824e+000 84 68 34
2.513065e+000 1.999390e+000 -9.495824e+000 84 68 34
2.578685e+000 1.990744e+000 -9.536933e+000 96 80 44
2.647510e+000 2.120874e+000 -9.660193e+000 91 75 39
2.652877e+000 2.125463e+000 -9.673771e+000 91 75 39
2.815698e+000 2.037088e+000 -9.759126e+000 129 110 73
2.026322e+000 1.679113e+000 -8.925706e+000 124 109 66
2.113778e+000 1.642529e+000 -8.966855e+000 126 111 68
3.070392e+000 1.974307e+000 -9.896992e+000 121 103 71
-3.042517e-001 1.740740e+000 -9.147587e+000 212 227 209
1.033312e-001 1.533173e+000 -8.372082e+000 218 221 211
2.509084e+000 1.753104e+000 -9.430230e+000 67 52 17
1.497785e+000 1.082007e+000 -7.808122e+000 90 84 49
3.066504e+000 1.444532e+000 -9.724625e+000 119 99 72
3.218651e+000 1.455332e+000 -9.900965e+000 113 97 72
-6.948556e-001 1.408422e+000 -9.737082e+000 216 229 215
1.767296e+000 8.677261e-001 -7.916610e+000 134 117 74
2.071027e+000 8.977690e-001 -8.229365e+000 133 115 79
2.044457e+000 7.498993e-001 -8.115750e+000 87 69 31
2.043326e+000 7.468354e-001 -8.104174e+000 87 69 31
2.284377e+000 6.865403e-001 -8.334737e+000 99 80 40
2.769622e+000 9.461789e-001 -9.024793e+000 87 80 46
2.419390e+000 5.893749e-001 -8.414113e+000 132 116 73
2.808120e+000 6.302897e-001 -8.857079e+000 134 116 76
1.847199e+000 3.959558e-001 -7.706140e+000 130 113 70
2.219217e+000 4.188732e-001 -8.135637e+000 136 115 68
2.605494e+000 3.844087e-001 -8.507698e+000 105 89 53
2.768910e+000 5.355338e-001 -8.769448e+000 129 111 70
3.014491e+000 6.123601e-001 -9.018273e+000 91 75 41
1.598361e+000 1.345191e-001 -7.308523e+000 97 81 47
3.336348e+000 3.396125e-001 -9.228321e+000 77 60 30
2.944796e+000 1.962975e-001 -8.744403e+000 89 72 42
2.940708e+000 1.938157e-001 -8.729373e+000 89 72 42
1.938580e+000 -9.335074e-002 -7.571016e+000 124 109 68
2.782532e+000 4.471035e-002 -8.475169e+000 128 110 74
3.426692e+000 -1.867794e-002 -9.085538e+000 74 58 32
2.162674e+000 -1.973269e-001 -7.757359e+000 94 80 45
2.162674e+000 -1.973269e-001 -7.757359e+000 94 80 45
2.990488e+000 -1.488164e-001 -8.569168e+000 80 64 31
3.114393e+000 -1.697194e-001 -8.702313e+000 77 60 28
4.381181e+000 -7.345774e-001 -8.474806e+000 141 111 49
-3.025381e-001 -6.246228e-001 -8.529404e+000 204 219 210
-2.069695e-001 -5.560196e-001 -8.399973e+000 193 223 210
-7.837502e-002 -6.481527e-001 -8.157628e+000 199 226 203
2.379021e+000 -7.161727e-001 -7.520797e+000 124 108 70
5.468132e-001 -8.607820e-001 -7.026118e+000 63 51 78
3.965572e-001 -9.300770e-001 -7.319809e+000 189 192 197
2.908426e-001 -1.058546e+000 -7.439113e+000 56 49 68
-4.943086e-001 -1.101985e+000 -8.579005e+000 100 70 74
-4.493847e-001 -1.099440e+000 -8.526373e+000 195 201 195
-5.393624e-001 -1.156501e+000 -8.663922e+000 178 196 183
-9.783700e-001 3.101788e+000 -1.049340e+001 124 74 51
1.616448e+000 2.318925e+000 -8.917297e+000 123 111 69
1.296356e+000 2.088671e+000 -8.449696e+000 131 113 67
2.854216e+000 2.579955e+000 -1.007847e+001 129 113 79
2.846614e+000 2.563787e+000 -1.003798e+001 129 113 79
2.000347e+000 2.067833e+000 -9.119821e+000 95 79 43
-7.308170e-002 1.989838e+000 -8.803634e+000 88 77 90
2.318174e+000 2.027178e+000 -9.364255e+000 94 78 44
2.701456e+000 2.122114e+000 -9.702721e+000 86 71 34
2.714844e+000 2.143218e+000 -9.761506e+000 86 71 34
2.774465e+000 2.154309e+000 -9.723114e+000 132 117 76
2.876324e+000 2.063302e+000 -9.780150e+000 95 77 39
-1.894484e+000 2.791670e+000 -1.178017e+001 75 52 72
-1.289750e+000 2.600251e+000 -1.088199e+001 140 84 63
2.973008e+000 2.014415e+000 -9.855956e+000 122 106 70
3.251801e+000 2.090541e+000 -1.009453e+001 119 102 73
3.153853e+000 1.893704e+000 -9.946102e+000 69 52 24
2.870605e+000 1.796843e+000 -9.700837e+000 79 63 38
3.135111e+000 1.761591e+000 -9.920427e+000 68 53 27
-1.341281e+000 1.932029e+000 -1.078915e+001 207 220 208
-6.022855e-001 1.540847e+000 -9.602159e+000 75 60 65
-1.242389e-002 1.193166e+000 -8.451265e+000 207 226 203
-1.242389e-002 1.193166e+000 -8.451265e+000 207 226 203
3.360937e+000 1.409008e+000 -9.947668e+000 106 90 68
-1.537988e+000 1.765182e+000 -1.101289e+001 211 228 212
-1.208583e+000 1.683373e+000 -1.051024e+001 216 227 214
1.436000e+000 7.624467e-001 -7.514203e+000 84 69 27
-8.499870e-001 1.351415e+000 -9.921639e+000 87 73 82
-1.021963e+000 1.227901e+000 -1.014595e+001 87 69 83
-1.101556e+000 1.172116e+000 -1.024576e+001 84 67 82
1.610060e+000 5.075850e-001 -7.551818e+000 76 60 26
2.039498e+000 4.551223e-001 -7.961983e+000 130 112 66
-1.298680e+000 1.027721e+000 -1.045452e+001 96 81 95
1.666240e+000 3.279087e-001 -7.504588e+000 126 111 71
1.572888e+000 2.418603e-001 -7.363860e+000 129 112 69
1.782740e+000 3.527041e-001 -7.614159e+000 96 77 45
2.506205e+000 4.067872e-001 -8.427117e+000 90 74 38
-7.098807e-001 6.147861e-001 -9.579408e+000 206 229 209
-2.560324e-002 4.748579e-001 -8.288373e+000 207 230 209
1.651619e+000 2.063004e-001 -7.422145e+000 128 114 67
1.757737e+000 1.271451e-001 -7.477674e+000 82 73 31
1.992833e+000 2.595869e-001 -7.813746e+000 130 116 67
-8.264790e-001 5.426329e-001 -9.756135e+000 211 231 212
1.813182e+000 -3.923884e-003 -7.468277e+000 104 86 48
1.813182e+000 -3.923884e-003 -7.468277e+000 104 86 48
2.361539e+000 1.040461e-001 -8.130077e+000 99 81 43
2.403873e+000 1.423245e-001 -8.169894e+000 121 103 59
2.403873e+000 1.423245e-001 -8.169894e+000 121 103 59
9.709546e-002 5.157721e-002 -8.073434e+000 79 61 87
1.740437e+000 -1.462208e-001 -7.371201e+000 125 110 69
1.988625e+000 -3.719780e-002 -7.670385e+000 96 82 47
2.598634e+000 -2.807752e-002 -8.255840e+000 124 109 66
2.129551e+000 -2.531964e-001 -7.690411e+000 125 110 68
2.002826e+000 -3.278127e-001 -7.506003e+000 125 112 68
2.880486e+000 -3.996373e-001 -8.326354e+000 121 106 65
2.537909e+000 -4.441756e-001 -7.936739e+000 123 106 63
-1.074508e-001 -5.062522e-001 -8.268297e+000 201 221 205
-5.681726e-001 -9.570923e-001 -8.799595e+000 206 211 208
-7.294230e-001 -1.438190e+000 -8.876334e+000 69 55 69
6.695611e-001 -1.523275e+000 -6.437254e+000 47 34 79
1.765336e+000 -1.711145e+000 -6.105740e+000 47 42 82
-2.313076e+000 3.804754e+000 -1.237900e+001 176 166 156
-2.236740e+000 3.800102e+000 -1.246664e+001 100 68 53
-1.162667e+000 3.015011e+000 -1.078577e+001 162 112 85
-2.437083e-002 2.050801e+000 -8.696831e+000 90 78 84
1.606899e+000 1.948605e+000 -8.676554e+000 133 116 70
-1.297406e-001 1.084116e+000 -8.677517e+000 208 226 207
4.215681e+000 1.039931e+000 -9.131460e+000 172 135 65
1.689673e+000 4.315277e-001 -7.585350e+000 118 103 64
-5.588772e-001 8.709811e-001 -9.374610e+000 95 77 77
2.016540e+000 3.549289e-001 -7.889357e+000 133 115 66
-5.833801e-001 6.839725e-001 -9.384117e+000 213 227 210
1.949793e+000 3.091818e-002 -7.633936e+000 131 115 68
2.272915e+000 4.544783e-002 -8.000657e+000 126 108 65
1.912394e+000 -3.523578e-002 -7.570411e+000 92 77 38
1.665508e+000 -3.105703e-001 -7.180570e+000 88 73 42
2.084475e+000 -4.007535e-001 -7.548010e+000 79 64 34
2.190638e+000 -3.612575e-001 -7.695982e+000 125 108 62
-3.903675e-001 -3.115729e-001 -8.837628e+000 79 63 76
1.002419e-001 -3.702619e-001 -7.895550e+000 68 51 77
5.244200e-001 -4.896443e-001 -7.222394e+000 77 58 85
-5.706218e-001 -5.622371e-001 -8.933261e+000 209 229 202
-5.679499e-001 -5.638764e-001 -8.910279e+000 209 229 202
-2.879523e-001 -5.588929e-001 -8.561577e+000 94 67 88
-1.218754e-001 -6.097698e-001 -8.189075e+000 133 82 111
-5.052327e-001 -7.304903e-001 -8.754319e+000 88 70 78
-9.896303e-001 -8.521043e-001 -9.441145e+000 210 227 210
-9.896303e-001 -8.521043e-001 -9.441145e+000 210 227 210
-6.825127e-001 -8.529259e-001 -9.058515e+000 88 68 73
-5.120010e-001 -9.249442e-001 -8.756128e+000 96 66 73
-9.687445e-001 -1.053446e+000 -9.400050e+000 71 54 62
-7.693254e-001 -9.111781e-001 -9.194409e+000 79 68 74
4.124897e-001 -9.784401e-001 -7.280242e+000 72 62 85
4.124897e-001 -9.784401e-001 -7.280242e+000 72 62 85
-7.971018e-001 -1.480151e+000 -8.915848e+000 74 59 71
-1.325145e+000 3.252787e+000 -1.107354e+001 109 69 57
2.182492e+000 2.291454e+000 -9.345391e+000 123 109 62
-2.144291e+000 3.442920e+000 -1.216365e+001 159 125 87
1.236602e-001 1.787765e+000 -8.335193e+000 73 56 56
3.270473e+000 1.974303e+000 -9.910306e+000 67 47 22
1.677537e-001 1.501982e+000 -8.267966e+000 82 66 68
1.107995e-001 1.452187e+000 -8.366490e+000 79 65 65
1.202337e+000 1.274926e+000 -7.717770e+000 137 122 83
4.186327e+000 1.170777e+000 -9.169408e+000 176 147 71
-1.364835e+000 1.624259e+000 -1.069677e+001 212 231 217
-9.149743e-001 1.556396e+000 -1.008189e+001 79 67 79
-1.463173e+000 1.613422e+000 -1.083374e+001 93 73 82
2.098563e-001 8.380637e-001 -7.954106e+000 90 64 79
-7.967992e-001 6.493155e-001 -9.663880e+000 92 68 90
-8.829428e-001 6.158031e-001 -9.802649e+000 89 70 89
-5.002755e-001 2.134849e-001 -9.083981e+000 208 226 210
5.592761e-002 -6.569043e-002 -8.217489e+000 203 224 205
3.380848e-001 -1.619737e-001 -7.680148e+000 202 227 206
3.380848e-001 -1.619737e-001 -7.680148e+000 202 227 206
2.540143e-001 -6.060539e-001 -7.575425e+000 199 226 207
-4.369543e-003 -8.623343e-001 -8.014005e+000 96 65 96
-3.887674e-001 -1.009447e+000 -8.533784e+000 82 65 79
-1.085264e+000 -1.140370e+000 -9.538306e+000 76 59 67
-9.706492e-001 -1.413595e+000 -9.267778e+000 67 52 55
-9.691260e-001 -1.412758e+000 -9.249193e+000 67 52 55
1.726958e+000 -1.742989e+000 -6.216665e+000 66 58 95
-1.014947e+000 2.977779e+000 -1.055440e+001 111 70 50
-1.144692e+000 2.548237e+000 -1.072743e+001 197 179 121
-9.362987e-001 1.728268e+000 -1.017050e+001 85 74 93
-4.385525e-001 9.041053e-001 -9.135915e+000 111 75 82
4.271003e+000 5.897350e-001 -9.022273e+000 151 117 57
-4.603651e-001 7.790242e-001 -9.184176e+000 209 225 207
1.539353e+000 2.893803e-001 -7.367057e+000 129 112 68
3.428105e-001 -9.059014e-001 -7.382879e+000 143 145 153
7.257365e-001 -1.479934e+000 -6.465610e+000 144 149 173
-1.602092e+000 3.068404e+000 -1.130382e+001 95 62 55
-4.045896e-001 2.202183e+000 -9.537079e+000 100 76 81
-1.433367e+000 1.719738e+000 -1.086602e+001 209 226 210
2.910009e-001 1.587881e-001 -7.772891e+000 205 226 209
1.667209e+000 5.198208e-002 -7.393489e+000 128 112 63
3.849443e-001 7.272561e-002 -7.655211e+000 155 153 160
1.368564e-001 -9.488289e-001 -7.695223e+000 77 57 94
-6.737698e-001 2.194905e+000 -9.805726e+000 217 218 208
-1.170422e+000 2.267133e+000 -1.064189e+001 81 62 59
-1.045982e-001 9.451963e-001 -8.733324e+000 93 72 99
-1.045982e-001 9.451963e-001 -8.733324e+000 93 72 99
1.569720e+000 -1.180091e+000 -6.582597e+000 24 18 22
-5.875565e-001 1.893694e+000 -9.703666e+000 94 72 84
1.414740e+000 3.478297e-001 -7.312437e+000 128 111 67
4.848951e-001 8.906582e-002 -7.495087e+000 85 60 91
4.337825e+000 -1.801989e+000 -8.245573e+000 89 58 29
8.387690e-003 -1.132138e+000 -7.632283e+000 81 59 98
7.171843e-001 4.400956e-001 -6.924360e+000 126 72 106
4.402490e-001 -3.049695e-001 -7.446412e+000 105 101 106
3.389938e+000 1.553811e+000 -9.559003e+000 77 47 21
-1.180566e+000 3.183572e+000 -1.082295e+001 132 72 51
-1.926045e+000 3.026340e+000 -1.162198e+001 163 125 77
-1.617266e+000 2.888137e+000 -1.132881e+001 125 92 53
-3.858024e-001 2.950107e+000 -9.481594e+000 88 61 51
-7.620326e-001 2.801529e+000 -1.007669e+001 194 174 129
-7.047598e-001 2.761898e+000 -1.000211e+001 202 174 145
-1.581528e+000 2.211228e+000 -1.115948e+001 85 66 85
-1.294442e+000 1.946704e+000 -1.073198e+001 82 66 73
4.547350e-002 2.236853e+000 -8.494460e+000 127 101 112
3.991327e+000 2.303140e+000 -9.509856e+000 157 123 47
-8.354000e-001 3.250612e+000 -1.028866e+001 213 175 110
-1.309311e+000 2.977073e+000 -1.095862e+001 197 145 117
-9.323947e-001 3.048890e+000 -1.041974e+001 195 143 102
-9.833559e-001 2.840841e+000 -1.048316e+001 199 162 118
2.938505e+000 3.367090e+000 -1.058290e+001 92 80 58
-1.474204e+000 2.731690e+000 -1.111393e+001 174 144 95
-1.297002e+000 2.743583e+000 -1.090369e+001 106 59 53
-6.686090e-001 2.754253e+000 -9.951153e+000 107 76 85
-9.434914e-001 2.600443e+000 -1.034036e+001 204 181 136
2.067846e+000 2.678924e+000 -9.371094e+000 126 111 72
1.829888e+000 2.438737e+000 -9.123081e+000 61 41 16
2.670027e+000 1.758987e+000 -9.513068e+000 114 94 63
2.670027e+000 1.758987e+000 -9.513068e+000 114 94 63
2.404731e+000 1.144354e+000 -8.744130e+000 123 108 72
4.272071e+000 -2.551438e-001 -8.760145e+000 135 95 36
2.294487e+000 3.463875e+000 -1.003303e+001 83 69 43
2.875644e+000 3.616074e+000 -1.064077e+001 118 94 68
2.800152e+000 3.506083e+000 -1.051916e+001 114 92 64
1.858091e+000 3.282523e+000 -9.554547e+000 123 108 68
1.771118e+000 2.991463e+000 -9.361180e+000 124 105 65
2.289546e+000 2.986858e+000 -9.711543e+000 121 98 66
1.724658e+000 2.840908e+000 -9.246977e+000 128 110 78
-1.012528e+000 1.790946e+000 -1.025422e+001 218 220 215
3.924123e+000 2.456790e+000 -9.777028e+000 150 117 48
2.845543e+000 1.732956e+000 -9.627828e+000 106 89 62
2.981819e+000 1.711404e+000 -9.733605e+000 108 91 63
4.162573e+000 1.917786e+000 -9.214611e+000 217 178 99
2.714974e+000 1.389835e+000 -9.269805e+000 123 97 66
4.091072e+000 1.540200e+000 -9.384482e+000 167 129 58
2.106026e+000 1.246749e+000 -8.572557e+000 89 71 36
-1.339817e+000 2.139592e-001 -1.030131e+001 214 225 218
2.639641e+000 1.093370e+000 -8.942592e+000 120 101 69
3.244572e+000 7.758351e-002 -8.981647e+000 122 99 67
3.244572e+000 7.758351e-002 -8.981647e+000 122 99 67
-1.890022e-001 -1.101810e+000 -8.275778e+000 85 66 89
8.766570e-001 3.336712e+000 -8.638072e+000 93 70 39
2.660935e+000 3.647908e+000 -1.045429e+001 118 98 62
2.853097e+000 3.674497e+000 -1.065769e+001 67 47 23
2.853097e+000 3.674497e+000 -1.065769e+001 67 47 23
1.762900e+000 3.397102e+000 -9.551763e+000 117 98 65
2.597769e+000 3.604289e+000 -1.040809e+001 84 58 33
2.597769e+000 3.604289e+000 -1.040809e+001 84 58 33
1.669823e+000 3.069910e+000 -9.321163e+000 127 107 72
1.929487e+000 3.040345e+000 -9.474517e+000 128 110 74
2.178569e+000 3.167929e+000 -9.717790e+000 76 55 26
2.261232e+000 3.200157e+000 -9.833112e+000 117 94 61
2.516641e+000 3.141300e+000 -1.004823e+001 118 98 61
3.019876e+000 3.180867e+000 -1.055953e+001 68 53 34
2.174560e+000 3.063273e+000 -9.676267e+000 76 56 23
2.604150e+000 3.064008e+000 -1.007549e+001 83 62 35
3.945384e+000 3.153667e+000 -9.779574e+000 200 164 86
-1.272458e+000 2.337232e+000 -1.079165e+001 72 56 68
-3.875196e-001 2.568175e+000 -9.458228e+000 88 68 70
3.154473e+000 2.872670e+000 -1.055226e+001 74 57 37
4.024498e+000 3.041066e+000 -9.808191e+000 172 131 55
-1.649358e-001 2.379040e+000 -8.936392e+000 213 209 205
1.923193e+000 2.373193e+000 -9.115184e+000 124 106 68
1.612085e+000 2.231120e+000 -8.837847e+000 84 67 37
2.549784e+000 2.330294e+000 -9.564359e+000 92 76 43
-2.107803e-001 1.814313e+000 -8.961639e+000 210 222 211
2.368088e+000 2.118326e+000 -9.350515e+000 69 49 24
2.211289e+000 1.961592e+000 -9.220575e+000 124 104 64
2.637391e+000 2.024894e+000 -9.517395e+000 125 107 71
2.637391e+000 2.024894e+000 -9.517395e+000 125 107 71
2.976727e+000 1.844689e+000 -9.750273e+000 117 94 60
2.501806e+000 1.682498e+000 -9.334141e+000 110 96 59
3.294161e+000 1.618091e+000 -9.944965e+000 45 30 14
1.798298e+000 1.610226e+000 -8.567135e+000 76 60 34
2.522248e+000 1.574513e+000 -9.276311e+000 117 96 56
1.685667e+000 1.377421e+000 -8.273471e+000 125 105 68
2.458165e+000 1.331091e+000 -8.972779e+000 125 106 66
2.542475e+000 1.415937e+000 -9.133298e+000 133 115 79
1.445264e+000 1.329369e+000 -7.980738e+000 118 102 68
1.445264e+000 1.329369e+000 -7.980738e+000 118 102 68
2.930281e+000 1.250949e+000 -9.353611e+000 121 101 67
3.092467e+000 1.266662e+000 -9.534141e+000 79 59 28
2.259985e+000 1.086855e+000 -8.540478e+000 127 110 69
2.726952e+000 9.879027e-001 -8.946939e+000 117 99 59
1.760297e+000 9.773242e-001 -7.962536e+000 128 110 71
2.110324e+000 8.484243e-001 -8.216757e+000 88 69 35
2.513281e+000 1.224297e-001 -8.289099e+000 126 106 68
-8.580463e-002 -6.883534e-001 -8.255596e+000 209 228 216
3.545244e+000 -5.848116e-001 -8.871662e+000 69 49 24
1.803385e+000 3.328305e+000 -9.544955e+000 68 61 44
2.070097e+000 3.297026e+000 -9.720874e+000 74 67 46
2.508031e+000 3.196864e+000 -1.005615e+001 79 71 52
-1.750922e+000 2.446539e+000 -1.139617e+001 176 143 92
1.982888e+000 2.977586e+000 -9.490865e+000 71 56 27
1.982888e+000 2.977586e+000 -9.490865e+000 71 56 27
2.082161e+000 2.961365e+000 -9.542314e+000 111 93 61
-4.410328e-001 2.525546e+000 -9.492248e+000 219 221 210
1.157045e+000 2.727264e+000 -8.651193e+000 125 104 58
1.834139e+000 2.827940e+000 -9.306614e+000 126 104 66
1.091607e+000 2.494795e+000 -8.395138e+000 59 42 19
2.086650e+000 2.515634e+000 -9.309867e+000 92 73 40
2.287449e+000 2.490035e+000 -9.452351e+000 88 71 37
2.287449e+000 2.490035e+000 -9.452351e+000 88 71 37
2.796447e+000 2.557262e+000 -9.891848e+000 124 100 67
2.785144e+000 2.477468e+000 -9.812808e+000 124 105 63
-1.006887e+000 1.617472e+000 -1.018194e+001 215 228 215
2.087629e+000 2.286036e+000 -9.207098e+000 94 73 47
2.406872e+000 2.243648e+000 -9.395415e+000 118 99 66
1.746206e+000 2.041602e+000 -8.865313e+000 129 110 70
1.917388e+000 2.024861e+000 -8.973266e+000 122 104 66
2.326902e+000 2.074175e+000 -9.330734e+000 124 102 65
2.974941e+000 2.155195e+000 -9.806411e+000 82 63 39
3.795064e+000 2.175976e+000 -9.764821e+000 150 115 57
1.791368e+000 1.977606e+000 -8.860134e+000 94 78 45
3.024886e+000 2.024741e+000 -9.801476e+000 83 60 30
3.123144e+000 2.005978e+000 -9.873992e+000 82 59 34
1.309831e+000 1.856468e+000 -8.190542e+000 128 107 64
1.837911e-001 1.575843e+000 -8.211249e+000 213 222 211
2.677965e+000 1.594891e+000 -9.439652e+000 69 51 29
1.630014e+000 1.389114e+000 -8.217161e+000 121 106 67
2.488088e+000 1.377102e+000 -9.032880e+000 75 56 26
1.859159e+000 1.298991e+000 -8.362898e+000 88 67 40
2.791341e+000 1.279076e+000 -9.244191e+000 122 100 63
1.392817e+000 1.193145e+000 -7.804680e+000 89 81 66
2.935764e+000 7.720916e-001 -9.031236e+000 61 59 38
3.356952e+000 7.280934e-001 -9.445902e+000 100 83 53
2.970069e+000 4.764282e-001 -8.919942e+000 123 97 62
2.008489e+000 5.245476e-001 -7.977795e+000 83 69 34
2.519311e+000 4.073925e-001 -8.437293e+000 84 65 33
2.519311e+000 4.073925e-001 -8.437293e+000 84 65 33
2.844289e+000 3.960979e-001 -8.753330e+000 121 97 60
2.894997e+000 4.362098e-001 -8.826477e+000 92 71 41
2.894997e+000 4.362098e-001 -8.826477e+000 92 71 41
3.037465e+000 4.076461e-001 -8.953891e+000 92 70 39
3.075599e+000 2.881286e-001 -8.916204e+000 89 66 42
1.928329e+000 4.913355e-001 -7.867002e+000 126 104 62
2.414873e+000 2.572626e-001 -8.263530e+000 125 108 65
2.346936e+000 2.152634e-001 -8.164651e+000 92 72 37
3.218959e+000 -1.697909e-002 -8.890004e+000 116 89 52
1.636570e+000 2.668831e-001 -7.452617e+000 80 62 38
1.767119e+000 1.874508e-001 -7.544797e+000 124 106 68
3.430867e+000 -1.844348e-001 -9.027636e+000 110 84 57
1.961044e+000 1.097605e-001 -7.722087e+000 131 109 68
3.026918e+000 -1.504107e-001 -8.640044e+000 99 83 57
3.137280e+000 -1.849422e-001 -8.747888e+000 68 52 27
3.242020e+000 -1.978688e-001 -8.815012e+000 72 55 29
-1.253743e-001 -7.190659e-001 -8.217234e+000 112 73 98
2.585117e+000 -1.743890e-001 -8.200104e+000 92 71 40
2.695817e+000 -2.622226e-001 -8.280604e+000 129 110 68
2.751616e+000 -3.168405e-001 -8.271055e+000 89 67 35
-4.786968e-001 2.385342e+000 -9.494530e+000 107 89 93
2.169218e+000 2.314499e+000 -9.285566e+000 124 105 63
2.152121e+000 2.229033e+000 -9.225301e+000 130 108 64
1.663187e+000 2.013334e+000 -8.741002e+000 62 44 21
1.569555e+000 1.830690e+000 -8.497078e+000 62 45 19
1.569555e+000 1.830690e+000 -8.497078e+000 62 45 19
3.140665e+000 1.748090e+000 -9.846726e+000 64 47 24
1.430811e+000 7.617759e-001 -7.508712e+000 81 61 37
1.792223e+000 5.280685e-001 -7.732169e+000 118 102 60
1.831162e+000 5.671082e-001 -7.797774e+000 92 74 50
2.259035e+000 4.678681e-001 -8.192196e+000 93 76 43
2.821438e+000 3.259795e-001 -8.713780e+000 94 73 42
1.594083e+000 3.884749e-001 -7.479531e+000 73 57 32
2.220469e+000 1.280210e-001 -8.007852e+000 92 73 41
2.220469e+000 1.280210e-001 -8.007852e+000 92 73 41
2.144010e+000 -8.801081e-002 -7.819822e+000 100 82 46
2.144010e+000 -8.801081e-002 -7.819822e+000 100 82 46
8.426037e-001 3.264968e+000 -8.646860e+000 126 103 63
1.796331e-002 5.241376e-001 -8.328781e+000 213 225 211
4.444133e+000 7.826549e-001 -8.849882e+000 220 194 101
-3.343047e-001 3.116159e+000 -9.230023e+000 205 185 135
2.300279e+000 1.768655e+000 -9.226700e+000 125 103 63
1.631358e+000 4.260407e-002 -7.340266e+000 127 103 62
1.199313e+000 1.473086e+000 -7.829419e+000 122 103 60
3.634339e-001 1.533603e+000 -8.146384e+000 70 55 62
2.063641e+000 2.927213e+000 -9.577308e+000 167 153 119
-1.346452e+000 4.467175e+000 -1.143536e+001 139 106 56
-7.280825e-001 3.854501e+000 -1.063574e+001 120 86 46
-5.879169e-001 3.465294e+000 -9.951452e+000 127 90 46
1.749606e+000 2.647208e+000 -9.241379e+000 160 146 111
1.911707e+000 2.611819e+000 -9.304929e+000 158 145 110
2.154568e+000 2.598479e+000 -9.468053e+000 158 145 110
-1.469687e+000 4.122880e+000 -1.122161e+001 169 154 125
1.802915e+000 2.359254e+000 -9.112720e+000 104 91 57
2.135255e+000 2.369715e+000 -9.348041e+000 157 144 109
2.135255e+000 2.369715e+000 -9.348041e+000 157 144 109
2.453651e+000 2.335708e+000 -9.526746e+000 118 104 69
2.527347e+000 2.381394e+000 -9.667331e+000 120 106 71
4.694379e+000 1.527159e+000 -8.636042e+000 196 156 68
-1.701943e+000 4.030314e+000 -1.162989e+001 184 163 122
-1.010495e+000 3.394133e+000 -1.067016e+001 164 130 69
-2.835585e-001 2.611595e+000 -9.227274e+000 79 63 67
1.595559e+000 1.854322e+000 -8.597516e+000 107 93 54
1.325203e+000 1.526328e+000 -8.007662e+000 116 102 63
2.297580e+000 2.230549e+000 -9.424818e+000 151 137 100
2.459844e+000 2.242173e+000 -9.528952e+000 109 95 60
2.636121e+000 2.264381e+000 -9.646414e+000 149 135 100
2.670767e+000 2.159153e+000 -9.657642e+000 152 139 104
-1.371815e+000 3.675555e+000 -1.126912e+001 151 119 76
-6.345256e-001 2.772444e+000 -9.880237e+000 178 161 127
1.309882e-001 1.718765e+000 -8.367643e+000 219 225 221
1.225045e+000 1.377044e+000 -7.812513e+000 113 102 72
2.783105e+000 2.108514e+000 -9.753974e+000 106 91 58
2.723180e+000 2.008932e+000 -9.617927e+000 151 136 102
3.139672e+000 2.010264e+000 -9.942601e+000 111 96 63
3.130370e+000 1.985087e+000 -9.974710e+000 151 136 103
3.188451e+000 1.975646e+000 -1.002066e+001 143 126 96
-1.228394e+000 3.176126e+000 -1.088499e+001 168 118 93
2.457732e+000 1.780482e+000 -9.418311e+000 97 84 49
2.621355e+000 1.800152e+000 -9.544613e+000 144 131 97
-1.413368e+000 2.926620e+000 -1.113336e+001 162 114 91
1.732599e+000 8.856244e-001 -7.905643e+000 163 148 109
1.732599e+000 8.856244e-001 -7.905643e+000 163 148 109
1.894177e+000 9.207064e-001 -8.108860e+000 120 104 70
3.103165e+000 1.583766e+000 -9.849389e+000 135 124 93
3.277286e+000 1.593956e+000 -1.007059e+001 66 51 28
3.346097e+000 1.631409e+000 -1.000040e+001 108 89 65
9.266348e-001 4.189591e-001 -6.930853e+000 53 39 51
1.593182e+000 5.684288e-001 -7.591183e+000 154 139 106
1.633954e+000 5.696877e-001 -7.620638e+000 150 136 98
1.948880e+000 7.823355e-001 -8.053322e+000 112 96 60
2.101842e+000 8.289711e-001 -8.263901e+000 156 142 99
2.031750e+000 7.022014e-001 -8.089536e+000 150 138 96
2.473676e+000 8.688481e-001 -8.628505e+000 126 114 88
2.473676e+000 8.688481e-001 -8.628505e+000 126 114 88
-1.045513e+000 2.057927e+000 -1.044639e+001 101 94 89
-1.045513e+000 2.057927e+000 -1.044639e+001 101 94 89
1.576521e+000 4.692765e-001 -7.526842e+000 153 139 102
1.668912e+000 5.410173e-001 -7.625936e+000 158 144 106
1.887882e+000 5.226288e-001 -7.857128e+000 158 143 99
1.805667e+000 4.156549e-001 -7.701118e+000 157 143 104
1.967762e+000 6.131468e-001 -7.986613e+000 156 144 102
2.019698e+000 6.489179e-001 -8.053826e+000 96 81 46
2.019698e+000 6.489179e-001 -8.053826e+000 96 81 46
2.245375e+000 6.972623e-001 -8.300701e+000 121 107 68
2.241207e+000 6.650882e-001 -8.301706e+000 154 139 98
2.448055e+000 8.176181e-001 -8.578693e+000 155 142 106
2.448055e+000 8.176181e-001 -8.578693e+000 155 142 106
2.405436e+000 6.793840e-001 -8.480780e+000 110 92 54
2.405436e+000 6.793840e-001 -8.480780e+000 110 92 54
2.922069e+000 9.560481e-001 -9.170647e+000 138 131 102
2.627095e+000 7.452625e-001 -8.749426e+000 114 96 62
2.627095e+000 7.452625e-001 -8.749426e+000 114 96 62
2.737830e+000 7.181252e-001 -8.846869e+000 107 93 56
2.885913e+000 8.195356e-001 -9.084118e+000 101 93 68
2.846548e+000 7.320925e-001 -8.949659e+000 148 134 106
-5.120411e-001 1.485091e+000 -9.411850e+000 98 78 72
-5.486516e-001 1.511248e+000 -9.473653e+000 214 217 207
1.448032e-001 7.175026e-001 -8.074545e+000 214 228 218
2.110982e+000 4.753507e-001 -8.079922e+000 153 135 97
2.261164e+000 5.311799e-001 -8.241009e+000 156 143 101
2.219247e+000 4.718320e-001 -8.151454e+000 101 87 49
2.603607e+000 6.123942e-001 -8.627399e+000 112 98 59
2.564494e+000 4.608636e-001 -8.521707e+000 153 141 103
3.103594e+000 6.877111e-001 -9.201146e+000 131 123 96
3.346171e+000 8.446167e-001 -9.530354e+000 133 127 103
3.313545e+000 7.123203e-001 -9.448999e+000 104 98 72
2.067047e+000 1.416797e-001 -7.879390e+000 147 133 94
2.146429e+000 1.136954e-001 -7.940091e+000 150 135 96
2.504325e+000 2.532336e-001 -8.371048e+000 153 135 99
2.504325e+000 2.532336e-001 -8.371048e+000 153 135 99
2.469032e+000 1.945113e-001 -8.293016e+000 93 75 38
2.974662e+000 3.470063e-001 -8.850003e+000 150 134 101
3.109562e+000 4.240930e-001 -9.092480e+000 105 89 56
-9.633393e-001 1.117672e+000 -9.514433e+000 76 60 71
2.228734e+000 8.208604e-002 -7.985655e+000 152 137 98
2.893480e+000 1.599485e-001 -8.696290e+000 153 137 104
3.336120e+000 2.882830e-001 -9.186275e+000 145 130 99
-9.591385e-001 1.204608e+000 -1.004097e+001 211 210 212
2.004947e+000 -2.280467e-001 -7.593511e+000 147 133 96
2.004947e+000 -2.280467e-001 -7.593511e+000 147 133 96
2.135375e+000 -1.409302e-001 -7.796005e+000 151 133 97
2.881376e+000 -7.390791e-002 -8.545805e+000 156 140 107
3.254184e+000 8.534407e-002 -8.993502e+000 138 121 93
3.170571e+000 -5.511856e-003 -8.875907e+000 147 132 100
3.090397e+000 -9.921445e-002 -8.737379e+000 146 130 96
3.090397e+000 -9.921445e-002 -8.737379e+000 146 130 96
3.456629e+000 5.800803e-002 -9.184999e+000 142 125 97
-1.382876e+000 9.336923e-001 -1.056556e+001 203 212 207
5.378382e-001 -3.558652e-001 -7.315550e+000 67 66 84
2.243840e+000 -6.418154e-001 -7.518170e+000 91 77 48
2.243840e+000 -6.418154e-001 -7.518170e+000 91 77 48
2.294500e+000 -6.576672e-001 -7.545414e+000 84 71 39
2.294500e+000 -6.576672e-001 -7.545414e+000 84 71 39
2.530924e+000 -6.005603e-001 -7.839430e+000 91 78 44
2.960884e+000 -5.062993e-001 -8.366336e+000 152 134 101
3.121999e+000 -3.848911e-001 -8.595531e+000 92 76 43
3.121999e+000 -3.848911e-001 -8.595531e+000 92 76 43
3.221809e+000 -3.534165e-001 -8.714239e+000 146 131 98
-1.089139e+000 5.374179e-001 -9.989047e+000 203 210 209
2.810775e+000 -6.880323e-001 -8.038476e+000 156 135 104
3.659874e+000 -5.539479e-001 -9.029557e+000 120 101 77
-1.304983e+000 4.059343e-001 -1.023827e+001 205 205 211
5.634544e-001 -7.958918e-001 -6.987482e+000 62 43 74
5.781622e-001 -7.567159e-001 -7.043297e+000 197 210 219
5.781622e-001 -7.567159e-001 -7.043297e+000 197 210 219
3.119199e+000 -8.708850e-001 -8.260106e+000 136 119 77
5.313075e-001 -7.850450e-001 -7.111490e+000 75 55 89
4.699040e-001 -7.927533e-001 -7.293735e+000 57 52 70
5.189879e-001 -8.773583e-001 -7.158393e+000 71 51 81
6.274366e-001 -9.402942e-001 -6.998881e+000 192 222 208
6.274366e-001 -9.402942e-001 -6.998881e+000 192 222 208
6.475750e-001 -9.162533e-001 -7.038047e+000 65 62 100
3.739415e-001 -8.730863e-001 -7.378341e+000 58 49 74
2.966116e-001 -8.988397e-001 -7.435270e+000 216 217 227
2.252631e-001 -9.914870e-001 -7.515355e+000 60 53 68
2.025043e-001 -9.966074e-001 -7.633219e+000 55 48 68
-6.064959e-001 -8.593347e-001 -8.926903e+000 213 210 207
-6.064959e-001 -8.593347e-001 -8.926903e+000 213 210 207
-5.435952e-001 -9.773567e-001 -8.748637e+000 200 217 206
-3.111139e-001 -1.114124e+000 -8.319044e+000 220 220 225
-2.195964e-001 -1.044545e+000 -8.202413e+000 221 219 224
6.514919e-001 -1.487370e+000 -6.466096e+000 143 142 177
6.514919e-001 -1.487370e+000 -6.466096e+000 143 142 177
1.068833e+000 -1.672489e+000 -6.344184e+000 127 126 158
-8.095533e-001 -1.261690e+000 -9.040985e+000 84 70 67
-7.394378e-001 -1.217306e+000 -8.996522e+000 216 217 215
-9.820602e-001 -1.348912e+000 -9.284533e+000 199 210 206
1.381603e+000 -2.586185e+000 -6.705218e+000 163 142 173
-1.387975e+000 4.388103e+000 -1.149428e+001 173 150 112
1.335205e+000 2.200589e+000 -8.501060e+000 153 137 101
-2.104787e+000 4.792797e+000 -1.244730e+001 152 139 112
-1.575309e+000 4.178114e+000 -1.156997e+001 181 166 130
-7.793504e-001 3.580252e+000 -1.038198e+001 99 72 43
-7.780005e-001 3.304467e+000 -1.020972e+001 153 121 69
-6.424206e-001 3.303991e+000 -1.000215e+001 203 179 130
1.829284e+000 2.169895e+000 -9.036821e+000 157 143 106
-2.167988e+000 4.837360e+000 -1.264705e+001 156 142 116
-2.180929e+000 4.675181e+000 -1.248067e+001 141 127 100
-2.071298e+000 4.428460e+000 -1.227831e+001 147 135 109
-8.079026e-001 3.090762e+000 -1.023433e+001 205 190 134
2.521489e+000 2.193437e+000 -9.576392e+000 157 143 109
2.600174e+000 2.162908e+000 -9.605927e+000 152 138 103
2.568695e+000 2.060850e+000 -9.549706e+000 156 142 105
3.021993e+000 2.195995e+000 -9.971346e+000 110 96 62
-2.124893e+000 4.293740e+000 -1.221903e+001 139 130 101
-2.124893e+000 4.293740e+000 -1.221903e+001 139 130 101
2.486193e+000 1.820620e+000 -9.432002e+000 149 136 104
2.854230e+000 1.867924e+000 -9.695310e+000 147 132 99
2.854230e+000 1.867924e+000 -9.695310e+000 147 132 99
-5.761008e-001 2.438900e+000 -9.776137e+000 83 69 69
2.362435e-001 1.456817e+000 -8.158922e+000 223 228 220
2.362435e-001 1.456817e+000 -8.158922e+000 223 228 220
2.917449e+000 1.875383e+000 -9.770397e+000 146 132 98
2.917449e+000 1.875383e+000 -9.770397e+000 146 132 98
3.306328e+000 1.728635e+000 -1.002578e+001 77 60 36
-6.135312e-001 2.176404e+000 -9.732631e+000 95 87 84
1.025316e-001 1.521292e+000 -8.345888e+000 215 224 216
4.238856e-002 1.467572e+000 -8.440570e+000 219 227 220
2.941912e+000 1.608720e+000 -9.719423e+000 144 129 99
3.052184e+000 1.611475e+000 -9.833228e+000 137 123 94
3.052184e+000 1.611475e+000 -9.833228e+000 137 123 94
9.025459e-001 4.524681e-001 -6.988192e+000 94 81 100
1.672936e+000 7.336228e-001 -7.747986e+000 115 99 66
1.804936e+000 6.884766e-001 -7.836145e+000 122 107 68
1.871833e+000 6.356635e-001 -7.883381e+000 154 140 101
2.343277e+000 7.872844e-001 -8.443677e+000 110 94 60
1.893149e+000 5.611757e-001 -7.864040e+000 115 100 61
1.775172e+000 4.782621e-001 -7.699838e+000 108 93 58
1.753327e+000 4.246781e-001 -7.650154e+000 155 140 101
1.977436e+000 6.568583e-001 -8.008989e+000 110 96 59
1.977436e+000 6.568583e-001 -8.008989e+000 110 96 59
1.934162e+000 5.024030e-001 -7.890031e+000 154 140 95
2.068457e+000 5.686208e-001 -8.060874e+000 149 135 92
2.153861e+000 6.972892e-001 -8.239808e+000 149 135 97
2.117339e+000 5.188690e-001 -8.099581e+000 107 89 51
2.584008e+000 8.059990e-001 -8.739037e+000 155 141 111
1.736387e+000 3.758553e-001 -7.614089e+000 98 80 49
1.736387e+000 3.758553e-001 -7.614089e+000 98 80 49
1.732003e+000 3.231991e-001 -7.572599e+000 156 140 106
2.111890e+000 4.075360e-001 -8.031591e+000 81 63 25
2.191918e+000 4.549170e-001 -8.157348e+000 154 140 98
2.230298e+000 4.320755e-001 -8.175732e+000 151 139 99
2.115438e+000 3.518827e-001 -8.017615e+000 149 134 95
2.210847e+000 3.766895e-001 -8.118009e+000 93 78 39
2.210847e+000 3.766895e-001 -8.118009e+000 93 78 39
2.416454e+000 5.221747e-001 -8.425339e+000 151 136 97
2.845494e+000 5.736318e-001 -8.878324e+000 110 94 60
2.845494e+000 5.736318e-001 -8.878324e+000 110 94 60
-1.317561e+000 1.999115e+000 -1.076935e+001 94 77 81
-8.765183e-001 1.481650e+000 -9.985211e+000 93 74 80
1.881177e+000 1.676559e-001 -7.657260e+000 154 139 100
1.854895e+000 1.129472e-001 -7.597849e+000 94 78 42
1.854895e+000 1.129472e-001 -7.597849e+000 94 78 42
1.922956e+000 1.684507e-001 -7.711567e+000 140 125 86
1.855008e+000 7.202802e-002 -7.600465e+000 151 136 97
2.306973e+000 2.877369e-001 -8.173388e+000 161 143 105
2.384007e+000 2.824279e-001 -8.250786e+000 152 134 96
2.351708e+000 2.262559e-001 -8.187915e+000 102 83 51
2.515451e+000 2.993584e-001 -8.394712e+000 110 94 58
2.717924e+000 3.233552e-001 -8.606011e+000 147 132 94
2.696049e+000 2.712599e-001 -8.573664e+000 108 92 58
2.961807e+000 4.358259e-001 -8.927247e+000 105 88 57
3.283969e+000 5.819194e-001 -9.308079e+000 100 88 59
-1.467723e+000 1.725031e+000 -1.071340e+001 114 90 100
-1.480504e+000 1.666093e+000 -1.085716e+001 81 72 73
4.093276e-001 2.045492e-001 -7.587123e+000 209 222 210
1.752932e+000 -1.362041e-001 -7.414510e+000 154 138 102
2.443453e+000 -2.399055e-002 -8.165404e+000 121 107 72
2.544326e+000 1.772706e-001 -8.353539e+000 102 86 50
2.585884e+000 1.116322e-001 -8.355141e+000 147 135 97
2.748674e+000 2.110670e-001 -8.604672e+000 150 138 100
2.838844e+000 1.290469e-001 -8.641639e+000 110 93 63
2.990669e+000 1.502344e-001 -8.799002e+000 145 131 96
3.053526e+000 1.167257e-001 -8.823352e+000 143 126 94
-1.395109e+000 1.406053e+000 -1.048885e+001 88 64 68
4.483247e-001 3.754166e-003 -7.508504e+000 205 227 218
1.721411e+000 -2.047475e-001 -7.314463e+000 94 75 41
1.777961e+000 -2.603733e-001 -7.361794e+000 150 135 98
1.859498e+000 -2.321960e-001 -7.439854e+000 106 87 53
1.893475e+000 -2.920656e-001 -7.440776e+000 156 141 104
2.030657e+000 -2.780237e-001 -7.615487e+000 147 131 95
2.562693e+000 -5.048631e-002 -8.256242e+000 111 95 59
2.562693e+000 -5.048631e-002 -8.256242e+000 111 95 59
2.556984e+000 -1.982088e-001 -8.189878e+000 151 135 101
2.791947e+000 -2.950201e-002 -8.492130e+000 152 136 102
2.791947e+000 -2.950201e-002 -8.492130e+000 152 136 102
2.875531e+000 1.316712e-002 -8.616766e+000 103 87 53
2.595082e+000 -1.572459e-001 -8.234807e+000 100 82 47
2.595082e+000 -1.572459e-001 -8.234807e+000 100 82 47
2.688186e+000 -1.260974e-001 -8.354952e+000 153 135 101
2.749645e+000 -1.370295e-001 -8.395999e+000 150 134 97
2.749645e+000 -1.370295e-001 -8.395999e+000 150 134 97
2.821174e+000 -1.106211e-001 -8.472917e+000 109 93 62
2.998658e+000 -1.452719e-002 -8.708588e+000 95 74 45
3.464946e+000 1.018072e-001 -9.204080e+000 101 85 59
-9.911776e-001 9.199388e-001 -1.000907e+001 207 227 212
2.447084e+000 -3.448108e-001 -7.974454e+000 116 100 68
2.447084e+000 -3.448108e-001 -7.974454e+000 116 100 68
2.322927e+000 -4.320357e-001 -7.794294e+000 103 84 50
2.415937e+000 -3.973159e-001 -7.909392e+000 151 135 99
2.648052e+000 -2.262400e-001 -8.232902e+000 153 137 101
2.678169e+000 -3.422300e-001 -8.182643e+000 151 135 101
2.627613e+000 -3.887147e-001 -8.110572e+000 102 86 52
2.627613e+000 -3.887147e-001 -8.110572e+000 102 86 52
2.785711e+000 -2.533219e-001 -8.357906e+000 144 128 94
2.785711e+000 -2.533219e-001 -8.357906e+000 144 128 94
2.826384e+000 -2.763662e-001 -8.364055e+000 149 133 100
2.884628e+000 -2.264273e-001 -8.457785e+000 92 76 43
2.884628e+000 -2.264273e-001 -8.457785e+000 92 76 43
2.818524e+000 -3.661205e-001 -8.318996e+000 151 137 102
3.124894e+000 -1.631717e-001 -8.729242e+000 89 74 43
3.242256e+000 -1.872780e-001 -8.832273e+000 91 75 46
3.185227e+000 -2.134852e-001 -8.784327e+000 138 122 89
2.953888e+000 -3.486279e-001 -8.446517e+000 113 97 64
2.953888e+000 -3.486279e-001 -8.446517e+000 113 97 64
3.104072e+000 -2.640065e-001 -8.663786e+000 113 94 62
3.398451e+000 -1.673283e-001 -8.972298e+000 144 129 100
3.314471e+000 -2.440353e-001 -8.882625e+000 140 123 95
3.220153e+000 -2.792880e-001 -8.784233e+000 96 85 50
3.377673e+000 -2.113114e-001 -8.956857e+000 93 76 47
3.377673e+000 -2.113114e-001 -8.956857e+000 93 76 47
-8.817477e-001 6.945536e-001 -9.801366e+000 215 218 213
1.917404e+000 -6.103963e-001 -7.233907e+000 148 135 100
2.050715e+000 -6.054407e-001 -7.364051e+000 102 86 54
2.431349e+000 -4.565205e-001 -7.877612e+000 102 86 52
2.142939e+000 -6.259399e-001 -7.433232e+000 90 71 41
2.421054e+000 -6.321417e-001 -7.704465e+000 153 142 110
2.704195e+000 -4.363475e-001 -8.182374e+000 146 131 98
2.819980e+000 -4.283382e-001 -8.277327e+000 92 76 43
2.583306e+000 -5.604465e-001 -7.919452e+000 145 130 97
2.682640e+000 -6.259980e-001 -7.971532e+000 88 72 41
3.041122e+000 -4.801409e-001 -8.441737e+000 107 87 59
3.041122e+000 -4.801409e-001 -8.441737e+000 107 87 59
3.504086e+000 -3.466427e-001 -9.002413e+000 89 67 46
3.401406e+000 -4.906260e-001 -8.818050e+000 139 119 95
3.577647e+000 -4.203778e-001 -9.025041e+000 138 120 97
4.591223e+000 -8.096197e-001 -8.206849e+000 171 133 58
4.553525e+000 -8.799167e-001 -8.100140e+000 178 145 63
4.037733e-002 -1.449347e-001 -8.098006e+000 203 228 217
4.037733e-002 -1.449347e-001 -8.098006e+000 203 228 217
2.941085e+000 -6.155132e-001 -8.248204e+000 147 131 97
2.941085e+000 -6.155132e-001 -8.248204e+000 147 131 97
2.989894e+000 -6.320619e-001 -8.260984e+000 148 133 100
3.044383e+000 -6.421583e-001 -8.318502e+000 146 132 97
2.989224e+000 -7.773658e-001 -8.138475e+000 77 62 29
3.301155e+000 -6.422583e-001 -8.576357e+000 95 78 52
3.290136e+000 -7.558029e-001 -8.469197e+000 76 60 35
3.290136e+000 -7.558029e-001 -8.469197e+000 76 60 35
3.420241e+000 -6.660784e-001 -8.687797e+000 82 65 39
3.420241e+000 -6.660784e-001 -8.687797e+000 82 65 39
-1.370708e+000 3.478736e-001 -1.026690e+001 202 196 207
