ply
format ascii 1.0
element face 0
property list uchar int vertex_indices
element vertex 878
property float x
property float y
property float z
property uchar diffuse_red
property uchar diffuse_green
property uchar diffuse_blue
end_header
3.532978e-001 -8.730002e-001 -7.647206e+000 167 166 170
4.933663e-002 1.806183e+000 -8.777372e+000 213 224 210
2.893968e+000 1.766475e+000 -9.724364e+000 126 109 76
-2.039927e-001 1.657845e+000 -9.140374e+000 88 71 77
6.501626e-001 -7.916002e-001 -7.203752e+000 63 51 78
-8.643585e-001 1.610895e+000 -1.017434e+001 92 71 87
7.208236e-001 -8.663985e-001 -7.107112e+000 179 191 182
-1.230669e+000 4.714519e+000 -1.138859e+001 163 130 82
-5.961997e-001 3.825057e+000 -1.016769e+001 175 130 84
-1.194917e+000 4.348012e+000 -1.124782e+001 155 124 76
-3.947457e-001 3.284490e+000 -9.774929e+000 149 106 68
-1.917074e-001 2.512714e+000 -9.199944e+000 83 69 61
-1.430338e+000 3.891092e+000 -1.146473e+001 168 160 125
-9.514989e-001 3.322485e+000 -1.058201e+001 141 113 76
-6.437712e-001 3.044516e+000 -1.017879e+001 178 157 92
-4.129538e-001 2.778720e+000 -9.713616e+000 196 171 122
3.378397e-002 1.737959e+000 -8.741731e+000 80 73 74
-1.062530e+000 2.586394e+000 -1.072833e+001 172 131 106
-1.333567e+000 2.618912e+000 -1.106781e+001 161 135 75
-6.796080e-001 2.077093e+000 -1.011909e+001 206 219 207
4.491522e+000 1.912816e-001 -8.304288e+000 180 138 54
-5.508176e-001 1.387745e+000 -9.498095e+000 79 64 73
1.154222e-001 -5.272163e-001 -8.169266e+000 215 219 220
2.250263e-002 -4.822348e-001 -8.355535e+000 93 65 68
9.059496e-002 -5.768238e-001 -8.199741e+000 73 48 68
5.555586e-001 -7.990267e-001 -7.389482e+000 74 60 82
5.555586e-001 -7.990267e-001 -7.389482e+000 74 60 82
5.221458e-001 -8.438910e-001 -7.354733e+000 68 58 82
3.621799e-001 -9.544508e-001 -7.659485e+000 70 53 75
2.885136e-001 -9.523751e-001 -7.731537e+000 58 51 68
3.944077e-001 -1.091974e+000 -7.591389e+000 65 57 81
4.456382e-001 -1.130604e+000 -7.558204e+000 73 56 92
7.727491e-001 -1.368537e+000 -6.577421e+000 60 50 103
-3.608554e-001 3.528578e+000 -9.730707e+000 197 185 133
-1.329027e+000 4.442647e+000 -1.141892e+001 127 112 83
-6.505212e-001 3.752593e+000 -1.024442e+001 120 81 41
-1.769895e+000 4.635230e+000 -1.205585e+001 186 175 147
-1.701508e+000 4.578374e+000 -1.198122e+001 144 130 101
-3.631848e-001 2.758431e+000 -9.499213e+000 190 162 101
2.157568e+000 2.098915e+000 -9.257603e+000 157 143 106
-7.055300e-001 2.989968e+000 -1.029571e+001 170 136 72
-9.391965e-001 3.134358e+000 -1.055188e+001 200 168 115
-1.005437e+000 3.099731e+000 -1.075668e+001 125 81 50
-3.720261e-001 2.372331e+000 -9.549808e+000 80 65 68
1.480124e-001 1.884171e+000 -8.562667e+000 217 220 215
1.480124e-001 1.884171e+000 -8.562667e+000 217 220 215
2.355191e+000 1.837007e+000 -9.347198e+000 150 138 101
3.030783e+000 1.961715e+000 -9.866239e+000 150 134 101
2.723830e+000 1.617775e+000 -9.588183e+000 104 89 58
-1.239497e+000 2.913267e+000 -1.103475e+001 188 155 120
4.612797e+000 2.608225e-001 -8.126382e+000 188 146 60
3.486713e-001 7.733390e-001 -7.951713e+000 75 62 67
-3.296558e-001 1.368350e+000 -9.349551e+000 210 220 208
-1.971401e-001 1.075048e+000 -9.011379e+000 198 223 213
-1.971401e-001 1.075048e+000 -9.011379e+000 198 223 213
1.834409e+000 1.238874e-001 -7.634777e+000 96 78 44
-4.304681e-001 9.420835e-001 -9.366511e+000 101 74 77
-8.756247e-001 1.098028e+000 -1.001402e+001 85 70 81
-8.501001e-001 1.102698e+000 -1.009441e+001 209 204 203
-1.064191e+000 9.804263e-001 -1.025628e+001 91 78 90
5.741813e-001 -4.508472e-001 -7.399535e+000 217 230 227
3.704344e+000 -9.163073e-001 -9.050990e+000 113 95 73
5.808625e-001 -9.302385e-001 -7.322355e+000 69 50 76
-9.827322e-001 4.360575e+000 -1.092920e+001 92 60 39
-9.007359e-001 4.289370e+000 -1.078481e+001 151 116 94
-1.679839e-001 3.167151e+000 -9.241323e+000 191 164 109
-1.562318e+000 4.553226e+000 -1.155951e+001 191 177 150
-1.540444e+000 4.689556e+000 -1.178227e+001 133 116 85
-5.663685e-001 3.744667e+000 -1.016830e+001 155 107 63
-3.057305e-001 3.090762e+000 -9.487377e+000 110 77 46
-2.390664e-001 3.090972e+000 -9.357246e+000 119 86 41
-1.579605e+000 4.288075e+000 -1.172228e+001 145 131 104
-1.046251e+000 3.344997e+000 -1.080883e+001 173 143 91
1.978685e+000 1.942684e+000 -9.080034e+000 119 105 68
-9.740387e-001 3.023139e+000 -1.071376e+001 162 113 82
1.449023e-001 1.691565e+000 -8.518524e+000 76 73 72
2.580505e+000 1.806288e+000 -9.515683e+000 148 134 99
2.881929e+000 1.972944e+000 -9.758847e+000 152 137 104
-1.860941e+000 3.422979e+000 -1.186662e+001 161 127 80
-1.139743e+000 2.726339e+000 -1.085226e+001 170 125 97
-7.184844e-001 2.427666e+000 -1.016808e+001 80 62 70
3.200478e+000 1.562159e+000 -9.973039e+000 56 39 19
4.630647e+000 4.237144e-001 -8.123415e+000 190 150 63
-1.227831e+000 2.565098e+000 -1.093677e+001 112 77 58
-1.733432e+000 2.675668e+000 -1.155932e+001 83 65 79
-1.026017e+000 1.052315e+000 -1.033588e+001 102 88 103
-9.189313e-001 1.038776e+000 -1.015106e+001 211 226 219
1.921252e+000 -3.240856e-001 -7.509282e+000 99 84 49
1.406321e+000 -1.413173e+000 -6.352073e+000 59 47 49
-2.945461e-001 -8.979737e-001 -8.669123e+000 215 231 221
-6.974987e-001 -9.638374e-001 -9.311556e+000 209 218 213
1.280803e+000 -1.809392e+000 -6.457806e+000 63 51 84
-1.405904e+000 4.452060e+000 -1.142492e+001 188 174 147
-1.405904e+000 4.452060e+000 -1.142492e+001 188 174 147
-5.021307e-001 3.603346e+000 -1.001387e+001 198 177 123
-4.619771e-001 3.377070e+000 -9.924344e+000 188 153 112
1.578650e+000 2.498365e+000 -9.009957e+000 156 140 106
-2.306852e+000 5.011565e+000 -1.256149e+001 72 70 81
2.943368e+000 3.102640e+000 -1.055173e+001 129 123 100
2.353548e+000 2.200531e+000 -9.431370e+000 159 146 108
3.824960e+000 1.960424e+000 -9.768441e+000 161 114 56
-1.441276e+000 2.474090e+000 -1.116625e+001 119 85 57
-4.381567e-001 7.592081e-001 -9.390748e+000 94 74 73
-1.167990e+000 2.557902e-001 -1.021374e+001 79 65 83
3.582931e-001 -1.034101e+000 -7.670028e+000 70 66 87
-8.798936e-001 -1.269019e+000 -9.448778e+000 215 231 220
-1.286822e+000 4.468113e+000 -1.118946e+001 191 178 146
-7.372136e-001 3.894249e+000 -1.046397e+001 193 160 107
2.869103e+000 1.910596e+000 -9.717488e+000 142 127 96
-1.272409e+000 3.004222e+000 -1.106055e+001 88 60 56
-2.046031e+000 3.503006e+000 -1.200852e+001 170 164 160
-4.791922e-001 1.996634e+000 -9.717555e+000 207 231 209
2.952572e+000 3.188383e-001 -8.902115e+000 144 128 95
-7.083926e-001 5.947536e-001 -9.776581e+000 97 74 100
-1.172991e+000 6.483392e-001 -1.038023e+001 211 218 215
-2.567817e-001 -6.139733e-001 -8.733357e+000 88 70 82
1.037335e+000 -1.598880e+000 -6.584909e+000 56 44 92
-3.218591e-001 -1.135006e+000 -8.630606e+000 97 57 78
2.835584e-001 2.365327e+000 -8.316475e+000 139 67 91
-2.612405e-001 1.693274e-001 -9.062397e+000 87 71 82
4.002805e-001 -7.778748e-001 -7.539617e+000 86 64 102
5.890727e-002 2.754517e+000 -8.841033e+000 213 226 209
1.495374e+000 1.360341e+000 -8.132636e+000 124 106 73
-1.050464e+000 2.982183e-001 -1.017087e+001 82 73 105
-1.236073e+000 4.140281e+000 -1.123117e+001 193 182 150
-3.424413e-001 2.227993e+000 -9.476787e+000 113 115 104
-3.424413e-001 2.227993e+000 -9.476787e+000 113 115 104
-5.158054e-001 2.084930e+000 -9.786503e+000 216 226 215
-2.472574e-001 1.949136e+000 -9.324939e+000 89 72 82
-1.146068e+000 2.035129e+000 -1.069089e+001 82 59 74
-1.329792e+000 1.903498e+000 -1.089087e+001 96 74 94
6.243080e-001 -2.309115e+000 -7.138873e+000 62 45 77
-1.099875e+000 7.022803e-001 -1.029943e+001 206 206 204
7.501542e-001 -1.498962e+000 -6.706906e+000 54 40 78
-1.253634e+000 1.160280e+000 -1.055246e+001 71 55 66
3.387195e-001 5.643095e-001 -7.973870e+000 88 70 89
-1.824999e+000 4.543852e+000 -1.206535e+001 176 164 139
-6.884814e-001 3.375346e+000 -1.018932e+001 193 173 118
-3.256972e-001 2.865050e+000 -9.621211e+000 135 86 49
-4.026986e-001 2.183730e+000 -9.646670e+000 99 82 82
7.459984e-002 1.343132e+000 -8.595925e+000 81 70 72
-7.016019e-001 1.045001e+000 -9.864034e+000 210 210 210
-1.197505e+000 8.073032e-001 -1.045860e+001 106 95 99
-8.347861e-001 5.766909e-001 -9.906261e+000 201 213 211
-7.719798e-001 6.102476e-001 -9.820992e+000 207 214 213
-1.212140e+000 3.868760e-001 -1.033749e+001 90 78 86
6.548928e-001 -7.484674e-001 -7.220227e+000 195 209 217
4.333149e-001 -8.103360e-001 -7.539812e+000 71 53 80
5.691012e-001 -8.807784e-001 -7.338807e+000 172 171 189
5.691012e-001 -8.807784e-001 -7.338807e+000 172 171 189
6.104976e-001 -9.119564e-001 -7.286455e+000 76 59 93
-4.595068e-002 -9.657274e-001 -8.280503e+000 63 50 63
-1.589284e+000 4.328772e+000 -1.177987e+001 128 116 90
2.043724e+000 2.118219e+000 -9.188481e+000 156 143 108
2.223564e+000 2.147337e+000 -9.334845e+000 105 91 54
-6.252682e-001 2.581934e+000 -1.001725e+001 198 179 137
-1.061044e+000 2.576525e+000 -1.071332e+001 176 132 106
-7.885387e-001 2.093110e+000 -1.020084e+001 96 77 70
-1.222001e+000 1.559350e+000 -1.068971e+001 209 222 208
-3.077909e-001 9.852160e-001 -9.171512e+000 212 230 219
4.148448e-001 -1.427214e-001 -7.813640e+000 81 60 82
-3.682738e-001 1.495485e-001 -9.115056e+000 192 228 214
6.716024e-001 -6.360182e-001 -7.204175e+000 183 187 197
-3.519263e-001 3.040439e+000 -9.609885e+000 134 97 50
2.465636e+000 1.774510e+000 -9.410419e+000 86 75 43
-1.850401e+000 3.247222e+000 -1.182432e+001 152 121 74
-1.850401e+000 3.247222e+000 -1.182432e+001 152 121 74
3.664987e+000 1.256737e+000 -9.855941e+000 102 66 32
-8.354743e-001 1.482373e+000 -1.010427e+001 205 230 216
-8.354743e-001 1.482373e+000 -1.010427e+001 205 230 216
4.666409e-001 -9.282724e-001 -7.498438e+000 71 55 81
-2.292410e-001 2.388313e+000 -9.317776e+000 88 71 64
1.034813e-001 1.888991e+000 -8.621731e+000 89 79 82
-7.727734e-001 3.343586e+000 -1.042731e+001 200 179 130
1.165627e-001 1.716008e-003 -8.288286e+000 88 71 94
-8.241533e-001 2.757186e+000 -1.034330e+001 107 63 50
-3.860038e+001 2.531239e+001 -8.970333e+001 60 47 35
-2.515031e+001 3.087213e+001 -8.023699e+001 159 109 116
-2.827289e+001 2.786479e+001 -7.958028e+001 203 49 62
-3.004125e+001 2.581802e+001 -8.047330e+001 207 60 68
-2.438609e+001 3.116636e+001 -8.077285e+001 175 40 47
-2.174425e+001 2.768459e+001 -7.976587e+001 198 50 63
-2.174425e+001 2.768459e+001 -7.976587e+001 198 50 63
-1.987116e+001 2.355956e+001 -8.017690e+001 199 57 66
-2.333000e+001 3.087708e+001 -8.044610e+001 191 87 94
-2.457755e+001 3.045656e+001 -8.131908e+001 213 114 118
-2.354190e+001 3.040348e+001 -8.156856e+001 170 35 48
-2.781463e+001 2.762921e+001 -8.019274e+001 193 107 119
-2.165459e+001 2.463841e+001 -7.949182e+001 205 56 67
-1.854300e+001 2.239244e+001 -7.809144e+001 192 144 152
-2.554746e+001 2.530950e+001 -7.848276e+001 62 54 108
-1.968244e+001 2.453174e+001 -8.034589e+001 185 137 145
-2.337468e+001 2.934081e+001 -8.201501e+001 211 131 127
-2.101269e+001 2.748738e+001 -8.110110e+001 196 125 124
-3.077697e+001 2.546246e+001 -8.031896e+001 153 173 178
-2.359073e+001 2.382974e+001 -7.905380e+001 69 60 104
-2.386784e+001 2.695148e+001 -7.831432e+001 67 49 79
-2.957596e+001 2.796477e+001 -8.057474e+001 203 121 116
-3.149229e+001 2.760425e+001 -8.009276e+001 57 37 39
-2.415076e+001 2.528815e+001 -7.873934e+001 223 186 97
-2.411391e+001 2.525070e+001 -7.862786e+001 223 186 97
-2.267494e-001 2.137375e+000 -9.348658e+000 74 62 66
2.993972e-002 1.827867e+000 -8.751704e+000 74 63 68
-3.008070e-001 -7.004716e-002 -9.004064e+000 222 232 226
-3.008070e-001 -7.004716e-002 -9.004064e+000 222 232 226
6.733483e-001 -6.330454e-001 -7.214660e+000 213 214 226
6.649036e-001 -6.661328e-001 -7.200525e+000 60 43 75
-4.221365e-001 2.246876e+000 -9.677578e+000 85 67 73
3.062471e+000 1.685593e+000 -9.881793e+000 97 83 56
4.513363e-001 2.570919e-001 -7.753409e+000 105 66 71
-6.720423e-001 6.990675e-001 -9.730647e+000 78 63 72
4.301362e+000 -6.323873e-002 -8.620074e+000 165 118 48
-3.182649e-001 3.545200e+000 -9.626036e+000 203 184 133
-2.199218e-001 3.182209e+000 -9.424021e+000 136 102 57
-1.053041e+000 3.089789e+000 -1.082694e+001 117 76 57
4.023188e-001 6.463342e-001 -7.923548e+000 209 226 220
-7.917507e-001 1.514799e+000 -1.012911e+001 64 51 78
-5.227519e-001 1.107650e+000 -9.575287e+000 106 77 82
5.013167e-001 -6.012744e-002 -7.651048e+000 69 60 71
-5.675004e-001 8.098874e-001 -9.566121e+000 102 76 90
-3.029669e-001 2.812432e-001 -9.123317e+000 216 221 219
7.069552e-001 -7.667321e-001 -7.165936e+000 155 157 156
3.001878e-001 -7.198724e-001 -7.750833e+000 65 50 74
-9.657997e-001 2.072271e-001 -1.002497e+001 93 80 93
4.989191e-001 -9.981896e-001 -7.446186e+000 175 176 193
3.099621e-001 -9.671706e-001 -7.717493e+000 172 186 192
3.337923e-001 -1.098635e+000 -7.671879e+000 70 60 88
-3.326349e-001 -8.964410e-001 -8.746891e+000 213 230 222
-1.371352e+000 5.146437e+000 -1.160203e+001 119 105 84
-5.957564e-001 3.578218e+000 -1.015860e+001 202 180 130
-5.445370e-001 3.362086e+000 -1.008345e+001 125 87 53
-7.624459e-001 3.239280e+000 -1.044936e+001 143 111 55
-4.355060e-001 2.612521e+000 -9.776139e+000 76 57 80
3.161411e+000 1.882225e+000 -9.993177e+000 140 126 97
3.161411e+000 1.882225e+000 -9.993177e+000 140 126 97
-9.085295e-001 3.113988e+000 -1.058350e+001 152 109 62
-1.296150e-001 1.180983e+000 -8.913301e+000 96 67 81
5.089749e-001 -3.497898e-002 -7.636219e+000 205 228 211
6.966783e-001 -6.650007e-001 -7.187124e+000 68 55 98
6.164486e-001 -7.240460e-001 -7.286019e+000 180 183 196
6.765641e-001 -8.047504e-001 -7.185914e+000 172 172 188
5.507369e-001 -7.201737e-001 -7.380843e+000 183 183 195
5.722204e-001 -7.354987e-001 -7.347672e+000 64 55 84
-1.008800e+000 4.762305e-001 -1.001888e+001 84 63 78
-6.669303e-001 1.298321e-001 -9.602422e+000 86 70 73
-6.669303e-001 1.298321e-001 -9.602422e+000 86 70 73
4.519173e-001 -8.062999e-001 -7.507347e+000 183 186 195
4.350468e-001 -8.008633e-001 -7.559653e+000 68 54 83
5.624509e-001 -9.531392e-001 -7.342887e+000 164 182 187
-9.794910e-001 2.571965e-001 -9.984075e+000 90 76 96
-1.074267e+000 2.212510e-001 -1.022315e+001 75 78 106
2.818836e-001 -9.820941e-001 -7.735748e+000 200 206 218
3.319101e-001 -9.785340e-001 -7.673550e+000 61 57 80
-6.512617e-001 -1.208813e+000 -9.096949e+000 207 209 208
-1.353480e+000 5.237202e+000 -1.158327e+001 195 207 192
-2.230313e-001 3.308589e+000 -9.421571e+000 137 92 60
-5.879529e-001 3.978234e+000 -1.025483e+001 154 111 64
-1.549717e+000 4.742423e+000 -1.184804e+001 130 116 89
-4.906910e-002 1.696259e+000 -8.920773e+000 216 227 221
1.204243e-001 5.946172e-001 -8.358241e+000 77 60 79
-8.644350e-001 1.608027e+000 -1.017003e+001 70 56 71
-1.323808e+000 1.653728e+000 -1.083979e+001 210 229 225
5.805622e-002 -1.889889e-001 -8.361879e+000 206 231 215
5.805622e-002 -1.889889e-001 -8.361879e+000 206 231 215
5.073627e-001 -8.575247e-001 -7.422740e+000 187 204 204
6.197718e-001 -9.531124e-001 -7.270310e+000 195 202 209
6.195998e-002 -5.975268e-001 -8.203823e+000 209 231 211
4.582094e-001 -1.035073e+000 -7.497134e+000 58 49 80
4.365039e+000 7.199638e-001 -8.765889e+000 197 153 66
3.088128e-001 1.198378e+000 -8.227079e+000 72 56 63
3.088128e-001 1.198378e+000 -8.227079e+000 72 56 63
-5.004377e-001 1.409302e+000 -9.673341e+000 81 63 78
4.900453e-001 -8.894227e-001 -7.439995e+000 77 62 98
3.767183e-001 -1.106999e+000 -7.581902e+000 65 55 88
3.086460e-001 -1.153102e+000 -7.710539e+000 79 62 89
-2.622291e-001 -1.102431e+000 -8.562817e+000 76 56 78
-7.656166e-001 -1.051438e+000 -9.359087e+000 204 224 217
-7.652304e-001 -1.053501e+000 -9.352923e+000 204 224 217
7.308404e-001 -2.437544e+000 -7.123697e+000 26 13 30
-2.393643e+000 5.228511e+000 -1.281406e+001 81 85 97
-2.860858e-001 2.163451e+000 -9.402890e+000 208 230 217
1.127195e-001 1.115851e+000 -8.497613e+000 212 234 215
1.137995e-001 1.125473e+000 -8.513452e+000 212 234 215
-1.440012e-001 1.063892e+000 -8.950450e+000 97 75 84
-1.667490e+000 2.566006e+000 -1.147546e+001 74 63 78
-2.483735e-001 9.834328e-001 -9.114202e+000 103 61 75
-6.761216e-001 9.126384e-001 -9.783981e+000 107 72 96
-3.625098e-001 1.643569e-001 -9.088989e+000 214 235 221
-9.788282e-001 4.169058e-001 -1.005820e+001 95 73 94
-9.856047e-001 4.322863e-001 -1.008904e+001 95 73 94
-1.232295e+000 4.918273e+000 -1.138172e+001 209 224 203
2.388189e-001 1.710962e+000 -8.404689e+000 72 60 64
-6.575528e-002 1.464574e+000 -8.927404e+000 86 72 95
5.391797e-002 1.220821e+000 -8.619447e+000 88 72 87
6.108564e-001 -6.167476e-001 -7.288442e+000 79 60 93
3.369124e-001 -1.119709e+000 -7.699843e+000 171 180 186
-4.062714e-001 2.505353e+000 -9.680893e+000 78 61 79
-4.062714e-001 2.505353e+000 -9.680893e+000 78 61 79
-1.506304e+000 3.528290e+000 -1.151447e+001 98 67 49
1.171077e-001 1.064668e+000 -8.527159e+000 208 230 218
-2.886808e-001 7.382205e-001 -9.171341e+000 210 229 216
-1.191834e+000 1.582023e+000 -1.066031e+001 213 231 218
1.074117e-001 -5.083744e-003 -8.241237e+000 81 65 93
-8.777369e-001 -1.065207e+000 -9.482073e+000 60 48 54
-1.416810e+000 4.111505e+000 -1.154686e+001 191 182 153
-6.246258e-001 2.026718e+000 -9.996700e+000 147 140 140
-1.420778e+000 4.941998e+000 -1.165207e+001 192 181 150
-7.030806e-001 3.598074e+000 -1.028321e+001 179 160 104
-1.698555e+000 4.719738e+000 -1.193176e+001 182 177 148
-2.852518e+001 3.481417e+001 -8.045087e+001 140 112 142
-2.725080e+001 3.454654e+001 -8.028474e+001 216 106 123
-2.555537e+001 3.271343e+001 -8.164459e+001 204 123 122
-2.555537e+001 3.271343e+001 -8.164459e+001 204 123 122
-2.431602e+001 3.229881e+001 -7.839614e+001 177 15 35
-3.277536e-001 2.866393e-001 -9.093350e+000 80 73 78
-1.358936e+000 2.202766e+000 -1.100124e+001 126 93 60
-3.081851e-001 3.154713e+000 -9.575113e+000 113 81 34
7.486416e-001 -1.352373e+000 -6.661516e+000 59 46 91
3.418555e-002 3.470702e+000 -9.125309e+000 61 47 35
-2.873397e-001 3.489303e+000 -9.575808e+000 146 118 73
-4.617546e-001 3.205374e+000 -9.905209e+000 133 96 54
7.023503e-001 -7.806448e-001 -7.142994e+000 175 166 183
6.099568e-001 -9.151047e-001 -7.282085e+000 96 75 127
-1.173335e+000 1.638265e+000 -1.064204e+001 101 95 95
4.811886e-001 -8.388687e-001 -7.456968e+000 187 200 209
1.146667e-001 -5.352460e-001 -8.156484e+000 200 214 213
4.016141e-001 -9.399759e-001 -7.580086e+000 189 198 217
4.799372e-001 -1.013377e+000 -7.478339e+000 201 204 225
4.799372e-001 -1.013377e+000 -7.478339e+000 201 204 225
-7.739163e-002 -9.912522e-001 -8.279126e+000 67 57 75
-1.600290e-001 -1.028370e+000 -8.395870e+000 221 220 228
-5.407386e-001 -1.103829e+000 -8.979412e+000 79 59 70
-7.863770e-001 -1.069734e+000 -9.395028e+000 88 54 66
-7.924833e-001 -1.259487e+000 -9.307166e+000 219 212 215
-9.047535e-001 5.410959e+000 -1.097883e+001 154 162 145
-9.407680e-001 5.330644e+000 -1.098554e+001 169 173 158
-7.540369e-001 4.642440e+000 -1.062680e+001 101 65 39
-7.462001e-001 4.514324e+000 -1.050300e+001 101 65 39
-6.299505e-001 3.920936e+000 -1.033471e+001 158 115 69
-2.518268e-001 3.194860e+000 -9.495187e+000 123 89 44
-3.092701e-001 3.193574e+000 -9.610980e+000 116 84 36
-9.192187e-001 4.472052e+000 -1.087226e+001 102 67 47
-9.399899e-001 4.265672e+000 -1.087689e+001 139 107 82
-3.542288e-001 3.035669e+000 -9.610100e+000 132 98 51
2.442789e-001 1.605993e+000 -8.372490e+000 201 221 215
2.759971e-001 1.581330e+000 -8.333955e+000 59 48 46
-6.137899e-001 3.248242e+000 -1.021439e+001 198 178 127
-1.473740e-001 2.544243e+000 -9.309769e+000 76 58 71
-2.252934e-001 2.416893e+000 -9.332513e+000 80 57 58
-1.512931e+000 4.388308e+000 -1.171450e+001 136 120 95
-1.599710e+000 4.393838e+000 -1.185483e+001 146 130 105
-3.314370e-001 2.152082e+000 -9.488270e+000 72 56 67
-1.479403e+000 3.760042e+000 -1.150244e+001 144 104 68
-8.970397e-001 3.028429e+000 -1.056696e+001 168 123 84
5.718870e-001 -2.974656e-002 -7.506143e+000 74 51 96
-1.239994e+000 2.927247e+000 -1.105096e+001 181 143 116
1.545212e-001 4.559554e-001 -8.323288e+000 78 58 67
-6.068477e-001 1.302959e+000 -9.778599e+000 84 60 77
6.749200e-001 -8.122840e-001 -7.173467e+000 197 196 216
6.942215e-001 -8.501437e-001 -7.174056e+000 64 49 88
6.655734e-001 -9.156363e-001 -7.187884e+000 197 197 207
6.655734e-001 -9.156363e-001 -7.187884e+000 197 197 207
1.693332e+000 -1.698308e+000 -6.437488e+000 24 16 31
-7.790274e-001 1.153777e+000 -1.002611e+001 198 219 211
4.296764e-001 -8.335458e-001 -7.500923e+000 84 64 92
4.513628e-001 -8.073186e-001 -7.505857e+000 199 213 218
5.222422e-001 -8.190603e-001 -7.411071e+000 63 52 83
-7.059180e-001 6.681323e-001 -9.761045e+000 203 219 219
4.645316e-001 -9.186365e-001 -7.493342e+000 70 51 83
4.031477e-001 -9.261635e-001 -7.550772e+000 72 54 94
-1.110639e+000 9.337545e-001 -1.042747e+001 206 220 213
-7.785458e-001 6.260204e-001 -9.850820e+000 202 219 215
2.799631e-001 -9.709933e-001 -7.756301e+000 197 207 218
-9.049070e-001 5.261773e-001 -9.976200e+000 194 217 209
-1.180173e+000 3.779254e-001 -1.031935e+001 202 201 214
-1.180527e+000 3.750427e-001 -1.031307e+001 202 201 214
-3.774410e-001 -1.067341e+000 -8.727742e+000 205 224 219
-3.774410e-001 -1.067341e+000 -8.727742e+000 205 224 219
-6.345227e-001 -1.239078e+000 -9.104698e+000 83 60 68
-5.720583e-001 -1.324256e+000 -9.015800e+000 77 60 78
-9.512394e-001 -1.102818e+000 -9.559910e+000 83 54 65
7.439869e-001 -2.473231e+000 -7.133111e+000 32 19 38
-6.537001e-001 3.761761e+000 -1.028707e+001 138 101 56
2.013620e-001 1.818955e+000 -8.447460e+000 206 215 214
-1.339763e+000 4.512156e+000 -1.151678e+001 142 124 98
-3.192366e-001 2.321775e+000 -9.463268e+000 208 225 212
3.610131e-002 1.773085e+000 -8.833695e+000 77 71 75
-3.665040e-002 1.751516e+000 -8.906616e+000 74 69 73
1.006451e-001 1.385480e+000 -8.543787e+000 215 224 221
1.006451e-001 1.385480e+000 -8.543787e+000 215 224 221
-4.196663e-001 2.232627e+000 -9.660176e+000 71 59 68
-1.432270e-001 1.666395e+000 -9.058957e+000 83 71 79
3.000527e-001 7.706121e-001 -8.059400e+000 75 63 75
-1.782884e+000 4.288437e+000 -1.205895e+001 151 139 115
-1.553377e-001 1.618086e+000 -9.086359e+000 209 227 216
7.891600e-002 1.015236e+000 -8.585024e+000 86 60 77
-1.204591e+000 3.090831e+000 -1.105843e+001 107 70 51
-3.724658e-001 1.454409e+000 -9.411651e+000 77 63 69
-3.888214e-001 1.410660e+000 -9.457551e+000 214 217 212
6.263094e-001 -3.140300e-001 -7.375871e+000 76 55 99
-1.289425e+000 2.537565e+000 -1.101929e+001 141 104 48
7.028624e-001 -7.473419e-001 -7.133712e+000 63 47 93
1.416277e+000 -1.374956e+000 -6.469484e+000 53 39 54
-1.304631e+000 2.394220e+000 -1.096193e+001 168 132 70
-4.369829e-001 9.168173e-001 -9.324714e+000 88 60 72
6.534989e-001 -7.690629e-001 -7.243057e+000 65 52 82
1.750121e+000 -1.722937e+000 -6.353495e+000 88 80 108
-1.500386e+000 2.194863e+000 -1.120684e+001 77 59 85
-7.645502e-001 1.227374e+000 -1.001422e+001 92 72 88
-3.213018e-001 6.743132e-001 -9.195166e+000 88 71 77
-3.213018e-001 6.743132e-001 -9.195166e+000 88 71 77
5.804585e-001 -8.715894e-001 -7.303340e+000 72 56 92
1.681055e+000 -1.692961e+000 -6.403094e+000 89 79 106
-9.130771e-001 1.038864e+000 -1.015572e+001 210 227 221
-8.092289e-001 8.662264e-001 -9.938880e+000 211 226 222
-1.017567e+000 1.030678e+000 -1.028957e+001 97 83 102
4.317656e-002 -4.709538e-001 -8.304096e+000 207 228 221
3.140057e-002 -5.263757e-001 -8.287254e+000 77 52 69
-9.712894e-001 4.968339e-001 -1.005606e+001 195 227 218
-9.712894e-001 4.968339e-001 -1.005606e+001 195 227 218
-4.806453e-002 -5.253722e-001 -8.425285e+000 203 224 213
-4.806453e-002 -5.253722e-001 -8.425285e+000 203 224 213
-1.393931e-001 -5.375879e-001 -8.544276e+000 84 56 82
-1.367869e-001 -5.865259e-001 -8.547189e+000 204 223 221
-2.920968e-001 -7.033116e-001 -8.751965e+000 204 225 216
-9.054524e-001 -9.471908e-001 -9.530455e+000 76 55 62
-6.718510e-001 -1.234064e+000 -9.148704e+000 214 213 211
7.772256e-001 -2.402864e+000 -7.207115e+000 60 47 65
-9.193530e-001 5.587286e+000 -1.098565e+001 195 208 191
-8.352367e-001 5.269299e+000 -1.087104e+001 190 204 187
-9.222981e-002 3.411197e+000 -9.186267e+000 112 68 45
2.407837e-001 1.969962e+000 -8.426437e+000 209 220 212
-1.426953e+000 5.082229e+000 -1.162566e+001 182 175 149
2.988542e-001 1.562135e+000 -8.209538e+000 212 223 215
2.988542e-001 1.562135e+000 -8.209538e+000 212 223 215
2.013287e-001 1.606404e+000 -8.339640e+000 66 58 60
3.453253e-001 1.325473e+000 -8.143714e+000 198 229 213
-4.488024e-001 2.170000e+000 -9.683554e+000 217 227 218
-8.047500e-003 1.024954e+000 -8.710165e+000 214 231 220
-8.047500e-003 1.024954e+000 -8.710165e+000 214 231 220
3.992126e-001 2.076471e-001 -7.791448e+000 102 68 98
-8.099081e-001 2.028200e+000 -1.024964e+001 211 229 217
9.716467e-002 4.950491e-001 -8.425449e+000 206 230 216
9.716467e-002 4.950491e-001 -8.425449e+000 206 230 216
-4.135633e-001 8.507765e-001 -9.401098e+000 73 63 63
-4.393710e-001 7.430192e-001 -9.375626e+000 63 63 61
1.706548e-001 -4.220490e-002 -8.263681e+000 203 232 220
5.982519e-001 -8.300348e-001 -7.314736e+000 73 61 91
5.280352e-001 -9.235495e-001 -7.370602e+000 69 59 92
-1.242635e+000 1.526186e+000 -1.072009e+001 83 67 71
-4.196850e-001 -7.412215e-001 -8.951830e+000 84 53 67
-2.552206e-001 -1.061961e+000 -8.574523e+000 78 60 84
-3.165057e-001 -1.132022e+000 -8.611302e+000 90 55 66
-7.283329e-001 -8.099565e-001 -9.323383e+000 79 60 66
-6.797378e-001 -9.142852e-001 -9.289740e+000 78 61 69
-6.791149e-001 -9.864282e-001 -9.261083e+000 219 225 224
-6.787878e-001 -9.844647e-001 -9.266068e+000 219 225 224
8.824030e-001 -2.625432e+000 -7.493941e+000 60 31 43
-1.431488e-002 -2.558495e+000 -7.738959e+000 50 39 82
-1.136696e-001 3.160900e+000 -9.200721e+000 191 162 106
-8.463454e-001 4.069422e+000 -1.066888e+001 100 68 54
-6.150194e-001 3.503760e+000 -1.016819e+001 195 174 118
2.660264e-001 1.448740e+000 -8.338363e+000 67 56 58
-1.150302e-001 1.867380e+000 -9.023320e+000 210 228 212
-3.935020e-001 2.312286e+000 -9.631455e+000 218 226 213
-2.466602e+000 5.289669e+000 -1.309936e+001 150 167 175
-6.197656e-002 1.364254e+000 -8.801255e+000 90 71 90
-4.332065e-002 1.184824e+000 -8.824366e+000 93 71 97
-2.531766e-001 1.023652e+000 -9.166065e+000 110 68 75
-1.819936e+000 2.964186e+000 -1.170144e+001 71 64 80
-1.388222e+000 2.612486e+000 -1.115097e+001 187 158 100
-9.211523e-001 1.910724e+000 -1.037424e+001 212 231 223
-7.115915e-001 5.883561e-001 -9.764803e+000 86 72 97
-8.535644e-001 5.301472e-001 -9.963445e+000 102 62 88
-7.085155e-001 2.449513e-001 -9.590918e+000 108 74 88
-9.619438e-001 -9.293322e-001 -9.592045e+000 218 233 225
-9.619438e-001 -9.293322e-001 -9.592045e+000 218 233 225
-6.149007e-001 -1.386974e+000 -8.941023e+000 70 62 74
-2.163098e-001 3.477028e+000 -9.500014e+000 121 83 63
-2.232124e+000 4.622907e+000 -1.275051e+001 167 169 158
4.997717e-001 -1.482405e-001 -7.622921e+000 81 66 93
-7.406689e-001 1.503615e+000 -9.913479e+000 77 65 90
-7.463880e-001 1.573998e+000 -1.001294e+001 77 65 90
-5.529565e-001 9.958145e-001 -9.621208e+000 112 72 94
5.603621e-001 -7.702724e-001 -7.348368e+000 145 142 161
3.290506e-001 -5.766184e-001 -7.794609e+000 74 60 95
-8.997381e-001 4.119219e-001 -9.970451e+000 116 76 98
3.378335e-001 -1.125934e+000 -7.689397e+000 198 210 217
1.628201e+000 -2.502997e+000 -7.396539e+000 60 19 59
3.788976e-001 -2.757639e+000 -7.833822e+000 31 11 20
3.788976e-001 -2.757639e+000 -7.833822e+000 31 11 20
-6.697845e-001 4.616676e+000 -1.046630e+001 184 154 94
6.443038e-002 2.737898e+000 -8.827646e+000 208 225 209
-3.664881e-001 3.332835e+000 -9.758257e+000 185 153 110
2.752894e-001 7.082596e-001 -8.090881e+000 205 225 213
2.261303e-001 6.742488e-001 -8.208359e+000 80 68 79
3.203151e-001 5.105043e-001 -8.077662e+000 214 231 221
3.203151e-001 5.105043e-001 -8.077662e+000 214 231 221
-9.009898e-001 2.469789e+000 -1.047591e+001 182 152 100
-8.221046e-002 8.619146e-001 -8.823884e+000 206 230 217
2.968367e-001 -1.580519e-001 -8.032740e+000 82 61 99
-1.503820e+000 2.295078e+000 -1.120659e+001 171 140 89
-1.503820e+000 2.295078e+000 -1.120659e+001 171 140 89
-1.190309e+000 1.580186e+000 -1.065860e+001 216 228 219
4.271429e-001 -1.074569e+000 -7.573080e+000 67 54 81
8.080023e-001 -2.413419e+000 -7.240427e+000 55 41 66
-1.029506e+000 5.139565e+000 -1.103351e+001 194 202 188
-1.249216e+000 5.144781e+000 -1.147790e+001 195 206 190
1.797486e-001 4.744886e-001 -8.247005e+000 210 230 221
3.520650e-001 -5.141123e-001 -7.712899e+000 206 226 215
1.560185e+000 -1.746860e+000 -6.670334e+000 51 43 56
7.829015e-001 -1.998195e+000 -7.125320e+000 79 77 116
7.783918e-001 -2.007130e+000 -7.105643e+000 79 77 116
6.304895e-001 -2.284294e+000 -7.122947e+000 50 33 75
1.641104e+000 -2.599560e+000 -7.650381e+000 79 26 103
3.973424e-002 7.280391e-001 -8.509202e+000 80 64 92
-1.265309e+000 2.502999e+000 -1.100512e+001 186 152 97
-1.246797e+000 2.410742e+000 -1.088730e+001 186 152 97
1.379977e+000 -1.357208e+000 -6.506320e+000 110 98 134
5.689717e-001 -5.511708e-001 -7.430558e+000 66 51 82
-9.878502e-001 1.465792e+000 -1.048326e+001 72 58 75
2.100817e-001 -9.614083e-001 -7.890517e+000 76 55 97
2.100817e-001 -9.614083e-001 -7.890517e+000 76 55 97
-9.377272e-002 -8.389117e-001 -8.393552e+000 123 111 127
1.683047e+000 -2.562015e+000 -7.520277e+000 157 127 191
1.683047e+000 -2.562015e+000 -7.520277e+000 157 127 191
1.219165e-001 2.199353e-001 -8.301536e+000 71 60 90
-9.352361e-001 -4.233529e-001 -9.662074e+000 214 233 224
-1.176020e-001 -1.184069e+000 -8.426393e+000 77 64 108
1.484574e+000 -2.630927e+000 -7.527290e+000 60 27 51
-3.768409e+001 -1.847317e+001 -6.856984e+001 86 79 72
-4.263350e+001 -2.164891e+001 -7.373713e+001 168 151 143
-4.057484e+001 -2.140452e+001 -7.205915e+001 162 156 144
-3.973241e+001 -2.089532e+001 -7.063542e+001 162 156 144
-3.500552e+001 -2.876785e+001 -7.145015e+001 116 121 115
-2.903504e+001 -2.842604e+001 -7.127662e+001 122 134 124
-2.536962e+001 -2.902926e+001 -7.462152e+001 123 129 115
-2.568974e+001 -2.988819e+001 -7.027885e+001 178 182 165
-2.960752e+001 -2.782376e+001 -7.466056e+001 121 130 117
-2.711760e+001 -3.225430e+001 -6.832678e+001 107 115 100
-3.143634e+001 -2.848482e+001 -7.014070e+001 170 180 169
-3.027058e+001 -2.902691e+001 -6.931843e+001 96 78 65
-2.501321e+001 -2.978820e+001 -7.149505e+001 95 72 64
-2.342551e+001 -2.921768e+001 -7.253581e+001 155 165 156
-2.993811e+001 -3.155077e+001 -6.769896e+001 154 152 139
-2.834394e+001 -3.141523e+001 -6.773952e+001 193 197 182
-2.834394e+001 -3.141523e+001 -6.773952e+001 193 197 182
-2.920498e+001 -1.343222e+001 -5.851371e+001 45 39 35
-2.769619e+001 -2.852344e+001 -7.127463e+001 177 187 176
-3.454698e+001 -2.942162e+001 -6.596023e+001 130 132 121
-2.476181e+001 -3.265466e+001 -7.043558e+001 44 39 39
-3.001587e+001 -3.031814e+001 -6.862927e+001 207 219 208
-3.264637e+001 -2.874115e+001 -6.856083e+001 89 80 74
-3.276861e+001 -3.101732e+001 -6.812453e+001 188 188 178
-2.589069e+001 -3.131425e+001 -7.003218e+001 197 206 187
-1.149163e+000 2.658182e+000 -1.084684e+001 105 58 48
-1.457634e+000 2.447461e+000 -1.120616e+001 105 69 37
8.452355e-003 2.250772e+000 -8.897293e+000 94 64 81
3.129125e+000 1.519817e+000 -9.843742e+000 45 29 12
-6.382335e-001 3.043650e+000 -1.019315e+001 183 146 87
2.028472e+000 2.722648e+000 -9.504157e+000 125 104 73
-1.260842e+000 1.601959e+000 -1.068583e+001 80 67 68
1.932996e+000 7.915944e-001 -8.089940e+000 128 108 71
2.486413e+000 3.032950e+000 -1.007388e+001 79 71 52
1.252361e+000 2.517745e+000 -8.680024e+000 80 60 36
1.598079e+000 2.584768e+000 -9.092207e+000 120 103 66
-6.768901e-001 3.331956e+000 -1.020681e+001 94 59 38
-1.016835e+000 3.032372e+000 -1.079720e+001 174 119 92
-1.296385e+000 2.856009e+000 -1.117452e+001 199 155 126
-1.416830e+000 2.241810e+000 -1.107962e+001 152 112 64
-1.094732e+000 2.417468e+000 -1.075090e+001 125 70 47
-6.764230e-001 1.881252e+000 -9.988574e+000 113 90 102
-1.284687e+000 2.819968e+000 -1.105418e+001 120 68 48
-6.915191e-001 2.498629e+000 -1.011762e+001 192 164 128
-1.765629e-001 2.584899e+000 -9.152662e+000 77 55 56
-7.581588e-001 2.110215e+000 -1.009872e+001 92 63 67
-8.831456e-001 2.010616e+000 -1.026992e+001 79 57 56
-1.277204e+000 1.707188e+000 -1.077419e+001 73 57 62
-1.502477e-001 1.819402e+000 -9.096894e+000 65 51 58
-9.112145e-001 -1.014101e+000 -9.417868e+000 175 165 173
-5.769886e-001 -1.184876e+000 -8.847036e+000 191 178 188
-1.162192e+000 3.137818e+000 -1.101183e+001 143 95 57
-5.768641e-002 3.267456e+000 -9.106355e+000 181 136 71
-9.124533e-001 2.780780e+000 -1.054321e+001 99 56 43
-6.837694e-001 2.843717e+000 -1.025319e+001 189 149 82
-4.455330e-001 2.842096e+000 -9.770031e+000 181 143 81
-3.166052e-001 2.880592e+000 -9.601580e+000 201 166 110
-1.163644e+000 1.782042e+000 -1.058593e+001 81 66 73
-1.201836e+000 1.495727e+000 -1.061155e+001 74 61 69
-6.335845e-001 1.368894e+000 -9.740288e+000 205 221 210
-2.795206e-001 1.549145e+000 -9.072125e+000 88 72 83
-4.720731e-001 8.814809e-001 -9.374531e+000 213 221 221
-3.550769e-001 9.677477e-001 -9.344702e+000 88 58 67
9.669844e-002 6.152322e-001 -8.229540e+000 214 227 215
-7.464885e-001 -1.011048e+000 -9.186247e+000 194 192 195
-7.464885e-001 -1.011048e+000 -9.186247e+000 194 192 195
-1.196079e-001 -4.977969e-001 -8.340164e+000 204 205 207
-6.603493e-001 3.189364e+000 -1.025674e+001 205 173 119
-6.277116e-001 3.132696e+000 -1.018699e+001 160 96 55
1.112817e+000 3.342491e+000 -9.050379e+000 129 106 73
-7.249941e-001 2.448509e+000 -1.017609e+001 78 59 60
-4.282462e-001 2.280485e+000 -9.604841e+000 87 76 84
-4.282462e-001 2.280485e+000 -9.604841e+000 87 76 84
-1.188245e+000 1.537003e+000 -1.048335e+001 72 58 68
-9.840387e-001 1.613092e+000 -1.026465e+001 215 225 211
2.142823e-001 1.998986e+000 -8.363242e+000 206 226 214
-7.947492e-001 4.929496e-001 -9.695790e+000 212 228 212
-7.006963e-001 2.802402e-001 -9.699387e+000 98 74 84
1.319304e+000 1.508016e+000 -8.004939e+000 128 109 73
1.930860e+000 1.187867e+000 -8.391957e+000 130 111 74
-2.927766e-001 -5.882248e-001 -8.616764e+000 211 220 218
2.905447e+000 5.971264e-002 -8.689294e+000 108 88 53
2.905447e+000 5.971264e-002 -8.689294e+000 108 88 53
-5.592513e-001 -1.031991e+000 -8.872778e+000 204 203 209
1.427250e-002 -5.362840e-001 -8.223009e+000 108 61 97
-9.288357e-002 3.451203e+000 -9.120650e+000 114 65 48
1.882743e+000 3.658485e+000 -9.939761e+000 94 73 41
1.917039e+000 3.645721e+000 -1.009260e+001 94 73 41
-7.216914e-002 3.216007e+000 -9.029385e+000 185 138 72
1.682567e+000 3.411699e+000 -9.759000e+000 121 100 63
1.715282e+000 3.356101e+000 -9.728227e+000 65 58 41
1.588027e+000 3.234230e+000 -9.455818e+000 127 107 73
-8.406053e-001 2.523482e+000 -1.037817e+001 177 110 70
1.880759e+000 3.191837e+000 -9.648573e+000 114 94 62
2.445103e+000 3.130571e+000 -1.021996e+001 111 88 67
2.412820e+000 2.991987e+000 -1.001082e+001 123 98 57
2.635789e+000 2.994626e+000 -1.020408e+001 64 55 42
-4.179845e-001 2.354919e+000 -9.633178e+000 220 223 216
2.774587e+000 2.828818e+000 -1.040449e+001 56 38 14
-9.596933e-001 1.945413e+000 -1.038528e+001 211 226 215
-4.877904e-001 2.224399e+000 -9.695763e+000 216 221 212
1.523398e+000 2.766245e+000 -9.116509e+000 80 63 35
2.366465e+000 2.733960e+000 -9.865472e+000 68 45 19
-2.567025e-001 2.162689e+000 -9.272707e+000 213 220 213
-2.567025e-001 2.162689e+000 -9.272707e+000 213 220 213
2.976595e+000 2.591488e+000 -1.039244e+001 81 57 36
-4.494071e-001 2.002797e+000 -9.571064e+000 212 224 216
-4.519634e-001 1.982211e+000 -9.640967e+000 212 224 216
1.516511e+000 2.500121e+000 -8.976983e+000 125 105 66
2.044102e+000 2.473395e+000 -9.388279e+000 79 57 28
2.409626e+000 2.539803e+000 -9.673466e+000 85 65 39
2.990186e+000 2.404266e+000 -1.025774e+001 69 44 22
1.663672e-002 1.937892e+000 -8.727029e+000 212 224 214
1.375186e+000 2.233692e+000 -8.637256e+000 131 112 72
2.264133e+000 2.277002e+000 -9.507850e+000 123 101 62
2.778625e+000 2.275038e+000 -9.831060e+000 82 58 35
1.977139e+000 2.065956e+000 -9.109352e+000 81 61 35
3.053317e+000 2.100055e+000 -1.005188e+001 81 57 29
1.783497e+000 1.953420e+000 -8.985167e+000 82 60 33
2.950851e+000 1.723134e+000 -9.829399e+000 108 83 53
3.982303e+000 1.865760e+000 -9.808970e+000 150 116 52
3.187926e+000 1.232998e+000 -9.834924e+000 70 47 30
2.197475e+000 1.351195e+000 -8.859253e+000 79 62 35
2.986884e+000 1.233996e+000 -9.583865e+000 112 87 57
2.211967e+000 1.203262e+000 -8.758164e+000 126 104 67
1.851506e+000 1.251101e+000 -8.359845e+000 60 43 17
2.062958e+000 1.021070e+000 -8.383394e+000 75 63 47
2.843941e+000 6.866611e-001 -9.005335e+000 114 96 58
2.843941e+000 6.866611e-001 -9.005335e+000 114 96 58
2.863391e+000 6.232683e-001 -8.995303e+000 60 40 15
-7.856999e-001 -7.110463e-001 -9.376050e+000 211 221 213
-3.973799e-001 -4.424310e-001 -8.889020e+000 209 222 213
7.658136e-002 -1.007112e-001 -8.256880e+000 216 224 214
4.388365e-001 2.577875e-001 -7.809473e+000 92 59 86
2.167444e+000 4.395906e-001 -8.135393e+000 130 107 67
3.028502e+000 1.798293e-001 -8.900748e+000 70 48 24
-4.039525e-001 -8.360484e-001 -8.786792e+000 187 176 184
2.440520e+000 1.097600e-001 -8.247772e+000 91 65 41
2.440520e+000 1.097600e-001 -8.247772e+000 91 65 41
-2.821127e-001 -8.963109e-001 -8.449321e+000 206 211 214
-2.821127e-001 -8.963109e-001 -8.449321e+000 206 211 214
2.523204e+000 5.334008e-002 -8.268643e+000 123 97 60
1.421047e+000 3.565599e+000 -9.580391e+000 127 105 67
1.337666e+000 3.534590e+000 -9.466000e+000 110 90 58
1.189494e+000 3.365811e+000 -9.205790e+000 78 69 45
-9.339100e-001 2.605787e+000 -1.051850e+001 199 167 122
-9.388598e-001 2.597777e+000 -1.055897e+001 199 167 122
1.604179e+000 2.844566e+000 -9.285007e+000 94 75 46
1.223242e+000 2.618268e+000 -8.730578e+000 79 61 37
1.366133e+000 2.591001e+000 -8.854120e+000 76 59 42
1.366133e+000 2.591001e+000 -8.854120e+000 76 59 42
-8.718871e-001 1.628923e+000 -1.011749e+001 78 63 82
1.276401e+000 2.301851e+000 -8.559841e+000 84 70 42
1.856399e+000 2.287825e+000 -9.127884e+000 74 57 30
2.379211e+000 2.248376e+000 -9.552993e+000 117 97 60
3.868638e+000 2.004700e+000 -9.981215e+000 155 120 62
1.918188e+000 1.834414e+000 -9.012141e+000 71 54 28
1.419487e+000 1.533202e+000 -8.143664e+000 79 59 32
2.002604e+000 1.001325e+000 -8.271367e+000 126 110 70
3.066508e+000 6.863717e-001 -9.238229e+000 57 53 42
1.634078e+000 1.030697e+000 -7.899344e+000 78 66 50
1.634078e+000 1.030697e+000 -7.899344e+000 78 66 50
1.789482e+000 7.947154e-001 -7.888686e+000 88 64 38
-5.344037e-001 -7.153865e-001 -8.990304e+000 75 61 72
1.688970e+000 3.743730e-001 -7.540021e+000 111 87 53
-5.439022e-001 3.223423e+000 -1.003251e+001 201 177 133
2.914016e+000 3.544946e+000 -1.076908e+001 83 56 32
-4.575589e-001 2.653582e+000 -9.803368e+000 197 172 130
-7.262917e-001 1.718722e+000 -9.873284e+000 84 67 99
-3.088601e-002 1.964509e+000 -8.881399e+000 71 58 75
-1.122216e+000 4.742805e-001 -1.018988e+001 178 182 185
1.941287e+000 1.645014e+000 -8.875001e+000 84 68 42
-3.455537e-001 7.832820e-001 -9.151892e+000 215 224 217
1.582700e+000 1.002314e+000 -7.786256e+000 125 103 66
-1.906305e-001 -2.597270e-001 -8.593907e+000 211 222 214
-3.561471e-001 -6.233753e-001 -8.778556e+000 84 63 78
3.450450e-001 9.208381e-002 -7.846520e+000 85 62 94
1.479291e+000 5.673490e-001 -7.436530e+000 75 51 27
9.975307e-002 -2.156267e-001 -8.067198e+000 110 62 96
-8.882562e-003 2.797952e+000 -8.952668e+000 215 221 209
-1.014308e+000 3.847192e-001 -1.007970e+001 90 76 101
-1.000616e+000 4.405891e-001 -9.962400e+000 90 76 101
2.689413e-002 1.020474e+000 -8.424687e+000 83 66 100
1.657662e-001 5.140303e-002 -8.245390e+000 83 62 95
2.367382e-001 6.202057e-002 -8.011344e+000 210 221 214
4.653056e-001 2.660132e-001 -7.638153e+000 207 219 208
-7.857620e-001 -1.208222e+000 -9.069684e+000 66 52 60
-6.167595e-001 -1.092693e+000 -8.954494e+000 193 193 194
1.164742e+000 3.473638e+000 -9.148208e+000 127 102 59
-8.464763e-001 2.761825e+000 -1.047854e+001 103 63 51
2.012867e+000 3.016952e+000 -9.635167e+000 128 104 66
2.012867e+000 3.016952e+000 -9.635167e+000 128 104 66
-7.082057e-001 5.798897e-001 -9.735649e+000 80 61 88
2.948423e-001 1.293853e+000 -8.157872e+000 206 222 209
-2.174359e+001 -3.215381e+001 -7.284067e+001 127 124 107
-2.614618e+001 -2.893623e+001 -7.945554e+001 118 121 103
-2.614618e+001 -2.893623e+001 -7.945554e+001 118 121 103
8.906689e-001 3.159599e+000 -8.632790e+000 126 104 67
-1.195962e+000 2.155166e+000 -1.076669e+001 87 65 84
1.416830e+000 3.240063e+000 -9.297984e+000 84 77 56
1.726657e+000 2.992408e+000 -9.420592e+000 117 97 64
-3.623433e+001 -2.892056e+001 -6.602079e+001 161 161 151
-2.338268e+001 -2.876037e+001 -7.379647e+001 105 108 93
-2.191986e+001 -4.208008e+001 -7.172526e+001 125 116 98
-1.868901e+001 -4.303755e+001 -7.446880e+001 133 127 110
-3.479230e+001 -2.861431e+001 -6.880910e+001 157 160 151
-2.202677e+001 -3.041888e+001 -7.391316e+001 122 121 106
-2.324627e+001 -4.395582e+001 -7.294278e+001 63 48 32
-2.728153e+001 -3.293753e+001 -6.752099e+001 182 192 181
-3.787634e+001 -2.937812e+001 -6.829772e+001 179 184 177
-2.714238e+001 -3.409536e+001 -6.674516e+001 37 33 30
-3.223659e+001 -3.276252e+001 -6.521850e+001 79 52 48
-2.916234e+001 -3.171412e+001 -6.891652e+001 192 199 183
-2.395000e+001 4.646992e+001 -8.846742e+001 165 38 61
-2.561807e+001 4.441453e+001 -8.779190e+001 194 43 60
-3.548419e+001 4.889074e+001 -9.089246e+001 204 52 71
-3.309476e+001 4.539195e+001 -8.689460e+001 206 60 77
-2.695756e+001 4.813772e+001 -8.917568e+001 197 37 55
-2.599371e+001 5.060644e+001 -9.235857e+001 185 48 61
-2.341875e+001 4.412254e+001 -8.936941e+001 191 39 58
-4.111630e+001 6.103903e+001 -9.298935e+001 99 89 88
-2.396312e+001 4.967451e+001 -8.880418e+001 62 48 47
-3.311503e+001 5.464163e+001 -9.168543e+001 132 96 82
-1.089178e+000 1.587693e+000 -1.053416e+001 89 72 82
2.317417e+000 3.561040e+000 -1.027557e+001 73 48 18
2.317417e+000 3.561040e+000 -1.027557e+001 73 48 18
2.402726e+000 3.551069e+000 -1.034276e+001 85 59 32
2.402726e+000 3.551069e+000 -1.034276e+001 85 59 32
2.285403e+000 3.403072e+000 -1.015719e+001 114 90 58
1.852688e+000 3.237867e+000 -9.666617e+000 71 65 46
2.227902e+000 2.717208e+000 -9.637007e+000 130 110 75
2.192862e+000 2.464785e+000 -9.468172e+000 84 68 42
2.277280e+000 2.233909e+000 -9.419878e+000 98 78 45
2.360687e+000 1.407497e+000 -9.086414e+000 62 41 14
2.546198e+000 1.372578e+000 -9.239099e+000 65 43 19
1.963914e+000 2.587936e+000 -9.386859e+000 80 60 33
2.843475e-002 1.827502e+000 -8.752690e+000 92 90 96
-8.061786e-001 1.601489e+000 -1.008858e+001 79 62 81
-1.073741e+000 9.918223e-001 -1.033543e+001 87 75 91
-7.631808e-001 3.050800e+000 -1.034571e+001 189 154 93
-8.263903e-001 1.155932e+000 -1.006613e+001 77 65 86
-9.715678e-001 5.426868e+000 -1.096284e+001 185 197 179
-8.871259e-001 5.221082e+000 -1.092794e+001 186 199 180
-7.948741e-001 3.346707e+000 -1.047562e+001 198 180 128
-6.449847e-001 2.045838e+000 -1.003653e+001 155 139 142
-1.065251e+000 1.837823e+000 -1.054431e+001 161 153 154
-9.270773e-001 1.067722e+000 -1.013473e+001 95 75 85
-1.188476e-001 3.580055e+000 -9.210352e+000 176 158 108
-7.632470e-001 5.334998e+000 -1.062508e+001 165 174 157
-7.241996e-001 4.906458e+000 -1.064406e+001 175 144 84
-9.503322e-001 4.588822e+000 -1.091806e+001 135 110 79
-5.359622e-001 3.582748e+000 -1.007738e+001 189 150 107
-4.667399e-001 3.474563e+000 -1.000606e+001 175 143 105
-9.722922e-001 4.271346e+000 -1.094482e+001 135 109 77
-6.232555e-001 3.241926e+000 -1.013958e+001 116 93 52
-1.031541e-002 1.612767e+000 -8.831681e+000 64 61 62
-7.563686e-001 3.066756e+000 -1.033835e+001 194 159 99
-1.501912e+000 4.697502e+000 -1.184842e+001 182 173 144
-9.618772e-001 3.048735e+000 -1.064706e+001 124 76 45
-1.141240e+000 4.021208e-001 -1.029389e+001 75 62 85
-2.925194e-001 3.258246e+000 -9.506801e+000 185 163 113
-9.622436e-001 2.990124e+000 -1.068710e+001 152 107 74
-6.583809e-001 1.201169e+000 -9.847936e+000 211 227 219
-1.185714e+000 1.381060e+000 -1.061397e+001 203 212 210
-5.386143e-001 -9.893132e-001 -9.056627e+000 72 51 62
8.153949e-003 -2.589357e+000 -7.708951e+000 92 90 125
-3.717479e-001 5.126447e+000 -9.912607e+000 143 112 66
-1.033668e+000 5.996753e+000 -1.102529e+001 124 110 95
-7.708300e-001 5.625246e+000 -1.072182e+001 200 213 195
-6.831410e-001 5.425474e+000 -1.065473e+001 190 202 182
-5.150284e-001 3.141602e+000 -9.950119e+000 184 170 121
3.805048e-001 6.467943e-001 -7.951813e+000 81 58 75
-3.215076e-001 2.163243e+000 -9.514875e+000 84 69 74
-1.248128e+000 2.818971e+000 -1.099808e+001 159 118 88
-1.893819e+000 3.199135e+000 -1.187763e+001 164 131 90
-1.021384e+000 1.614239e+000 -1.043605e+001 209 217 208
-1.234672e+000 6.585543e-001 -1.049843e+001 78 65 82
-7.424435e-001 -1.285463e+000 -9.249229e+000 67 51 53
3.535619e-002 -2.615895e+000 -7.714429e+000 52 44 83
-2.852382e-001 4.384570e+000 -9.717848e+000 117 81 33
-5.772341e-001 4.513205e+000 -1.015786e+001 181 151 87
-5.755802e-001 1.280854e+000 -9.771615e+000 101 75 91
-1.702968e+000 2.773014e+000 -1.157520e+001 167 127 79
3.609385e-001 -1.053065e+000 -7.635080e+000 68 56 93
-3.220863e-003 -2.489917e+000 -7.651405e+000 81 80 114
1.016774e-001 -2.657066e+000 -7.710878e+000 82 71 111
-1.587679e+000 4.904629e+000 -1.182509e+001 179 173 146
-8.006036e-001 2.142224e+000 -1.020827e+001 73 61 51
-1.366340e+000 2.862963e+000 -1.111886e+001 89 65 53
-2.109978e+000 3.739799e+000 -1.231951e+001 173 166 156
-6.582034e-001 5.659792e+000 -1.061657e+001 179 190 172
-6.582034e-001 5.659792e+000 -1.061657e+001 179 190 172
-7.985182e-001 3.449339e+000 -1.042584e+001 180 163 111
-7.354775e-001 4.241186e-001 -9.754438e+000 109 76 93
-8.447689e-001 5.425747e+000 -1.085544e+001 195 203 185
-1.254577e+000 5.165718e+000 -1.150004e+001 197 209 189
3.951635e-001 4.981775e-001 -7.927811e+000 86 69 95
-2.092233e-001 1.821043e+000 -9.126167e+000 72 62 73
-4.722114e-001 1.861328e+000 -9.785781e+000 75 63 77
-2.554492e-001 -7.164521e-003 -8.937780e+000 74 60 73
-1.042397e+000 7.187266e-001 -1.023733e+001 207 219 214
-8.928154e-001 -1.383298e+000 -9.476835e+000 80 58 68
-1.219481e+000 5.724211e+000 -1.133519e+001 120 110 100
-6.226767e-001 3.049072e+000 -1.013290e+001 191 169 119
-9.862979e-001 3.143583e+000 -1.076619e+001 155 109 59
-1.364672e+000 2.470668e+000 -1.103868e+001 180 145 86
2.606749e-002 2.070269e+000 -8.842678e+000 119 111 135
-2.627733e-001 3.106959e+000 -9.432857e+000 204 167 112
-7.827687e-001 9.351950e-001 -9.943171e+000 74 57 84
2.070612e+000 1.596737e+000 -8.948983e+000 72 51 22
-8.395830e-001 3.202880e+000 -1.043969e+001 199 161 90
-7.763523e-001 3.155208e+000 -1.035975e+001 219 181 124
-7.485212e-001 3.034115e+000 -1.032224e+001 203 164 93
-1.043084e-001 3.317244e+000 -9.146140e+000 196 152 106
-4.437600e-001 3.017640e+000 -9.785185e+000 139 88 42
-1.048248e+000 2.401852e+000 -1.063550e+001 154 90 68
-5.789963e-001 2.230240e+000 -9.893231e+000 223 215 216
-1.158331e+000 1.652579e+000 -1.063333e+001 72 62 72
-1.138305e+000 2.978227e+000 -1.086562e+001 174 125 93
-1.020092e+000 2.704372e+000 -1.074797e+001 101 56 43
-1.020092e+000 2.704372e+000 -1.074797e+001 101 56 43
-7.501333e-001 2.894582e+000 -1.029758e+001 203 155 105
1.963137e+000 3.545466e+000 -9.902388e+000 88 65 31
2.688648e+000 3.410605e+000 -1.045378e+001 82 56 31
2.867373e+000 3.273017e+000 -1.052291e+001 60 37 21
-5.214883e-001 2.264582e+000 -9.812533e+000 75 60 85
1.733443e+000 2.679830e+000 -9.261193e+000 124 102 65
2.946630e+000 2.687488e+000 -1.029608e+001 111 84 63
3.025799e+000 2.706977e+000 -1.041542e+001 75 50 30
2.516465e+000 2.425254e+000 -9.690104e+000 91 68 37
2.516465e+000 2.425254e+000 -9.690104e+000 91 68 37
-1.170824e+000 6.446214e-001 -1.039861e+001 217 222 221
-5.587972e-001 1.071691e+000 -9.541197e+000 105 65 92
2.358402e+000 1.996717e+000 -9.404408e+000 71 46 17
2.899750e+000 1.816113e+000 -9.744614e+000 54 32 8
1.570844e+000 1.868804e+000 -8.652587e+000 122 104 66
2.479083e+000 1.589804e+000 -9.363477e+000 112 87 57
2.777531e+000 1.539615e+000 -9.604201e+000 115 91 60
2.815592e+000 1.590946e+000 -9.636443e+000 96 71 51
2.892972e+000 1.523633e+000 -9.691574e+000 109 83 56
2.892972e+000 1.523633e+000 -9.691574e+000 109 83 56
3.255420e+000 1.591744e+000 -9.944982e+000 102 75 58
3.238698e+000 1.532313e+000 -9.962067e+000 49 30 15
1.260904e+000 1.760793e+000 -8.181543e+000 141 119 82
2.142857e+000 1.557088e+000 -9.003574e+000 132 108 69
-6.799987e-001 6.939826e-002 -9.663306e+000 66 54 66
2.882471e+000 1.180181e+000 -9.381006e+000 130 99 71
-9.724241e-001 -9.515862e-001 -9.743885e+000 222 226 226
