ply
format ascii 1.0
element face 0
property list uchar int vertex_indices
element vertex 876
property float x
property float y
property float z
property uchar diffuse_red
property uchar diffuse_green
property uchar diffuse_blue
end_header
-2.636883e-001 5.024363e+000 -1.016677e+001 185 130 98
-6.266657e-001 4.055739e+000 -1.066746e+001 87 54 47
-1.316660e+000 2.555629e+000 -1.135583e+001 152 122 91
-7.896676e-002 5.100656e+000 -9.794199e+000 123 74 59
1.989107e+000 5.157926e+000 -1.067805e+001 128 94 69
-7.815213e-002 4.290693e+000 -9.754448e+000 180 133 79
1.471388e+000 5.129265e+000 -1.011812e+001 69 36 17
1.960923e+000 5.176251e+000 -1.058256e+001 131 95 69
2.228706e+000 5.013713e+000 -1.079269e+001 135 104 78
-6.025662e-001 2.691625e+000 -1.033931e+001 183 142 109
1.032590e+000 4.151919e+000 -9.392841e+000 94 63 32
2.771622e+000 4.039562e+000 -1.076672e+001 125 100 81
1.297973e+000 4.034446e+000 -9.605191e+000 91 61 33
1.009425e+000 4.007989e+000 -9.281131e+000 73 49 26
3.109397e+000 2.944312e+000 -1.064270e+001 123 101 88
1.683150e+000 3.143664e+000 -9.551832e+000 160 140 129
2.963587e+000 2.708780e+000 -1.033987e+001 154 128 113
-8.542788e-001 -1.258415e+000 -9.639663e+000 104 63 90
2.398459e+000 2.681843e+000 -9.759134e+000 167 137 117
3.107409e+000 2.475193e+000 -1.027811e+001 149 123 106
3.193690e+000 2.321596e+000 -1.029661e+001 143 114 97
-6.283538e-001 -1.050923e+000 -9.472511e+000 70 61 78
1.148367e+000 2.827532e+000 -8.764512e+000 165 135 111
2.261384e+000 2.450240e+000 -9.527774e+000 120 92 71
2.261384e+000 2.450240e+000 -9.527774e+000 120 92 71
2.414693e+000 2.365431e+000 -9.611751e+000 171 140 118
2.391654e+000 2.454253e+000 -9.611824e+000 126 95 77
2.391654e+000 2.454253e+000 -9.611824e+000 126 95 77
-6.683591e-001 -1.689967e+000 -9.371368e+000 97 84 108
1.997766e+000 2.262825e+000 -9.293107e+000 173 145 125
2.306376e+000 2.410687e+000 -9.528882e+000 170 139 121
2.330536e+000 2.274411e+000 -9.502897e+000 165 134 113
2.330536e+000 2.274411e+000 -9.502897e+000 165 134 113
-5.717162e-001 -1.503151e+000 -9.258751e+000 184 172 196
-3.502792e-001 -1.080780e+000 -9.088445e+000 72 52 70
-3.603422e-001 -9.711053e-001 -9.047557e+000 72 52 70
2.165567e+000 2.076393e+000 -9.363835e+000 168 139 122
2.820949e+000 1.967386e+000 -9.769309e+000 167 136 115
2.093647e+000 1.664614e+000 -9.135212e+000 174 142 122
1.682120e+000 1.798988e+000 -8.790217e+000 111 80 61
2.760434e+000 1.425154e+000 -9.549167e+000 167 140 119
3.093443e+000 1.304952e+000 -9.761137e+000 164 136 122
-9.264801e-001 5.189771e+000 -1.114942e+001 215 218 219
-8.375894e-001 5.076423e+000 -1.102334e+001 219 223 224
-7.341132e-001 5.015077e+000 -1.089001e+001 216 221 218
-8.969246e-001 4.029086e+000 -1.099890e+001 131 85 69
-9.969378e-002 5.050312e+000 -9.829753e+000 195 150 95
-4.148417e-001 4.104497e+000 -1.029110e+001 92 59 52
-9.436202e-001 2.785262e+000 -1.082885e+001 118 70 58
-3.943422e-001 3.422393e+000 -1.012594e+001 123 82 71
-3.876980e-001 3.521341e+000 -1.008872e+001 209 192 155
1.423767e+000 5.165917e+000 -1.010076e+001 145 112 78
2.295259e+000 5.021401e+000 -1.092572e+001 96 65 44
-1.138494e+000 1.869244e+000 -1.071181e+001 65 50 74
-2.883525e-001 3.464594e+000 -9.948610e+000 149 108 90
-1.001291e+000 1.784204e+000 -1.066556e+001 209 212 224
-6.079771e-001 2.305347e+000 -1.035452e+001 57 46 51
1.367827e+000 4.604282e+000 -9.803951e+000 111 87 62
-8.367180e-001 9.914845e-001 -1.027954e+001 208 205 226
-3.084463e-002 3.248029e+000 -9.327720e+000 106 72 59
1.127982e+000 3.935451e+000 -9.414672e+000 142 115 85
1.127982e+000 3.935451e+000 -9.414672e+000 142 115 85
1.647066e+000 3.625060e+000 -9.753343e+000 117 90 63
2.179066e+000 3.550125e+000 -1.017220e+001 101 70 47
2.264761e+000 3.564208e+000 -1.021855e+001 113 83 55
2.406115e+000 3.534498e+000 -1.032991e+001 83 58 35
2.678155e+000 3.397375e+000 -1.052657e+001 145 119 90
2.934468e+000 3.390106e+000 -1.069728e+001 137 105 86
1.447670e+000 3.546358e+000 -9.537513e+000 110 80 57
1.441746e+000 3.609639e+000 -9.559587e+000 161 131 103
1.441746e+000 3.609639e+000 -9.559587e+000 161 131 103
1.484764e+000 3.593868e+000 -9.551357e+000 104 72 47
1.484764e+000 3.593868e+000 -9.551357e+000 104 72 47
-5.110133e-001 5.780133e-001 -9.765055e+000 73 61 91
9.697732e-001 3.756438e+000 -9.004559e+000 113 79 54
1.708191e+000 3.280843e+000 -9.660782e+000 107 97 95
1.793637e+000 3.292745e+000 -9.706535e+000 99 98 93
1.807364e+000 3.246353e+000 -9.684055e+000 165 144 131
2.172232e+000 3.210669e+000 -9.923339e+000 154 136 115
2.378091e+000 3.227981e+000 -1.011350e+001 101 90 84
3.107423e+000 2.856259e+000 -1.059702e+001 115 91 86
2.390080e+000 3.035020e+000 -1.000906e+001 113 105 92
2.445794e+000 3.084216e+000 -1.007226e+001 147 131 109
-1.795514e-001 9.074078e-001 -9.324172e+000 201 207 213
3.041389e+000 2.611523e+000 -1.036830e+001 105 77 65
3.041389e+000 2.611523e+000 -1.036830e+001 105 77 65
1.032597e-001 1.693738e+000 -8.967833e+000 67 57 81
1.311372e-001 1.680909e+000 -8.928784e+000 213 210 228
1.637963e+000 2.829834e+000 -9.346063e+000 168 137 117
1.784985e+000 2.766512e+000 -9.409702e+000 112 84 65
2.000843e+000 2.729386e+000 -9.505930e+000 172 144 123
2.295277e+000 2.736065e+000 -9.721013e+000 114 87 68
2.773784e+000 2.535307e+000 -1.001960e+001 161 134 113
3.054477e+000 2.354392e+000 -1.022767e+001 103 77 60
3.101159e+000 2.308963e+000 -1.022056e+001 159 132 115
-8.168832e-001 -1.369993e+000 -9.542924e+000 81 60 77
-7.604619e-001 -1.473709e+000 -9.553108e+000 174 167 185
-7.172173e-001 -1.258543e+000 -9.519125e+000 69 60 77
-7.192614e-001 -1.238663e+000 -9.511700e+000 69 60 77
-6.040127e-001 -1.362125e+000 -9.479226e+000 70 57 75
-5.331744e-001 -1.000633e+000 -9.363835e+000 65 59 77
1.813223e+000 2.499503e+000 -9.241380e+000 132 100 81
1.813223e+000 2.499503e+000 -9.241380e+000 132 100 81
2.126246e+000 2.540958e+000 -9.557832e+000 166 138 116
2.331210e+000 2.400576e+000 -9.589726e+000 115 84 64
2.331210e+000 2.400576e+000 -9.589726e+000 115 84 64
3.162077e+000 2.241228e+000 -1.018035e+001 153 126 109
3.132451e+000 2.235504e+000 -1.006093e+001 156 124 109
3.660924e+000 2.989266e+000 -1.013918e+001 161 111 60
-5.621604e-001 -1.218234e+000 -9.323264e+000 194 189 208
-6.359155e-001 -1.587104e+000 -9.367080e+000 64 48 74
-5.527131e-001 -1.197234e+000 -9.374359e+000 192 186 203
-4.556019e-001 -1.172400e+000 -9.268849e+000 188 184 201
-4.389683e-001 -9.501347e-001 -9.246362e+000 77 64 85
1.795925e+000 2.361889e+000 -9.182509e+000 123 92 79
1.795925e+000 2.361889e+000 -9.182509e+000 123 92 79
1.863766e+000 2.293212e+000 -9.205077e+000 168 141 118
2.060683e+000 2.192736e+000 -9.310225e+000 104 75 57
2.060683e+000 2.192736e+000 -9.310225e+000 104 75 57
2.459068e+000 2.226905e+000 -9.591429e+000 166 138 116
-5.364847e-001 -1.451648e+000 -9.203982e+000 82 70 92
-4.765584e-001 -1.390806e+000 -9.123351e+000 179 170 194
-3.793129e-001 -1.125808e+000 -9.148123e+000 207 194 212
-3.793129e-001 -1.125808e+000 -9.148123e+000 207 194 212
1.705486e+000 2.195802e+000 -9.079097e+000 120 93 72
-1.930025e-001 -7.678506e-001 -8.932260e+000 79 64 91
1.431678e+000 2.069881e+000 -8.708841e+000 165 135 112
1.750401e+000 2.026957e+000 -8.992743e+000 123 95 74
1.754389e+000 2.019105e+000 -8.996656e+000 123 95 74
3.278832e+000 1.289352e+000 -9.995947e+000 155 127 115
2.367791e-001 5.527281e-001 -8.492626e+000 87 72 96
2.266272e+000 1.523281e+000 -9.170843e+000 102 71 53
-9.882996e-001 4.952809e+000 -1.120011e+001 169 171 170
-4.639776e-001 5.506226e+000 -1.053962e+001 214 214 213
-7.357070e-001 4.571299e+000 -1.082538e+001 205 170 128
-6.349021e-002 5.876922e+000 -9.924460e+000 118 91 70
7.512638e-003 6.034200e+000 -9.740388e+000 150 133 117
5.235844e-002 5.979741e+000 -9.776602e+000 96 78 97
-3.272547e-001 5.099527e+000 -1.015382e+001 188 144 111
-3.110263e-001 5.006100e+000 -1.020608e+001 189 142 105
2.130287e-001 5.993751e+000 -9.549924e+000 166 156 130
1.861836e-001 5.928057e+000 -9.524744e+000 162 127 99
3.025137e-001 5.981638e+000 -9.528287e+000 78 52 39
3.025137e-001 5.981638e+000 -9.528287e+000 78 52 39
1.513581e+000 5.300307e+000 -1.019423e+001 128 98 67
-7.512338e-002 4.366696e+000 -9.731669e+000 99 58 38
-7.762696e-002 4.387375e+000 -9.715620e+000 99 58 38
1.366208e+000 5.223621e+000 -1.007456e+001 94 65 35
2.645724e+000 4.991337e+000 -1.118625e+001 59 32 21
-4.121157e-001 2.501009e+000 -1.004076e+001 201 172 154
-3.803107e-001 2.425719e+000 -1.002803e+001 81 63 102
3.473103e+000 4.805743e+000 -1.104702e+001 174 134 80
-9.385859e-001 9.945220e-001 -1.040611e+001 87 78 109
-5.366497e-001 1.960605e+000 -1.011112e+001 221 227 228
-5.297716e-001 1.884809e+000 -1.006794e+001 93 61 84
-4.575822e-001 2.172915e+000 -9.987878e+000 207 227 228
-1.473008e-001 3.060713e+000 -9.585300e+000 103 64 56
4.356642e-002 3.698561e+000 -9.330781e+000 109 72 58
-9.807881e-001 3.699581e-001 -1.024951e+001 79 69 105
-8.234795e-001 3.425152e-001 -1.005535e+001 212 220 222
1.948408e+000 3.424827e+000 -9.854433e+000 105 83 61
2.531936e+000 3.282051e+000 -1.030972e+001 97 78 61
1.951652e+000 3.274594e+000 -9.758491e+000 153 135 121
-2.820743e-001 6.991518e-001 -9.443471e+000 79 68 82
-9.729616e-002 1.551010e+000 -9.288755e+000 65 57 78
1.735972e+000 3.137771e+000 -9.589570e+000 162 136 123
1.859928e+000 3.132303e+000 -9.656385e+000 156 137 121
2.055199e+000 3.205740e+000 -9.741895e+000 161 140 122
-7.496786e-001 -1.222070e+000 -9.637390e+000 67 55 75
-6.698681e-001 -1.306020e+000 -9.448929e+000 197 190 208
-2.028319e-001 1.611940e-001 -9.178547e+000 213 217 226
1.967163e+000 2.440592e+000 -9.360856e+000 119 90 73
2.017723e+000 2.471782e+000 -9.432126e+000 166 139 121
2.823661e+000 2.031749e+000 -9.812585e+000 169 138 117
2.823661e+000 2.031749e+000 -9.812585e+000 169 138 117
3.211164e+000 2.163832e+000 -1.006963e+001 93 55 39
-2.709123e-001 -8.714572e-001 -9.019975e+000 84 64 91
1.748089e+000 2.167014e+000 -9.062087e+000 160 131 113
1.801663e+000 2.002962e+000 -9.073627e+000 164 136 115
3.305338e+000 1.346316e+000 -1.003482e+001 66 38 28
3.402038e+000 1.337691e+000 -1.006931e+001 145 116 108
3.501429e+000 1.248091e+000 -1.008831e+001 95 60 41
-1.820526e-001 -9.948863e-001 -8.813721e+000 208 205 219
4.536411e-001 1.358954e+000 -8.375926e+000 211 208 222
-7.372484e-001 5.263957e+000 -1.088558e+001 151 153 152
2.755956e-002 6.390057e+000 -9.815865e+000 109 98 132
-2.603173e-001 5.007760e+000 -1.010317e+001 189 149 104
-1.000188e+000 3.312012e+000 -1.101098e+001 94 64 55
-3.525645e-002 5.267453e+000 -9.769021e+000 202 193 164
-1.313958e+000 2.437327e+000 -1.123573e+001 93 65 52
-6.097701e-001 3.934509e+000 -1.052658e+001 187 143 87
3.246986e-001 5.820705e+000 -9.460465e+000 50 35 30
-9.986067e-001 2.732786e+000 -1.090407e+001 201 149 135
-2.172275e-001 4.384379e+000 -9.993821e+000 182 142 90
-9.613905e-001 2.432447e+000 -1.077855e+001 103 63 55
-8.866699e-001 2.714676e+000 -1.069717e+001 94 56 59
1.274474e+000 5.302135e+000 -9.995687e+000 136 102 69
1.737853e+000 5.278402e+000 -1.043393e+001 135 104 74
-3.201042e-001 3.141863e+000 -9.932702e+000 99 64 68
-1.046286e+000 2.402206e-001 -1.036660e+001 67 56 88
-1.681745e-001 2.341010e+000 -9.543892e+000 213 218 227
-5.110022e-002 2.412678e+000 -9.340456e+000 214 218 225
2.133501e-002 2.775577e+000 -9.328212e+000 63 52 51
-4.275170e-001 9.114285e-001 -9.801565e+000 114 72 108
-5.844372e-001 2.597312e-001 -9.797661e+000 98 72 94
-5.345449e-001 4.918191e-001 -9.740461e+000 213 226 232
5.717806e-002 1.378871e+000 -9.015234e+000 77 63 96
2.697700e+000 2.653638e+000 -1.001300e+001 163 135 114
4.076177e-002 1.018958e+000 -8.954546e+000 95 71 105
3.227741e+000 2.316711e+000 -1.025006e+001 97 60 41
-5.766946e-001 -1.347542e+000 -9.309941e+000 188 182 199
-2.040531e-001 -1.682339e-001 -9.087145e+000 222 220 233
7.305601e-002 1.006225e+000 -8.876300e+000 94 67 114
2.466203e-001 1.201716e+000 -8.626762e+000 83 67 97
2.232527e+000 2.145534e+000 -9.372828e+000 174 146 124
-3.065109e-001 -1.024818e+000 -9.003829e+000 176 168 191
2.464001e+000 1.546817e+000 -9.402728e+000 173 142 122
3.195395e+000 1.292875e+000 -9.881410e+000 144 116 102
1.566420e+000 1.852886e+000 -8.747123e+000 174 142 119
-1.185859e+000 3.985274e+000 -1.140140e+001 168 154 144
-2.883971e-001 5.695194e+000 -1.021655e+001 189 149 97
-7.600180e-001 4.220097e+000 -1.082074e+001 187 149 115
-7.643107e-001 4.213621e+000 -1.082341e+001 187 149 115
1.041027e-001 5.881330e+000 -9.695277e+000 182 174 151
9.708924e-002 5.900970e+000 -9.670117e+000 182 174 151
-1.192199e-001 4.356187e+000 -9.792669e+000 91 61 50
2.503553e+000 5.045406e+000 -1.115252e+001 48 25 19
-6.751639e-001 2.335970e+000 -1.038220e+001 201 178 135
-4.713671e-002 3.309160e+000 -9.425323e+000 90 57 47
2.897101e-001 4.201606e+000 -8.993585e+000 63 60 89
1.352721e+000 3.358785e+000 -9.329264e+000 164 130 105
6.358203e-002 1.969833e+000 -9.084380e+000 73 62 96
2.084356e-001 1.925044e+000 -8.887705e+000 213 219 225
2.084356e-001 1.925044e+000 -8.887705e+000 213 219 225
-8.407248e-002 7.432640e-001 -9.015859e+000 100 66 98
2.236466e+000 2.384997e+000 -9.527558e+000 168 137 117
2.242613e+000 2.371761e+000 -9.535746e+000 168 137 117
-8.666329e-001 -2.661490e+000 -9.555451e+000 104 86 146
1.839179e+000 2.280153e+000 -9.152569e+000 148 119 101
1.839179e+000 2.280153e+000 -9.152569e+000 148 119 101
2.107509e+000 2.313296e+000 -9.398967e+000 160 134 111
-3.999791e-001 -1.160344e+000 -9.045539e+000 82 59 86
-8.891257e-002 -9.031695e-001 -8.866607e+000 75 59 92
-5.388520e-001 5.775451e+000 -1.062266e+001 186 166 126
-1.059405e+000 4.835676e+000 -1.133854e+001 220 224 225
-1.060438e+000 4.824839e+000 -1.135413e+001 220 224 225
-1.882751e+000 3.649630e+000 -1.199790e+001 176 169 177
-1.203404e+000 4.411318e+000 -1.150796e+001 162 144 132
-1.038472e-001 6.323967e+000 -1.000933e+001 131 109 132
-4.422706e-001 5.244049e+000 -1.046183e+001 221 223 218
-2.919500e-002 5.968225e+000 -9.883420e+000 186 174 148
-2.919500e-002 5.968225e+000 -9.883420e+000 186 174 148
2.089453e-002 5.841403e+000 -9.818613e+000 177 151 99
9.958625e-002 6.085495e+000 -9.701631e+000 81 74 107
-4.436532e-001 4.884057e+000 -1.043661e+001 94 62 59
-4.436532e-001 4.884057e+000 -1.043661e+001 94 62 59
-4.260133e-001 4.806400e+000 -1.036939e+001 200 158 105
-1.467098e-001 5.380502e+000 -9.937940e+000 210 186 154
2.414021e+000 4.940860e+000 -1.095825e+001 128 93 63
-6.830670e-001 2.327337e+000 -1.039508e+001 202 179 135
-5.033501e-001 2.494805e+000 -1.018990e+001 202 185 159
-9.068094e-001 2.941561e-001 -1.018763e+001 76 67 110
9.943882e-001 3.479087e+000 -8.958243e+000 163 129 102
-1.306643e-001 8.127997e-001 -9.267256e+000 106 64 88
3.316700e-001 1.939658e+000 -8.756528e+000 154 125 153
2.810228e+000 2.356827e+000 -9.968502e+000 162 134 112
3.157167e+000 1.947939e+000 -1.002122e+001 133 100 85
-1.773685e-001 6.360961e+000 -1.019042e+001 146 119 128
-8.387839e-001 5.138940e+000 -1.103638e+001 219 225 223
7.884597e-001 6.737886e+000 -1.004981e+001 81 62 82
-9.119994e-001 4.038244e+000 -1.107861e+001 171 128 77
-5.608294e-001 4.733001e+000 -1.054157e+001 200 168 115
5.047128e-002 5.781780e+000 -9.742666e+000 89 73 100
-1.740793e-001 5.249286e+000 -9.968752e+000 104 68 59
1.367115e+000 5.288526e+000 -1.010626e+001 139 106 71
-7.020587e-001 2.822508e+000 -1.044371e+001 91 57 52
-6.986641e-001 2.783308e+000 -1.047530e+001 91 57 52
1.665508e+000 4.473121e+000 -1.008459e+001 111 81 49
2.489240e-003 3.528985e+000 -9.352605e+000 199 183 147
8.544075e-001 4.237070e+000 -9.228306e+000 147 116 84
1.503489e+000 3.885088e+000 -9.678925e+000 155 121 85
-2.042991e-001 -1.023394e-001 -9.182014e+000 69 57 79
-2.042991e-001 -1.023394e-001 -9.182014e+000 69 57 79
1.369799e+000 2.458762e+000 -8.856599e+000 137 109 88
2.910056e+000 1.912049e+000 -9.873612e+000 143 112 91
-2.371600e-001 -7.806104e-001 -9.043536e+000 125 110 135
3.036364e-001 1.162342e+000 -8.518488e+000 70 55 82
-6.609244e-001 5.687399e+000 -1.075578e+001 108 88 88
5.552903e-001 6.685528e+000 -9.889534e+000 40 27 36
-1.663945e-001 2.570392e+000 -9.543085e+000 69 59 68
9.928716e-001 3.569029e+000 -8.987452e+000 161 127 100
1.135101e+000 2.724429e+000 -8.744497e+000 155 125 101
1.588670e+000 2.453202e+000 -9.056748e+000 145 118 99
-6.374880e-001 -1.998767e+000 -9.298985e+000 80 62 114
-5.057527e-001 -1.323448e+000 -9.227452e+000 169 160 181
-5.541928e-001 5.600488e+000 -1.065735e+001 157 161 162
1.935814e-001 5.657109e+000 -9.318303e+000 122 124 149
-8.155935e-001 2.386038e+000 -1.056790e+001 198 169 127
-4.215686e-001 3.316270e+000 -1.015567e+001 169 133 111
-4.215686e-001 3.316270e+000 -1.015567e+001 169 133 111
-1.973906e-001 2.162379e+000 -9.628120e+000 137 125 147
-3.995196e-002 2.927616e+000 -9.412047e+000 199 184 151
9.674983e-001 3.899329e+000 -9.151891e+000 156 123 92
-1.888558e+000 3.370443e+000 -1.197902e+001 87 78 99
-1.888558e+000 3.370443e+000 -1.197902e+001 87 78 99
-6.720882e-001 4.922963e+000 -1.073969e+001 114 76 65
2.291172e+000 5.705783e+000 -1.083401e+001 55 30 25
1.765717e+000 5.256629e+000 -1.038281e+001 112 78 49
1.735935e-001 3.561978e+000 -9.049646e+000 63 53 79
-1.688245e+000 3.760201e+000 -1.197674e+001 198 184 183
2.846874e+000 2.415316e+000 -9.908409e+000 140 112 90
-1.320409e+000 4.010772e+000 -1.153428e+001 203 189 178
5.890807e-001 3.162149e+000 -8.907435e+000 65 50 57
-1.560779e+000 3.245785e+000 -1.167289e+001 119 75 57
2.445142e+000 5.022635e+000 -1.107123e+001 89 63 48
-5.292174e-001 8.235236e-001 -9.875735e+000 107 87 112
-1.738057e+000 3.135416e+000 -1.180075e+001 76 71 101
2.475927e+000 4.398142e+000 -1.089511e+001 91 61 35
1.216231e+000 5.196349e+000 -9.936514e+000 139 109 85
1.837203e+000 4.467530e+000 -1.035134e+001 86 60 39
-1.279910e+000 2.223509e+000 -1.112199e+001 144 112 73
2.733062e+000 4.960461e+000 -1.134788e+001 53 30 24
-8.986398e-001 4.545519e+000 -1.105649e+001 136 95 73
-1.103781e+000 3.116154e-001 -1.044525e+001 72 57 88
-2.581492e-001 -1.046094e+000 -8.929401e+000 144 125 147
2.466031e+000 4.307847e+000 -1.070392e+001 142 108 77
-2.915694e-001 1.385713e+000 -9.615689e+000 64 55 73
3.165468e+000 2.586123e+000 -1.058227e+001 114 88 75
-2.513016e-001 5.201443e+000 -1.011863e+001 210 179 148
-1.888068e-001 3.227351e-001 -9.193638e+000 67 54 72
-1.888068e-001 3.227351e-001 -9.193638e+000 67 54 72
-8.804185e-002 6.815476e-001 -9.068701e+000 103 69 99
-2.875010e-001 5.683958e+000 -1.022720e+001 194 153 101
-1.106671e+000 3.266467e+000 -1.113771e+001 200 161 106
-1.116337e+000 3.249378e+000 -1.117249e+001 200 161 106
-1.320992e+000 4.288078e+000 -1.163145e+001 192 183 166
-1.213054e+000 4.349646e+000 -1.151920e+001 195 179 166
-8.743301e-001 4.358946e+000 -1.102862e+001 185 150 111
-1.097709e+000 2.881457e+000 -1.106311e+001 212 196 166
-1.286608e+000 2.177072e+000 -1.116240e+001 148 116 71
-1.003915e+000 2.655903e+000 -1.085857e+001 113 64 54
-1.211595e+000 1.670051e+000 -1.091682e+001 202 204 210
-1.212024e+000 1.662290e+000 -1.091861e+001 202 204 210
-1.896255e-001 4.257492e+000 -9.895536e+000 171 124 72
-5.039249e-001 3.119787e+000 -1.022767e+001 135 72 37
2.360705e+000 5.091012e+000 -1.108453e+001 115 92 67
2.045705e+000 5.055892e+000 -1.066694e+001 137 106 76
-1.124820e+000 8.276998e-001 -1.059531e+001 199 201 215
2.004485e+000 4.351732e+000 -1.033191e+001 138 108 84
-8.500778e-001 4.196371e-001 -1.019536e+001 214 210 222
-6.583243e-001 5.488336e-001 -9.975904e+000 210 210 223
-4.481012e-001 1.269310e+000 -9.799288e+000 212 212 225
9.802288e-001 4.119693e+000 -9.304698e+000 84 56 34
1.336150e+000 3.667470e+000 -9.451285e+000 161 134 107
-7.028344e-002 9.785512e-001 -9.154944e+000 208 210 218
2.870648e+000 2.546109e+000 -1.018787e+001 160 134 109
2.655518e-001 1.857907e+000 -8.677196e+000 212 213 224
-2.261077e-001 -1.055142e+000 -8.863165e+000 201 190 204
-2.269455e-001 -1.032270e+000 -8.857331e+000 201 190 204
-8.085552e-001 5.496123e+000 -1.099851e+001 99 85 82
-1.524998e+000 4.170863e+000 -1.183561e+001 72 57 44
-9.685586e-001 4.974890e+000 -1.121549e+001 215 225 217
-1.199046e+000 4.484450e+000 -1.150297e+001 64 45 34
-1.804491e+000 3.281414e+000 -1.184803e+001 84 75 102
-1.422207e+000 3.752563e+000 -1.159381e+001 178 140 81
-7.377012e-001 4.979017e+000 -1.088810e+001 136 101 64
-6.399135e-001 5.216480e+000 -1.076079e+001 217 227 219
-4.376452e-001 5.351200e+000 -1.048310e+001 219 221 207
-4.862061e-001 5.176875e+000 -1.051462e+001 191 174 132
-4.551582e-001 5.167653e+000 -1.046536e+001 206 188 144
2.799312e-003 5.781032e+000 -9.786582e+000 129 109 98
-1.014074e+000 2.477289e+000 -1.087458e+001 88 53 51
-8.645052e-001 2.774104e+000 -1.074180e+001 205 151 126
-2.327496e-001 4.383252e+000 -9.984844e+000 188 146 88
-7.090331e-001 2.899665e+000 -1.053182e+001 165 111 77
-4.198097e-001 3.570652e+000 -1.016894e+001 183 110 69
-4.801206e-001 3.329999e+000 -1.023150e+001 210 181 125
-1.257079e-001 4.175473e+000 -9.785842e+000 206 179 126
2.084711e+000 5.162075e+000 -1.081662e+001 112 85 66
-5.464296e-001 2.779631e+000 -1.029191e+001 191 156 85
-2.989114e-001 3.517368e+000 -9.966379e+000 201 196 153
-4.124315e-002 4.354253e+000 -9.658856e+000 151 101 54
-4.268591e-002 4.364477e+000 -9.650888e+000 151 101 54
1.225184e+000 5.235988e+000 -9.947569e+000 76 47 24
-2.809211e-001 3.271068e+000 -9.891619e+000 205 188 144
1.757346e+000 5.079390e+000 -1.038186e+001 140 112 75
2.316670e+000 4.953281e+000 -1.080146e+001 137 104 71
-6.321633e-001 2.020075e+000 -1.026492e+001 61 49 60
1.364838e+000 5.169304e+000 -9.866098e+000 66 38 17
-4.123445e-001 2.161738e+000 -9.957443e+000 71 54 92
-1.101907e-001 3.333891e+000 -9.541861e+000 206 186 145
-6.665574e-001 9.131944e-001 -1.003287e+001 105 87 105
-2.168600e-002 3.347771e+000 -9.373252e+000 158 113 92
1.167399e+000 4.078212e+000 -9.478615e+000 79 46 27
2.262827e+000 3.482655e+000 -1.021806e+001 161 134 107
2.459171e+000 3.445315e+000 -1.035508e+001 162 134 112
2.504993e+000 3.474083e+000 -1.041867e+001 106 80 55
2.923012e+000 3.422882e+000 -1.071501e+001 102 73 54
3.025431e+000 3.258124e+000 -1.075803e+001 107 78 62
1.231891e+000 3.552515e+000 -9.285559e+000 172 143 111
2.331371e+000 3.280350e+000 -1.011725e+001 162 145 124
2.460633e+000 3.191534e+000 -1.018218e+001 114 103 94
2.841022e+000 3.225794e+000 -1.055701e+001 98 68 57
1.019011e+000 3.720788e+000 -9.077258e+000 99 69 41
1.923698e+000 3.232371e+000 -9.753900e+000 159 143 121
2.174892e+000 3.065986e+000 -9.865733e+000 171 149 125
2.648271e+000 3.131773e+000 -1.029521e+001 152 135 117
3.167879e+000 2.643367e+000 -1.066306e+001 88 69 55
1.070578e+000 3.356144e+000 -8.953751e+000 94 85 78
2.913533e+000 2.586472e+000 -1.028150e+001 107 81 59
1.805071e+000 2.873952e+000 -9.478432e+000 123 98 76
2.059022e+000 2.826715e+000 -9.645969e+000 118 92 69
2.293262e+000 2.811610e+000 -9.788760e+000 112 85 60
-4.707104e-001 -1.118258e+000 -9.195711e+000 203 197 211
-4.707104e-001 -1.118258e+000 -9.195711e+000 203 197 211
1.864897e+000 2.668651e+000 -9.446932e+000 176 150 127
2.890396e+000 2.362159e+000 -1.003333e+001 168 140 118
3.840313e+000 3.657725e+000 -1.027610e+001 188 133 69
2.545110e-001 1.582511e+000 -8.655428e+000 220 222 228
1.696371e+000 2.378948e+000 -9.119407e+000 111 85 59
-2.102529e-001 -9.893692e-001 -8.882520e+000 89 70 81
-2.230406e-001 -1.291273e+000 -8.784749e+000 99 75 92
-2.024507e-002 -6.242651e-001 -8.706110e+000 89 55 90
2.491012e-001 4.588874e-001 -8.522198e+000 70 58 74
-1.599850e+000 4.124196e+000 -1.191349e+001 79 63 51
-6.880115e-001 5.596761e+000 -1.082451e+001 104 89 89
-1.165275e+000 4.392267e+000 -1.145521e+001 70 55 43
-1.183551e+000 4.491299e+000 -1.148226e+001 75 56 48
-1.183551e+000 4.491299e+000 -1.148226e+001 75 56 48
-5.991591e-001 5.561227e+000 -1.071299e+001 214 225 219
-5.472375e-001 5.652331e+000 -1.064602e+001 213 220 220
-1.518774e+000 3.725661e+000 -1.171726e+001 205 193 181
-1.518774e+000 3.725661e+000 -1.171726e+001 205 193 181
-1.463438e+000 3.756021e+000 -1.166090e+001 206 193 178
-6.793043e-001 5.166617e+000 -1.082681e+001 216 227 220
-1.784479e+000 3.217623e+000 -1.191982e+001 170 131 92
-1.101260e+000 3.970723e+000 -1.128811e+001 205 190 171
-1.601690e+000 2.915183e+000 -1.164459e+001 147 107 81
-1.414560e-001 5.877419e+000 -1.005307e+001 134 108 91
-4.521184e-001 4.953174e+000 -1.041294e+001 91 61 52
-1.470475e+000 2.534003e+000 -1.142391e+001 65 58 81
-4.027337e-001 4.783672e+000 -1.028615e+001 163 121 63
-1.143024e+000 2.822373e+000 -1.112581e+001 180 149 107
-6.764047e-001 3.900873e+000 -1.062791e+001 159 110 78
-1.409212e+000 2.218661e+000 -1.125957e+001 61 54 79
-4.296435e-001 4.436798e+000 -1.029627e+001 144 93 48
-1.223590e+000 2.157018e+000 -1.106026e+001 115 68 45
-1.153195e+000 2.260570e+000 -1.098533e+001 200 165 116
-4.265572e-002 5.163259e+000 -9.717615e+000 175 133 108
-7.108680e-001 3.047697e+000 -1.053701e+001 199 182 135
-5.760534e-001 3.252639e+000 -1.037680e+001 208 192 153
-6.016764e-001 3.186751e+000 -1.037874e+001 84 59 46
-6.016624e-001 3.151011e+000 -1.040120e+001 84 59 46
-7.283852e-001 2.494520e+000 -1.046593e+001 165 88 61
-8.483794e-002 4.415234e+000 -9.743720e+000 194 143 93
2.184824e+000 5.143084e+000 -1.090800e+001 118 89 59
1.512873e+000 5.236048e+000 -1.022841e+001 72 40 11
-8.655000e-001 1.815895e+000 -1.050391e+001 85 63 80
-8.655000e-001 1.815895e+000 -1.050391e+001 85 63 80
-6.150873e-001 2.406211e+000 -1.028723e+001 70 63 45
1.336325e+000 5.198113e+000 -9.986612e+000 114 85 55
1.620283e+000 5.117688e+000 -1.024967e+001 138 108 70
-3.127369e-001 2.939840e+000 -9.886502e+000 116 78 35
1.643604e+000 4.314871e+000 -1.036631e+001 119 91 70
-4.187787e-001 2.101468e+000 -9.891814e+000 75 70 87
1.693165e+000 4.441216e+000 -1.007810e+001 153 124 90
-3.025268e-001 1.985234e+000 -9.700200e+000 215 223 224
8.191033e-001 4.164144e+000 -9.119365e+000 164 133 102
-1.820305e-001 1.480333e+000 -9.446161e+000 72 61 76
2.186606e+000 3.464852e+000 -1.015535e+001 162 135 106
2.626189e+000 3.257541e+000 -1.043977e+001 169 142 121
2.719556e+000 3.253366e+000 -1.050465e+001 166 140 117
-2.757321e-001 8.823008e-001 -9.453073e+000 215 222 225
1.360830e+000 3.527051e+000 -9.412020e+000 167 141 114
1.912413e+000 3.425361e+000 -9.879938e+000 172 148 122
1.958099e+000 3.335101e+000 -9.854398e+000 173 148 123
2.144510e+000 3.400166e+000 -1.005480e+001 165 145 118
2.451220e+000 3.342181e+000 -1.028626e+001 159 134 109
2.711389e+000 3.242019e+000 -1.045753e+001 88 59 44
1.721569e+000 3.275966e+000 -9.622694e+000 164 145 129
1.808181e+000 3.250750e+000 -9.681572e+000 172 155 135
1.878157e+000 3.232208e+000 -9.715864e+000 162 146 132
1.858303e+000 3.138959e+000 -9.652001e+000 162 143 126
1.993300e+000 3.166685e+000 -9.776641e+000 117 111 108
2.219033e+000 3.074841e+000 -9.893206e+000 158 138 114
2.614922e+000 3.111448e+000 -1.027093e+001 160 141 122
3.187312e+000 2.525025e+000 -1.066284e+001 147 124 110
1.652729e+000 3.124848e+000 -9.519071e+000 168 143 124
2.053854e+000 3.020966e+000 -9.760763e+000 102 105 109
2.687444e+000 2.532768e+000 -9.984447e+000 117 89 66
1.179675e-001 1.200950e+000 -8.829489e+000 216 222 223
2.313164e-001 1.258898e+000 -8.674755e+000 223 221 233
2.400876e+000 2.240395e+000 -9.588540e+000 135 103 82
-1.911880e-001 -7.443691e-001 -8.856860e+000 210 205 221
1.089058e-002 -6.642821e-001 -8.661266e+000 110 68 106
-1.109704e+000 4.692615e+000 -1.140893e+001 192 153 99
-9.206424e-001 4.964225e+000 -1.114261e+001 154 161 154
-1.316726e+000 3.842861e+000 -1.151200e+001 199 193 171
-7.700351e-001 4.898200e+000 -1.093598e+001 215 184 147
-5.016838e-001 5.372132e+000 -1.057982e+001 215 226 220
-1.417481e+000 3.384668e+000 -1.155301e+001 140 92 72
-3.458714e-001 5.645486e+000 -1.036724e+001 169 123 74
-2.616966e-001 5.826296e+000 -1.025228e+001 99 80 64
-4.183368e-001 5.016104e+000 -1.036985e+001 205 181 150
5.662722e-002 5.916431e+000 -9.728998e+000 80 61 64
1.253304e-001 5.944013e+000 -9.607948e+000 74 68 91
-1.078057e+000 2.635700e+000 -1.097294e+001 82 54 56
1.890100e-001 5.759758e+000 -9.487631e+000 115 106 123
5.958132e-001 5.831953e+000 -9.709544e+000 94 67 50
-4.110301e-001 3.589350e+000 -1.021763e+001 150 83 54
-1.158111e+000 1.587434e+000 -1.078615e+001 72 65 81
1.896679e+000 5.192077e+000 -1.062557e+001 120 91 61
2.602286e+000 5.020121e+000 -1.128192e+001 54 24 21
-1.023777e+000 1.649260e+000 -1.067508e+001 72 55 72
1.938657e+000 5.074659e+000 -1.054271e+001 139 109 75
2.061851e+000 5.022834e+000 -1.066623e+001 139 109 69
1.210782e-001 4.476385e+000 -9.364487e+000 85 65 89
-1.527871e-001 3.105327e+000 -9.560320e+000 78 51 50
-9.143322e-002 3.177063e+000 -9.473758e+000 201 173 135
3.849015e-002 3.724842e+000 -9.318439e+000 90 59 54
-9.784409e-001 3.414437e-001 -1.026675e+001 75 64 96
-3.632995e-001 1.397866e+000 -9.672985e+000 58 44 67
-5.817071e-001 2.330674e-001 -9.806839e+000 94 56 69
-5.351117e-001 4.953110e-001 -9.739682e+000 216 226 228
-3.814599e-001 1.039570e+000 -9.660194e+000 221 219 224
-3.814599e-001 1.039570e+000 -9.660194e+000 221 219 224
-2.231529e-001 8.748859e-001 -9.330725e+000 74 61 70
2.076704e+000 3.219764e+000 -9.855348e+000 164 144 126
2.833941e+000 2.605197e+000 -1.025219e+001 160 132 110
3.249174e+000 2.490196e+000 -1.060116e+001 151 122 110
3.034032e-001 1.876553e+000 -8.635661e+000 79 66 91
-1.830526e-001 -1.142969e+000 -8.746661e+000 202 202 214
-2.350345e-002 -7.752350e-001 -8.589366e+000 208 204 218
1.823440e+000 1.922179e+000 -8.989727e+000 169 143 118
-1.533289e+000 3.767163e+000 -1.176170e+001 179 169 151
-8.852485e-001 4.901264e+000 -1.109387e+001 217 224 210
-6.035934e-001 5.182979e+000 -1.071764e+001 150 157 150
-8.520749e-001 3.728219e+000 -1.087382e+001 146 105 69
-2.083185e-001 4.960970e+000 -9.954291e+000 198 178 125
-1.659147e-001 5.068435e+000 -9.952148e+000 195 162 107
2.607228e+000 4.841046e+000 -1.118143e+001 50 29 21
-7.740433e-001 1.908686e+000 -1.037866e+001 216 228 227
-7.043345e-001 1.489874e+000 -1.019216e+001 213 228 222
-7.043599e-001 1.485403e+000 -1.019449e+001 213 228 222
-5.033545e-001 1.368316e+000 -9.908228e+000 220 226 226
-7.529217e-001 4.599851e-001 -1.001347e+001 118 70 100
-6.392403e-001 5.010127e-001 -9.914433e+000 96 64 102
5.673806e-002 3.234305e+000 -9.127814e+000 187 135 69
1.155366e+000 3.708725e+000 -9.292319e+000 166 135 104
2.091085e+000 3.069605e+000 -9.768476e+000 121 122 124
2.507756e+000 2.092130e+000 -9.622919e+000 167 133 105
3.657290e-001 1.577882e+000 -8.518101e+000 67 59 71
-6.604663e-001 5.021348e+000 -1.076877e+001 111 78 63
-3.574284e-001 4.755267e+000 -1.020725e+001 188 154 82
-7.243471e-001 3.325260e+000 -1.059300e+001 105 72 67
-7.243471e-001 3.325260e+000 -1.059300e+001 105 72 67
-1.112286e+000 1.664796e+000 -1.078832e+001 214 228 229
7.067119e-002 4.762917e+000 -9.585106e+000 78 73 97
2.508839e+000 5.033992e+000 -1.115946e+001 54 28 23
-2.507302e-001 3.100925e+000 -9.774249e+000 201 180 137
1.200464e-001 3.632874e+000 -9.163526e+000 68 51 71
-2.213720e-001 1.341023e+000 -9.445918e+000 208 205 212
-1.270700e-001 8.952960e-001 -9.178891e+000 101 67 86
-1.160709e-001 -6.966120e-001 -8.803735e+000 70 54 88
1.627960e-001 5.998554e+000 -9.585233e+000 181 180 138
6.744399e-002 5.294033e+000 -9.626319e+000 74 68 106
2.226568e+000 4.954508e+000 -1.073070e+001 124 102 66
-6.370668e-002 1.707818e+000 -9.234437e+000 144 140 155
2.823604e+000 2.331590e+000 -9.983972e+000 173 143 117
-1.090855e-001 -8.440313e-001 -8.667149e+000 75 59 95
-1.031292e-001 -9.095927e-001 -8.686864e+000 75 59 95
-6.380573e-001 4.648626e+000 -1.070695e+001 196 164 108
-5.599859e-001 4.716632e+000 -1.055562e+001 196 167 112
-1.247049e-001 4.226176e+000 -9.742368e+000 194 167 116
1.985104e-001 4.384569e-001 -8.629864e+000 75 58 101
-3.594139e-001 2.295262e+000 -9.927250e+000 83 66 108
-1.422358e+000 3.309152e+000 -1.155428e+001 88 54 52
4.103386e-001 5.875125e+000 -9.558191e+000 57 43 32
-4.707957e-001 2.018907e+000 -9.932885e+000 211 227 224
1.687985e-001 3.593258e+000 -9.034410e+000 62 53 72
1.040686e+000 3.274921e+000 -8.850848e+000 169 138 110
4.204772e-001 6.653366e+000 -1.000687e+001 72 62 89
-1.118006e+000 4.892180e+000 -1.139665e+001 215 229 220
-1.223266e+000 3.803944e+000 -1.137429e+001 166 130 77
-5.134228e-001 5.240279e+000 -1.058499e+001 199 215 205
-4.356046e-001 5.496202e+000 -1.050439e+001 167 131 77
-6.747348e-001 4.495962e+000 -1.072042e+001 142 118 95
-6.381003e-001 4.073321e+000 -1.064699e+001 89 65 60
-1.068653e+000 2.636611e+000 -1.101916e+001 189 132 113
-9.288027e-001 2.834857e+000 -1.083401e+001 175 123 101
-8.688017e-001 2.897513e+000 -1.072535e+001 178 124 100
-1.533973e-001 4.347226e+000 -9.853745e+000 155 111 77
-1.053923e+000 8.554521e-001 -1.052448e+001 199 193 208
2.159083e+000 5.140128e+000 -1.087607e+001 68 45 32
-2.810898e-001 3.270111e+000 -9.891453e+000 208 187 134
-9.969860e-001 3.631501e-001 -1.033795e+001 200 198 211
-2.755524e-001 2.925306e+000 -9.807130e+000 175 142 85
-6.930199e-001 9.325777e-001 -1.001221e+001 204 214 219
-2.154961e-001 2.324303e+000 -9.569498e+000 114 104 114
2.860059e+000 3.920424e+000 -1.085334e+001 89 60 42
1.515007e+000 3.712362e+000 -9.628146e+000 115 90 65
2.466453e+000 3.392601e+000 -1.029072e+001 162 141 110
1.734173e+000 3.460785e+000 -9.718892e+000 121 93 69
2.138884e+000 3.274208e+000 -9.928928e+000 111 108 96
2.507929e+000 2.875011e+000 -1.009002e+001 158 141 120
3.142747e+000 2.578885e+000 -1.046525e+001 127 102 83
3.158290e+000 2.477164e+000 -1.038935e+001 121 96 76
-2.275248e-001 -1.017654e+000 -8.802925e+000 120 104 115
2.744332e-001 1.639227e+000 -8.650945e+000 97 91 101
1.980517e+000 2.783310e+000 -9.525544e+000 125 103 80
2.005743e+000 2.816079e+000 -9.537962e+000 117 95 72
2.043157e+000 2.606167e+000 -9.486376e+000 171 149 126
2.277486e+000 2.672133e+000 -9.653092e+000 137 115 91
2.712174e+000 2.583467e+000 -1.000966e+001 136 115 92
3.104231e+000 2.353109e+000 -1.017378e+001 130 106 86
2.167700e+000 2.361540e+000 -9.421877e+000 142 117 95
2.273110e+000 2.369606e+000 -9.495228e+000 155 133 109
2.245208e+000 2.501112e+000 -9.519641e+000 133 109 85
2.379983e+000 2.312056e+000 -9.527049e+000 171 147 123
2.721731e+000 2.339595e+000 -9.862603e+000 144 118 95
1.711495e+000 2.145444e+000 -8.990497e+000 162 136 111
1.916577e+000 2.308119e+000 -9.234421e+000 165 144 123
2.200174e+000 1.573038e+000 -9.144904e+000 180 159 138
2.578273e+000 1.464606e+000 -9.401437e+000 177 155 131
2.179909e+000 1.473980e+000 -8.956255e+000 149 128 107
2.327338e+000 1.591335e+000 -9.184246e+000 173 152 131
2.887418e+000 1.307662e+000 -9.507943e+000 172 149 131
-1.383271e+000 4.239394e+000 -1.171704e+001 192 184 163
-1.330206e+000 4.303376e+000 -1.169331e+001 192 184 165
-1.786354e+000 3.217544e+000 -1.192095e+001 160 135 98
-1.237664e+000 4.362423e+000 -1.154074e+001 70 62 47
-7.509055e-001 5.392301e+000 -1.097839e+001 200 216 209
-9.998262e-001 4.098855e+000 -1.117938e+001 135 95 50
-1.016758e+000 3.947243e+000 -1.118086e+001 179 142 94
-7.048299e-001 4.454946e+000 -1.077736e+001 101 76 56
-7.982273e-001 4.029344e+000 -1.083330e+001 127 99 81
-3.653387e-001 5.215798e+000 -1.033705e+001 200 186 139
-1.111282e+000 2.612238e+000 -1.105525e+001 142 78 65
-2.898002e-002 5.797278e+000 -9.862095e+000 181 152 97
-5.423179e-001 3.848935e+000 -1.045502e+001 117 68 46
-3.253610e-001 4.449341e+000 -1.014303e+001 159 118 63
-3.966071e-001 3.438555e+000 -1.011757e+001 119 78 56
-8.856196e-001 9.892808e-001 -1.037546e+001 81 69 93
2.637358e+000 4.840966e+000 -1.114968e+001 65 40 33
2.689029e+000 4.812972e+000 -1.121294e+001 136 112 101
-5.817549e-001 1.442875e+000 -9.992060e+000 87 72 93
4.472588e-002 3.671106e+000 -9.261476e+000 196 173 133
-9.028666e-002 2.069975e+000 -9.369035e+000 85 72 92
-4.173845e-002 2.509345e+000 -9.335650e+000 66 53 62
-3.314461e-001 6.633566e-001 -9.466596e+000 195 196 200
-7.333832e-002 1.516296e+000 -9.246217e+000 212 214 222
2.079931e+000 3.537137e+000 -1.006769e+001 164 143 116
2.163144e+000 3.523312e+000 -1.012271e+001 166 142 114
2.506696e+000 3.406641e+000 -1.031605e+001 168 144 116
2.725753e+000 3.341671e+000 -1.048769e+001 161 141 116
2.914015e+000 3.338067e+000 -1.062056e+001 150 129 108
3.053184e+000 3.268392e+000 -1.074259e+001 136 110 88
1.762254e+000 3.511893e+000 -9.764526e+000 161 141 114
1.927122e+000 3.317291e+000 -9.789879e+000 118 112 112
2.001776e+000 3.349428e+000 -9.876377e+000 161 144 125
2.400274e+000 3.306922e+000 -1.018631e+001 165 146 120
2.661943e+000 3.274166e+000 -1.035179e+001 152 135 120
2.873461e+000 3.274245e+000 -1.056660e+001 98 73 51
2.869337e+000 3.236614e+000 -1.053331e+001 147 129 113
1.564371e-001 1.918078e+000 -8.841612e+000 83 81 97
1.682485e+000 3.277042e+000 -9.591257e+000 161 150 130
1.785441e+000 3.199289e+000 -9.601337e+000 158 149 139
1.855156e+000 3.111851e+000 -9.621025e+000 110 107 105
2.162920e+000 3.251711e+000 -9.908239e+000 161 153 134
2.155359e+000 3.281041e+000 -9.859850e+000 124 116 101
2.236664e+000 3.082665e+000 -9.842559e+000 160 143 125
2.376269e+000 2.996067e+000 -9.976914e+000 166 146 129
2.530006e+000 2.907152e+000 -1.007461e+001 126 97 79
2.897261e+000 2.732615e+000 -1.037319e+001 155 129 108
2.959661e+000 2.703994e+000 -1.039563e+001 121 98 80
1.838285e+000 2.779106e+000 -9.485026e+000 164 141 123
1.986929e+000 3.065047e+000 -9.673130e+000 174 159 140
1.983527e+000 2.876009e+000 -9.585484e+000 119 97 76
2.592060e+000 2.724385e+000 -1.003684e+001 165 141 113
2.611347e+000 2.731849e+000 -1.000265e+001 121 96 73
2.994547e+000 2.662781e+000 -1.038446e+001 162 140 119
3.004516e+000 2.642016e+000 -1.039541e+001 162 140 119
3.100207e+000 2.694635e+000 -1.036708e+001 143 118 98
-2.786552e-001 -1.071441e+000 -8.861930e+000 159 140 152
2.003428e+000 2.724872e+000 -9.514029e+000 165 145 120
2.099873e+000 2.629532e+000 -9.521257e+000 168 148 124
2.097958e+000 2.687979e+000 -9.534673e+000 132 110 89
2.103797e+000 2.674871e+000 -9.540683e+000 132 110 89
2.095679e+000 2.793612e+000 -9.590630e+000 116 94 71
2.249393e+000 2.635790e+000 -9.638689e+000 139 117 93
2.393521e+000 2.708356e+000 -9.755015e+000 170 146 122
2.393521e+000 2.708356e+000 -9.755015e+000 170 146 122
2.492283e+000 2.638257e+000 -9.850309e+000 171 144 123
2.492283e+000 2.638257e+000 -9.850309e+000 171 144 123
2.552359e+000 2.586931e+000 -9.859481e+000 131 106 83
2.606054e+000 2.590553e+000 -9.909026e+000 132 108 85
2.940165e+000 2.398091e+000 -1.007330e+001 168 146 123
3.009066e+000 2.343387e+000 -1.013549e+001 162 140 117
3.142570e+000 2.517659e+000 -1.032710e+001 134 107 90
1.808269e+000 2.473800e+000 -9.216654e+000 167 145 122
2.089058e+000 2.314078e+000 -9.356093e+000 177 157 132
2.266285e+000 2.512196e+000 -9.575224e+000 172 150 127
2.305925e+000 2.429336e+000 -9.539945e+000 156 136 111
3.012505e+000 2.359622e+000 -1.009109e+001 130 103 83
3.013478e+000 2.346101e+000 -1.005185e+001 166 141 119
3.013478e+000 2.346101e+000 -1.005185e+001 166 141 119
1.755961e+000 2.337995e+000 -9.132624e+000 169 149 125
2.038132e+000 2.274422e+000 -9.251264e+000 168 145 122
2.133761e+000 2.357339e+000 -9.359387e+000 176 153 130
2.212197e+000 2.266800e+000 -9.396364e+000 141 119 95
1.357270e+000 2.273876e+000 -8.666369e+000 122 101 74
1.375977e+000 2.231327e+000 -8.644907e+000 171 147 123
2.389979e+000 1.654847e+000 -9.395054e+000 150 124 101
2.615877e+000 1.533972e+000 -9.466667e+000 142 115 96
3.180320e+000 1.331672e+000 -9.792252e+000 135 113 96
2.310399e-001 -5.995458e-001 -8.271655e+000 179 166 184
2.212030e+000 1.580363e+000 -9.097272e+000 178 157 139
2.538446e+000 1.295809e+000 -9.218018e+000 174 152 131
2.668471e+000 1.339911e+000 -9.317892e+000 181 159 138
2.652013e+000 1.474615e+000 -9.316773e+000 176 153 135
2.652013e+000 1.474615e+000 -9.316773e+000 176 153 135
2.813351e+000 1.265466e+000 -9.439855e+000 177 152 134
2.831110e+000 1.282431e+000 -9.381032e+000 180 157 140
3.206920e+000 1.116513e+000 -9.766947e+000 167 144 126
2.121692e+000 1.466059e+000 -8.867384e+000 172 151 130
2.208466e+000 1.367799e+000 -8.929027e+000 176 155 134
2.804193e+000 1.195919e+000 -9.332660e+000 178 157 139
2.917481e+000 1.167574e+000 -9.402715e+000 141 122 98
-1.937401e+000 3.390926e+000 -1.224229e+001 180 176 177
-1.808964e+000 3.375921e+000 -1.209369e+001 97 76 63
-1.417606e+000 4.253221e+000 -1.172595e+001 68 62 43
-9.878673e-001 4.895706e+000 -1.125637e+001 168 180 176
-5.464503e-001 5.641913e+000 -1.065447e+001 204 220 204
-1.248777e+000 3.889888e+000 -1.145195e+001 193 192 164
-6.449550e-001 5.143865e+000 -1.078108e+001 145 157 153
-1.101771e+000 3.960509e+000 -1.129588e+001 193 191 161
-1.313026e+000 2.705768e+000 -1.123107e+001 144 113 75
-3.658213e-002 5.851897e+000 -9.887386e+000 154 119 79
-1.702306e-002 5.901725e+000 -9.874404e+000 112 87 56
-1.148991e+000 2.653675e+000 -1.105203e+001 204 183 138
-3.130692e-001 5.018778e+000 -1.018398e+001 177 148 104
-2.745065e-001 5.022927e+000 -1.014484e+001 161 125 89
-2.760111e-001 5.039455e+000 -1.013271e+001 161 125 89
-2.292093e-001 5.093962e+000 -1.004338e+001 139 89 55
5.126972e-002 5.968097e+000 -9.774432e+000 97 90 98
4.981174e-002 5.966512e+000 -9.731692e+000 105 94 101
-2.126921e-001 4.949477e+000 -9.986947e+000 195 166 95
1.357912e-001 6.042409e+000 -9.634037e+000 136 129 99
-8.253434e-001 2.720375e+000 -1.067271e+001 176 139 96
-4.589543e-001 3.863766e+000 -1.032184e+001 130 85 46
-4.589543e-001 3.863766e+000 -1.032184e+001 130 85 46
-1.049257e-001 5.073079e+000 -9.815997e+000 185 154 97
-7.094701e-001 3.037625e+000 -1.054014e+001 204 181 124
2.436220e-001 5.980851e+000 -9.534929e+000 108 82 55
-1.002673e+000 1.735483e+000 -1.069240e+001 210 225 225
-7.284407e-001 2.487930e+000 -1.046929e+001 165 99 51
-1.083781e+000 8.857609e-001 -1.057001e+001 82 70 90
-7.219017e-001 1.904321e+000 -1.032542e+001 78 73 80
-6.157052e-001 2.369207e+000 -1.029475e+001 77 69 58
-3.188181e-001 3.297951e+000 -9.978064e+000 181 147 116
-9.475550e-001 9.702651e-001 -1.041125e+001 81 72 96
1.508469e+000 5.247331e+000 -1.022058e+001 83 59 35
1.677892e+000 5.165032e+000 -1.036641e+001 159 130 96
1.704584e+000 5.185391e+000 -1.038090e+001 70 47 16
2.011816e+000 5.108975e+000 -1.067117e+001 140 121 89
2.011816e+000 5.108975e+000 -1.067117e+001 140 121 89
-1.883815e-001 3.177699e+000 -9.683296e+000 203 184 144
2.155123e+000 4.995819e+000 -1.073301e+001 146 122 95
-6.962562e-001 3.982050e-001 -1.001062e+001 106 75 95
-6.962562e-001 3.982050e-001 -1.001062e+001 106 75 95
3.395285e+000 5.186359e+000 -1.117236e+001 171 129 70
-2.407446e-001 1.971145e+000 -9.666512e+000 209 217 219
-9.351721e-001 -1.383083e+000 -9.947497e+000 131 77 99
-4.760233e-001 7.350504e-001 -9.748222e+000 202 211 218
-1.303577e-002 2.383030e+000 -9.301208e+000 73 63 79
-8.385268e-001 -1.255475e+000 -9.697290e+000 154 140 158
-8.385268e-001 -1.255475e+000 -9.697290e+000 154 140 158
-5.687750e-001 9.815284e-002 -9.678297e+000 79 76 81
-5.687750e-001 9.815284e-002 -9.678297e+000 79 76 81
1.998455e+000 3.550525e+000 -9.997334e+000 165 144 115
2.314860e+000 3.570819e+000 -1.023062e+001 162 137 106
2.550958e+000 3.405535e+000 -1.034689e+001 166 142 116
-5.666554e-001 -1.081601e+000 -9.324971e+000 185 187 200
1.764437e+000 3.364775e+000 -9.716633e+000 158 140 120
1.828454e+000 3.300981e+000 -9.729417e+000 120 120 120
1.798235e+000 3.394131e+000 -9.735921e+000 162 144 125
1.997849e+000 3.435831e+000 -9.943471e+000 168 145 121
1.982115e+000 3.320624e+000 -9.818472e+000 118 110 108
2.083328e+000 3.335299e+000 -9.928726e+000 160 143 125
2.140859e+000 3.368693e+000 -1.000953e+001 117 96 77
2.140859e+000 3.368693e+000 -1.000953e+001 117 96 77
2.253175e+000 3.313627e+000 -1.006504e+001 170 151 125
2.175744e+000 3.340081e+000 -9.992063e+000 167 149 120
-5.149782e-001 -1.143328e+000 -9.248773e+000 63 60 69
2.163114e+000 3.083466e+000 -9.815942e+000 119 114 110
2.198373e+000 3.293012e+000 -9.936938e+000 159 148 130
2.524142e+000 2.952364e+000 -1.010828e+001 164 148 132
-3.903093e-001 -9.799245e-001 -9.104947e+000 181 179 191
-3.533445e-001 -9.063559e-001 -9.140007e+000 79 71 84
2.121536e+000 3.116274e+000 -9.727991e+000 173 150 129
2.754526e+000 2.704529e+000 -1.012721e+001 133 111 89
2.906951e+000 2.653027e+000 -1.030461e+001 166 144 121
2.964949e+000 2.654515e+000 -1.030840e+001 117 96 75
3.084176e+000 2.624126e+000 -1.046420e+001 161 138 120
2.130241e+000 2.578010e+000 -9.504572e+000 141 117 95
2.100108e+000 2.721047e+000 -9.565702e+000 177 155 132
2.210895e+000 2.837387e+000 -9.686811e+000 168 146 121
2.592179e+000 2.635975e+000 -9.937431e+000 171 147 123
2.804690e+000 2.468157e+000 -1.000641e+001 137 115 92
1.887239e+000 2.245526e+000 -9.234211e+000 176 154 134
1.992709e+000 2.555644e+000 -9.405120e+000 174 156 134
1.992709e+000 2.555644e+000 -9.405120e+000 174 156 134
2.032566e+000 2.420608e+000 -9.363043e+000 178 158 134
2.363960e-002 -7.370670e-001 -8.535932e+000 106 83 108
2.643455e-002 -7.579258e-001 -8.540464e+000 106 83 108
5.960287e-002 -4.993482e-001 -8.481488e+000 196 193 208
9.573027e-002 -5.470889e-001 -8.531732e+000 120 74 107
1.428591e-001 -3.498734e-001 -8.552888e+000 122 85 113
1.277147e+000 2.484584e+000 -8.713067e+000 173 149 124
1.310985e+000 2.492222e+000 -8.752436e+000 170 146 120
1.789560e-001 -8.076101e-001 -8.388561e+000 205 199 211
1.789560e-001 -8.076101e-001 -8.388561e+000 205 199 211
2.417583e+000 1.547275e+000 -9.301600e+000 135 110 92
2.412343e+000 1.564056e+000 -9.296321e+000 135 110 92
2.597597e-001 -4.383267e-001 -8.285102e+000 171 156 177
1.668695e+000 1.710931e+000 -8.635008e+000 133 113 88
1.869032e+000 1.682404e+000 -8.819791e+000 130 104 86
1.894668e+000 1.645968e+000 -8.787686e+000 169 146 128
2.298697e+000 1.540723e+000 -9.201116e+000 131 110 89
2.954607e+000 1.314041e+000 -9.609566e+000 143 120 102
1.551867e+000 1.734822e+000 -8.507934e+000 141 119 95
1.551867e+000 1.734822e+000 -8.507934e+000 141 119 95
-1.482475e+000 3.875497e+000 -1.171100e+001 198 189 170
-5.177303e-001 5.770149e+000 -1.059240e+001 179 165 125
-7.062006e-001 4.258280e+000 -1.076019e+001 173 148 118
-6.365283e-001 4.098136e+000 -1.067248e+001 100 71 59
-7.909220e-001 3.507141e+000 -1.074092e+001 152 121 71
1.831430e-001 5.802018e+000 -9.503891e+000 96 83 100
-7.850049e-001 1.658403e+000 -1.036487e+001 215 229 226
-1.052541e+000 6.376419e-001 -1.046458e+001 206 222 221
-4.174105e-001 2.542007e+000 -1.001059e+001 198 179 152
1.963659e+000 5.208607e+000 -1.068248e+001 142 121 93
-5.370264e-001 1.974673e+000 -1.010346e+001 214 226 227
-3.943294e-001 2.507604e+000 -9.957468e+000 76 56 90
1.921972e+000 5.104515e+000 -1.052172e+001 160 131 98
2.809420e+000 4.775330e+000 -1.128908e+001 55 31 28
3.327274e+000 5.261123e+000 -1.137828e+001 133 81 43
-5.562406e-001 7.852821e-001 -9.927282e+000 104 71 101
-4.378850e-001 1.432203e+000 -9.871226e+000 75 68 86
-5.040430e-002 2.232901e+000 -9.323658e+000 212 224 224
-7.539615e-001 -1.152170e+000 -9.610026e+000 65 62 73
8.270774e-001 4.125252e+000 -9.058736e+000 163 137 110
2.261115e+000 3.435902e+000 -1.014105e+001 170 149 122
-6.192888e-001 -1.193608e+000 -9.368141e+000 62 52 63
1.981039e+000 3.387408e+000 -9.895225e+000 116 95 74
2.331807e+000 3.333086e+000 -1.014838e+001 122 104 82
-3.195274e-001 -1.051743e+000 -8.922361e+000 103 73 87
1.919147e+000 2.723650e+000 -9.485078e+000 179 157 134
2.241119e+000 2.574436e+000 -9.619617e+000 178 156 133
6.462442e-002 -7.018570e-001 -8.473281e+000 199 198 212
6.462442e-002 -7.018570e-001 -8.473281e+000 199 198 212
5.951815e-002 -9.207665e-001 -8.392713e+000 182 173 193
2.919178e+000 1.362659e+000 -9.659714e+000 172 149 135
1.839772e-001 -7.561922e-001 -8.239034e+000 212 209 218
1.839772e-001 -7.561922e-001 -8.239034e+000 212 209 218
1.845852e+000 1.638519e+000 -8.745278e+000 172 150 129
1.976587e+000 1.663699e+000 -8.918122e+000 140 117 99
2.060664e+000 1.623287e+000 -8.997765e+000 127 102 80
2.157577e+000 1.535613e+000 -9.011732e+000 174 153 132
2.379124e+000 1.488478e+000 -9.199777e+000 175 154 133
2.407190e+000 1.561761e+000 -9.230614e+000 176 154 131
-7.687147e-001 5.119356e+000 -1.097061e+001 191 205 198
-3.143978e-001 5.697913e+000 -1.034114e+001 66 55 50
-4.966388e-001 5.006236e+000 -1.049023e+001 199 175 137
9.618203e-002 6.213916e+000 -9.708614e+000 88 87 106
8.317130e-002 5.973859e+000 -9.721162e+000 149 136 105
