ply
format ascii 1.0
element face 0
property list uchar int vertex_indices
element vertex 882
property float x
property float y
property float z
property uchar diffuse_red
property uchar diffuse_green
property uchar diffuse_blue
end_header
-1.347920e+000 4.691712e+000 -1.173649e+001 80 61 54
-1.347920e+000 4.691712e+000 -1.173649e+001 80 61 54
-1.044256e+000 4.941002e+000 -1.121966e+001 170 174 173
-5.834798e-001 5.328227e+000 -1.060876e+001 218 227 226
2.089816e-001 6.085024e+000 -9.588073e+000 123 96 95
-6.733857e-001 5.016260e+000 -1.071603e+001 104 68 53
-4.251391e-001 5.120422e+000 -1.029297e+001 198 155 138
-1.010194e+000 4.117372e+000 -1.112436e+001 185 145 93
-1.279731e-001 5.261490e+000 -9.753863e+000 116 69 56
-1.691653e+000 3.189569e+000 -1.175280e+001 92 60 63
-6.199412e-001 4.299743e+000 -1.042147e+001 84 55 49
-5.499734e-001 4.324063e+000 -1.036881e+001 134 84 62
1.595231e+000 5.271242e+000 -1.045418e+001 125 103 79
1.971847e+000 5.147712e+000 -1.084429e+001 121 91 67
1.452553e+000 5.181850e+000 -1.023020e+001 62 37 17
1.541804e+000 5.173795e+000 -1.029597e+001 63 41 18
1.610100e+000 5.049940e+000 -1.037334e+001 134 103 72
1.558756e+000 5.146589e+000 -1.028223e+001 123 93 55
1.637190e+000 5.118382e+000 -1.038467e+001 129 103 69
2.132580e+000 4.988296e+000 -1.084615e+001 119 93 68
2.136367e+000 4.983476e+000 -1.085511e+001 119 93 68
-1.308160e+000 2.746912e+000 -1.124850e+001 95 64 60
-8.930529e-001 3.278817e+000 -1.075695e+001 91 51 59
-9.460356e-001 3.022777e+000 -1.080748e+001 181 136 107
-2.452032e-001 4.059383e+000 -9.866004e+000 181 152 97
-4.800069e-001 3.384651e+000 -1.017015e+001 196 172 132
2.401190e+000 4.328461e+000 -1.072330e+001 131 101 75
-1.013993e+000 1.851334e+000 -1.065494e+001 58 48 70
-1.014585e+000 1.833414e+000 -1.067198e+001 58 48 70
-2.510634e-001 3.207085e+000 -9.716995e+000 208 191 158
1.149534e+000 4.089702e+000 -9.534735e+000 135 108 78
9.305093e-001 4.083058e+000 -9.273816e+000 63 36 21
1.140684e+000 3.848675e+000 -9.390567e+000 141 114 84
-6.223935e-003 3.145099e+000 -9.180151e+000 179 139 70
1.327382e+000 3.602130e+000 -9.461940e+000 142 114 82
1.597613e+000 3.529645e+000 -9.714093e+000 137 112 81
1.521810e+000 3.548082e+000 -9.644850e+000 140 113 84
1.521810e+000 3.548082e+000 -9.644850e+000 140 113 84
-1.050738e-001 2.549563e+000 -9.357807e+000 63 48 61
1.514669e+000 3.343856e+000 -9.527972e+000 141 118 78
1.514669e+000 3.343856e+000 -9.527972e+000 141 118 78
1.600578e+000 3.417844e+000 -9.665928e+000 137 113 83
2.127123e+000 3.346242e+000 -1.002960e+001 140 115 85
2.476989e+000 3.220218e+000 -1.027050e+001 91 83 65
2.482948e+000 3.185720e+000 -1.023975e+001 136 110 78
1.372601e+000 3.377493e+000 -9.400925e+000 133 113 87
1.372601e+000 3.377493e+000 -9.400925e+000 133 113 87
1.472201e+000 3.336955e+000 -9.502970e+000 129 109 74
1.472201e+000 3.336955e+000 -9.502970e+000 129 109 74
1.701474e+000 3.229943e+000 -9.594529e+000 133 112 83
2.521051e+000 3.125643e+000 -1.024942e+001 105 86 69
2.491599e+000 3.059977e+000 -1.019649e+001 132 108 73
2.972289e+000 2.923736e+000 -1.059019e+001 86 65 49
-5.464465e-001 1.231018e+000 -9.853368e+000 84 64 96
1.163486e+000 3.332623e+000 -9.127194e+000 140 115 84
1.264959e+000 3.284132e+000 -9.247691e+000 129 105 71
2.710742e+000 2.864665e+000 -1.030267e+001 83 56 37
2.995715e+000 2.745357e+000 -1.053994e+001 118 91 71
1.728187e+000 2.905664e+000 -9.449613e+000 135 110 77
2.219806e+000 2.852809e+000 -9.754711e+000 139 112 80
2.729218e+000 2.642141e+000 -1.019360e+001 82 55 34
3.133117e+000 2.533075e+000 -1.048774e+001 106 78 64
-6.151857e-001 6.810019e-001 -9.826769e+000 70 58 95
-2.413661e-001 1.500891e+000 -9.369843e+000 74 68 84
7.715495e-002 2.308424e+000 -8.857182e+000 129 110 141
-2.985672e-001 9.625799e-001 -9.447929e+000 74 63 77
-3.868706e-002 1.686820e+000 -9.099124e+000 217 219 234
1.141666e+000 2.945683e+000 -8.855778e+000 127 97 66
1.388262e+000 2.732184e+000 -9.086166e+000 142 113 81
1.387151e+000 2.736890e+000 -9.027392e+000 99 69 41
1.633496e+000 2.694071e+000 -9.284398e+000 139 112 83
1.969276e+000 2.653927e+000 -9.497489e+000 137 106 75
1.968661e+000 2.653734e+000 -9.497399e+000 137 106 75
2.019526e+000 2.665440e+000 -9.519707e+000 148 117 89
2.639923e+000 2.460459e+000 -9.895246e+000 135 104 75
3.068852e+000 2.327174e+000 -1.022402e+001 80 55 35
-1.240542e+000 5.034470e+000 -1.157790e+001 104 71 57
-6.687971e-001 5.366815e+000 -1.076860e+001 178 178 178
-1.135152e+000 4.426939e+000 -1.153621e+001 95 66 61
1.522144e-001 6.023149e+000 -9.585415e+000 163 163 133
-1.309667e+000 3.890595e+000 -1.150168e+001 199 192 176
-2.929531e-001 5.183862e+000 -1.008382e+001 182 139 98
-1.467653e+000 3.459623e+000 -1.153371e+001 140 97 76
-7.781919e-001 4.373410e+000 -1.077633e+001 111 70 58
-2.385698e-001 5.152267e+000 -9.896875e+000 203 166 121
-6.958887e-002 5.202277e+000 -9.659686e+000 74 67 100
-1.093562e+000 3.213880e+000 -1.107224e+001 203 173 122
-2.530972e-001 4.456122e+000 -9.906115e+000 141 85 61
1.892535e+000 5.074365e+000 -1.060648e+001 129 103 76
1.892535e+000 5.074365e+000 -1.060648e+001 129 103 76
2.006090e+000 5.030843e+000 -1.072524e+001 136 107 77
-6.153122e-001 3.733336e+000 -1.037357e+001 193 162 115
-1.246065e+000 2.455982e+000 -1.108718e+001 173 138 83
-9.212356e-001 2.713442e+000 -1.065337e+001 90 51 47
1.317669e+000 4.599456e+000 -9.837525e+000 109 84 66
-7.870885e-001 2.515260e+000 -1.049965e+001 166 94 67
3.077802e-001 4.553360e+000 -8.939897e+000 59 49 68
3.104159e-001 4.359847e+000 -8.895008e+000 61 52 71
-5.137365e-001 2.607317e+000 -1.008284e+001 102 65 44
-4.785631e-001 2.622226e+000 -1.000412e+001 202 187 162
-4.785631e-001 2.622226e+000 -1.000412e+001 202 187 162
-6.420493e-001 2.138835e+000 -1.017291e+001 218 230 239
-1.574384e-001 3.126491e+000 -9.483093e+000 115 69 47
-1.187942e-001 3.191388e+000 -9.428197e+000 190 165 122
1.033423e+000 4.040170e+000 -9.382177e+000 142 113 84
-5.974489e-001 1.877973e+000 -1.012014e+001 90 53 85
-5.921661e-001 1.907023e+000 -1.009692e+001 90 53 85
1.457896e+000 3.693088e+000 -9.679850e+000 77 51 28
1.537361e+000 3.656694e+000 -9.703407e+000 132 107 77
1.710211e+000 3.671553e+000 -9.865447e+000 100 75 45
2.763275e+000 3.449860e+000 -1.069078e+001 95 64 44
2.763275e+000 3.449860e+000 -1.069078e+001 95 64 44
-1.066875e+000 9.999330e-001 -1.050782e+001 76 67 100
1.286006e+000 3.663562e+000 -9.444747e+000 87 61 36
1.496429e+000 3.616806e+000 -9.635044e+000 94 67 46
1.905608e+000 3.527465e+000 -9.972634e+000 71 45 18
2.061803e+000 3.455310e+000 -1.005517e+001 139 112 87
2.810961e+000 3.372196e+000 -1.064912e+001 80 57 38
2.051969e+000 3.319290e+000 -9.920026e+000 81 73 61
2.194636e+000 3.271873e+000 -1.005004e+001 86 78 60
1.775903e+000 3.206380e+000 -9.651838e+000 132 112 85
2.122563e+000 3.167088e+000 -9.871725e+000 139 115 78
2.214894e+000 3.078496e+000 -9.936844e+000 90 73 47
2.444243e+000 3.148634e+000 -1.016921e+001 89 72 56
3.063232e+000 2.948054e+000 -1.067038e+001 97 71 58
-5.361929e-001 1.202970e+000 -9.854902e+000 86 67 102
1.109139e+000 3.365051e+000 -9.054339e+000 138 117 87
1.719845e+000 3.148296e+000 -9.594334e+000 61 62 55
2.176323e+000 3.073944e+000 -9.848837e+000 139 109 81
2.194282e+000 3.027903e+000 -9.823388e+000 82 53 31
2.897656e+000 2.738377e+000 -1.039901e+001 99 72 53
2.927819e+000 2.621050e+000 -1.035242e+001 74 48 31
3.110699e+000 2.551268e+000 -1.052438e+001 86 58 46
-5.951116e-001 5.543528e-001 -9.754329e+000 210 222 229
-5.951116e-001 5.543528e-001 -9.754329e+000 210 222 229
-1.356239e-001 1.601722e+000 -9.254855e+000 212 214 232
1.190713e+000 3.007443e+000 -9.034236e+000 96 70 43
1.155178e+000 3.020806e+000 -8.941408e+000 138 107 78
1.223662e+000 2.962139e+000 -8.974496e+000 88 59 32
1.221849e+000 2.963944e+000 -8.972430e+000 88 59 32
1.275351e+000 2.968896e+000 -9.027133e+000 94 64 39
1.387904e+000 2.859162e+000 -9.122612e+000 132 105 75
1.394561e+000 2.974332e+000 -9.187177e+000 142 112 76
1.487968e+000 2.883087e+000 -9.246724e+000 114 86 62
1.758734e+000 2.835738e+000 -9.445793e+000 101 74 47
1.758734e+000 2.835738e+000 -9.445793e+000 101 74 47
2.797382e+000 2.540570e+000 -1.017256e+001 100 74 47
2.797382e+000 2.540570e+000 -1.017256e+001 100 74 47
2.868120e+000 2.486318e+000 -1.018343e+001 130 99 71
2.837277e+000 2.529590e+000 -1.013864e+001 130 99 71
-3.396464e-001 8.992680e-001 -9.478667e+000 218 221 230
5.532195e-002 1.877752e+000 -8.962897e+000 210 217 225
5.177027e-002 1.898513e+000 -8.947710e+000 210 217 225
1.020232e+000 3.019037e+000 -8.751929e+000 90 60 32
1.356465e+000 2.800724e+000 -9.072651e+000 96 66 40
1.356465e+000 2.800724e+000 -9.072651e+000 96 66 40
1.540213e+000 2.724519e+000 -9.204284e+000 141 112 81
1.552529e+000 2.673799e+000 -9.181086e+000 92 68 42
2.552191e+000 2.398279e+000 -9.816450e+000 97 67 41
2.535128e+000 2.429464e+000 -9.787998e+000 97 67 41
-6.174761e-001 5.796713e+000 -1.091594e+001 148 132 109
-6.174761e-001 5.796713e+000 -1.091594e+001 148 132 109
-1.111316e-001 6.386247e+000 -9.976979e+000 169 162 165
-6.465217e-001 5.510879e+000 -1.077152e+001 221 230 229
2.116375e-001 5.972197e+000 -9.555425e+000 152 138 103
2.387826e-001 6.009699e+000 -9.567566e+000 73 55 40
-1.260666e+000 3.548349e+000 -1.131871e+001 95 67 63
-3.147270e-001 4.612870e+000 -9.997307e+000 181 141 83
-4.818823e-001 3.685878e+000 -1.019906e+001 155 97 60
-8.132738e-001 2.920482e+000 -1.061522e+001 157 100 69
-1.021534e+000 2.510153e+000 -1.077087e+001 108 64 58
-4.966937e-001 3.405899e+000 -1.018661e+001 192 164 124
-3.923389e-001 2.620323e+000 -9.905533e+000 204 180 157
1.127494e+000 3.792112e+000 -9.371570e+000 85 58 37
1.218535e+000 3.768725e+000 -9.451545e+000 75 51 25
1.218535e+000 3.768725e+000 -9.451545e+000 75 51 25
-9.977029e-001 1.065530e+000 -1.040554e+001 79 71 105
2.257589e+000 3.459745e+000 -1.024980e+001 86 59 35
2.920021e+000 3.227470e+000 -1.068049e+001 80 53 38
1.222716e+000 3.538116e+000 -9.266549e+000 138 112 74
1.402641e+000 3.499161e+000 -9.525168e+000 103 75 51
1.402641e+000 3.499161e+000 -9.525168e+000 103 75 51
-5.478967e-001 1.320682e+000 -9.880066e+000 72 64 91
1.802378e+000 3.289459e+000 -9.724312e+000 122 106 76
1.039615e+000 3.369386e+000 -8.967581e+000 142 112 78
1.504074e+000 3.173614e+000 -9.448257e+000 86 73 54
2.454559e+000 2.982567e+000 -1.012024e+001 133 107 79
-2.942217e-001 1.560742e+000 -9.488830e+000 60 55 75
1.468045e+000 2.973823e+000 -9.299197e+000 83 56 31
1.847635e+000 2.770641e+000 -9.487226e+000 139 112 83
2.304739e-001 6.713129e+000 -1.019086e+001 76 63 80
-8.373391e-001 5.022680e+000 -1.094368e+001 217 228 222
-5.320055e-001 5.124369e+000 -1.050640e+001 148 99 84
-1.340689e+000 3.642396e+000 -1.141815e+001 166 126 90
-1.343238e+000 3.626311e+000 -1.144128e+001 166 126 90
-3.687210e-001 4.906575e+000 -1.013484e+001 206 181 135
-1.297658e+000 3.099076e+000 -1.133135e+001 160 121 79
-9.926502e-001 3.130558e+000 -1.094703e+001 192 157 91
-9.926502e-001 3.130558e+000 -1.094703e+001 192 157 91
-8.660556e-001 3.223405e+000 -1.072037e+001 214 183 130
-5.346616e-001 3.514551e+000 -1.030701e+001 211 186 152
3.239927e-001 4.487845e+000 -8.952062e+000 173 179 187
-5.781426e-001 2.495320e+000 -1.022950e+001 193 174 141
2.473856e-001 4.403089e+000 -8.910161e+000 119 126 142
2.473856e-001 4.403089e+000 -8.910161e+000 119 126 142
-8.445983e-001 1.899790e+000 -1.045260e+001 219 233 242
3.751991e-002 3.456253e+000 -9.171687e+000 183 137 127
3.175099e+000 2.792424e+000 -1.072802e+001 55 33 20
-8.012307e-001 4.919438e-001 -1.003265e+001 119 74 104
3.348802e+000 2.153242e+000 -1.062971e+001 64 36 22
-6.908806e-001 2.459439e-001 -9.765805e+000 214 224 226
-4.198484e-001 7.335697e-001 -9.552499e+000 57 53 68
-4.175712e-001 8.034649e-001 -9.510662e+000 57 53 68
1.306133e-001 6.223622e+000 -9.649600e+000 78 66 90
2.899378e-001 6.076666e+000 -9.830150e+000 39 24 24
-7.739954e-001 4.303787e+000 -1.077328e+001 192 151 129
2.168668e+000 4.970472e+000 -1.074257e+001 123 95 72
2.210195e-001 4.261928e+000 -8.979659e+000 67 62 87
-1.320856e-001 3.334978e+000 -9.480375e+000 115 74 64
1.039828e+000 3.807574e+000 -9.255036e+000 134 106 66
-4.795757e-002 2.122545e+000 -9.137106e+000 211 222 226
-4.259847e-002 2.153275e+000 -9.116796e+000 211 222 226
-1.638328e-001 6.156684e+000 -9.989330e+000 145 124 122
6.168136e-001 6.497195e+000 -9.971472e+000 83 70 95
-1.397186e+000 4.708582e+000 -1.178411e+001 128 111 95
-1.397186e+000 4.708582e+000 -1.178411e+001 128 111 95
-4.264922e-001 5.208794e+000 -1.031219e+001 160 112 100
2.289170e-001 5.815666e+000 -9.457445e+000 54 36 36
1.277938e+000 5.346008e+000 -1.009183e+001 131 100 69
-8.956204e-001 2.320697e+000 -1.063776e+001 198 175 133
1.378931e-001 4.401018e+000 -8.999911e+000 202 190 160
4.015150e-001 4.499598e+000 -9.042851e+000 46 34 40
-2.320571e-001 3.297385e+000 -9.686531e+000 201 177 139
3.179603e-002 3.645914e+000 -9.226391e+000 78 61 77
8.028465e-001 4.078795e+000 -9.067324e+000 132 105 69
9.816183e-001 4.008873e+000 -9.267449e+000 145 115 81
2.079071e+000 2.982768e+000 -9.770812e+000 140 110 79
2.068561e+000 2.998526e+000 -9.756457e+000 140 110 79
8.515950e-001 6.636870e+000 -1.000050e+001 66 54 78
-6.031649e-001 5.170906e+000 -1.063400e+001 215 205 183
-6.858531e-001 4.556885e+000 -1.060907e+001 107 66 56
-6.813410e-001 4.526957e+000 -1.064533e+001 107 66 56
4.854771e-001 5.759358e+000 -9.601310e+000 80 52 40
4.143629e-001 4.370876e+000 -8.921699e+000 42 31 37
7.726054e-001 4.319964e+000 -9.214475e+000 140 113 83
1.480339e-001 3.863525e+000 -9.100202e+000 202 189 158
2.792163e-002 6.243843e+000 -9.713196e+000 143 144 164
-9.362879e-001 2.074968e+000 -1.060947e+001 55 46 57
-9.330010e-001 2.057326e+000 -1.062584e+001 55 46 57
-2.247334e-001 2.637393e+000 -9.537844e+000 62 53 61
-7.331593e-001 1.310173e+000 -1.017437e+001 65 56 83
-1.315231e+000 2.632816e+000 -1.115042e+001 191 163 110
-7.903890e-001 1.810118e+000 -1.040062e+001 74 71 103
-9.308768e-001 1.335634e+000 -1.041996e+001 56 50 78
-3.743564e-001 1.833474e+000 -9.655086e+000 64 55 84
5.497535e-001 6.733306e+000 -9.997765e+000 59 42 47
1.990498e-001 6.308965e+000 -9.770377e+000 46 35 39
-5.315216e-001 2.067279e+000 -9.930115e+000 212 221 228
-1.013215e+000 7.164603e-001 -1.040099e+001 190 198 210
-4.352359e-001 4.280931e+000 -1.015163e+001 95 58 49
-4.352359e-001 4.280931e+000 -1.015163e+001 95 58 49
-8.232316e-001 4.007782e+000 -1.084820e+001 83 58 54
1.592339e+000 5.429080e+000 -1.067975e+001 36 25 23
-1.420572e+000 9.299430e-001 -1.089981e+001 56 53 64
3.121201e+000 3.130485e+000 -1.045416e+001 93 57 35
-1.293580e+000 1.631431e+000 -1.096364e+001 64 53 67
-1.622184e+000 2.863946e+000 -1.136790e+001 70 57 85
2.161269e+000 2.488434e+000 -9.555194e+000 132 105 75
-1.542823e+000 3.900719e+000 -1.174289e+001 197 187 175
-2.469641e-001 4.041299e+000 -9.883620e+000 188 155 102
-1.438399e+000 3.522677e+000 -1.156075e+001 109 65 52
1.167064e+000 3.909077e+000 -9.483380e+000 129 104 70
-1.047790e+000 4.831061e+000 -1.125652e+001 195 167 121
-8.162871e-001 4.765635e+000 -1.089475e+001 119 88 82
-8.842138e-001 4.447732e+000 -1.099213e+001 158 117 90
-8.318339e-001 4.496604e+000 -1.089516e+001 173 138 106
1.177706e+000 5.272783e+000 -1.001810e+001 126 103 79
2.331270e+000 5.066501e+000 -1.112600e+001 118 90 76
-1.521375e+000 2.592741e+000 -1.143768e+001 86 64 81
1.445958e+000 5.213709e+000 -1.022709e+001 125 105 70
-1.147982e+000 2.841896e+000 -1.102428e+001 181 128 111
-6.843185e-001 1.164507e+000 -1.002696e+001 99 87 112
-4.452256e-001 8.200778e-001 -9.626346e+000 211 212 223
-3.574675e-001 5.848874e+000 -1.030966e+001 138 114 94
-7.841382e-001 5.338622e+000 -1.094874e+001 213 217 204
-4.904824e-001 5.649729e+000 -1.049753e+001 154 103 79
-7.484100e-001 5.251146e+000 -1.086473e+001 221 230 229
-3.936536e-001 5.517093e+000 -1.036701e+001 193 161 104
-2.312404e-001 5.480765e+000 -1.000780e+001 192 165 118
2.146086e-001 6.014685e+000 -9.549458e+000 89 71 48
-9.434160e-001 4.392642e+000 -1.105331e+001 191 153 98
-1.145163e+000 3.402065e+000 -1.116443e+001 186 153 106
1.465063e+000 5.195269e+000 -1.027486e+001 124 104 69
-1.351536e-001 4.163964e+000 -9.651782e+000 213 186 148
-7.341990e-001 3.013101e+000 -1.047679e+001 195 157 102
1.108258e+000 4.142703e+000 -9.511627e+000 143 116 87
-3.713396e-001 9.040860e-001 -9.541692e+000 63 58 73
-1.463837e+000 2.706840e+000 -1.141431e+001 86 54 54
2.399308e+000 4.961770e+000 -1.105563e+001 130 98 76
-1.427776e+000 2.160391e+000 -1.125750e+001 67 57 81
2.886320e+000 3.298649e+000 -1.068156e+001 114 92 69
-1.409637e-001 1.645319e+000 -9.223082e+000 212 214 232
2.382108e+000 2.611822e+000 -9.756817e+000 128 103 72
-9.666437e-001 5.280792e+000 -1.119543e+001 220 230 230
3.387472e+000 4.025559e+000 -1.096672e+001 133 95 59
1.945778e+000 3.551880e+000 -1.004413e+001 139 111 79
2.677774e+000 3.129375e+000 -1.040220e+001 129 108 85
2.692544e+000 3.057630e+000 -1.039697e+001 92 77 55
2.144532e+000 3.051718e+000 -9.838050e+000 143 111 80
2.289383e+000 2.960671e+000 -9.936011e+000 90 63 36
2.289383e+000 2.960671e+000 -9.936011e+000 90 63 36
2.555915e+000 2.784870e+000 -1.010736e+001 89 61 40
2.928110e+000 2.622905e+000 -1.035314e+001 74 48 31
-2.433818e-001 1.520338e+000 -9.345412e+000 76 69 85
2.025629e+000 2.804786e+000 -9.609926e+000 90 62 40
2.025629e+000 2.804786e+000 -9.609926e+000 90 62 40
-1.349227e+000 4.310554e+000 -1.161202e+001 196 179 171
-1.422298e+000 3.777943e+000 -1.156868e+001 152 115 75
-6.096032e-001 3.914910e+000 -1.049232e+001 133 73 61
-2.859642e-001 3.478257e+000 -9.838756e+000 204 188 166
1.956671e+000 2.932897e+000 -9.620754e+000 90 66 38
2.930305e+000 2.565735e+000 -1.031183e+001 119 93 70
2.167096e+000 2.622380e+000 -9.631822e+000 135 105 79
2.747614e+000 2.493192e+000 -1.002743e+001 98 68 44
-7.930622e-001 1.816903e+000 -1.039539e+001 74 71 103
-1.240439e+000 4.460504e+000 -1.152203e+001 78 61 51
-5.388849e-001 5.410394e+000 -1.056191e+001 216 229 220
-1.801711e-001 5.936896e+000 -1.004464e+001 140 120 99
-6.740580e-001 5.080313e+000 -1.074039e+001 205 177 125
-9.147299e-001 4.468509e+000 -1.099181e+001 120 83 52
-1.253540e+000 3.808888e+000 -1.138497e+001 162 127 70
-1.176548e+000 3.864542e+000 -1.129685e+001 187 150 88
-2.632186e-001 5.099690e+000 -9.997946e+000 148 106 62
-2.597823e-001 5.166024e+000 -1.005888e+001 173 124 83
1.135783e+000 5.567026e+000 -1.022412e+001 69 46 38
-3.736424e-001 4.491459e+000 -1.012761e+001 190 143 91
-1.235700e+000 2.769162e+000 -1.114374e+001 195 167 133
-1.356170e-001 4.510609e+000 -9.755409e+000 172 123 64
1.446272e+000 5.214415e+000 -1.022669e+001 134 110 83
1.915900e+000 5.146970e+000 -1.071468e+001 90 60 36
-8.143304e-001 2.981897e+000 -1.063314e+001 199 147 102
1.492442e+000 5.127168e+000 -1.020588e+001 134 108 80
-1.224459e+000 2.148441e+000 -1.101035e+001 180 158 135
-5.187854e-001 3.332535e+000 -1.022065e+001 97 62 53
-8.020904e-001 2.366938e+000 -1.049199e+001 185 152 101
1.750811e+000 4.458478e+000 -1.018572e+001 120 96 72
-1.396842e-001 3.339471e+000 -9.511438e+000 173 126 106
-1.146562e+000 7.146699e-001 -1.054998e+001 193 196 213
-7.179328e-002 1.689376e+000 -8.933340e+000 81 73 99
2.206068e+000 2.540677e+000 -9.634915e+000 149 118 90
-1.672675e+000 4.229822e+000 -1.201231e+001 76 64 52
-7.007101e-001 5.344688e+000 -1.083574e+001 215 225 224
-1.057708e+000 4.125943e+000 -1.121332e+001 120 77 35
-3.987385e-001 5.205347e+000 -1.021704e+001 142 96 76
-3.570902e-001 5.315792e+000 -1.022573e+001 207 178 142
-1.228606e+000 3.789843e+000 -1.135082e+001 120 83 61
-7.782765e-001 4.177310e+000 -1.079347e+001 133 92 77
-8.560928e-001 4.033316e+000 -1.087286e+001 133 96 78
-6.231542e-001 3.894282e+000 -1.051972e+001 109 49 49
-1.411595e+000 2.443086e+000 -1.131247e+001 158 126 93
-5.021263e-001 3.852381e+000 -1.029407e+001 158 107 62
-1.831684e-001 4.468215e+000 -9.817812e+000 194 144 92
1.163882e+000 5.293019e+000 -9.990141e+000 113 86 65
1.586117e+000 5.150624e+000 -1.034985e+001 67 41 20
1.935878e+000 5.088833e+000 -1.066385e+001 72 42 24
-1.924624e-001 4.211456e+000 -9.805621e+000 205 174 125
2.629682e+000 4.888248e+000 -1.134361e+001 106 79 70
-1.220083e+000 2.215720e+000 -1.099438e+001 151 109 93
-8.913783e-001 2.741829e+000 -1.067781e+001 162 124 103
-9.820120e-001 2.495578e+000 -1.075952e+001 152 95 86
-4.263594e-001 3.508656e+000 -1.011716e+001 113 77 60
-4.101172e-001 3.460294e+000 -1.008285e+001 145 97 74
-4.142157e-001 3.100756e+000 -9.976102e+000 202 183 151
-3.115405e-001 3.246914e+000 -9.820139e+000 118 61 41
1.181635e+000 4.536905e+000 -9.767201e+000 143 115 87
1.183168e+000 4.538208e+000 -9.766465e+000 143 115 87
2.531833e+000 4.280756e+000 -1.085571e+001 128 99 67
-3.036151e-001 2.971021e+000 -9.767682e+000 179 143 90
-3.119743e-002 3.776041e+000 -9.373274e+000 201 182 140
9.058901e-001 4.163701e+000 -9.324268e+000 76 49 28
2.914098e+000 3.528491e+000 -1.078810e+001 101 75 51
2.094805e+000 3.498475e+000 -1.014023e+001 91 65 35
-9.129288e-001 5.286402e-001 -1.017919e+001 202 202 215
2.331081e+000 3.337680e+000 -1.021623e+001 134 108 81
2.427437e+000 3.259624e+000 -1.026494e+001 127 102 82
-2.766324e-001 1.492952e+000 -9.476369e+000 186 185 198
-3.903983e-001 6.958879e-001 -9.490288e+000 198 195 206
2.075560e+000 2.630317e+000 -9.552762e+000 146 120 91
2.497377e+000 2.285941e+000 -9.674968e+000 144 116 90
-5.731288e-001 5.842211e+000 -1.064245e+001 135 108 88
-1.400216e+000 4.330164e+000 -1.167146e+001 62 48 39
-7.546861e-001 4.890257e+000 -1.080826e+001 119 80 68
-3.432483e-002 5.885453e+000 -9.813133e+000 184 171 151
-1.483198e+000 3.763957e+000 -1.163970e+001 172 135 85
-1.157490e+000 3.997743e+000 -1.131521e+001 199 189 178
-7.239029e-001 4.581231e+000 -1.073018e+001 96 58 52
-5.577054e-001 4.735738e+000 -1.046065e+001 145 92 56
-3.903922e-001 5.123035e+000 -1.018831e+001 201 159 124
2.674130e-001 5.983006e+000 -9.551779e+000 91 72 57
-1.492989e+000 2.650877e+000 -1.141687e+001 163 130 89
-3.862547e-001 4.382325e+000 -1.015424e+001 133 87 51
2.290123e+000 5.012081e+000 -1.098706e+001 128 100 78
2.724259e+000 4.902090e+000 -1.144276e+001 49 29 22
-1.077813e-001 4.411627e+000 -9.653610e+000 161 107 60
2.423376e+000 4.501407e+000 -1.090772e+001 136 103 70
-6.861818e-001 2.069773e+000 -1.029208e+001 64 47 61
-3.713605e-001 2.965289e+000 -9.925143e+000 113 76 40
-1.251789e-002 3.633615e+000 -9.318784e+000 204 186 147
2.812308e-001 4.360350e+000 -8.849384e+000 143 147 165
2.812308e-001 4.360350e+000 -8.849384e+000 143 147 165
1.106022e+000 4.144387e+000 -9.525124e+000 140 109 78
9.822075e-001 4.171935e+000 -9.394777e+000 137 112 81
-2.545951e-002 3.244447e+000 -9.244240e+000 192 160 113
2.807243e+000 3.590775e+000 -1.074729e+001 120 90 64
9.931690e-002 3.268809e+000 -9.038831e+000 67 54 61
1.163561e+000 3.733197e+000 -9.367108e+000 137 108 74
1.478428e+000 3.666007e+000 -9.653753e+000 140 108 75
2.181157e+000 3.533878e+000 -1.022416e+001 137 108 78
2.705591e+000 3.369870e+000 -1.063345e+001 132 107 77
2.774230e+000 3.405220e+000 -1.066824e+001 131 104 77
2.834500e+000 3.277206e+000 -1.066305e+001 123 99 75
2.988352e+000 3.355491e+000 -1.083412e+001 114 87 68
-1.045007e-001 2.558525e+000 -9.352447e+000 49 47 57
1.799805e+000 3.390736e+000 -9.807707e+000 131 106 72
-1.138737e-001 2.210503e+000 -9.372404e+000 207 217 224
2.431316e+000 3.185338e+000 -1.020294e+001 136 111 81
2.190349e+000 2.926237e+000 -9.808152e+000 147 113 85
2.716786e+000 2.666720e+000 -1.017172e+001 94 65 48
-2.483393e-001 1.000748e+000 -9.318640e+000 197 201 210
1.317595e+000 2.942789e+000 -9.084445e+000 101 75 52
1.317595e+000 2.942789e+000 -9.084445e+000 101 75 52
1.496310e+000 2.835704e+000 -9.228708e+000 147 116 87
1.883816e+000 2.892411e+000 -9.539629e+000 134 107 78
2.153015e+000 2.742287e+000 -9.663265e+000 143 115 83
2.296422e+000 2.823881e+000 -9.825093e+000 144 110 83
2.296422e+000 2.823881e+000 -9.825093e+000 144 110 83
1.396551e+000 2.711019e+000 -9.047273e+000 106 75 54
1.446884e+000 2.728353e+000 -9.137382e+000 148 118 90
1.957303e+000 2.648304e+000 -9.538251e+000 103 75 51
-4.404787e-002 1.147454e+000 -9.013372e+000 214 214 222
1.127502e+000 2.829388e+000 -8.739880e+000 110 79 51
1.810718e+000 2.462458e+000 -9.283454e+000 147 123 97
1.810718e+000 2.462458e+000 -9.283454e+000 147 123 97
2.107477e+000 2.374069e+000 -9.443148e+000 107 83 57
2.107477e+000 2.374069e+000 -9.443148e+000 107 83 57
2.251109e+000 2.420316e+000 -9.564629e+000 153 125 101
2.621555e+000 2.369799e+000 -9.817544e+000 147 116 89
2.621555e+000 2.369799e+000 -9.817544e+000 147 116 89
1.640819e+000 2.381334e+000 -9.120520e+000 150 126 102
-4.743261e-001 5.414503e+000 -1.051950e+001 195 159 106
-1.840677e+000 3.575679e+000 -1.194967e+001 98 67 56
-1.373151e+000 3.876021e+000 -1.153051e+001 198 187 177
-4.829854e-001 5.049674e+000 -1.039407e+001 205 178 159
-9.846234e-001 3.404625e+000 -1.092630e+001 185 155 108
-2.734547e-001 4.681872e+000 -9.975641e+000 192 157 92
-2.744661e-001 4.691358e+000 -9.964546e+000 192 157 92
1.298349e+000 5.253353e+000 -1.010028e+001 87 62 32
1.649877e+000 5.204402e+000 -1.041736e+001 71 43 24
1.865936e+000 5.142634e+000 -1.062325e+001 128 97 70
1.988132e+000 5.055907e+000 -1.068687e+001 129 100 72
-6.040446e-001 3.046729e+000 -1.031120e+001 206 178 131
-4.434964e-001 3.332366e+000 -1.008440e+001 120 74 60
-1.080552e+000 1.709373e+000 -1.068090e+001 60 48 67
-1.140205e+000 1.485321e+000 -1.071624e+001 74 64 87
-3.882676e-001 2.866116e+000 -9.939190e+000 204 188 155
-5.610035e-001 2.215241e+000 -1.004155e+001 84 58 85
-3.045021e-001 2.822947e+000 -9.754327e+000 196 176 141
1.535514e+000 3.659005e+000 -9.701425e+000 132 99 68
1.780723e+000 3.508611e+000 -9.892988e+000 98 70 40
2.364779e+000 3.430435e+000 -1.033364e+001 87 61 37
2.437215e+000 3.520011e+000 -1.044221e+001 85 59 37
2.439735e+000 3.419627e+000 -1.038485e+001 96 68 47
2.447993e+000 3.409755e+000 -1.039405e+001 96 68 47
2.826634e+000 3.348091e+000 -1.067824e+001 88 66 45
1.150766e+000 3.601409e+000 -9.298888e+000 145 114 80
2.365091e+000 3.179308e+000 -1.015515e+001 130 109 82
2.108865e+000 3.098434e+000 -9.848834e+000 83 80 64
2.038663e+000 2.907149e+000 -9.677903e+000 86 54 33
2.248873e+000 2.888818e+000 -9.819858e+000 105 75 49
2.248873e+000 2.888818e+000 -9.819858e+000 105 75 49
-3.006304e-001 6.482934e-001 -9.321833e+000 64 58 72
-3.173360e-001 8.370050e-001 -9.213372e+000 64 58 72
1.529184e+000 2.787110e+000 -9.220309e+000 97 67 46
1.529184e+000 2.787110e+000 -9.220309e+000 97 67 46
1.684572e+000 2.644359e+000 -9.282459e+000 108 80 57
1.684572e+000 2.644359e+000 -9.282459e+000 108 80 57
2.166624e+000 2.720427e+000 -9.629226e+000 103 75 51
2.242323e+000 2.593871e+000 -9.629472e+000 91 61 37
2.416605e+000 2.565554e+000 -9.747724e+000 114 84 60
2.763946e+000 2.463872e+000 -1.005184e+001 99 72 49
1.630852e+000 2.491992e+000 -9.166093e+000 147 116 95
1.746220e+000 2.463289e+000 -9.239076e+000 149 123 100
4.125108e-001 6.687646e+000 -9.940115e+000 83 74 95
-1.644605e+000 3.732912e+000 -1.180533e+001 201 184 176
-1.153924e+000 4.075759e+000 -1.131228e+001 152 140 128
-4.427073e-001 4.888878e+000 -1.028286e+001 207 170 113
-5.055356e-001 4.350665e+000 -1.033702e+001 181 135 82
-8.510584e-001 3.496468e+000 -1.079313e+001 156 119 73
-2.256663e-001 4.526777e+000 -9.903205e+000 192 152 93
1.355766e+000 5.345967e+000 -1.019343e+001 137 107 71
-8.891786e-001 3.077628e+000 -1.075449e+001 130 74 60
-8.842333e-002 3.929853e+000 -9.513952e+000 200 169 86
1.098360e-001 4.241196e+000 -9.176659e+000 189 169 141
2.672239e-001 4.471509e+000 -8.913637e+000 63 55 76
-8.881527e-001 1.707105e+000 -1.045778e+001 58 55 76
-8.895318e-001 1.667980e+000 -1.048412e+001 58 55 76
2.552311e+000 3.281828e+000 -1.040146e+001 84 62 38
-4.878977e-001 9.742827e-001 -9.687893e+000 94 67 100
-4.880288e-001 9.745984e-001 -9.687722e+000 94 67 100
-9.165054e-001 -9.179653e-001 -9.858443e+000 213 218 230
-9.178458e-001 -9.300884e-001 -9.860077e+000 213 218 230
-4.208332e-002 6.106142e+000 -9.803266e+000 90 71 94
-4.132126e-002 6.104741e+000 -9.806065e+000 90 71 94
-4.021772e-001 5.153615e+000 -1.022800e+001 170 123 112
-1.008015e+000 3.284096e+000 -1.094070e+001 83 53 51
-1.852699e-001 4.412821e+000 -9.798086e+000 82 52 47
-1.510028e-001 3.617630e+000 -9.615181e+000 205 186 153
-1.083664e+000 1.394610e+000 -1.067424e+001 134 136 151
-5.304955e-001 1.791427e+000 -1.001450e+001 212 221 228
3.119206e+000 3.004703e+000 -1.071530e+001 67 39 25
-5.011560e-001 6.613591e-001 -9.718389e+000 76 61 93
-5.588582e-002 1.894172e+000 -9.142355e+000 209 223 227
-3.473971e-001 6.836614e-001 -9.405633e+000 211 222 224
-1.233639e-001 1.080118e+000 -9.181524e+000 143 135 153
-6.180607e-001 4.305325e+000 -1.053158e+001 181 134 79
-4.120474e-001 3.271287e+000 -9.994612e+000 207 187 150
-2.325691e-001 3.062682e+000 -9.497948e+000 173 144 94
-2.001037e-001 9.103733e-001 -9.269933e+000 98 62 83
-8.805127e-002 6.215058e+000 -9.850231e+000 89 75 100
-6.383691e-001 4.915041e+000 -1.057277e+001 103 68 62
-4.665784e-001 5.005945e+000 -1.030798e+001 96 66 64
-1.636292e-001 5.237351e+000 -9.826710e+000 126 79 73
-8.095965e-001 3.418756e+000 -1.065406e+001 93 62 56
-1.151163e+000 1.756807e+000 -1.075198e+001 210 216 226
-1.151163e+000 1.756807e+000 -1.075198e+001 210 216 226
-6.777012e-002 3.567510e+000 -9.378413e+000 203 186 153
5.032546e-002 3.161644e+000 -9.134045e+000 202 174 120
1.442814e+000 3.108836e+000 -9.316183e+000 153 122 91
2.982956e+000 2.507940e+000 -1.031307e+001 123 96 75
-1.587502e-001 5.859452e+000 -9.966091e+000 102 71 60
1.212112e+000 5.123123e+000 -1.000323e+001 131 102 68
-9.875968e-001 2.656892e+000 -1.076744e+001 97 64 59
1.233643e+000 4.590941e+000 -9.823845e+000 139 112 82
-6.779060e-001 2.267198e+000 -1.029319e+001 62 56 66
-9.281582e-002 2.787275e+000 -9.321235e+000 58 55 64
-1.105017e-001 2.872508e+000 -9.257617e+000 58 55 64
1.506564e-003 2.342947e+000 -9.205981e+000 63 55 79
3.716152e-002 3.485984e+000 -9.275126e+000 170 129 113
-2.126609e-001 2.660712e+000 -9.198634e+000 185 190 199
9.884808e-001 3.293276e+000 -8.878348e+000 144 110 75
-9.067264e-001 4.027045e-001 -9.732833e+000 96 91 111
-7.833998e-002 6.039207e+000 -9.889126e+000 147 129 118
-4.704506e-001 5.195798e+000 -1.041177e+001 195 159 140
-1.195789e-001 5.147368e+000 -9.824446e+000 175 132 108
-5.492495e-001 3.637824e+000 -1.033132e+001 156 122 76
1.936127e+000 5.094128e+000 -1.055220e+001 124 93 65
1.528607e+000 4.513818e+000 -1.000654e+001 141 115 81
-8.492776e-002 3.373634e+000 -9.403132e+000 150 106 99
7.226823e-002 3.791428e+000 -9.206780e+000 170 139 111
1.319079e+000 4.114918e+000 -9.675537e+000 71 47 20
1.329356e+000 4.096316e+000 -9.691037e+000 71 47 20
-1.541214e-002 1.276019e+000 -9.042542e+000 66 47 79
3.047113e+000 2.418201e+000 -1.014536e+001 138 109 94
3.230234e+000 1.352566e+000 -1.000382e+001 155 127 115
3.272162e+000 1.278450e+000 -9.981023e+000 156 130 117
1.137210e+000 1.838839e+000 -8.540367e+000 84 57 46
-1.722836e+000 4.209462e+000 -1.191410e+001 87 70 61
-1.124590e+000 5.057656e+000 -1.136766e+001 205 216 216
-1.124590e+000 5.057656e+000 -1.136766e+001 205 216 216
-8.198974e-001 5.358543e+000 -1.092684e+001 202 203 198
-6.423948e-001 5.297257e+000 -1.068989e+001 212 223 219
-1.079108e+000 4.023371e+000 -1.115870e+001 192 152 98
-4.016699e-001 5.228471e+000 -1.025761e+001 139 90 75
-3.304004e-001 5.059729e+000 -1.018750e+001 185 130 98
-6.888247e-001 4.091227e+000 -1.068743e+001 87 54 47
-1.371970e+000 2.590601e+000 -1.137537e+001 152 122 91
-1.477029e-001 5.137598e+000 -9.815096e+000 123 74 59
1.914875e+000 5.194084e+000 -1.069175e+001 128 94 69
-1.453150e-001 4.329361e+000 -9.775281e+000 180 133 79
1.397870e+000 5.166423e+000 -1.013498e+001 69 36 17
1.886459e+000 5.212622e+000 -1.059659e+001 131 95 69
2.154523e+000 5.049774e+000 -1.080595e+001 135 104 78
-6.633205e-001 2.730959e+000 -1.035895e+001 183 142 109
9.607268e-001 4.193226e+000 -9.411989e+000 94 63 32
2.697767e+000 4.078870e+000 -1.077820e+001 125 100 81
1.226073e+000 4.075687e+000 -9.623078e+000 91 61 33
9.377289e-001 4.049424e+000 -9.300899e+000 73 49 26
3.037042e+000 2.986327e+000 -1.065342e+001 123 101 88
1.611913e+000 3.186878e+000 -9.568654e+000 160 140 129
2.891518e+000 2.751734e+000 -1.035170e+001 154 128 113
-9.079676e-001 -1.222926e+000 -9.663596e+000 104 63 90
2.326603e+000 2.725806e+000 -9.773703e+000 167 137 117
3.035235e+000 2.518832e+000 -1.028965e+001 149 123 106
3.122030e+000 2.364839e+000 -1.030835e+001 143 114 97
-6.837296e-001 -1.013125e+000 -9.495651e+000 70 61 78
1.077485e+000 2.871993e+000 -8.784993e+000 165 135 111
2.189936e+000 2.494800e+000 -9.543263e+000 120 92 71
2.189936e+000 2.494800e+000 -9.543263e+000 120 92 71
2.343191e+000 2.410072e+000 -9.626622e+000 171 140 118
2.320015e+000 2.498738e+000 -9.626803e+000 126 95 77
2.320015e+000 2.498738e+000 -9.626803e+000 126 95 77
-7.230284e-001 -1.647765e+000 -9.392905e+000 97 84 108
1.926971e+000 2.307813e+000 -9.309780e+000 173 145 125
2.234896e+000 2.455304e+000 -9.544276e+000 170 139 121
2.259225e+000 2.319305e+000 -9.518230e+000 165 134 113
2.259225e+000 2.319305e+000 -9.518230e+000 165 134 113
-6.272811e-001 -1.460613e+000 -9.280427e+000 184 172 196
-4.071924e-001 -1.042776e+000 -9.112114e+000 72 52 70
-4.172799e-001 -9.343634e-001 -9.071881e+000 72 52 70
2.094864e+000 2.121670e+000 -9.379811e+000 168 139 122
2.749607e+000 2.012500e+000 -9.782712e+000 167 136 115
2.023614e+000 1.710428e+000 -9.151971e+000 174 142 122
1.612135e+000 1.844659e+000 -8.809124e+000 111 80 61
2.690093e+000 1.471096e+000 -9.563144e+000 167 140 119
3.022968e+000 1.350918e+000 -9.773742e+000 164 136 122
-9.881780e-001 5.221649e+000 -1.116775e+001 215 218 219
-8.998089e-001 5.108208e+000 -1.104318e+001 219 223 224
-7.970478e-001 5.048403e+000 -1.090889e+001 216 221 218
-9.572210e-001 4.063981e+000 -1.101793e+001 131 85 69
-1.680597e-001 5.086928e+000 -9.850905e+000 195 150 95
-4.789061e-001 4.141401e+000 -1.031139e+001 92 59 52
-1.002048e+000 2.822700e+000 -1.084809e+001 118 70 58
-4.577649e-001 3.461252e+000 -1.014608e+001 123 82 71
-4.513449e-001 3.560095e+000 -1.010905e+001 209 192 155
1.350187e+000 5.203166e+000 -1.011760e+001 145 112 78
2.221131e+000 5.057148e+000 -1.093840e+001 96 65 44
-1.194954e+000 1.907516e+000 -1.073178e+001 65 50 74
-3.527105e-001 3.504265e+000 -9.968797e+000 149 108 90
-1.058145e+000 1.822868e+000 -1.068527e+001 209 212 224
-6.678644e-001 2.344868e+000 -1.037415e+001 57 46 51
1.294900e+000 4.643821e+000 -9.821413e+000 111 87 62
-8.936160e-001 1.030308e+000 -1.030047e+001 208 205 226
-9.732537e-002 3.289835e+000 -9.349025e+000 106 72 59
1.056354e+000 3.977192e+000 -9.433448e+000 142 115 85
1.056354e+000 3.977192e+000 -9.433448e+000 142 115 85
1.575372e+000 3.666989e+000 -9.769865e+000 117 90 63
2.107189e+000 3.591152e+000 -1.018676e+001 101 70 47
2.192455e+000 3.605557e+000 -1.023245e+001 113 83 55
2.333719e+000 3.575725e+000 -1.034319e+001 83 58 35
2.606043e+000 3.438097e+000 -1.053912e+001 145 119 90
2.862018e+000 3.430514e+000 -1.070890e+001 137 105 86
1.376213e+000 3.588776e+000 -9.555050e+000 110 80 57
1.370220e+000 3.651900e+000 -9.577094e+000 161 131 103
1.370220e+000 3.651900e+000 -9.577094e+000 161 131 103
1.413119e+000 3.636178e+000 -9.568819e+000 104 72 47
1.413119e+000 3.636178e+000 -9.568819e+000 104 72 47
-5.693296e-001 6.185816e-001 -9.786337e+000 73 61 91
8.979373e-001 3.799234e+000 -9.024917e+000 113 79 54
1.636851e+000 3.323629e+000 -9.677281e+000 107 97 95
1.722160e+000 3.335299e+000 -9.722872e+000 99 98 93
1.735893e+000 3.289015e+000 -9.700437e+000 165 144 131
2.100260e+000 3.253322e+000 -9.938093e+000 154 136 115
2.305936e+000 3.270294e+000 -1.012730e+001 101 90 84
3.035178e+000 2.898538e+000 -1.060783e+001 115 91 86
2.318096e+000 3.077868e+000 -1.002309e+001 113 105 92
2.373684e+000 3.126869e+000 -1.008602e+001 147 131 109
-2.404033e-001 9.472885e-001 -9.346779e+000 201 207 213
2.969369e+000 2.654667e+000 -1.037980e+001 105 77 65
2.969369e+000 2.654667e+000 -1.037980e+001 105 77 65
3.900915e-002 1.735318e+000 -8.990676e+000 67 57 81
6.660606e-002 1.723316e+000 -8.951335e+000 213 210 228
1.567056e+000 2.873844e+000 -9.363495e+000 168 137 117
1.713929e+000 2.810608e+000 -9.426601e+000 112 84 65
1.929463e+000 2.773477e+000 -9.522102e+000 172 144 123
2.223514e+000 2.779961e+000 -9.735923e+000 114 87 68
2.701815e+000 2.579194e+000 -1.003258e+001 161 134 113
2.982631e+000 2.398330e+000 -1.023937e+001 103 77 60
3.029602e+000 2.352385e+000 -1.023263e+001 159 132 115
-8.709669e-001 -1.339090e+000 -9.567359e+000 81 60 77
-8.144765e-001 -1.437036e+000 -9.576481e+000 174 167 185
-7.719410e-001 -1.220751e+000 -9.542200e+000 69 60 77
-7.738239e-001 -1.202223e+000 -9.535333e+000 69 60 77
-6.592094e-001 -1.319668e+000 -9.500272e+000 70 57 75
-5.892148e-001 -9.621803e-001 -9.386887e+000 65 59 77
1.742293e+000 2.544165e+000 -9.258703e+000 132 100 81
1.742293e+000 2.544165e+000 -9.258703e+000 132 100 81
2.055038e+000 2.585365e+000 -9.573452e+000 166 138 116
2.259820e+000 2.445168e+000 -9.604835e+000 115 84 64
2.259820e+000 2.445168e+000 -9.604835e+000 115 84 64
3.090061e+000 2.285447e+000 -1.019196e+001 153 126 109
3.060231e+000 2.279900e+000 -1.007300e+001 156 124 109
3.584675e+000 3.032882e+000 -1.015028e+001 161 111 60
-6.181439e-001 -1.175598e+000 -9.344762e+000 194 189 208
-6.905152e-001 -1.550149e+000 -9.390597e+000 64 48 74
-6.086325e-001 -1.154575e+000 -9.395653e+000 192 186 203
-5.120874e-001 -1.129513e+000 -9.290235e+000 188 184 201
-4.956032e-001 -9.116170e-001 -9.269595e+000 77 64 85
1.725213e+000 2.406806e+000 -9.199987e+000 123 92 79
1.725213e+000 2.406806e+000 -9.199987e+000 123 92 79
1.793069e+000 2.338220e+000 -9.222312e+000 168 141 118
1.989884e+000 2.237877e+000 -9.326651e+000 104 75 57
1.989884e+000 2.237877e+000 -9.326651e+000 104 75 57
2.387719e+000 2.271780e+000 -9.606213e+000 166 138 116
-5.919497e-001 -1.414648e+000 -9.227847e+000 82 70 92
-5.329258e-001 -1.348026e+000 -9.145258e+000 179 170 194
-4.363901e-001 -1.082750e+000 -9.169734e+000 207 194 212
-4.363901e-001 -1.082750e+000 -9.169734e+000 207 194 212
1.635174e+000 2.240977e+000 -9.097025e+000 120 93 72
-2.511060e-001 -7.298810e-001 -8.956268e+000 79 64 91
1.361595e+000 2.115214e+000 -8.728674e+000 165 135 112
1.680166e+000 2.072338e+000 -9.010860e+000 123 95 74
1.684541e+000 2.063259e+000 -9.015417e+000 123 95 74
3.208879e+000 1.334175e+000 -1.000802e+001 155 127 115
1.730172e-001 5.970640e-001 -8.515520e+000 87 72 96
2.196188e+000 1.569239e+000 -9.187109e+000 102 71 53
-1.049236e+000 4.984196e+000 -1.121974e+001 169 171 170
-5.297841e-001 5.538862e+000 -1.055999e+001 214 214 213
-7.979684e-001 4.605019e+000 -1.084546e+001 205 170 128
-1.333840e-001 5.910953e+000 -9.945666e+000 118 91 70
-6.354037e-002 6.068415e+000 -9.761994e+000 150 133 117
-1.865294e-002 6.014073e+000 -9.797972e+000 96 78 97
-3.939232e-001 5.134674e+000 -1.017474e+001 188 144 111
-3.774171e-001 5.041328e+000 -1.022681e+001 189 142 105
1.406820e-001 6.028985e+000 -9.571453e+000 166 156 130
1.139892e-001 5.963686e+000 -9.546279e+000 162 127 99
2.297316e-001 6.017075e+000 -9.549733e+000 78 52 39
2.297316e-001 6.017075e+000 -9.549733e+000 78 52 39
1.439469e+000 5.337076e+000 -1.021050e+001 128 98 67
-1.425815e-001 4.405475e+000 -9.752423e+000 99 58 38
-1.451270e-001 4.425454e+000 -9.736847e+000 99 58 38
1.292799e+000 5.260424e+000 -1.009197e+001 94 65 35
2.570740e+000 5.026961e+000 -1.119692e+001 59 32 21
-4.738734e-001 2.541469e+000 -1.006072e+001 201 172 154
-4.420595e-001 2.466361e+000 -1.004790e+001 81 63 102
3.394283e+000 4.842892e+000 -1.105609e+001 174 134 80
-9.948994e-001 1.034771e+000 -1.042591e+001 87 78 109
-5.967904e-001 2.001334e+000 -1.013099e+001 221 227 228
-5.899089e-001 1.925396e+000 -1.008809e+001 93 61 84
-5.187076e-001 2.213088e+000 -1.000843e+001 207 227 228
-2.122783e-001 3.101742e+000 -9.606239e+000 103 64 56
-2.401603e-002 3.739315e+000 -9.352423e+000 109 72 58
-1.036247e+000 4.107932e-001 -1.026967e+001 79 69 105
-8.796930e-001 3.810135e-001 -1.007717e+001 212 220 222
1.876482e+000 3.467072e+000 -9.869971e+000 105 83 61
2.460007e+000 3.323255e+000 -1.032321e+001 97 78 61
1.879801e+000 3.317330e+000 -9.774227e+000 153 135 121
-3.418844e-001 7.380721e-001 -9.466165e+000 79 68 82
-1.598453e-001 1.591479e+000 -9.311196e+000 65 57 78
1.664860e+000 3.180337e+000 -9.606591e+000 162 136 123
1.788486e+000 3.175218e+000 -9.672709e+000 156 137 121
1.983134e+000 3.248672e+000 -9.757468e+000 161 140 122
-8.043673e-001 -1.179928e+000 -9.658360e+000 67 55 75
-7.247698e-001 -1.268368e+000 -9.472156e+000 197 190 208
-2.623084e-001 2.001426e-001 -9.201843e+000 213 217 226
1.896197e+000 2.485282e+000 -9.377426e+000 119 90 73
1.946703e+000 2.516381e+000 -9.448358e+000 166 139 121
2.752256e+000 2.076729e+000 -9.825867e+000 169 138 117
2.752256e+000 2.076729e+000 -9.825867e+000 169 138 117
3.138872e+000 2.208400e+000 -1.008147e+001 93 55 39
-3.281714e-001 -8.355342e-001 -9.044489e+000 84 64 91
1.677695e+000 2.212209e+000 -9.080013e+000 160 131 113
1.731521e+000 2.048359e+000 -9.091317e+000 164 136 115
3.235609e+000 1.390239e+000 -1.004719e+001 66 38 28
3.331783e+000 1.382441e+000 -1.008096e+001 145 116 108
3.431126e+000 1.293079e+000 -1.009960e+001 95 60 41
-2.399283e-001 -9.577597e-001 -8.838250e+000 208 205 219
3.872602e-001 1.403535e+000 -8.398998e+000 211 208 222
-8.006091e-001 5.296484e+000 -1.090461e+001 151 153 152
-4.410036e-002 6.422812e+000 -9.837351e+000 109 98 132
-3.271997e-001 5.043386e+000 -1.012403e+001 189 149 104
-1.058794e+000 3.347307e+000 -1.103077e+001 94 64 55
-1.045577e-001 5.304037e+000 -9.790015e+000 202 193 164
-1.369335e+000 2.474398e+000 -1.125426e+001 93 65 52
-6.722982e-001 3.971388e+000 -1.054612e+001 187 143 87
2.519762e-001 5.856889e+000 -9.481968e+000 50 35 30
-1.056580e+000 2.770339e+000 -1.092305e+001 201 149 135
-2.833794e-001 4.421898e+000 -1.001448e+001 182 142 90
-1.019357e+000 2.469981e+000 -1.079812e+001 103 63 55
-9.454693e-001 2.752146e+000 -1.071699e+001 94 56 59
1.200743e+000 5.339254e+000 -1.001311e+001 136 102 69
1.663592e+000 5.314726e+000 -1.044895e+001 135 104 74
-3.836987e-001 3.181841e+000 -9.953011e+000 99 64 68
-1.100938e+000 2.793079e-001 -1.038740e+001 67 56 88
-2.317819e-001 2.383265e+000 -9.564507e+000 213 218 227
-1.156028e-001 2.454330e+000 -9.362096e+000 214 218 225
-4.434857e-002 2.818052e+000 -9.349195e+000 63 52 51
-4.868064e-001 9.538427e-001 -9.821615e+000 114 72 108
-6.418036e-001 2.993920e-001 -9.819320e+000 98 72 94
-5.925663e-001 5.304102e-001 -9.762734e+000 213 226 232
-6.547052e-003 1.422838e+000 -9.036770e+000 77 63 96
2.625675e+000 2.697283e+000 -1.002623e+001 163 135 114
-2.184015e-002 1.059868e+000 -8.977676e+000 95 71 105
3.155520e+000 2.360691e+000 -1.026141e+001 97 60 41
-6.319261e-001 -1.310898e+000 -9.333744e+000 188 182 199
-2.631191e-001 -1.289269e-001 -9.110485e+000 222 220 233
1.047909e-002 1.045048e+000 -8.900388e+000 94 67 114
1.824033e-001 1.242492e+000 -8.650810e+000 83 67 97
2.161501e+000 2.190696e+000 -9.388727e+000 174 146 124
-3.635729e-001 -9.881147e-001 -9.028152e+000 176 168 191
2.394330e+000 1.591150e+000 -9.418623e+000 173 142 122
3.125341e+000 1.337840e+000 -9.893985e+000 144 116 102
1.496534e+000 1.898484e+000 -8.766433e+000 174 142 119
-1.243813e+000 4.019078e+000 -1.141956e+001 168 154 144
-3.561858e-001 5.728546e+000 -1.023744e+001 189 149 97
-8.218405e-001 4.256455e+000 -1.083896e+001 187 149 115
-8.259390e-001 4.248830e+000 -1.084263e+001 187 149 115
3.284897e-002 5.916301e+000 -9.716704e+000 182 174 151
2.573458e-002 5.936158e+000 -9.691406e+000 182 174 151
-1.863421e-001 4.394732e+000 -9.813372e+000 91 61 50
2.429138e+000 5.080592e+000 -1.116402e+001 48 25 19
-7.348866e-001 2.374855e+000 -1.040224e+001 201 178 135
-1.133713e-001 3.350274e+000 -9.446649e+000 90 57 47
2.192106e-001 4.243011e+000 -9.015650e+000 63 60 89
1.281425e+000 3.401893e+000 -9.347551e+000 164 130 105
-9.108356e-004 2.011543e+000 -9.106817e+000 73 62 96
1.427810e-001 1.969084e+000 -8.909488e+000 213 219 225
1.427810e-001 1.969084e+000 -8.909488e+000 213 219 225
-1.460649e-001 7.871285e-001 -9.037608e+000 100 66 98
2.165363e+000 2.429197e+000 -9.543355e+000 168 137 117
2.171426e+000 2.416430e+000 -9.551179e+000 168 137 117
-9.184796e-001 -2.620091e+000 -9.576662e+000 104 86 146
1.768454e+000 2.325219e+000 -9.170035e+000 148 119 101
1.768454e+000 2.325219e+000 -9.170035e+000 148 119 101
2.036614e+000 2.357838e+000 -9.415306e+000 160 134 111
-4.565277e-001 -1.123393e+000 -9.069783e+000 82 59 86
-1.478818e-001 -8.595109e-001 -8.888487e+000 75 59 92
-6.046396e-001 5.806946e+000 -1.064296e+001 186 166 126
-1.119429e+000 4.867793e+000 -1.135659e+001 220 224 225
-1.120443e+000 4.855959e+000 -1.137352e+001 220 224 225
-1.936032e+000 3.680342e+000 -1.201721e+001 176 169 177
-1.261682e+000 4.443781e+000 -1.152587e+001 162 144 132
-1.742403e-001 6.356227e+000 -1.003041e+001 131 109 132
-5.079812e-001 5.278239e+000 -1.048160e+001 221 223 218
-9.953610e-002 6.002143e+000 -9.904689e+000 186 174 148
-9.953610e-002 6.002143e+000 -9.904689e+000 186 174 148
-4.957321e-002 5.875991e+000 -9.839893e+000 177 151 99
2.793427e-002 6.119783e+000 -9.723140e+000 81 74 107
-5.086590e-001 4.918685e+000 -1.045703e+001 94 62 59
-5.086590e-001 4.918685e+000 -1.045703e+001 94 62 59
-4.911330e-001 4.841457e+000 -1.038990e+001 200 158 105
-2.152353e-001 5.415829e+000 -9.959111e+000 210 186 154
2.339767e+000 4.976793e+000 -1.097058e+001 128 93 63
-7.426477e-001 2.366588e+000 -1.041483e+001 202 179 135
-5.644380e-001 2.534280e+000 -1.021002e+001 202 185 159
-9.621882e-001 3.316806e-001 -1.020963e+001 76 67 110
9.229827e-001 3.522406e+000 -8.978583e+000 163 129 102
-1.916916e-001 8.539060e-001 -9.289427e+000 106 64 88
2.652832e-001 1.983932e+000 -8.778519e+000 154 125 153
2.738485e+000 2.401047e+000 -9.981511e+000 162 134 112
3.085525e+000 1.992801e+000 -1.003322e+001 133 100 85
-2.470092e-001 6.392336e+000 -1.021126e+001 146 119 128
-9.010900e-001 5.171290e+000 -1.105511e+001 219 225 223
7.133560e-001 6.769284e+000 -1.006880e+001 81 62 82
-9.720559e-001 4.073756e+000 -1.109666e+001 171 128 77
-6.249126e-001 4.767996e+000 -1.056138e+001 200 168 115
-2.025139e-002 5.817088e+000 -9.763765e+000 89 73 100
-2.422985e-001 5.285510e+000 -9.989138e+000 104 68 59
1.293571e+000 5.325184e+000 -1.012345e+001 139 106 71
-7.623595e-001 2.860888e+000 -1.046365e+001 91 57 52
-7.589173e-001 2.821687e+000 -1.049510e+001 91 57 52
1.592756e+000 4.512236e+000 -1.010076e+001 111 81 49
-6.455702e-002 3.570001e+000 -9.374135e+000 199 183 147
7.825039e-001 4.278439e+000 -9.248395e+000 147 116 84
1.431482e+000 3.926457e+000 -9.696226e+000 155 121 85
-2.638124e-001 -5.871238e-002 -9.203258e+000 69 57 79
-2.638124e-001 -5.871238e-002 -9.203258e+000 69 57 79
1.299327e+000 2.503666e+000 -8.876129e+000 137 109 88
2.838924e+000 1.957002e+000 -9.886548e+000 143 112 91
-2.950748e-001 -7.417804e-001 -9.066968e+000 125 110 135
2.391998e-001 1.202811e+000 -8.542915e+000 70 55 82
-7.256861e-001 5.718582e+000 -1.077594e+001 108 88 88
4.808871e-001 6.717478e+000 -9.909574e+000 40 27 36
-2.304399e-001 2.612122e+000 -9.563974e+000 69 59 68
9.215161e-001 3.611360e+000 -9.008263e+000 161 127 100
1.064456e+000 2.768992e+000 -8.765042e+000 155 125 101
1.518046e+000 2.498053e+000 -9.075109e+000 145 118 99
-6.918209e-001 -1.956536e+000 -9.320566e+000 80 62 114
-5.619163e-001 -1.280714e+000 -9.249093e+000 169 160 181
-6.194916e-001 5.632369e+000 -1.067759e+001 157 161 162
1.213131e-001 5.694059e+000 -9.340448e+000 122 124 149
-8.744747e-001 2.424467e+000 -1.058766e+001 198 169 127
-4.845183e-001 3.355114e+000 -1.017582e+001 169 133 111
-4.845183e-001 3.355114e+000 -1.017582e+001 169 133 111
-2.603175e-001 2.204595e+000 -9.648489e+000 137 125 147
-1.055141e-001 2.969643e+000 -9.432984e+000 199 184 151
8.957504e-001 3.941597e+000 -9.171817e+000 156 123 92
-1.941052e+000 3.402799e+000 -1.199705e+001 87 78 99
-1.941052e+000 3.402799e+000 -1.199705e+001 87 78 99
-7.372861e-001 4.968872e+000 -1.075382e+001 114 76 65
2.214360e+000 5.739966e+000 -1.084649e+001 55 30 25
1.691255e+000 5.293172e+000 -1.039794e+001 112 78 49
1.050683e-001 3.603847e+000 -9.071727e+000 63 53 79
