ply
format ascii 1.0
element face 0
property list uchar int vertex_indices
element vertex 888
property float x
property float y
property float z
property uchar diffuse_red
property uchar diffuse_green
property uchar diffuse_blue
end_header
-3.668497e-001 3.534953e-001 -9.057185e+000 80 64 68
-1.210984e+000 4.929387e-001 -1.023595e+001 204 227 214
2.890199e-001 -6.107246e-001 -7.639771e+000 77 63 96
-1.901464e+001 9.458329e-001 -6.517810e+001 196 106 110
-2.339314e+001 -8.942296e-001 -6.300732e+001 176 30 37
-8.036563e-001 2.678471e+000 -1.026673e+001 198 181 134
-1.593280e+000 2.866799e+000 -1.134163e+001 77 49 37
9.128361e-002 5.547097e-001 -8.301067e+000 205 228 212
-8.561766e-001 5.524310e-001 -9.891302e+000 100 66 90
-1.031999e+000 4.632861e-001 -1.003438e+001 108 78 95
-1.802186e+001 3.552719e+000 -6.789257e+001 165 41 52
-1.806096e+001 2.551407e+000 -6.580239e+001 197 126 124
-2.497766e+001 1.902147e+000 -6.593016e+001 198 120 121
-1.889076e+001 -6.635891e-002 -6.661992e+001 186 127 125
-3.286070e+001 1.228775e+000 -7.524828e+001 136 121 100
-1.708014e+001 -1.004666e+000 -6.479996e+001 175 40 48
-3.275703e-001 2.087627e+000 -9.367600e+000 91 71 80
6.713707e-003 6.449315e-001 -8.365206e+000 91 75 94
-2.406977e+001 6.420405e+000 -6.647356e+001 203 200 191
-2.406977e+001 6.420405e+000 -6.647356e+001 203 200 191
-2.626789e+001 6.714495e+000 -6.866813e+001 54 30 59
-1.986917e+001 4.490771e+000 -6.621598e+001 44 32 53
-2.362974e+001 3.684143e+000 -6.437044e+001 199 47 60
-1.714144e+001 5.248354e-001 -6.594452e+001 180 126 121
-2.421098e+001 2.236691e-001 -6.382618e+001 203 122 120
-3.974007e-001 7.700233e-002 -9.081609e+000 75 62 72
-1.900430e+001 3.082222e+000 -6.640768e+001 168 89 87
4.310740e+000 2.079160e+000 -8.977473e+000 171 125 48
1.314076e+000 2.062692e+000 -8.401618e+000 82 68 23
1.526169e+000 2.254292e+000 -8.825308e+000 129 114 74
1.913157e+000 2.362072e+000 -9.163297e+000 74 59 27
-7.704388e-001 3.049935e+000 -1.027656e+001 160 116 58
-1.314724e+000 3.004701e+000 -1.105927e+001 198 165 134
3.058180e+000 1.501946e+000 -9.796062e+000 76 62 35
-5.690082e-001 8.754891e-001 -9.529767e+000 204 225 216
1.812162e-002 -5.080223e-001 -8.181927e+000 86 56 76
4.736198e-002 -5.136592e-001 -8.131090e+000 193 225 208
6.193961e-001 -7.917096e-001 -7.139297e+000 176 171 191
2.414435e+000 2.391979e+000 -9.544018e+000 94 76 40
-8.221866e-001 3.002957e+000 -1.036942e+001 193 153 99
1.896712e+000 1.721219e+000 -8.819664e+000 82 67 33
1.088657e-001 1.669994e+000 -8.502649e+000 76 53 68
3.193542e+000 1.637439e+000 -9.912261e+000 102 84 60
-8.281848e-001 9.479442e-001 -9.917022e+000 207 233 216
2.073827e+000 2.386642e+000 -9.296409e+000 123 109 70
2.430680e+000 2.005859e+000 -9.430426e+000 125 112 70
-1.009950e+000 1.099108e+000 -1.019495e+001 203 227 213
2.940741e+000 -7.581570e-001 -8.129010e+000 126 107 61
3.392503e+000 -9.046884e-001 -8.633162e+000 99 81 45
3.928426e+000 2.302854e+000 -9.639248e+000 159 126 52
-1.109480e-002 1.922939e+000 -8.750904e+000 78 65 82
-5.343701e-001 2.051846e+000 -9.686350e+000 210 228 209
-3.907904e-001 -7.651583e-002 -9.021066e+000 208 228 216
-3.840393e-001 -8.905239e-001 -8.684924e+000 202 219 208
-3.103228e+001 -1.066260e+000 -7.231491e+001 149 122 88
-2.822188e+001 6.528848e+000 -7.238914e+001 147 52 66
-2.996512e+001 3.757102e+000 -7.375848e+001 141 102 87
-1.869994e+001 1.657454e+000 -6.601601e+001 180 45 51
-1.681167e+001 1.025828e+000 -6.697091e+001 181 42 55
-2.263682e+001 -1.266694e+000 -6.228010e+001 157 89 94
-3.652942e+001 -1.457728e+000 -7.656020e+001 151 117 85
4.802916e-001 -4.677429e-001 -7.402519e+000 82 65 92
-1.988128e+001 3.448951e+000 -6.562231e+001 115 116 135
-1.988330e+001 1.397554e+000 -6.578638e+001 75 47 73
-3.611015e+001 -3.407135e-001 -7.455755e+001 152 119 84
-3.186402e+001 -1.113260e+000 -7.257203e+001 177 137 111
-2.151384e+001 -1.192980e+000 -6.102665e+001 44 31 52
-1.898918e+001 -1.933013e+000 -6.353164e+001 103 40 45
-3.277532e+001 -2.530886e+000 -7.441777e+001 139 103 77
-2.926362e+001 -1.791684e+000 -7.150306e+001 85 42 43
-2.418412e+001 -2.481152e+000 -6.180818e+001 90 56 81
-3.467416e+001 -3.154906e+000 -7.575319e+001 126 103 78
-1.754364e+001 -4.557784e+000 -6.457243e+001 179 38 47
3.937610e-002 3.955890e-001 -8.384155e+000 84 68 88
9.966322e-002 1.006377e-001 -8.151712e+000 81 65 92
-3.570493e+001 -1.882363e-001 -7.557941e+001 184 150 111
-3.070027e+001 -1.786355e+000 -7.265803e+001 173 147 110
-3.070027e+001 -1.786355e+000 -7.265803e+001 173 147 110
1.368468e+000 6.617812e-001 -7.514528e+000 124 107 63
-1.592336e+001 -1.448737e+000 -6.478973e+001 162 117 108
-1.812618e+001 -2.606696e+000 -6.369942e+001 175 39 48
-2.340281e+001 -1.978544e+000 -6.300752e+001 172 80 77
-2.075970e+001 -2.595794e+000 -6.312232e+001 36 28 49
-2.680967e+001 -3.586469e+000 -6.658380e+001 148 119 107
-1.933797e+001 -3.787179e+000 -6.363625e+001 201 158 53
-1.664215e+001 -5.645396e+000 -6.222070e+001 36 27 24
-2.146691e+001 6.494397e-001 -6.538515e+001 36 26 50
-1.243192e+000 3.232205e+000 -1.099684e+001 138 101 57
-6.216708e-001 2.620580e+000 -9.911098e+000 170 139 132
-1.354718e+000 3.008804e+000 -1.106089e+001 100 71 55
-1.378097e+000 2.611521e+000 -1.102981e+001 118 91 40
1.792345e+000 1.580106e+000 -8.598674e+000 84 69 30
-1.530510e+000 2.250398e+000 -1.115517e+001 189 160 117
-1.483461e+000 2.188483e+000 -1.109504e+001 166 149 123
-4.656355e-001 1.503587e+000 -9.483837e+000 217 219 212
-2.577498e-001 1.123473e+000 -8.999684e+000 219 230 226
-2.577498e-001 1.123473e+000 -8.999684e+000 219 230 226
-1.195081e+000 4.417582e-001 -1.023474e+001 197 212 208
-3.784004e-001 2.943241e-001 -9.066830e+000 199 229 215
1.883987e+000 -3.129217e-001 -7.450726e+000 52 44 23
-2.331980e-001 -5.967609e-001 -8.553489e+000 73 50 59
-3.957320e-001 -7.342258e-001 -8.769860e+000 71 58 59
-8.073096e-001 -1.278439e+000 -9.227012e+000 206 204 200
2.667868e+000 2.370369e+000 -9.731187e+000 90 76 41
1.723137e+000 1.993686e+000 -8.834799e+000 127 112 73
1.724253e+000 1.997137e+000 -8.848735e+000 127 112 73
-1.136358e+000 2.665088e+000 -1.073109e+001 188 147 126
-2.701715e-002 1.819346e+000 -8.749866e+000 71 61 65
1.402543e+000 1.330372e+000 -7.960117e+000 122 108 69
-1.386750e+000 2.231575e+000 -1.093972e+001 152 126 106
2.250153e+000 1.641644e+000 -9.113939e+000 72 58 20
2.872131e+000 1.584278e+000 -9.659153e+000 118 104 70
3.288783e+000 1.489226e+000 -9.888772e+000 85 70 49
-1.372786e+000 1.761481e+000 -1.083150e+001 88 74 73
-1.369685e+000 1.658562e+000 -1.082901e+001 74 69 69
1.705048e+000 5.390246e-001 -7.697322e+000 126 111 68
2.986934e+000 1.542591e-001 -8.832054e+000 113 97 64
5.542534e-001 -7.149348e-001 -7.232733e+000 184 187 199
4.196627e-001 -7.826210e-001 -7.444161e+000 62 50 72
-4.479297e-001 -8.932993e-001 -8.775329e+000 197 218 213
-6.444639e-001 -1.128190e+000 -9.001743e+000 210 221 217
-2.314328e-001 -1.022938e+000 -8.386616e+000 212 215 220
-8.816471e-001 -1.251279e+000 -9.335268e+000 201 203 200
1.742610e+000 2.331148e+000 -9.005324e+000 130 116 78
2.767174e+000 2.235414e+000 -9.731915e+000 77 62 26
1.267791e+000 1.605106e+000 -8.013398e+000 69 53 19
1.266386e+000 1.604499e+000 -8.010926e+000 69 53 19
2.143551e+000 1.930366e+000 -9.188922e+000 118 103 64
2.605835e+000 1.978763e+000 -9.530167e+000 121 108 66
2.690575e+000 2.019921e+000 -9.582789e+000 77 62 29
3.036343e+000 2.035478e+000 -9.884367e+000 110 97 62
3.036343e+000 2.035478e+000 -9.884367e+000 110 97 62
7.825898e-002 1.696752e+000 -8.526951e+000 202 223 207
3.051741e+000 1.960559e+000 -9.835557e+000 79 66 34
3.055065e+000 1.604537e+000 -9.808963e+000 64 47 21
1.596498e+000 7.040152e-001 -7.665053e+000 128 109 71
-1.954869e-001 8.749610e-001 -8.892746e+000 89 58 74
3.219008e+000 4.911664e-001 -9.240293e+000 76 58 34
3.389804e+000 1.420500e-001 -9.207911e+000 69 52 27
-2.149967e-003 -5.486953e-001 -8.189123e+000 200 220 216
4.009055e-001 -1.038244e+000 -7.480015e+000 62 46 72
2.103442e+000 2.048149e+000 -9.190290e+000 119 105 68
-7.712411e-001 2.191172e+000 -1.012432e+001 213 225 215
1.756530e+000 4.987641e-001 -7.721386e+000 62 45 13
-1.263277e+000 9.953832e-001 -1.049806e+001 86 73 90
1.667356e+000 3.585306e-001 -7.570530e+000 125 111 70
1.721287e+000 -9.517503e-002 -7.404828e+000 122 106 63
-1.223519e+000 2.365923e-001 -1.026514e+001 201 230 214
2.837611e+000 -1.749580e-001 -8.487431e+000 63 48 16
2.793835e+000 -2.243346e-001 -8.425646e+000 124 106 62
5.280673e-001 -4.040739e-001 -7.379858e+000 211 228 212
5.280673e-001 -4.040739e-001 -7.379858e+000 211 228 212
-2.035497e+001 2.900882e+000 -6.562684e+001 51 42 71
-2.007999e+001 2.682174e+000 -6.661068e+001 120 115 130
-1.912293e+001 3.262364e+000 -6.686270e+001 167 77 74
3.611371e+000 -9.362927e-001 -8.900867e+000 43 30 11
2.967144e-001 -1.029144e+000 -7.621439e+000 76 63 91
-2.502419e+001 -3.614524e+000 -6.433488e+001 86 40 56
-1.451102e+000 2.630410e+000 -1.111847e+001 186 161 100
2.400271e-001 1.215111e+000 -8.159607e+000 78 67 75
2.002795e+000 3.855811e-001 -7.935693e+000 133 116 70
2.969945e+000 3.713670e-001 -8.950187e+000 124 106 63
-1.955079e+001 1.992975e+000 -6.597850e+001 172 114 115
5.388488e-001 -8.418247e-001 -7.276529e+000 84 66 88
-2.427676e+001 -2.498213e+000 -6.205428e+001 90 56 81
-7.090335e-001 -1.380914e+000 -9.016471e+000 60 51 64
-1.404675e+000 2.769446e+000 -1.107139e+001 186 167 110
2.731679e+000 2.090400e-001 -8.618186e+000 122 105 59
-4.094428e-001 2.425400e-001 -9.054113e+000 200 227 210
-3.231004e+001 2.100584e+000 -7.535437e+001 178 148 124
-3.231004e+001 2.100584e+000 -7.535437e+001 178 148 124
-1.682269e+001 1.697993e+000 -6.721490e+001 196 81 89
-1.682269e+001 1.697993e+000 -6.721490e+001 196 81 89
-2.779741e+001 -2.545588e+000 -6.884625e+001 166 133 128
-2.779741e+001 -2.545588e+000 -6.884625e+001 166 133 128
-4.185862e-002 -8.481981e-001 -8.086236e+000 100 69 100
4.584066e-001 -1.089427e+000 -7.438598e+000 73 57 93
-2.348607e+001 -2.679002e+000 -6.170886e+001 181 135 124
2.203851e+000 -4.758692e-001 -7.662587e+000 127 111 67
-2.856268e+001 -4.970366e+000 -5.885318e+001 75 67 65
-3.987329e-001 7.477142e-002 -9.089575e+000 75 62 72
-5.206525e-001 -1.117363e+000 -8.651148e+000 108 66 78
-9.274378e-001 -1.429560e+000 -9.346103e+000 69 56 57
-1.956585e+001 -3.983897e-002 -6.328799e+001 35 20 47
1.688028e+000 2.867175e+000 -9.274141e+000 122 108 71
2.187135e+000 3.054714e+000 -9.811073e+000 128 112 76
-1.208206e+000 3.200506e+000 -1.097343e+001 165 126 88
-1.036809e+000 3.085373e+000 -1.068665e+001 175 123 93
1.254114e+000 2.547237e+000 -8.728261e+000 120 106 69
-1.308052e+000 3.208916e+000 -1.123226e+001 111 73 57
-1.285803e+000 3.051110e+000 -1.102071e+001 110 75 55
-5.434428e-001 2.681300e+000 -9.821227e+000 185 167 141
2.018453e+000 2.633621e+000 -9.441270e+000 130 116 78
-1.086992e+000 2.856839e+000 -1.073906e+001 125 78 56
-3.942914e-001 2.516194e+000 -9.582275e+000 87 69 69
-3.305736e-001 2.497110e+000 -9.421689e+000 73 55 51
1.687008e+000 2.327659e+000 -8.974049e+000 132 118 82
2.072447e+000 2.347254e+000 -9.307908e+000 127 114 70
1.487585e+000 2.066938e+000 -8.661224e+000 128 113 73
1.818543e+000 2.139430e+000 -9.047704e+000 126 112 73
2.822348e+000 2.461697e+000 -9.958722e+000 76 61 30
-1.223642e+000 2.436058e+000 -1.076055e+001 179 161 110
-1.179568e+000 2.462542e+000 -1.073338e+001 187 160 116
-1.080854e+000 2.381284e+000 -1.059617e+001 149 123 88
-1.477321e+000 2.235660e+000 -1.109282e+001 138 106 73
-7.901599e-001 2.136940e+000 -1.012447e+001 87 72 72
1.894024e-001 1.675213e+000 -8.361553e+000 218 224 218
2.107946e+000 1.630326e+000 -8.984321e+000 134 119 79
2.639244e+000 1.730606e+000 -9.533984e+000 113 100 66
2.639244e+000 1.730606e+000 -9.533984e+000 113 100 66
-1.263644e+000 1.844206e+000 -1.075947e+001 97 90 87
-1.263644e+000 1.844206e+000 -1.075947e+001 97 90 87
-3.696077e-001 1.584330e+000 -9.346191e+000 205 222 207
2.006764e+000 1.583974e+000 -8.830080e+000 129 114 75
2.612508e+000 1.526712e+000 -9.366408e+000 120 108 71
2.600569e+000 1.466975e+000 -9.328576e+000 119 107 69
2.117627e+000 1.222619e+000 -8.580631e+000 125 111 75
2.210146e+000 1.169329e+000 -8.612282e+000 114 105 72
1.800911e+000 9.848704e-001 -8.046415e+000 84 81 48
2.588934e+000 1.097166e+000 -8.939146e+000 120 109 80
4.240791e+000 1.062226e+000 -8.884302e+000 184 145 66
1.244853e+000 8.147091e-001 -7.493508e+000 66 49 28
-1.341452e+000 8.915643e-001 -1.060585e+001 213 215 212
-1.269152e+000 9.384214e-001 -1.052464e+001 208 213 212
-5.363519e-001 8.580984e-001 -9.445945e+000 92 67 76
1.748549e+000 7.620860e-001 -7.837799e+000 127 114 72
1.682039e+000 6.286566e-001 -7.699517e+000 115 100 67
-8.512878e-001 6.613205e-001 -9.841074e+000 211 221 218
-9.189848e-001 6.221136e-001 -9.947416e+000 203 229 215
-1.265326e+000 3.974253e-001 -1.030153e+001 195 197 204
2.785782e+000 3.081852e-001 -8.689927e+000 120 102 66
2.359895e+000 -3.234740e-002 -8.051632e+000 128 113 74
3.393029e+000 -2.594442e-002 -9.012160e+000 117 97 72
4.191992e+000 3.042825e-002 -8.600318e+000 169 139 66
2.146685e+000 -9.501600e-002 -7.820430e+000 129 116 72
1.365871e-001 -2.445271e-001 -8.077783e+000 215 218 223
1.366112e-001 -2.444563e-001 -8.083877e+000 215 218 223
4.271884e+000 -4.077846e-001 -8.496683e+000 164 140 68
1.804544e-002 -5.096651e-001 -8.170545e+000 86 56 76
2.364303e-002 -5.647834e-001 -8.177564e+000 74 59 73
2.526790e+000 -5.490345e-001 -7.867476e+000 61 44 12
2.551047e+000 -5.419938e-001 -7.874043e+000 126 107 73
-3.948173e-001 -7.293174e-001 -8.752132e+000 71 58 59
2.306551e+000 -6.038167e-001 -7.615498e+000 58 44 10
3.015562e+000 -6.825574e-001 -8.229199e+000 118 105 63
-1.017265e+000 -1.109406e+000 -9.543243e+000 201 204 205
-4.805195e-001 -9.062904e-001 -8.803623e+000 85 60 64
-4.805195e-001 -9.062904e-001 -8.803623e+000 85 60 64
3.911480e-001 -7.886369e-001 -7.475688e+000 206 201 220
-3.491267e-001 -1.029436e+000 -8.566024e+000 89 58 82
-6.849017e-001 -1.319868e+000 -8.995414e+000 213 208 215
2.364855e-001 -1.002604e+000 -7.682473e+000 71 61 83
-9.971232e-001 -1.662205e+000 -9.416894e+000 177 165 170
1.643884e+000 2.901052e+000 -9.320672e+000 134 120 81
1.285890e+000 2.667599e+000 -8.901780e+000 122 110 69
1.335105e+000 2.698070e+000 -8.963045e+000 73 59 24
1.330371e+000 2.646939e+000 -8.931596e+000 126 114 73
1.330371e+000 2.646939e+000 -8.931596e+000 126 114 73
1.216172e+000 2.573839e+000 -8.732320e+000 130 115 76
1.481237e+000 2.582684e+000 -8.959202e+000 125 111 73
1.691437e+000 2.682405e+000 -9.254398e+000 130 118 79
1.756319e+000 2.650825e+000 -9.220893e+000 134 120 82
2.750913e+000 3.128458e+000 -1.038126e+001 102 92 61
2.920588e+000 3.084432e+000 -1.056456e+001 107 91 65
-3.025857e-001 2.535375e+000 -9.375134e+000 82 67 63
1.344322e+000 2.360045e+000 -8.694289e+000 78 64 29
1.400938e+000 2.409738e+000 -8.845972e+000 128 114 77
1.687207e+000 2.574952e+000 -9.195916e+000 124 110 73
1.786181e+000 2.617560e+000 -9.205051e+000 89 75 40
1.786181e+000 2.617560e+000 -9.205051e+000 89 75 40
1.829829e+000 2.552603e+000 -9.273137e+000 131 119 79
1.914657e+000 2.572772e+000 -9.280527e+000 91 75 41
2.343792e+000 2.709197e+000 -9.695786e+000 123 109 71
2.373504e+000 2.592363e+000 -9.654940e+000 128 116 74
2.373504e+000 2.592363e+000 -9.654940e+000 128 116 74
2.784216e+000 2.840565e+000 -1.029826e+001 90 72 42
2.784216e+000 2.840565e+000 -1.029826e+001 90 72 42
2.909188e+000 2.918582e+000 -1.047103e+001 66 53 21
-1.302356e+000 2.839734e+000 -1.106216e+001 166 116 90
-3.424677e-001 2.402649e+000 -9.469526e+000 88 69 70
1.388493e+000 2.354380e+000 -8.768485e+000 71 56 25
1.388493e+000 2.354380e+000 -8.768485e+000 71 56 25
1.534192e+000 2.344420e+000 -8.868430e+000 127 114 72
1.815260e+000 2.374532e+000 -9.098831e+000 60 45 11
1.802272e+000 2.317765e+000 -9.042293e+000 124 110 74
2.187608e+000 2.488370e+000 -9.416394e+000 125 112 70
2.050491e+000 2.405384e+000 -9.284604e+000 126 109 66
-1.085323e+000 2.644709e+000 -1.067340e+001 119 68 48
-4.977011e-001 2.369028e+000 -9.713374e+000 72 70 66
2.518119e+000 2.332799e+000 -9.614420e+000 127 112 75
2.424499e+000 2.245014e+000 -9.511344e+000 129 111 71
2.424499e+000 2.245014e+000 -9.511344e+000 129 111 71
2.811423e+000 2.411165e+000 -9.903971e+000 120 105 71
1.586764e+000 2.037026e+000 -8.747085e+000 121 107 69
1.870206e+000 2.030221e+000 -9.054310e+000 75 61 26
2.882240e+000 2.172672e+000 -9.822493e+000 126 112 75
3.064955e+000 2.187564e+000 -9.949026e+000 79 64 35
1.325767e+000 1.553038e+000 -8.074129e+000 126 111 69
1.869527e+000 1.675180e+000 -8.762276e+000 124 111 68
2.576655e+000 1.805874e+000 -9.520922e+000 124 107 69
2.576655e+000 1.805874e+000 -9.520922e+000 124 107 69
3.003768e+000 1.795790e+000 -9.773593e+000 101 88 54
1.575344e+000 1.481793e+000 -8.284263e+000 127 111 72
1.899703e+000 1.512479e+000 -8.635646e+000 122 110 71
2.150201e+000 1.510787e+000 -8.893396e+000 72 58 21
2.150201e+000 1.510787e+000 -8.893396e+000 72 58 21
2.105295e+000 1.471857e+000 -8.806836e+000 124 110 71
2.382401e+000 1.574273e+000 -9.194656e+000 125 108 72
2.574719e+000 1.547754e+000 -9.391311e+000 130 111 78
3.280154e+000 1.615168e+000 -9.955578e+000 89 72 52
4.084211e+000 1.568887e+000 -9.173281e+000 188 156 71
1.393271e+000 1.233060e+000 -7.856869e+000 123 113 78
1.816121e+000 1.249074e+000 -8.289445e+000 125 113 71
1.941226e+000 1.411784e+000 -8.590153e+000 126 112 71
2.263311e+000 1.395200e+000 -8.894720e+000 89 75 38
2.263311e+000 1.395200e+000 -8.894720e+000 89 75 38
3.287371e+000 1.559239e+000 -9.910316e+000 90 75 54
3.287371e+000 1.559239e+000 -9.910316e+000 90 75 54
2.154734e+000 1.176070e+000 -8.570568e+000 122 112 78
2.687123e+000 1.229470e+000 -9.145177e+000 69 55 20
2.619529e+000 1.191198e+000 -8.989218e+000 119 105 66
-1.536784e-001 1.036031e+000 -8.830823e+000 210 229 210
-1.536784e-001 1.036031e+000 -8.830823e+000 210 229 210
2.249337e+000 1.077063e+000 -8.583069e+000 119 109 72
-8.632989e-001 9.783729e-001 -9.958157e+000 89 82 87
1.709245e+000 7.705330e-001 -7.819091e+000 125 107 67
-8.516490e-001 8.927966e-001 -9.933303e+000 94 80 91
1.806467e+000 7.485095e-001 -7.909946e+000 126 115 70
2.189975e+000 7.683113e-001 -8.319062e+000 125 110 67
4.256019e+000 7.380547e-001 -8.673603e+000 209 184 95
1.573650e+000 5.813954e-001 -7.578436e+000 125 108 72
1.573650e+000 5.813954e-001 -7.578436e+000 125 108 72
1.468033e+000 5.073138e-001 -7.430367e+000 119 105 67
1.656566e+000 5.603523e-001 -7.648019e+000 116 105 65
5.227120e-001 2.669433e-002 -7.535535e+000 87 70 112
4.214094e+000 3.846209e-002 -8.708425e+000 144 111 44
1.788978e+000 -1.224897e-001 -7.442355e+000 123 108 69
2.042989e+000 -9.075960e-002 -7.725267e+000 90 76 41
2.042989e+000 -9.075960e-002 -7.725267e+000 90 76 41
2.094378e+000 -8.868274e-002 -7.789699e+000 125 112 70
3.236063e+000 -1.060696e-001 -8.884977e+000 111 95 62
1.984017e+000 -3.397125e-001 -7.534743e+000 64 49 20
2.011319e+000 -3.543999e-001 -7.521747e+000 129 115 78
-2.256872e-001 -5.515381e-001 -8.544052e+000 209 225 214
-1.068667e-001 -5.376232e-001 -8.337975e+000 203 226 216
-1.068667e-001 -5.376232e-001 -8.337975e+000 203 226 216
3.698933e+000 -8.764220e-001 -9.004219e+000 73 56 36
-8.744712e-001 -1.027656e+000 -9.376258e+000 201 217 206
-8.744712e-001 -1.027656e+000 -9.376258e+000 201 217 206
-8.879303e-001 -1.079336e+000 -9.408145e+000 68 61 59
6.027025e-001 -6.519621e-001 -7.179012e+000 68 55 85
5.799904e-001 -6.995478e-001 -7.168781e+000 74 62 87
5.474527e-001 -7.536027e-001 -7.234017e+000 70 51 79
5.474527e-001 -7.536027e-001 -7.234017e+000 70 51 79
6.105936e-001 -7.031468e-001 -7.131411e+000 71 58 86
6.105936e-001 -7.031468e-001 -7.131411e+000 71 58 86
-4.468258e-001 -1.064069e+000 -8.708701e+000 208 219 211
-3.638910e-001 -1.004699e+000 -8.570475e+000 197 223 216
-2.321164e-001 -1.060200e+000 -8.385966e+000 64 57 68
-1.969796e-001 -1.019584e+000 -8.280010e+000 65 54 70
-1.407613e-001 -9.506131e-001 -8.244084e+000 210 217 214
-1.419929e-001 -9.583773e-001 -8.282017e+000 210 217 214
4.865918e-001 -8.528060e-001 -7.294645e+000 62 52 76
5.426467e-001 -8.639038e-001 -7.262277e+000 68 52 79
2.643332e-001 -1.040978e+000 -7.672746e+000 63 49 77
3.492920e-001 -1.026841e+000 -7.513782e+000 68 53 76
4.952501e-001 -9.770959e-001 -7.298715e+000 66 52 78
2.083380e+000 3.007557e+000 -9.664944e+000 92 81 44
1.588635e+000 2.750484e+000 -9.220800e+000 105 91 56
1.588635e+000 2.750484e+000 -9.220800e+000 105 91 56
1.877551e+000 2.811667e+000 -9.424198e+000 78 65 31
1.931168e+000 2.788043e+000 -9.394856e+000 88 74 39
2.087513e+000 2.731378e+000 -9.471602e+000 124 113 71
1.111634e+000 2.424981e+000 -8.455960e+000 85 69 35
1.174000e+000 2.411266e+000 -8.522413e+000 92 76 42
1.359509e+000 2.447225e+000 -8.757053e+000 92 78 43
1.545317e+000 2.572480e+000 -9.020359e+000 128 115 71
1.588794e+000 2.510912e+000 -9.031752e+000 77 63 34
1.589688e+000 2.509103e+000 -9.023423e+000 77 63 34
1.588246e+000 2.454351e+000 -8.986128e+000 123 112 68
1.714516e+000 2.535245e+000 -9.117151e+000 128 114 77
1.885795e+000 2.523531e+000 -9.225899e+000 119 105 66
1.899130e+000 2.540193e+000 -9.297864e+000 119 105 66
1.972308e+000 2.527597e+000 -9.365256e+000 128 116 74
2.184977e+000 2.567762e+000 -9.516806e+000 71 58 19
2.383571e+000 2.626281e+000 -9.631570e+000 88 74 37
1.749688e+000 2.342849e+000 -9.066158e+000 130 116 78
1.906711e+000 2.314074e+000 -9.140938e+000 128 114 76
2.158816e+000 2.509827e+000 -9.470997e+000 127 114 72
2.338100e+000 2.482929e+000 -9.573969e+000 127 111 70
2.410982e+000 2.452033e+000 -9.544530e+000 125 110 71
2.501123e+000 2.499639e+000 -9.649252e+000 100 86 51
-2.712951e-001 2.301158e+000 -9.285092e+000 211 206 203
1.390223e+000 2.098773e+000 -8.550799e+000 123 106 61
1.390223e+000 2.098773e+000 -8.550799e+000 123 106 61
1.814580e+000 2.206957e+000 -9.013524e+000 127 113 75
1.812833e+000 2.103087e+000 -8.981973e+000 119 103 69
2.468193e+000 2.224808e+000 -9.488430e+000 128 113 74
2.617259e+000 2.326445e+000 -9.674672e+000 125 110 70
2.685546e+000 2.382340e+000 -9.796796e+000 90 76 41
1.505880e+000 2.003804e+000 -8.604017e+000 82 67 33
1.678861e+000 2.035604e+000 -8.817421e+000 128 114 77
1.813314e+000 1.982557e+000 -8.933206e+000 128 114 72
2.196931e+000 2.146660e+000 -9.250525e+000 123 109 65
2.490851e+000 2.177984e+000 -9.541290e+000 79 63 29
2.589354e+000 2.231138e+000 -9.662847e+000 126 111 72
2.589354e+000 2.231138e+000 -9.662847e+000 126 111 72
2.460293e+000 2.121508e+000 -9.486333e+000 130 117 75
2.460293e+000 2.121508e+000 -9.486333e+000 130 117 75
2.535305e+000 2.102830e+000 -9.512638e+000 120 107 69
2.602390e+000 2.092018e+000 -9.551614e+000 123 109 69
2.992859e+000 2.213274e+000 -9.928585e+000 81 63 33
-1.329095e+000 2.228381e+000 -1.091156e+001 78 62 73
1.490675e+000 1.768381e+000 -8.401259e+000 124 111 67
1.584320e+000 1.794341e+000 -8.566453e+000 61 46 15
1.584320e+000 1.794341e+000 -8.566453e+000 61 46 15
1.636201e+000 1.781368e+000 -8.583985e+000 98 83 49
1.728784e+000 1.752175e+000 -8.670405e+000 82 66 36
1.729558e+000 1.752570e+000 -8.673949e+000 82 66 36
1.891714e+000 1.912557e+000 -8.968849e+000 77 61 27
3.125696e+000 2.083766e+000 -9.980056e+000 73 59 31
4.080812e+000 1.879175e+000 -9.256101e+000 197 160 79
-2.348398e-001 1.693765e+000 -9.110208e+000 211 223 211
1.324148e+000 1.595297e+000 -8.102084e+000 95 80 45
1.525945e+000 1.541916e+000 -8.279018e+000 80 66 31
2.186111e+000 1.668962e+000 -9.107457e+000 74 58 22
2.379217e+000 1.720904e+000 -9.288209e+000 55 42 8
2.379217e+000 1.720904e+000 -9.288209e+000 55 42 8
-1.233553e+000 1.888091e+000 -1.070047e+001 207 227 218
1.639885e+000 1.471924e+000 -8.340367e+000 118 101 59
1.673095e+000 1.509135e+000 -8.404694e+000 75 59 25
1.808980e+000 1.528541e+000 -8.543258e+000 125 110 67
1.739014e+000 1.493716e+000 -8.459018e+000 89 76 37
2.449092e+000 1.602092e+000 -9.289746e+000 76 63 31
2.675310e+000 1.676276e+000 -9.549030e+000 62 47 21
2.659354e+000 1.626319e+000 -9.516235e+000 122 105 74
2.659354e+000 1.626319e+000 -9.516235e+000 122 105 74
1.795997e+000 1.391520e+000 -8.415420e+000 79 62 29
1.760264e+000 1.256107e+000 -8.258576e+000 130 117 80
1.826210e+000 1.296856e+000 -8.365686e+000 86 73 38
1.826210e+000 1.296856e+000 -8.365686e+000 86 73 38
1.971106e+000 1.364435e+000 -8.578355e+000 81 67 32
1.971106e+000 1.364435e+000 -8.578355e+000 81 67 32
2.103825e+000 1.387432e+000 -8.715931e+000 128 114 76
2.095865e+000 1.336908e+000 -8.653965e+000 82 67 32
2.095865e+000 1.336908e+000 -8.653965e+000 82 67 32
2.170330e+000 1.280591e+000 -8.663137e+000 124 110 73
1.652448e+000 1.095058e+000 -8.000606e+000 122 113 71
1.747030e+000 1.128917e+000 -8.105495e+000 55 57 28
2.025895e+000 1.212482e+000 -8.459038e+000 125 116 77
2.256528e+000 1.120779e+000 -8.623985e+000 70 73 55
-4.207708e-001 1.046950e+000 -9.258799e+000 99 72 74
1.978188e+000 1.038222e+000 -8.276199e+000 115 107 70
1.978188e+000 1.038222e+000 -8.276199e+000 115 107 70
2.042834e+000 1.065800e+000 -8.357640e+000 88 86 62
2.042834e+000 1.065800e+000 -8.357640e+000 88 86 62
2.338199e+000 1.003682e+000 -8.608437e+000 73 70 49
2.541430e+000 1.060594e+000 -8.853669e+000 65 60 42
2.699843e+000 1.125670e+000 -9.070732e+000 66 50 22
3.288464e+000 1.168633e+000 -9.705962e+000 103 83 64
3.218728e+000 1.132518e+000 -9.638706e+000 56 40 15
-1.947388e-001 8.747608e-001 -8.870725e+000 89 58 74
1.922591e+000 8.390712e-001 -8.085184e+000 132 118 79
2.161046e+000 8.927247e-001 -8.345556e+000 126 112 68
2.576439e+000 9.095272e-001 -8.778963e+000 120 106 64
2.672502e+000 9.878189e-001 -8.920865e+000 121 112 73
2.854771e+000 9.525300e-001 -9.126544e+000 125 114 69
2.909883e+000 9.325846e-001 -9.145334e+000 115 100 61
3.366296e+000 9.468636e-001 -9.537033e+000 52 33 19
-4.509179e-001 7.566239e-001 -9.305089e+000 209 230 216
2.006291e+000 7.103781e-001 -8.066026e+000 127 112 70
2.006291e+000 7.103781e-001 -8.066026e+000 127 112 70
2.564123e+000 6.919596e-001 -8.653884e+000 122 105 62
2.982987e+000 8.080203e-001 -9.144286e+000 109 99 63
4.317532e+000 7.077773e-001 -8.612947e+000 180 144 60
1.757571e+000 6.028518e-001 -7.797426e+000 130 115 72
2.223436e+000 5.510967e-001 -8.235117e+000 127 113 68
4.055852e-002 4.883743e-001 -8.363180e+000 206 229 216
4.051958e-002 4.883236e-001 -8.344899e+000 206 229 216
2.063741e+000 3.708053e-001 -7.949827e+000 122 107 62
2.490150e+000 2.677777e-001 -8.346590e+000 127 107 72
2.662432e+000 3.467673e-001 -8.581949e+000 118 104 62
3.257741e+000 3.254973e-001 -9.153669e+000 104 88 55
1.596805e+000 1.743231e-001 -7.361879e+000 102 89 57
1.858580e+000 2.001727e-001 -7.668892e+000 124 108 65
2.943284e+000 -3.174550e-002 -8.633751e+000 120 104 66
2.943284e+000 -3.174550e-002 -8.633751e+000 120 104 66
3.028844e+000 5.350321e-002 -8.770016e+000 115 99 63
3.024088e+000 5.389345e-002 -8.761937e+000 115 99 63
1.833198e+000 -1.230747e-001 -7.502462e+000 117 104 61
2.016134e+000 -5.457734e-002 -7.734144e+000 127 112 68
2.505886e+000 -1.555825e-001 -8.121262e+000 129 111 68
3.020933e+000 -1.540218e-001 -8.629701e+000 120 102 66
1.992585e+000 -2.180761e-001 -7.601381e+000 124 109 66
-4.300592e-002 -4.370666e-001 -8.308280e+000 200 228 209
2.571151e+000 -3.837420e-001 -8.084695e+000 124 111 67
2.828113e+000 -4.759789e-001 -8.237536e+000 54 41 7
2.828113e+000 -4.759789e-001 -8.237536e+000 54 41 7
3.583346e+000 -7.682886e-001 -8.873676e+000 42 23 6
4.742343e-001 -7.546416e-001 -7.378207e+000 67 57 83
-4.166276e-001 -1.024270e+000 -8.685792e+000 91 52 63
-9.846984e-002 -9.339323e-001 -8.104148e+000 88 64 90
2.862686e-001 -9.556804e-001 -7.598643e+000 64 53 76
4.280852e-001 -9.990031e-001 -7.400136e+000 162 162 174
1.752805e+000 2.726568e+000 -9.324192e+000 86 72 37
1.737363e+000 2.703975e+000 -9.237191e+000 86 72 37
-1.039860e+000 2.912224e+000 -1.066489e+001 166 119 91
1.724748e+000 2.594153e+000 -9.155527e+000 88 75 40
3.193166e+000 2.880064e+000 -1.073581e+001 57 39 19
1.974805e+000 2.412735e+000 -9.229879e+000 129 116 71
1.998473e+000 2.351316e+000 -9.228822e+000 76 62 25
1.992106e+000 2.347352e+000 -9.211725e+000 76 62 25
2.907661e+000 2.588800e+000 -1.009890e+001 97 84 49
1.315588e+000 2.062339e+000 -8.411112e+000 82 68 23
1.785974e+000 2.280385e+000 -9.082731e+000 80 67 33
1.908514e+000 2.263194e+000 -9.140990e+000 89 74 41
1.908514e+000 2.263194e+000 -9.140990e+000 89 74 41
1.855823e+000 2.146218e+000 -9.025335e+000 75 60 27
2.190951e+000 2.327429e+000 -9.376787e+000 84 70 33
2.074493e+000 2.240925e+000 -9.266068e+000 63 51 15
2.221635e+000 2.207200e+000 -9.316473e+000 76 64 22
2.690020e+000 2.286453e+000 -9.702720e+000 125 108 65
-1.168269e+000 2.508850e+000 -1.075741e+001 129 74 56
1.661340e+000 1.965127e+000 -8.756938e+000 61 47 12
2.096672e+000 2.046889e+000 -9.175219e+000 119 105 68
2.278894e+000 2.032049e+000 -9.320634e+000 122 109 67
2.385960e+000 2.071660e+000 -9.421308e+000 76 64 26
2.590881e+000 2.157825e+000 -9.575613e+000 99 84 50
2.583024e+000 2.151834e+000 -9.542288e+000 99 84 50
2.459118e+000 2.058441e+000 -9.441195e+000 113 99 61
2.711228e+000 2.088283e+000 -9.633840e+000 126 113 69
1.345803e+000 1.647119e+000 -8.151643e+000 123 109 62
1.992193e+000 1.952501e+000 -9.071078e+000 131 117 75
2.278395e+000 1.967959e+000 -9.289869e+000 81 66 33
2.440612e+000 2.011916e+000 -9.470825e+000 125 112 70
2.513008e+000 1.993365e+000 -9.449244e+000 124 111 67
2.618575e+000 1.918114e+000 -9.517856e+000 82 68 33
2.618874e+000 1.917993e+000 -9.514161e+000 82 68 33
2.880613e+000 2.039405e+000 -9.748835e+000 111 98 56
2.964304e+000 1.976507e+000 -9.770955e+000 73 59 24
3.853066e+000 1.986488e+000 -9.770170e+000 129 92 45
3.925901e+000 1.969787e+000 -9.512685e+000 174 145 69
2.281967e-001 1.546610e+000 -8.261549e+000 211 224 208
1.323311e+000 1.497737e+000 -8.000272e+000 82 66 32
2.558710e+000 1.854929e+000 -9.459651e+000 128 111 69
2.472105e+000 1.711271e+000 -9.381343e+000 65 50 19
2.472105e+000 1.711271e+000 -9.381343e+000 65 50 19
2.805824e+000 1.762266e+000 -9.634782e+000 73 56 30
3.100076e+000 1.781562e+000 -9.840158e+000 105 93 55
1.464530e+000 1.456472e+000 -8.134015e+000 77 62 28
-1.087959e+000 1.642880e+000 -1.040616e+001 202 234 213
-5.280110e-001 1.514994e+000 -9.595380e+000 94 77 87
1.517301e+000 1.308025e+000 -8.049396e+000 123 107 72
1.441031e+000 1.136614e+000 -7.841753e+000 130 117 73
2.393692e+000 1.185896e+000 -8.814356e+000 75 59 30
4.056018e+000 1.275305e+000 -9.211959e+000 184 152 77
-9.341283e-001 1.218610e+000 -1.014366e+001 79 67 84
1.935134e+000 1.084853e+000 -8.292817e+000 73 74 45
2.584262e+000 1.007511e+000 -8.854947e+000 123 111 70
-1.951877e-001 8.691084e-001 -8.850935e+000 100 68 86
1.444803e+000 7.799529e-001 -7.632489e+000 66 52 21
1.435323e+000 7.784036e-001 -7.580033e+000 66 52 21
1.744149e+000 8.726911e-001 -7.899960e+000 125 113 65
1.853496e+000 8.990779e-001 -8.041252e+000 102 90 51
1.855572e+000 8.993452e-001 -8.049026e+000 102 90 51
1.930148e+000 7.842825e-001 -8.050321e+000 84 69 36
2.047436e+000 9.118223e-001 -8.252252e+000 128 113 70
2.038507e+000 8.174403e-001 -8.180121e+000 117 104 61
2.441056e+000 8.805179e-001 -8.628323e+000 82 78 54
2.441056e+000 8.805179e-001 -8.628323e+000 82 78 54
1.667991e+000 7.363614e-001 -7.757141e+000 78 63 30
1.774713e+000 7.130004e-001 -7.855493e+000 85 72 40
1.873395e+000 7.399633e-001 -7.961541e+000 122 111 66
1.845972e+000 6.452083e-001 -7.880362e+000 126 110 67
2.026469e+000 7.605675e-001 -8.114412e+000 99 87 50
2.035213e+000 7.617717e-001 -8.148035e+000 99 87 50
1.974858e+000 6.655474e-001 -8.031273e+000 68 53 20
2.319525e+000 8.010011e-001 -8.464976e+000 80 66 29
2.716762e+000 7.149587e-001 -8.860110e+000 76 59 30
2.716762e+000 7.149587e-001 -8.860110e+000 76 59 30
2.756674e+000 8.079028e-001 -8.919800e+000 61 59 45
2.752056e+000 8.074061e-001 -8.898790e+000 61 59 45
2.875216e+000 7.841093e-001 -9.017459e+000 60 62 43
2.771404e+000 7.497967e-001 -8.898433e+000 123 106 63
3.202154e+000 7.069697e-001 -9.293858e+000 77 69 50
-6.212525e-001 6.389513e-001 -9.577658e+000 206 232 217
-4.040468e-001 7.000791e-001 -9.149611e+000 96 74 83
-4.040468e-001 7.000791e-001 -9.149611e+000 96 74 83
1.765589e+000 5.581135e-001 -7.745511e+000 128 110 69
1.758985e+000 5.583623e-001 -7.726029e+000 128 110 69
1.810644e+000 5.969780e-001 -7.815870e+000 52 41 9
1.807597e+000 5.972621e-001 -7.812339e+000 52 41 9
1.757502e+000 4.996263e-001 -7.721067e+000 62 45 13
2.076309e+000 5.323250e-001 -8.067945e+000 80 64 28
2.526871e+000 6.436062e-001 -8.593451e+000 69 53 19
2.869045e+000 6.743840e-001 -8.977370e+000 67 50 20
2.777574e+000 5.852548e-001 -8.811024e+000 70 54 21
2.788864e+000 5.848006e-001 -8.837097e+000 70 54 21
2.967091e+000 6.509195e-001 -9.043833e+000 70 54 22
2.967091e+000 6.509195e-001 -9.043833e+000 70 54 22
3.211014e+000 6.047491e-001 -9.298707e+000 76 56 29
1.909546e+000 4.103194e-001 -7.830016e+000 124 109 66
2.181384e+000 3.986708e-001 -8.116829e+000 60 46 20
2.466344e+000 4.380432e-001 -8.428021e+000 69 54 20
2.462013e+000 4.383613e-001 -8.411478e+000 69 54 20
2.525461e+000 3.717308e-001 -8.456056e+000 125 111 64
2.525461e+000 3.717308e-001 -8.456056e+000 125 111 64
2.759224e+000 4.353279e-001 -8.701487e+000 110 95 52
2.963207e+000 4.388860e-001 -8.919337e+000 62 43 16
4.170389e+000 4.560405e-001 -8.774660e+000 183 154 76
1.649872e+000 2.485073e-001 -7.494134e+000 129 114 73
1.726373e+000 3.457140e-001 -7.591814e+000 126 112 70
2.300239e+000 2.629565e-001 -8.146666e+000 80 63 33
2.392161e+000 2.902763e-001 -8.286239e+000 125 111 66
3.010767e+000 3.222418e-001 -8.910686e+000 66 51 24
2.890641e+000 2.418797e-001 -8.746682e+000 74 57 27
3.368891e+000 3.120005e-001 -9.252888e+000 109 92 63
1.828975e+000 1.007305e-001 -7.613445e+000 123 111 63
1.997091e+000 1.109826e-001 -7.752136e+000 73 54 22
2.375536e+000 1.920185e-001 -8.210040e+000 130 110 69
2.355019e+000 8.681260e-002 -8.137498e+000 119 104 62
2.703037e+000 1.287909e-001 -8.520611e+000 113 102 56
2.872931e+000 8.080283e-002 -8.619439e+000 116 102 62
2.966142e+000 7.203456e-002 -8.727672e+000 114 99 56
2.189745e+000 -1.500971e-002 -7.937675e+000 123 106 60
2.428899e+000 -3.601435e-002 -8.130231e+000 122 105 62
2.605062e+000 -1.863207e-002 -8.323984e+000 76 60 24
2.602075e+000 -1.797129e-002 -8.314749e+000 76 60 24
3.111507e+000 3.995674e-002 -8.808180e+000 111 96 56
3.266301e+000 6.933978e-003 -8.959737e+000 112 97 65
4.239540e-002 -1.815561e-001 -8.221547e+000 104 65 95
2.521170e+000 -1.044734e-001 -8.164549e+000 86 69 34
2.617009e+000 -7.802438e-002 -8.299463e+000 128 115 71
2.941740e+000 -8.313791e-002 -8.596975e+000 55 37 7
3.042188e+000 -1.077888e-001 -8.680845e+000 67 52 23
3.042188e+000 -1.077888e-001 -8.680845e+000 67 52 23
3.013574e+000 -2.047944e-001 -8.600439e+000 74 61 28
3.155923e+000 -1.279440e-001 -8.786952e+000 78 61 31
3.314751e+000 -1.058053e-001 -8.931418e+000 101 84 55
2.053542e+000 -2.262178e-001 -7.666563e+000 75 56 21
2.057678e+000 -2.778636e-001 -7.649979e+000 126 112 67
2.255873e+000 -2.118093e-001 -7.878358e+000 118 100 60
2.757894e+000 -3.072175e-001 -8.285678e+000 127 113 68
2.935584e+000 -2.347257e-001 -8.505832e+000 120 105 66
3.134404e+000 -3.417430e-001 -8.655195e+000 77 60 29
3.134404e+000 -3.417430e-001 -8.655195e+000 77 60 29
3.392745e+000 -2.823717e-001 -8.909914e+000 69 51 28
3.351606e+000 -3.274785e-001 -8.865538e+000 98 82 49
3.351606e+000 -3.274785e-001 -8.865538e+000 98 82 49
2.225285e+000 -3.124952e-001 -7.776626e+000 128 114 66
2.290951e+000 -3.212722e-001 -7.837809e+000 126 111 67
2.790683e+000 -4.253369e-001 -8.263538e+000 124 106 59
2.868472e+000 -4.352265e-001 -8.299586e+000 128 113 69
3.207535e+000 -3.927281e-001 -8.638217e+000 115 99 63
3.185483e+000 -4.456733e-001 -8.608913e+000 64 55 25
3.377535e+000 -5.288679e-001 -8.703698e+000 106 89 63
2.183742e+000 -5.222667e-001 -7.552290e+000 128 111 67
2.473843e+000 -5.660379e-001 -7.785532e+000 130 112 72
2.473843e+000 -5.660379e-001 -7.785532e+000 130 112 72
2.251094e+000 -6.104665e-001 -7.494580e+000 129 112 69
2.550297e+000 -6.630334e-001 -7.759140e+000 121 108 63
2.815626e+000 -6.734316e-001 -7.984497e+000 58 45 12
3.224729e+000 -6.725766e-001 -8.478118e+000 64 46 22
3.204604e+000 -7.192441e-001 -8.404711e+000 107 91 55
3.146090e+000 -7.493532e-001 -8.342361e+000 63 50 24
-1.739190e-001 -9.943972e-001 -8.293244e+000 70 57 77
4.413577e-001 -8.816923e-001 -7.366309e+000 69 57 81
4.664977e-001 -8.844879e-001 -7.352297e+000 67 55 80
5.963473e-001 -7.706494e-001 -7.150590e+000 58 48 72
3.995586e-001 -9.502061e-001 -7.502090e+000 66 60 83
3.995586e-001 -9.502061e-001 -7.502090e+000 66 60 83
-9.414324e-001 3.182647e+000 -1.066619e+001 197 169 106
2.354055e+000 2.333988e+000 -9.480724e+000 129 114 71
2.923464e-002 1.983137e+000 -8.669462e+000 91 84 93
1.713050e-001 1.810449e+000 -8.417098e+000 78 64 63
1.701401e-001 1.816279e+000 -8.463381e+000 78 64 63
1.837142e-001 1.733015e+000 -8.358375e+000 84 65 67
2.866850e+000 1.945801e+000 -9.694251e+000 114 99 58
3.229374e+000 1.965197e+000 -9.976436e+000 55 37 15
-2.183028e-001 1.759057e+000 -9.098840e+000 80 68 72
1.909160e+000 1.626636e+000 -8.716103e+000 119 104 65
-1.371822e-001 1.545075e+000 -8.926470e+000 89 72 85
3.083390e+000 1.727563e+000 -9.901605e+000 74 59 36
-9.980063e-001 1.622066e+000 -1.032797e+001 80 62 74
-9.980063e-001 1.622066e+000 -1.032797e+001 80 62 74
-1.231056e-001 1.459371e+000 -8.840890e+000 101 74 93
-1.244574e-001 1.461627e+000 -8.863295e+000 101 74 93
-8.495843e-001 1.272425e+000 -1.003256e+001 85 73 83
-6.293399e-001 1.168199e+000 -9.598155e+000 111 73 86
4.098351e+000 1.057308e+000 -9.114604e+000 178 146 70
4.194709e+000 1.128500e+000 -8.850041e+000 208 178 90
4.262114e+000 1.131933e+000 -8.836149e+000 193 145 80
4.262114e+000 1.131933e+000 -8.836149e+000 193 145 80
-1.195140e+000 1.033072e+000 -1.040311e+001 95 83 97
-6.231053e-001 1.060634e+000 -9.607695e+000 113 77 91
-6.209552e-001 1.060334e+000 -9.595181e+000 113 77 91
-7.556217e-001 9.499487e-001 -9.813477e+000 101 69 90
-5.961271e-001 9.292967e-001 -9.500187e+000 118 82 99
-5.961271e-001 9.292967e-001 -9.500187e+000 118 82 99
-4.876749e-001 6.916239e-001 -9.305669e+000 210 227 211
1.613940e+000 5.265456e-001 -7.578020e+000 72 61 29
4.287576e+000 5.852966e-001 -8.671005e+000 176 150 63
4.285068e+000 6.576265e-001 -8.625971e+000 199 174 81
1.680802e+000 4.609197e-001 -7.622732e+000 126 109 66
1.719538e+000 4.006539e-001 -7.634241e+000 72 56 22
1.719538e+000 4.006539e-001 -7.634241e+000 72 56 22
2.076907e+000 4.285711e-001 -8.013115e+000 50 39 8
-7.789648e-001 3.239653e-001 -9.628183e+000 103 75 84
1.901613e+000 3.502062e-001 -7.797892e+000 93 78 45
1.968911e+000 2.890263e-001 -7.792133e+000 127 110 67
1.979315e+000 2.874751e-001 -7.830935e+000 127 110 67
2.058927e+000 3.190089e-001 -7.931737e+000 81 68 33
2.166870e+000 2.940013e-001 -8.048350e+000 87 74 39
2.166870e+000 2.940013e-001 -8.048350e+000 87 74 39
1.578598e-001 9.035025e-002 -8.079376e+000 90 78 99
1.942234e+000 1.575643e-001 -7.750909e+000 125 108 60
2.178564e+000 1.802698e-001 -8.003070e+000 73 56 28
2.440297e+000 1.202350e-001 -8.266226e+000 65 50 17
4.442272e-001 4.348808e-002 -7.651420e+000 85 66 88
1.806323e+000 4.999216e-002 -7.548968e+000 79 63 34
1.950212e+000 7.897819e-002 -7.719744e+000 129 113 67
2.321730e+000 3.888999e-002 -8.072598e+000 70 56 21
2.239382e+000 1.410558e-002 -7.965387e+000 124 102 61
2.537535e+000 4.337070e-002 -8.260453e+000 121 107 62
2.480912e+000 4.656278e-003 -8.226588e+000 71 56 21
2.659157e+000 7.239899e-002 -8.410125e+000 76 63 21
2.885030e+000 -3.173458e-002 -8.595107e+000 117 102 61
1.714926e+000 -9.024713e-002 -7.380887e+000 122 106 63
2.191242e+000 -8.481467e-002 -7.870999e+000 122 109 65
2.827481e+000 -1.696227e-001 -8.443672e+000 63 48 16
2.935155e+000 -1.538563e-001 -8.584471e+000 112 102 59
-2.945615e-001 -2.624211e-001 -8.786416e+000 84 78 85
1.926723e+000 -2.047093e-001 -7.532724e+000 76 62 29
1.926723e+000 -2.047093e-001 -7.532724e+000 76 62 29
1.853100e+000 -2.344208e-001 -7.459513e+000 127 114 72
2.250041e+000 -2.682287e-001 -7.832389e+000 87 73 44
2.473875e+000 -2.006418e-001 -8.061699e+000 96 80 48
2.473875e+000 -2.006418e-001 -8.061699e+000 96 80 48
2.922609e+000 -2.932798e-001 -8.456244e+000 72 56 24
2.922609e+000 -2.932798e-001 -8.456244e+000 72 56 24
3.209869e+000 -3.063492e-001 -8.737875e+000 108 93 52
1.907478e+000 -3.006139e-001 -7.475621e+000 54 48 21
2.254726e+000 -3.674215e-001 -7.755201e+000 68 55 23
2.513277e+000 -3.655131e-001 -8.024160e+000 119 105 61
2.561002e+000 -4.256489e-001 -8.000623e+000 62 50 26
2.741350e+000 -3.627564e-001 -8.254080e+000 53 39 10
2.731492e+000 -3.590806e-001 -8.231962e+000 53 39 10
2.989922e+000 -4.103181e-001 -8.461607e+000 61 45 12
-8.809598e-001 -7.687204e-001 -9.426405e+000 203 227 206
1.821810e+000 -5.007155e-001 -7.250782e+000 59 43 20
1.953400e+000 -5.180570e-001 -7.335793e+000 112 97 68
2.343597e+000 -4.929806e-001 -7.740778e+000 74 64 33
2.363107e+000 -5.529764e-001 -7.707415e+000 129 116 72
2.681385e+000 -5.050274e-001 -8.062281e+000 124 107 62
2.953992e+000 -5.030158e-001 -8.350417e+000 80 65 32
-7.670345e-001 -8.890329e-001 -9.265128e+000 78 65 72
-5.092438e-002 -6.371179e-001 -8.226803e+000 121 73 96
1.897657e+000 -5.523090e-001 -7.241424e+000 120 105 62
3.005006e+000 -7.201216e-001 -8.205299e+000 73 53 28
3.000150e+000 -7.175919e-001 -8.193448e+000 73 53 28
3.426021e+000 -7.352946e-001 -8.701960e+000 68 56 32
3.410165e+000 -7.290574e-001 -8.666398e+000 68 56 32
5.620820e-002 -8.016705e-001 -7.930343e+000 85 64 90
-7.077869e-001 -1.374926e+000 -9.002306e+000 60 51 64
3.018126e+000 3.241068e+000 -1.076949e+001 86 80 52
-1.228510e+000 3.155614e+000 -1.102724e+001 112 74 55
-2.757006e-001 2.587014e+000 -9.352290e+000 213 220 204
1.619816e+000 8.094704e-001 -7.782322e+000 124 110 63
4.332335e+000 7.733929e-001 -8.817739e+000 209 182 93
-4.068071e-001 2.440020e-001 -9.031545e+000 200 227 210
3.759304e-001 2.986526e-001 -7.744278e+000 103 71 96
1.606770e+000 -1.735243e-002 -7.305851e+000 57 41 14
1.610775e+000 -1.946717e-002 -7.328523e+000 57 41 14
1.673191e+000 -2.490157e-001 -7.265038e+000 68 53 22
4.347390e+000 -2.596898e-001 -8.599144e+000 176 155 74
-2.141305e-001 -4.974901e-001 -8.580010e+000 90 69 88
1.761439e-001 1.410839e+000 -8.350726e+000 81 65 68
-1.360581e+000 1.710611e+000 -1.083087e+001 206 227 212
-7.841251e-002 1.194180e+000 -8.723301e+000 92 66 93
-7.300340e-001 6.603294e-001 -9.725517e+000 82 68 91
1.494831e+000 2.248743e-001 -7.333708e+000 78 66 42
1.489735e+000 2.267369e-001 -7.300466e+000 78 66 42
-2.905894e-001 -3.543657e-001 -8.752105e+000 202 226 210
-2.951972e+001 -1.230657e+001 -5.797319e+001 86 86 78
-9.730884e-001 2.440031e+000 -1.044841e+001 176 156 98
1.666245e+000 1.625073e+000 -8.533306e+000 130 114 66
-4.365172e-002 9.518879e-001 -8.701414e+000 96 77 109
-4.258126e-002 9.515070e-001 -8.715808e+000 96 77 109
4.271295e+000 9.268764e-001 -8.861503e+000 201 171 85
-2.483940e-001 7.839162e-001 -8.995224e+000 114 72 88
3.467592e+000 -9.505473e-001 -8.706716e+000 88 64 37
-5.426573e-001 -1.043572e+000 -8.881272e+000 100 58 70
1.045882e+000 -7.450041e-001 -6.416146e+000 145 153 172
-3.542921e-001 2.791189e+000 -9.594538e+000 102 71 66
-1.028331e-001 2.440643e+000 -8.978013e+000 92 68 78
-4.893900e-001 2.585009e+000 -9.713304e+000 93 70 81
5.540053e-001 2.088273e+000 -7.666367e+000 95 54 68
-1.224008e+000 2.660743e+000 -1.094420e+001 128 90 70
-6.861843e-001 2.435899e+000 -9.991837e+000 90 73 82
-6.861843e-001 2.435899e+000 -9.991837e+000 90 73 82
-6.162828e-001 2.818177e+000 -9.875100e+000 199 186 137
-6.295706e-001 2.137342e+000 -9.859654e+000 93 74 80
-6.295706e-001 2.137342e+000 -9.859654e+000 93 74 80
1.019094e+000 2.604821e+000 -8.579824e+000 124 111 59
1.146598e+000 2.154930e+000 -8.356985e+000 127 113 64
-8.394143e-001 1.944876e+000 -1.021374e+001 129 109 116
-8.394143e-001 1.944876e+000 -1.021374e+001 129 109 116
-4.168595e-001 1.886218e+000 -9.541246e+000 96 77 83
1.415134e+000 3.869852e-001 -7.377708e+000 120 104 60
2.869085e+000 2.052710e+000 -9.718499e+000 121 106 70
5.068579e-002 1.731130e+000 -8.550954e+000 175 178 173
1.413438e+000 9.618326e-001 -7.724955e+000 129 113 65
1.618796e+000 -4.253321e-001 -7.109667e+000 126 109 64
-8.507232e-001 3.243980e+000 -1.044943e+001 204 170 108
-2.975122e-001 2.897981e+000 -9.459018e+000 89 65 52
-1.762083e+000 2.694827e+000 -1.147965e+001 85 64 68
-1.427251e+000 2.708184e+000 -1.116591e+001 153 127 68
2.766063e+000 2.287049e+000 -9.738352e+000 116 102 66
2.765752e+000 2.287783e+000 -9.744702e+000 116 102 66
-1.050302e+000 1.948890e+000 -1.044151e+001 96 86 85
-1.370379e+000 1.659423e+000 -1.083070e+001 74 69 69
3.258715e+000 1.406925e+000 -9.862734e+000 92 81 58
1.788439e+000 9.578518e-001 -8.024590e+000 126 115 77
-7.908900e-001 2.526279e+000 -1.016791e+001 89 72 51
3.008148e+000 1.793355e+000 -9.794271e+000 101 88 54
2.980561e+000 1.664618e+000 -9.748230e+000 112 96 65
2.835348e+000 1.483265e+000 -9.550638e+000 112 97 65
3.038916e+000 1.448129e+000 -9.704161e+000 114 97 68
1.925165e+000 -1.019262e-001 -7.627280e+000 80 66 29
2.020633e+000 -3.565801e-001 -7.558274e+000 129 115 78
2.124700e+000 -3.029003e-001 -7.674114e+000 119 106 62
1.620050e+000 2.550966e+000 -9.042667e+000 132 120 78
2.143021e+000 2.701878e+000 -9.498182e+000 128 114 75
2.380975e+000 2.620253e+000 -9.615352e+000 88 74 37
2.309826e+000 2.528503e+000 -9.534010e+000 91 78 41
-1.253033e+000 2.551348e+000 -1.083142e+001 191 167 121
1.678058e+000 2.034441e+000 -8.821904e+000 128 114 77
1.809590e+000 1.980817e+000 -8.926596e+000 128 114 72
1.953564e+000 2.076570e+000 -9.085367e+000 120 105 66
-1.623674e+000 2.288390e+000 -1.129409e+001 84 66 77
1.672764e+000 1.508387e+000 -8.406521e+000 75 59 25
-1.298173e+000 1.557388e+000 -1.066581e+001 85 68 69
2.852092e+000 1.527138e+000 -9.585996e+000 57 40 14
2.069253e+000 4.814077e-001 -8.043541e+000 131 112 69
-1.116010e+000 3.265199e+000 -1.084244e+001 194 155 96
-3.041000e-001 2.502927e+000 -9.383460e+000 87 69 68
1.948192e+000 2.134425e+000 -9.077098e+000 91 78 46
2.880776e+000 1.876064e+000 -9.707492e+000 51 40 10
3.229379e+000 1.450753e+000 -9.892634e+000 41 28 13
-7.309644e-001 1.418476e+000 -9.884187e+000 208 229 215
-7.279427e-001 1.419429e+000 -9.882382e+000 208 229 215
1.580037e+000 3.650666e-001 -7.486233e+000 119 106 64
3.010597e+000 3.224694e-001 -8.899662e+000 66 51 24
3.122993e+000 -4.740056e-001 -8.512160e+000 109 96 54
-4.848475e-001 -8.638118e-001 -8.831851e+000 200 207 204
2.964849e+000 -5.632794e-001 -8.296031e+000 124 106 63
4.807947e-001 -8.800400e-003 -7.592615e+000 197 225 207
2.190794e+000 -4.665203e-001 -7.636655e+000 127 111 67
-1.983745e+000 3.209338e+000 -1.187918e+001 100 77 84
-1.379783e+000 3.219349e+000 -1.121841e+001 124 81 53
-1.379783e+000 3.219349e+000 -1.121841e+001 124 81 53
-1.111816e+000 3.080977e+000 -1.074901e+001 185 134 105
-8.269012e-001 2.887983e+000 -1.033684e+001 192 154 108
-5.792208e-001 2.679737e+000 -9.878326e+000 104 74 82
-5.137220e-001 2.697806e+000 -9.786430e+000 97 74 66
1.979569e+000 2.706758e+000 -9.325188e+000 129 116 72
1.979569e+000 2.706758e+000 -9.325188e+000 129 116 72
-1.373415e+000 2.793111e+000 -1.110423e+001 197 168 124
-8.027938e-001 2.541721e+000 -1.020752e+001 87 70 53
-1.354189e+000 2.561854e+000 -1.101574e+001 147 107 48
-1.139495e+000 2.367730e+000 -1.067105e+001 144 111 82
3.115271e+000 2.214272e+000 -9.963101e+000 102 81 56
3.159888e+000 2.035328e+000 -9.866382e+000 49 31 11
-8.074420e-001 1.821184e+000 -1.009221e+001 204 219 205
1.873988e+000 1.610706e+000 -8.690105e+000 126 111 68
-7.724813e-001 1.441349e+000 -9.939765e+000 84 68 68
4.119404e+000 8.258120e-001 -8.906756e+000 196 160 86
1.605212e+000 -4.516186e-002 -7.333094e+000 74 58 28
-5.326886e-002 -4.737247e-001 -8.328353e+000 95 72 92
3.013276e+000 -6.202438e-001 -8.334099e+000 66 50 14
3.013276e+000 -6.202438e-001 -8.334099e+000 66 50 14
1.898932e-001 -9.554185e-001 -7.815793e+000 154 148 162
3.679018e-001 -1.111679e+000 -7.571915e+000 62 48 73
2.125870e+000 3.051359e+000 -9.589830e+000 85 70 39
1.948939e+000 2.832458e+000 -9.383173e+000 127 113 73
2.134668e+000 2.959129e+000 -9.554953e+000 81 62 29
-1.458032e+000 2.705966e+000 -1.113296e+001 190 166 109
2.127369e+000 2.638286e+000 -9.394305e+000 123 110 68
