ply
format ascii 1.0
element face 0
property list uchar int vertex_indices
element vertex 878
property float x
property float y
property float z
property uchar diffuse_red
property uchar diffuse_green
property uchar diffuse_blue
end_header
-7.886355e-001 1.154118e+000 -1.003659e+001 198 219 211
4.304226e-001 -8.535341e-001 -7.487145e+000 84 64 92
4.523473e-001 -8.270524e-001 -7.492136e+000 199 213 218
5.239509e-001 -8.389759e-001 -7.396391e+000 63 52 83
-7.152547e-001 6.638274e-001 -9.769116e+000 203 219 219
4.655701e-001 -9.395260e-001 -7.479480e+000 70 51 83
4.035507e-001 -9.470779e-001 -7.537487e+000 72 54 94
-1.123511e+000 9.321558e-001 -1.044155e+001 206 220 213
-7.886107e-001 6.214003e-001 -9.859791e+000 202 219 215
2.790634e-001 -9.922440e-001 -7.745092e+000 197 207 218
-9.162435e-001 5.206536e-001 -9.986283e+000 194 217 209
-1.194227e+000 3.712527e-001 -1.033272e+001 202 201 214
-1.194588e+000 3.683365e-001 -1.032637e+001 202 201 214
-3.850376e-001 -1.088834e+000 -8.726315e+000 205 224 219
-3.850376e-001 -1.088834e+000 -8.726315e+000 205 224 219
-6.447919e-001 -1.261944e+000 -9.107118e+000 83 60 68
-5.817830e-001 -1.348040e+000 -9.017376e+000 77 60 78
-9.644734e-001 -1.123948e+000 -9.566761e+000 83 54 65
7.468749e-001 -2.510514e+000 -7.115628e+000 32 19 38
-6.598949e-001 3.785620e+000 -1.029947e+001 138 101 56
2.017170e-001 1.825514e+000 -8.443427e+000 206 215 214
-1.351321e+000 4.541956e+000 -1.153926e+001 142 124 98
-3.235434e-001 2.332928e+000 -9.468570e+000 208 225 212
3.478225e-002 1.779126e+000 -8.833247e+000 77 71 75
-3.869365e-002 1.757364e+000 -8.906832e+000 74 69 73
9.967440e-002 1.387846e+000 -8.540571e+000 215 224 221
9.967440e-002 1.387846e+000 -8.540571e+000 215 224 221
-4.249949e-001 2.242911e+000 -9.667241e+000 71 59 68
-1.463717e-001 1.671430e+000 -9.060560e+000 83 71 79
3.006230e-001 7.669402e-001 -8.051464e+000 75 63 75
-1.798409e+000 4.316103e+000 -1.208571e+001 151 139 115
-1.586381e-001 1.622655e+000 -9.088211e+000 209 227 216
7.744365e-002 1.013983e+000 -8.582147e+000 86 60 77
-1.216323e+000 3.108679e+000 -1.107754e+001 107 70 51
-3.779820e-001 1.457484e+000 -9.416532e+000 77 63 69
-3.945309e-001 1.413313e+000 -9.462850e+000 214 217 212
6.294480e-001 -3.288136e-001 -7.360965e+000 76 55 99
-1.302439e+000 2.550593e+000 -1.103821e+001 141 104 48
7.065106e-001 -7.666621e-001 -7.116243e+000 63 47 93
1.426980e+000 -1.401423e+000 -6.445093e+000 53 39 54
-1.317913e+000 2.405928e+000 -1.098030e+001 168 132 70
-4.435578e-001 9.147698e-001 -9.328725e+000 88 60 72
6.566072e-001 -7.885670e-001 -7.226694e+000 65 52 82
1.764060e+000 -1.753335e+000 -6.327867e+000 88 80 108
-1.515587e+000 2.204815e+000 -1.122733e+001 77 59 85
-7.739549e-001 1.228347e+000 -1.002452e+001 92 72 88
-3.269567e-001 6.698723e-001 -9.197989e+000 88 71 77
-3.269567e-001 6.698723e-001 -9.197989e+000 88 71 77
5.827385e-001 -8.920989e-001 -7.287561e+000 72 56 92
1.694285e+000 -1.722986e+000 -6.377977e+000 89 79 106
-9.240319e-001 1.038148e+000 -1.016732e+001 210 227 221
-8.193692e-001 8.638487e-001 -9.948546e+000 211 226 222
-1.029506e+000 1.029979e+000 -1.030245e+001 97 83 102
4.023201e-002 -4.869024e-001 -8.298369e+000 207 228 221
2.829761e-002 -5.428727e-001 -8.281359e+000 77 52 69
-9.832741e-001 4.910778e-001 -1.006688e+001 195 227 218
-9.832741e-001 4.910778e-001 -1.006688e+001 195 227 218
-5.196406e-002 -5.417870e-001 -8.420751e+000 203 224 213
-5.196406e-002 -5.417870e-001 -8.420751e+000 203 224 213
-1.442125e-001 -5.540425e-001 -8.540913e+000 84 56 82
-1.416182e-001 -6.034692e-001 -8.543860e+000 204 223 221
-2.985594e-001 -7.212638e-001 -8.750671e+000 204 225 216
-9.181066e-001 -9.668609e-001 -9.536917e+000 76 55 62
-6.824827e-001 -1.256835e+000 -9.151561e+000 214 213 211
7.804875e-001 -2.439400e+000 -7.190399e+000 60 47 65
-9.262766e-001 5.626117e+000 -1.100347e+001 195 208 191
-8.417087e-001 5.305614e+000 -1.088804e+001 190 204 187
-9.349998e-002 3.432451e+000 -9.189147e+000 112 68 45
2.416412e-001 1.977974e+000 -8.422246e+000 209 220 212
-1.438704e+000 5.116613e+000 -1.164873e+001 182 175 149
2.999945e-001 1.566242e+000 -8.203219e+000 212 223 215
2.999945e-001 1.566242e+000 -8.203219e+000 212 223 215
2.015316e-001 1.610946e+000 -8.334544e+000 66 58 60
3.467522e-001 1.327254e+000 -8.136727e+000 198 229 213
-4.544572e-001 2.179710e+000 -9.690830e+000 217 227 218
-1.037025e-002 1.023815e+000 -8.708461e+000 214 231 220
-1.037025e-002 1.023815e+000 -8.708461e+000 214 231 220
4.003825e-001 1.983044e-001 -7.780780e+000 102 68 98
-8.190415e-001 2.036628e+000 -1.026200e+001 211 229 217
9.548344e-002 4.886892e-001 -8.420977e+000 206 230 216
9.548344e-002 4.886892e-001 -8.420977e+000 206 230 216
-4.199637e-001 8.480622e-001 -9.405827e+000 73 63 63
-4.461080e-001 7.392943e-001 -9.380124e+000 63 63 61
1.693050e-001 -5.395334e-002 -8.257586e+000 203 232 220
6.007408e-001 -8.501263e-001 -7.299083e+000 73 61 91
5.297335e-001 -9.445503e-001 -7.355495e+000 69 59 92
-1.256184e+000 1.530155e+000 -1.073669e+001 83 67 71
-4.274345e-001 -7.594110e-001 -8.952513e+000 84 53 67
-2.615979e-001 -1.083539e+000 -8.571559e+000 78 60 84
-3.235485e-001 -1.154238e+000 -8.608732e+000 90 55 66
-7.391548e-001 -8.284918e-001 -9.327742e+000 79 60 66
-6.901712e-001 -9.338848e-001 -9.293814e+000 78 61 69
-6.896042e-001 -1.006739e+000 -9.264913e+000 219 225 224
-6.892744e-001 -1.004772e+000 -9.269903e+000 219 225 224
8.865608e-001 -2.664174e+000 -7.480381e+000 60 31 43
-1.935910e-002 -2.595725e+000 -7.728115e+000 50 39 82
-1.153442e-001 3.179867e+000 -9.203716e+000 191 162 106
-8.540000e-001 4.095794e+000 -1.068446e+001 100 68 54
-6.210900e-001 3.525432e+000 -1.017964e+001 195 174 118
2.667421e-001 1.451699e+000 -8.333240e+000 67 56 58
-1.177428e-001 1.874330e+000 -9.024610e+000 210 228 212
-3.985185e-001 2.323309e+000 -9.638264e+000 218 226 213
-2.486608e+000 5.324882e+000 -1.313354e+001 150 167 175
-6.456109e-002 1.366447e+000 -8.800466e+000 90 71 90
-4.586848e-002 1.185229e+000 -8.823748e+000 93 71 97
-2.578943e-001 1.022541e+000 -9.168615e+000 110 68 75
-1.837170e+000 2.980883e+000 -1.172580e+001 71 64 80
-1.402044e+000 2.626186e+000 -1.117099e+001 187 158 100
-9.314139e-001 1.918102e+000 -1.038772e+001 212 231 223
-7.210485e-001 5.832957e-001 -9.772923e+000 86 72 97
-8.644205e-001 5.246780e-001 -9.973496e+000 102 62 88
-7.182436e-001 2.366198e-001 -9.597487e+000 108 74 88
-9.751285e-001 -9.487660e-001 -9.599101e+000 218 233 225
-9.751285e-001 -9.487660e-001 -9.599101e+000 218 233 225
-6.251085e-001 -1.411366e+000 -8.941897e+000 70 62 74
-2.187047e-001 3.498594e+000 -9.505557e+000 121 83 63
-2.251027e+000 4.653197e+000 -1.278267e+001 167 169 158
5.017122e-001 -1.612508e-001 -7.610516e+000 81 66 93
-7.496269e-001 1.507249e+000 -9.922906e+000 77 65 90
-7.553294e-001 1.578204e+000 -1.002318e+001 77 65 90
-5.605680e-001 9.945397e-001 -9.627952e+000 112 72 94
5.625036e-001 -7.897174e-001 -7.333063e+000 145 142 161
3.289322e-001 -5.938808e-001 -7.783820e+000 74 60 95
-9.111358e-001 4.053645e-001 -9.980593e+000 116 76 98
3.374129e-001 -1.148822e+000 -7.677510e+000 198 210 217
1.640034e+000 -2.541038e+000 -7.381869e+000 60 19 59
3.777658e-001 -2.797156e+000 -7.824061e+000 31 11 20
3.777658e-001 -2.797156e+000 -7.824061e+000 31 11 20
-6.753765e-001 4.647740e+000 -1.048004e+001 184 154 94
6.413962e-002 2.753092e+000 -8.827258e+000 208 225 209
-3.704053e-001 3.353056e+000 -9.766110e+000 185 153 110
2.755632e-001 7.039721e-001 -8.083231e+000 205 225 213
2.258787e-001 6.696274e-001 -8.201836e+000 80 68 79
3.208880e-001 5.042159e-001 -8.069858e+000 214 231 221
3.208880e-001 5.042159e-001 -8.069858e+000 214 231 221
-9.105639e-001 2.482145e+000 -1.049010e+001 182 152 100
-8.538570e-002 8.592631e-001 -8.823311e+000 206 230 217
2.966795e-001 -1.710431e-001 -8.024376e+000 82 61 99
-1.518959e+000 2.305926e+000 -1.122705e+001 171 140 89
-1.518959e+000 2.305926e+000 -1.122705e+001 171 140 89
-1.203333e+000 1.584629e+000 -1.067465e+001 216 228 219
4.276781e-001 -1.097020e+000 -7.560012e+000 67 54 81
8.115679e-001 -2.450069e+000 -7.224068e+000 55 41 66
-1.037802e+000 5.174742e+000 -1.105182e+001 194 202 188
-1.259391e+000 5.179773e+000 -1.149985e+001 195 206 190
1.788862e-001 4.679456e-001 -8.240874e+000 210 230 221
3.522345e-001 -5.307580e-001 -7.701300e+000 206 226 215
1.572035e+000 -1.777308e+000 -6.647984e+000 51 43 56
7.864947e-001 -2.030581e+000 -7.107638e+000 79 77 116
7.819534e-001 -2.039565e+000 -7.087853e+000 79 77 116
6.323319e-001 -2.319537e+000 -7.105303e+000 50 33 75
1.652937e+000 -2.638453e+000 -7.638420e+000 79 26 103
3.766141e-002 7.240062e-001 -8.505555e+000 80 64 92
-1.278136e+000 2.515709e+000 -1.102394e+001 186 152 97
-1.259547e+000 2.422591e+000 -1.090502e+001 186 152 97
1.390305e+000 -1.383456e+000 -6.482314e+000 110 98 134
5.713462e-001 -5.683583e-001 -7.416136e+000 66 51 82
-9.990988e-001 1.469014e+000 -1.049770e+001 72 58 75
2.084718e-001 -9.824835e-001 -7.880667e+000 76 55 97
2.084718e-001 -9.824835e-001 -7.880667e+000 76 55 97
-9.836591e-002 -8.584303e-001 -8.388732e+000 123 111 127
1.695364e+000 -2.600625e+000 -7.506937e+000 157 127 191
1.695364e+000 -2.600625e+000 -7.506937e+000 157 127 191
1.202791e-001 2.108385e-001 -8.295831e+000 71 60 90
-9.477154e-001 -4.379180e-001 -9.669539e+000 214 233 224
-1.226968e-001 -1.207014e+000 -8.421973e+000 77 64 108
1.494850e+000 -2.670112e+000 -7.514054e+000 60 27 51
-3.777210e+001 -1.849811e+001 -6.871723e+001 86 79 72
-4.270051e+001 -2.166039e+001 -7.385048e+001 168 151 143
-4.063904e+001 -2.141568e+001 -7.216608e+001 162 156 144
-3.980822e+001 -2.091291e+001 -7.076024e+001 162 156 144
-3.513428e+001 -2.884513e+001 -7.168159e+001 116 121 115
-2.917471e+001 -2.853486e+001 -7.156851e+001 122 134 124
-2.548433e+001 -2.912553e+001 -7.488592e+001 123 129 115
-2.583386e+001 -3.002243e+001 -7.060471e+001 178 182 165
-2.972307e+001 -2.790349e+001 -7.490135e+001 121 130 117
-2.729442e+001 -3.243064e+001 -6.870912e+001 107 115 100
-3.159032e+001 -2.859853e+001 -7.044284e+001 170 180 169
-3.042961e+001 -2.915255e+001 -6.963652e+001 96 78 65
-2.514809e+001 -2.991377e+001 -7.180731e+001 95 72 64
-2.354653e+001 -2.933095e+001 -7.282676e+001 155 165 156
-3.012360e+001 -3.171671e+001 -6.806870e+001 154 152 139
-2.852234e+001 -3.158200e+001 -6.810980e+001 193 197 182
-2.852234e+001 -3.158200e+001 -6.810980e+001 193 197 182
-2.931552e+001 -1.347208e+001 -5.870474e+001 45 39 35
-2.783258e+001 -2.863460e+001 -7.156861e+001 177 187 176
-3.469094e+001 -2.951427e+001 -6.620209e+001 130 132 121
-2.492110e+001 -3.282475e+001 -7.081011e+001 44 39 39
-3.018719e+001 -3.046285e+001 -6.897269e+001 207 219 208
-3.281558e+001 -2.886417e+001 -6.887609e+001 89 80 74
-3.295667e+001 -3.116819e+001 -6.847650e+001 188 188 178
-2.604672e+001 -3.146769e+001 -7.038497e+001 197 206 187
-1.161276e+000 2.672442e+000 -1.086551e+001 105 58 48
-1.472834e+000 2.459759e+000 -1.122845e+001 105 69 37
7.421056e-003 2.261339e+000 -8.895586e+000 94 64 81
3.156527e+000 1.520372e+000 -9.853328e+000 45 29 12
-6.451211e-001 3.061603e+000 -1.020519e+001 183 146 87
2.046778e+000 2.735884e+000 -9.509196e+000 125 104 73
-1.274706e+000 1.606421e+000 -1.070279e+001 80 67 68
1.949390e+000 7.868087e-001 -8.081017e+000 128 108 71
2.509240e+000 3.048407e+000 -1.008578e+001 79 71 52
1.263467e+000 2.530079e+000 -8.676105e+000 80 60 36
1.612353e+000 2.597251e+000 -9.092751e+000 120 103 66
-6.839037e-001 3.352885e+000 -1.021826e+001 94 59 38
-1.027476e+000 3.050180e+000 -1.081526e+001 174 119 92
-1.309892e+000 2.872052e+000 -1.119670e+001 199 155 126
-1.432944e+000 2.250722e+000 -1.110622e+001 152 112 64
-1.106567e+000 2.429343e+000 -1.076887e+001 125 70 47
-6.845391e-001 1.888095e+000 -9.998753e+000 113 90 102
-1.299063e+000 2.835380e+000 -1.107675e+001 120 68 48
-6.993199e-001 2.511398e+000 -1.012878e+001 192 164 128
-1.791289e-001 2.598780e+000 -9.153284e+000 77 55 56
-7.668872e-001 2.119271e+000 -1.010991e+001 92 63 67
-8.931755e-001 2.018691e+000 -1.028302e+001 79 57 56
-1.291286e+000 1.712347e+000 -1.079278e+001 73 57 62
-1.531974e-001 1.825866e+000 -9.097399e+000 65 51 58
-9.238623e-001 -1.034902e+000 -9.424433e+000 175 165 173
-5.865376e-001 -1.207984e+000 -8.848268e+000 191 178 188
-1.174176e+000 3.156636e+000 -1.103208e+001 143 95 57
-5.852798e-002 3.288053e+000 -9.105916e+000 181 136 71
-9.221430e-001 2.796371e+000 -1.055778e+001 99 56 43
-6.912643e-001 2.859772e+000 -1.026558e+001 189 149 82
-4.506290e-001 2.858286e+000 -9.777201e+000 181 143 81
-3.203986e-001 2.897175e+000 -9.606919e+000 201 166 110
-1.176556e+000 1.787953e+000 -1.060246e+001 81 66 73
-1.215929e+000 1.497336e+000 -1.063291e+001 74 61 69
-6.416284e-001 1.370997e+000 -9.747987e+000 205 221 210
-2.838924e-001 1.553168e+000 -9.072415e+000 88 72 83
-4.788978e-001 8.790923e-001 -9.378515e+000 213 221 221
-3.607357e-001 9.661006e-001 -9.348341e+000 88 58 67
9.533849e-002 6.105360e-001 -8.221315e+000 214 227 215
-7.575400e-001 -1.031998e+000 -9.190503e+000 194 192 195
-7.575400e-001 -1.031998e+000 -9.190503e+000 194 192 195
-1.240073e-001 -5.138923e-001 -8.334879e+000 204 205 207
-6.673413e-001 3.208824e+000 -1.026887e+001 205 173 119
-6.344208e-001 3.151616e+000 -1.019843e+001 160 96 55
1.123122e+000 3.363042e+000 -9.049154e+000 129 106 73
-7.331643e-001 2.460783e+000 -1.018787e+001 78 59 60
-4.335878e-001 2.291265e+000 -9.610610e+000 87 76 84
-4.335878e-001 2.291265e+000 -9.610610e+000 87 76 84
-1.201536e+000 1.540674e+000 -1.049885e+001 72 58 68
-9.953128e-001 1.617451e+000 -1.027784e+001 215 225 211
2.151673e-001 2.007456e+000 -8.355487e+000 206 226 214
-8.049871e-001 4.869396e-001 -9.703424e+000 212 228 212
-7.105819e-001 2.702374e-001 -9.710894e+000 98 74 84
1.330287e+000 1.511205e+000 -7.993604e+000 128 109 73
1.947308e+000 1.187007e+000 -8.385686e+000 130 111 74
-2.989891e-001 -6.051121e-001 -8.614479e+000 211 220 218
2.931174e+000 4.515124e-002 -8.690073e+000 108 88 53
2.931174e+000 4.515124e-002 -8.690073e+000 108 88 53
-5.684832e-001 -1.053403e+000 -8.873930e+000 204 203 209
1.115692e-002 -5.529810e-001 -8.216681e+000 108 61 97
-9.390487e-002 3.473660e+000 -9.120177e+000 114 65 48
1.901019e+000 3.680656e+000 -9.950435e+000 94 73 41
1.934678e+000 3.667869e+000 -1.010247e+001 94 73 41
-7.316434e-002 3.236162e+000 -9.028119e+000 185 138 72
1.697954e+000 3.432003e+000 -9.765374e+000 121 100 63
1.730940e+000 3.375858e+000 -9.734322e+000 65 58 41
1.602783e+000 3.252927e+000 -9.460192e+000 127 107 73
-8.498651e-001 2.536438e+000 -1.039209e+001 177 110 70
1.898847e+000 3.210667e+000 -9.653747e+000 114 94 62
2.467104e+000 3.147215e+000 -1.023157e+001 111 88 67
2.435001e+000 3.007151e+000 -1.002210e+001 123 98 57
2.660023e+000 3.009467e+000 -1.021768e+001 64 55 42
-4.231781e-001 2.366397e+000 -9.639207e+000 220 223 216
2.799273e+000 2.842150e+000 -1.041837e+001 56 38 14
-9.705195e-001 1.952856e+000 -1.039960e+001 211 226 215
-4.937663e-001 2.234619e+000 -9.702549e+000 216 221 212
1.536985e+000 2.780784e+000 -9.116437e+000 80 63 35
2.387547e+000 2.747073e+000 -9.873542e+000 68 45 19
-2.604198e-001 2.172425e+000 -9.274922e+000 213 220 213
-2.604198e-001 2.172425e+000 -9.274922e+000 213 220 213
3.002993e+000 2.602347e+000 -1.040655e+001 81 57 36
-4.551629e-001 2.010930e+000 -9.576618e+000 212 224 216
-4.578415e-001 1.989680e+000 -9.648705e+000 212 224 216
1.529831e+000 2.512166e+000 -8.975554e+000 125 105 66
2.062175e+000 2.484522e+000 -9.391413e+000 79 57 28
2.431654e+000 2.550512e+000 -9.682017e+000 85 65 39
3.016647e+000 2.413377e+000 -1.027064e+001 69 44 22
1.548290e-002 1.945648e+000 -8.723356e+000 212 224 214
1.387072e+000 2.243472e+000 -8.632300e+000 131 112 72
2.284038e+000 2.285965e+000 -9.512506e+000 123 101 62
2.803804e+000 2.282838e+000 -9.841322e+000 82 58 35
1.994350e+000 2.073326e+000 -9.109849e+000 81 61 35
3.080292e+000 2.106244e+000 -1.006304e+001 81 57 29
1.798817e+000 1.959935e+000 -8.984322e+000 82 60 33
2.976744e+000 1.725791e+000 -9.838707e+000 108 83 53
4.018194e+000 1.868755e+000 -9.818815e+000 150 116 52
3.215854e+000 1.230442e+000 -9.845359e+000 70 47 30
2.216371e+000 1.351434e+000 -8.858049e+000 79 62 35
3.012997e+000 1.231807e+000 -9.591389e+000 112 87 57
2.230960e+000 1.202053e+000 -8.756086e+000 126 104 67
1.867241e+000 1.250985e+000 -8.353065e+000 60 43 17
2.080623e+000 1.018322e+000 -8.377482e+000 75 63 47
2.868870e+000 6.791002e-001 -9.007758e+000 114 96 58
2.868870e+000 6.791002e-001 -9.007758e+000 114 96 58
2.888509e+000 6.149975e-001 -8.997798e+000 60 40 15
-7.968622e-001 -7.287973e-001 -9.381704e+000 211 221 213
-4.045234e-001 -4.576839e-001 -8.889272e+000 209 222 213
7.441611e-002 -1.127387e-001 -8.250044e+000 216 224 214
4.405818e-001 2.492481e-001 -7.797401e+000 92 59 86
2.186097e+000 4.305258e-001 -8.128220e+000 130 107 67
3.055337e+000 1.664102e-001 -8.903648e+000 70 48 24
-4.115006e-001 -8.555074e-001 -8.786747e+000 187 176 184
2.461834e+000 9.649775e-002 -8.243086e+000 91 65 41
2.461834e+000 9.649775e-002 -8.243086e+000 91 65 41
-2.884617e-001 -9.166327e-001 -8.445962e+000 206 211 214
-2.884617e-001 -9.166327e-001 -8.445962e+000 206 211 214
2.545359e+000 3.927861e-002 -8.264475e+000 123 97 60
1.434218e+000 3.587738e+000 -9.584741e+000 127 105 67
1.350086e+000 3.556567e+000 -9.469178e+000 110 90 58
1.200472e+000 3.386427e+000 -9.206224e+000 78 69 45
-9.440217e-001 2.619531e+000 -1.053385e+001 199 167 122
-9.489700e-001 2.611549e+000 -1.057410e+001 199 167 122
1.618515e+000 2.859707e+000 -9.286674e+000 94 75 46
1.234024e+000 2.631841e+000 -8.726355e+000 79 61 37
1.378186e+000 2.604115e+000 -8.851303e+000 76 59 42
1.378186e+000 2.604115e+000 -8.851303e+000 76 59 42
-8.820562e-001 1.633450e+000 -1.012907e+001 78 63 82
1.287453e+000 2.312419e+000 -8.553970e+000 84 70 42
1.873056e+000 2.297038e+000 -9.129837e+000 74 57 30
2.400179e+000 2.256920e+000 -9.558272e+000 117 97 60
3.903372e+000 2.009141e+000 -9.992488e+000 155 120 62
1.934671e+000 1.839639e+000 -9.011757e+000 71 54 28
1.431384e+000 1.536455e+000 -8.133886e+000 79 59 32
2.019736e+000 9.984900e-001 -8.264229e+000 126 110 70
3.093506e+000 6.784359e-001 -9.243420e+000 57 53 42
1.647824e+000 1.028782e+000 -7.887770e+000 78 66 50
1.647824e+000 1.028782e+000 -7.887770e+000 78 66 50
1.804652e+000 7.901031e-001 -7.877632e+000 88 64 38
-5.431190e-001 -7.333763e-001 -8.992031e+000 75 61 72
1.703203e+000 3.653598e-001 -7.526057e+000 111 87 53
-5.496993e-001 3.243282e+000 -1.004225e+001 201 177 133
2.941150e+000 3.564541e+000 -1.078878e+001 83 56 32
-4.629352e-001 2.667898e+000 -9.811043e+000 197 172 130
-7.349608e-001 1.724140e+000 -9.882238e+000 84 67 99
-3.251812e-002 1.972434e+000 -8.879450e+000 71 58 75
-1.135639e+000 4.680599e-001 -1.020277e+001 178 182 185
1.957901e+000 1.648444e+000 -8.873347e+000 84 68 42
-3.512121e-001 7.800203e-001 -9.153504e+000 215 224 217
1.595989e+000 1.000224e+000 -7.773442e+000 125 103 66
-1.955736e-001 -2.732276e-001 -8.590823e+000 211 222 214
-3.630379e-001 -6.405563e-001 -8.777980e+000 84 63 78
3.457520e-001 8.187480e-002 -7.835099e+000 85 62 94
1.491562e+000 5.608261e-001 -7.420742e+000 75 51 27
9.778334e-002 -2.288954e-001 -8.058581e+000 110 62 96
-9.613579e-003 2.813954e+000 -8.950920e+000 215 221 209
-1.029011e+000 3.742378e-001 -1.009751e+001 90 76 101
-1.012878e+000 4.340937e-001 -9.972882e+000 90 76 101
2.515693e-002 1.019680e+000 -8.418176e+000 83 66 100
1.645752e-001 4.088570e-002 -8.238209e+000 83 62 95
2.363214e-001 5.158926e-002 -8.001675e+000 210 221 214
4.673873e-001 2.575615e-001 -7.624241e+000 207 219 208
-7.973629e-001 -1.231293e+000 -9.073121e+000 66 52 60
-6.266171e-001 -1.114700e+000 -8.956597e+000 193 193 194
1.175839e+000 3.495321e+000 -9.148665e+000 127 102 59
-8.556356e-001 2.777051e+000 -1.049340e+001 103 63 51
2.031492e+000 3.032898e+000 -9.642484e+000 128 104 66
2.031492e+000 3.032898e+000 -9.642484e+000 128 104 66
-7.178893e-001 5.729801e-001 -9.747099e+000 80 61 88
2.959393e-001 1.295666e+000 -8.148236e+000 206 222 209
-2.186991e+001 -3.229372e+001 -7.316658e+001 127 124 107
-2.623315e+001 -2.899598e+001 -7.964756e+001 118 121 103
-2.623315e+001 -2.899598e+001 -7.964756e+001 118 121 103
8.991692e-001 3.178535e+000 -8.628106e+000 126 104 67
-1.209586e+000 2.164063e+000 -1.078800e+001 87 65 84
1.430040e+000 3.258925e+000 -9.300817e+000 84 77 56
1.742484e+000 3.008554e+000 -9.424995e+000 117 97 64
-3.644666e+001 -2.906810e+001 -6.637684e+001 161 161 151
-2.349786e+001 -2.886504e+001 -7.407421e+001 105 108 93
-2.211785e+001 -4.238865e+001 -7.225667e+001 125 116 98
-1.885182e+001 -4.331311e+001 -7.495548e+001 133 127 110
-3.497994e+001 -2.874612e+001 -6.914567e+001 157 160 151
-2.213628e+001 -3.052690e+001 -7.418826e+001 122 121 106
-2.346727e+001 -4.430118e+001 -7.352051e+001 63 48 32
-2.747471e+001 -3.313854e+001 -6.793676e+001 182 192 181
-3.808392e+001 -2.951696e+001 -6.864534e+001 179 184 177
-2.734868e+001 -3.432091e+001 -6.718832e+001 37 33 30
-3.246376e+001 -3.296811e+001 -6.563687e+001 79 52 48
-2.935058e+001 -3.188946e+001 -6.930557e+001 192 199 183
-2.368193e+001 4.601022e+001 -8.765259e+001 165 38 61
-2.534101e+001 4.398765e+001 -8.700365e+001 194 43 60
-3.505428e+001 4.835449e+001 -8.995103e+001 204 52 71
-3.273317e+001 4.494692e+001 -8.609105e+001 206 60 77
-2.664639e+001 4.764272e+001 -8.831907e+001 197 37 55
-2.567080e+001 5.004531e+001 -9.140253e+001 185 48 61
-2.315947e+001 4.368916e+001 -8.855138e+001 191 39 58
-4.053398e+001 6.025102e+001 -9.185915e+001 99 89 88
-2.368326e+001 4.916315e+001 -8.795419e+001 62 48 47
-3.268927e+001 5.400790e+001 -9.068748e+001 132 96 82
-1.102602e+000 1.589639e+000 -1.055578e+001 89 72 82
2.339537e+000 3.581643e+000 -1.029022e+001 73 48 18
2.340603e+000 3.583062e+000 -1.028810e+001 73 48 18
2.425491e+000 3.571518e+000 -1.035806e+001 85 59 32
2.425491e+000 3.571518e+000 -1.035806e+001 85 59 32
2.304880e+000 3.423660e+000 -1.016605e+001 114 90 58
1.869838e+000 3.256301e+000 -9.673357e+000 71 65 46
2.248158e+000 2.730185e+000 -9.644108e+000 130 110 75
2.212673e+000 2.475358e+000 -9.473752e+000 84 68 42
2.297749e+000 2.242108e+000 -9.425288e+000 98 78 45
2.381495e+000 1.407533e+000 -9.089085e+000 62 41 14
2.568707e+000 1.371943e+000 -9.243719e+000 65 43 19
1.981662e+000 2.599983e+000 -9.391289e+000 80 60 33
2.709572e-002 1.834082e+000 -8.751465e+000 92 90 96
-8.156571e-001 1.606014e+000 -1.009956e+001 79 62 81
-1.086238e+000 9.907892e-001 -1.034872e+001 87 75 91
-7.709898e-001 3.068410e+000 -1.035874e+001 189 154 93
-8.364415e-001 1.156313e+000 -1.007697e+001 77 65 86
-9.791019e-001 5.464445e+000 -1.098051e+001 185 197 179
-8.941046e-001 5.256941e+000 -1.094538e+001 186 199 180
-8.027127e-001 3.366903e+000 -1.048974e+001 198 180 128
-6.525742e-001 2.054431e+000 -1.004704e+001 155 139 142
-1.076898e+000 1.844589e+000 -1.055931e+001 161 153 154
-9.381512e-001 1.067363e+000 -1.014623e+001 95 75 85
-1.202392e-001 3.602616e+000 -9.213260e+000 176 158 108
-7.690420e-001 5.371986e+000 -1.063999e+001 165 174 157
-7.300255e-001 4.939898e+000 -1.065927e+001 175 144 84
-9.584394e-001 4.619485e+000 -1.093560e+001 135 110 79
-5.412357e-001 3.605072e+000 -1.008798e+001 189 150 107
-4.714702e-001 3.495985e+000 -1.001610e+001 175 143 105
-9.808777e-001 4.299334e+000 -1.096269e+001 135 109 77
-6.296200e-001 3.261265e+000 -1.015078e+001 116 93 52
-1.220565e-002 1.617312e+000 -8.831205e+000 64 61 62
-7.641044e-001 3.084546e+000 -1.035135e+001 194 159 99
-1.514666e+000 4.728741e+000 -1.187357e+001 182 173 144
-9.714898e-001 3.066320e+000 -1.066272e+001 124 76 45
-1.154904e+000 3.956298e-001 -1.030698e+001 75 62 85
-2.958057e-001 3.277847e+000 -9.512377e+000 185 163 113
-9.719072e-001 3.007168e+000 -1.070312e+001 152 107 74
-6.668179e-001 1.201948e+000 -9.856841e+000 211 227 219
-1.198883e+000 1.383713e+000 -1.062971e+001 203 212 210
-5.477389e-001 -1.009832e+000 -9.058410e+000 72 51 62
3.318689e-003 -2.627086e+000 -7.697445e+000 92 90 125
-3.742320e-001 5.161890e+000 -9.921413e+000 143 112 66
-1.041216e+000 6.038864e+000 -1.104326e+001 124 110 95
-7.764340e-001 5.664443e+000 -1.073739e+001 200 213 195
-6.881453e-001 5.463138e+000 -1.066988e+001 190 202 182
-5.204854e-001 3.160119e+000 -9.959710e+000 184 170 121
3.817970e-001 6.418972e-001 -7.942859e+000 81 58 75
-3.259616e-001 2.172925e+000 -9.520685e+000 84 69 74
-1.260514e+000 2.834510e+000 -1.101677e+001 159 118 88
-1.911472e+000 3.217976e+000 -1.190354e+001 164 131 90
-1.032834e+000 1.618968e+000 -1.045016e+001 209 217 208
-1.248960e+000 6.545276e-001 -1.051331e+001 78 65 82
-7.538172e-001 -1.308690e+000 -9.253006e+000 67 51 53
3.078227e-002 -2.653900e+000 -7.703022e+000 52 44 83
-2.875395e-001 4.413952e+000 -9.725187e+000 117 81 33
-5.820921e-001 4.543519e+000 -1.016894e+001 181 151 87
-5.831674e-001 1.282348e+000 -9.779823e+000 101 75 91
-1.719402e+000 2.788183e+000 -1.159877e+001 167 127 79
3.608274e-001 -1.075125e+000 -7.622798e+000 68 56 93
-8.100317e-003 -2.526636e+000 -7.639269e+000 81 80 114
9.775784e-002 -2.695563e+000 -7.699418e+000 82 71 111
-1.600984e+000 4.937612e+000 -1.184993e+001 179 173 146
-8.095533e-001 2.151726e+000 -1.022027e+001 73 61 51
-1.379739e+000 2.878906e+000 -1.113856e+001 89 65 53
-2.128873e+000 3.763118e+000 -1.234877e+001 173 166 156
-6.627871e-001 5.699278e+000 -1.063126e+001 179 190 172
-6.627871e-001 5.699278e+000 -1.063126e+001 179 190 172
-8.062989e-001 3.470453e+000 -1.043948e+001 180 163 111
-7.453121e-001 4.175964e-001 -9.762612e+000 109 76 93
-8.511955e-001 5.463285e+000 -1.087219e+001 195 203 185
-1.264783e+000 5.200940e+000 -1.152223e+001 197 209 189
3.964969e-001 4.918005e-001 -7.918611e+000 86 69 95
-2.128740e-001 1.827567e+000 -9.128395e+000 72 62 73
-4.783350e-001 1.868184e+000 -9.794062e+000 75 63 77
-2.610040e-001 -1.817086e-002 -8.938335e+000 74 60 73
-1.054858e+000 7.151780e-001 -1.024986e+001 207 219 214
-9.057273e-001 -1.407310e+000 -9.482863e+000 80 58 68
-1.228875e+000 5.763988e+000 -1.135576e+001 120 110 100
-6.292005e-001 3.066694e+000 -1.014408e+001 191 169 119
-9.964066e-001 3.162849e+000 -1.078180e+001 155 109 59
-1.378902e+000 2.483441e+000 -1.105821e+001 180 145 86
2.526935e-002 2.078431e+000 -8.842248e+000 119 111 135
-2.656508e-001 3.125342e+000 -9.437986e+000 204 167 112
-7.940211e-001 9.246518e-001 -9.966255e+000 74 57 84
2.089123e+000 1.598537e+000 -8.950396e+000 72 51 22
-8.481772e-001 3.222799e+000 -1.045210e+001 199 161 90
-7.847535e-001 3.173237e+000 -1.037648e+001 219 181 124
-7.568614e-001 3.050488e+000 -1.033985e+001 203 164 93
-1.057258e-001 3.335811e+000 -9.151785e+000 196 152 106
-4.486223e-001 3.035702e+000 -9.791803e+000 139 88 42
-1.059571e+000 2.413768e+000 -1.065165e+001 154 90 68
-5.863519e-001 2.238518e+000 -9.906902e+000 223 215 216
-1.172225e+000 1.654540e+000 -1.065660e+001 72 62 72
-1.151976e+000 2.992184e+000 -1.089284e+001 174 125 93
-1.030899e+000 2.719316e+000 -1.076430e+001 101 56 43
-1.030899e+000 2.719316e+000 -1.076430e+001 101 56 43
-7.585327e-001 2.909867e+000 -1.031419e+001 203 155 105
1.981828e+000 3.566477e+000 -9.912195e+000 88 65 31
2.713939e+000 3.429121e+000 -1.047051e+001 82 56 31
2.894223e+000 3.289899e+000 -1.054073e+001 60 37 21
-5.278007e-001 2.274822e+000 -9.821566e+000 75 60 85
1.749377e+000 2.692746e+000 -9.264636e+000 124 102 65
2.973787e+000 2.698543e+000 -1.031201e+001 111 84 63
3.053649e+000 2.718060e+000 -1.043272e+001 75 50 30
2.539547e+000 2.434416e+000 -9.699415e+000 91 68 37
2.539547e+000 2.434416e+000 -9.699415e+000 91 68 37
-1.185750e+000 6.400572e-001 -1.041555e+001 217 222 221
-5.664874e-001 1.069177e+000 -9.550674e+000 105 65 92
2.379795e+000 2.001944e+000 -9.410781e+000 71 46 17
2.926130e+000 1.818648e+000 -9.755545e+000 54 32 8
1.584936e+000 1.873999e+000 -8.650167e+000 122 104 66
2.501380e+000 1.590704e+000 -9.370101e+000 112 87 57
2.802600e+000 1.539463e+000 -9.613939e+000 115 91 60
2.840955e+000 1.591396e+000 -9.646262e+000 96 71 51
2.919048e+000 1.523205e+000 -9.702283e+000 109 83 56
2.919048e+000 1.523205e+000 -9.702283e+000 109 83 56
3.284944e+000 1.591470e+000 -9.958726e+000 102 75 58
3.268070e+000 1.531334e+000 -9.976259e+000 49 30 15
1.272098e+000 1.765821e+000 -8.173169e+000 141 119 82
2.162050e+000 1.558297e+000 -9.005827e+000 132 108 69
-6.898905e-001 5.613989e-002 -9.675994e+000 66 54 66
2.908408e+000 1.176451e+000 -9.388579e+000 130 99 71
-9.861664e-001 -9.751395e-001 -9.758328e+000 222 226 226
-7.360922e-001 3.308520e+000 -1.031696e+001 206 187 121
2.565082e+000 3.564836e+000 -1.043663e+001 89 59 33
1.692697e+000 3.406133e+000 -9.578563e+000 84 76 55
1.770125e+000 3.117453e+000 -9.508566e+000 131 107 70
2.077854e+000 3.140795e+000 -9.729111e+000 74 68 47
2.548843e+000 3.101715e+000 -1.013428e+001 118 94 61
-3.047022e-001 2.368438e+000 -9.501944e+000 215 224 216
1.639318e+000 2.922340e+000 -9.316884e+000 126 105 73
1.699539e+000 2.912112e+000 -9.343372e+000 120 99 68
2.806771e+000 2.977035e+000 -1.034675e+001 66 54 40
3.075529e+000 2.865163e+000 -1.055883e+001 95 70 55
-1.160222e+000 1.480009e+000 -1.063114e+001 211 225 225
1.321515e+000 2.772403e+000 -8.916166e+000 126 102 64
1.858470e+000 2.686892e+000 -9.322255e+000 133 109 71
2.546769e+000 2.550630e+000 -9.745184e+000 89 64 34
2.974034e+000 2.502267e+000 -1.018449e+001 114 87 58
-5.807197e-001 1.366078e+000 -9.754818e+000 79 61 87
2.183739e+000 2.370887e+000 -9.392951e+000 98 73 44
2.289362e+000 2.368930e+000 -9.450002e+000 79 53 30
1.824930e+000 2.186491e+000 -9.067376e+000 83 59 31
2.716726e+000 2.215853e+000 -9.752680e+000 127 101 66
-6.860034e-001 8.893593e-001 -9.822377e+000 102 68 100
2.071722e+000 1.882341e+000 -9.128739e+000 125 102 68
2.757874e+000 1.897538e+000 -9.639548e+000 116 85 56
2.517294e+000 1.642756e+000 -9.403384e+000 100 76 50
1.549399e+000 1.691778e+000 -8.461009e+000 133 109 72
2.173668e+000 1.443492e+000 -8.920631e+000 75 54 25
2.991980e+000 1.251258e+000 -9.545289e+000 113 86 59
-1.071658e+000 3.098454e+000 -1.080449e+001 107 61 48
1.316457e+000 3.479842e+000 -9.262013e+000 80 74 52
-2.665705e-001 2.826531e+000 -9.444519e+000 200 178 127
1.977679e+000 3.308383e+000 -9.732532e+000 121 98 66
-3.415728e-001 2.442396e+000 -9.511631e+000 78 56 62
1.891802e+000 2.956637e+000 -9.478832e+000 76 55 26
2.140623e+000 2.446928e+000 -9.399278e+000 126 99 64
-8.872342e-001 1.148445e+000 -1.012601e+001 70 61 85
1.653933e+000 2.176616e+000 -8.897168e+000 130 103 74
1.653933e+000 2.176616e+000 -8.897168e+000 130 103 74
2.170565e+000 2.196385e+000 -9.299451e+000 127 103 65
2.172491e+000 2.108137e+000 -9.271572e+000 125 100 59
1.460133e+000 1.757724e+000 -8.401478e+000 87 66 42
2.053131e+000 1.622978e+000 -8.948301e+000 81 59 35
2.664507e+000 1.137446e+000 -9.101769e+000 133 102 66
-8.322040e-001 2.378855e+000 -1.030424e+001 201 174 125
3.206581e+000 2.233478e+000 -1.011229e+001 55 28 11
3.319793e-002 2.329163e+000 -8.914811e+000 72 54 77
-4.385559e-001 7.468779e-001 -9.406335e+000 67 55 66
-7.001519e-001 1.597337e-001 -9.695062e+000 213 232 220
1.164592e+000 3.512720e+000 -9.102297e+000 136 107 68
2.970273e+000 2.563416e+000 -1.017049e+001 91 64 41
-3.235308e-001 7.478607e-003 -9.073876e+000 69 58 74
-1.223664e+000 2.315597e+000 -1.088921e+001 199 176 134
-1.016185e+000 7.451558e-001 -1.026164e+001 197 204 204
-1.420982e+000 2.246416e-002 -1.053511e+001 65 52 78
-3.186527e+001 -2.791913e+001 -7.144365e+001 136 146 135
-1.156046e+000 1.326305e+000 -1.055241e+001 72 59 74
-3.085401e+001 -2.776369e+001 -7.240520e+001 129 135 125
-3.131934e+001 -4.155885e+001 -6.446183e+001 77 49 42
-3.372141e+001 -4.490674e+001 -6.638411e+001 146 143 124
-3.281048e+001 -2.796224e+001 -7.369701e+001 168 174 164
-1.869203e+001 -3.217504e+001 -7.585402e+001 126 122 110
-2.325705e+001 -4.989694e+001 -7.701338e+001 96 69 50
-3.974408e+001 -2.894796e+001 -6.551502e+001 202 207 203
-3.607503e+001 -2.887124e+001 -6.343180e+001 86 55 50
-3.376286e+001 -4.222601e+001 -6.607106e+001 86 49 40
-2.545532e+001 -3.774447e+001 -6.894500e+001 36 31 33
-3.035979e-001 3.363874e+000 -9.395239e+000 175 160 108
-3.514258e-001 3.493469e+000 -9.742374e+000 138 111 63
-1.420735e+000 3.612364e+000 -1.137546e+001 141 104 72
6.996129e-001 -8.309530e-001 -7.128198e+000 86 72 106
-1.261143e-001 1.931424e+001 -3.230860e+001 88 64 75
5.864278e-001 -9.913654e-001 -7.306758e+000 68 60 96
-5.194225e-001 -8.559539e-001 -9.058806e+000 211 212 212
-7.810269e-001 2.961485e+000 -1.035499e+001 149 102 60
6.882850e-001 -7.990808e-001 -7.146693e+000 54 43 75
3.998157e-001 -9.826582e-001 -7.577811e+000 56 51 84
4.704178e-001 -1.107962e+000 -7.525348e+000 72 59 103
-8.296113e-001 1.322459e+000 -1.279444e+001 218 226 219
1.472032e+000 1.900906e+001 -2.929942e+001 58 51 58
-1.184750e+000 3.438901e+000 -1.103815e+001 147 118 77
3.782915e-002 -2.191960e-001 -8.406905e+000 93 64 85
-5.001941e-001 1.046603e+000 -9.528448e+000 214 227 220
1.883260e+000 3.114221e+000 -9.584516e+000 133 107 78
1.397605e+000 3.783439e+000 -9.522518e+000 94 69 39
-3.101183e+001 -4.220249e+001 -6.632544e+001 95 87 74
-3.014785e+001 -3.302014e+001 -6.599997e+001 136 124 121
-3.185628e+001 -2.880420e+001 -6.839571e+001 85 58 47
-1.970877e-001 3.470418e+000 -9.375243e+000 170 144 90
-5.426848e-001 4.443040e+000 -1.020584e+001 153 111 72
-3.642625e-001 3.121796e+000 -9.535673e+000 178 147 100
6.246588e-002 1.913253e+000 -8.704138e+000 94 89 93
7.240594e-001 -1.418237e+000 -6.646287e+000 101 91 121
7.240594e-001 -1.418237e+000 -6.646287e+000 101 91 121
-3.972819e-001 3.052425e+000 -9.603449e+000 170 139 88
-8.567885e-001 4.517101e+000 -1.086095e+001 137 107 83
-5.686164e-001 3.425436e+000 -1.024975e+001 198 175 122
-4.148834e-001 2.863173e+000 -9.636397e+000 162 128 67
4.598634e-001 -9.290185e-001 -7.547976e+000 76 62 88
-1.036863e+000 2.605341e+000 -1.076410e+001 131 86 57
-1.921791e+000 3.983368e+000 -1.203479e+001 145 130 107
-1.921791e+000 3.983368e+000 -1.203479e+001 145 130 107
-3.260300e-001 3.885688e-001 -9.203818e+000 62 59 58
-1.874262e+000 3.543176e+000 -1.190887e+001 142 109 64
-1.206921e+000 7.717751e-001 -1.046989e+001 114 111 106
-1.175333e-001 3.642567e+000 -9.426174e+000 113 83 41
-3.191430e-001 3.108424e+000 -9.522147e+000 126 88 43
-3.191430e-001 3.108424e+000 -9.522147e+000 126 88 43
-8.141008e-001 4.745525e+000 -1.069754e+001 164 130 93
-1.051279e+000 4.368039e+000 -1.094121e+001 139 111 78
5.876504e-001 -9.249583e-001 -7.294908e+000 176 175 184
-8.730135e-001 3.186632e+000 -1.049964e+001 188 155 94
-1.461408e+000 4.732829e+000 -1.163914e+001 143 125 92
-1.461408e+000 4.732829e+000 -1.163914e+001 143 125 92
-1.414843e+000 4.422527e+000 -1.157348e+001 152 135 105
-1.597331e+000 4.345360e+000 -1.180078e+001 152 135 107
-6.203917e-001 1.257076e+000 -9.740020e+000 70 53 64
-6.783602e-001 1.320955e+000 -9.911718e+000 72 60 66
-1.759589e+000 3.434858e+000 -1.164361e+001 150 115 62
-6.418331e-001 -1.106772e+000 -9.198016e+000 65 53 55
-9.227396e-001 -1.290266e+000 -9.467266e+000 215 222 211
-4.378817e-001 5.788045e+000 -1.015854e+001 117 92 61
2.302560e-001 1.899198e+000 -8.424845e+000 58 49 52
-1.875851e-001 3.319903e+000 -9.310882e+000 110 76 43
-8.420827e-001 5.262025e+000 -1.084691e+001 186 195 171
1.003618e-001 1.863421e+000 -8.685351e+000 209 215 209
1.003618e-001 1.863421e+000 -8.685351e+000 209 215 209
5.326561e-002 1.824234e+000 -8.703490e+000 62 60 61
5.223171e-002 1.739122e+000 -8.713419e+000 208 213 208
7.851714e-001 -1.395784e+000 -6.691927e+000 78 74 99
-7.150727e-001 4.235931e+000 -1.034548e+001 141 102 72
-6.978455e-001 4.191933e+000 -1.041113e+001 98 59 40
-6.597300e-002 2.054499e+000 -9.068898e+000 77 67 68
-4.432603e-002 1.673573e+000 -8.833237e+000 76 67 70
2.494900e-001 7.705748e-001 -8.192509e+000 208 217 202
-5.557624e-001 3.465546e+000 -1.006399e+001 125 89 45
-2.381436e-001 2.326452e+000 -9.273160e+000 63 57 51
-7.322819e-002 1.583752e+000 -8.902534e+000 67 55 64
-7.045452e-001 3.675333e+000 -1.051197e+001 184 157 103
-1.703128e-001 1.502126e+000 -9.069465e+000 72 57 58
-1.051755e-002 1.048929e+000 -8.729247e+000 205 223 201
-1.051755e-002 1.048929e+000 -8.729247e+000 205 223 201
-2.021735e-001 1.550035e+000 -9.164336e+000 198 204 193
-2.056278e-001 1.147021e+000 -9.074841e+000 206 213 203
7.360792e-001 -1.909660e+000 -6.936184e+000 144 148 160
-2.245776e+000 4.867325e+000 -1.226950e+001 104 100 104
-1.011093e+000 2.745535e+000 -1.069708e+001 113 67 46
-8.827118e-001 1.642118e+000 -1.022838e+001 86 75 76
-4.485677e-001 7.058060e-001 -9.340255e+000 65 53 48
-3.069019e-001 2.591675e-001 -9.093159e+000 209 217 212
-1.301955e+000 2.515714e+000 -1.100541e+001 143 104 49
-7.729732e-001 1.137778e+000 -9.924931e+000 88 76 81
-2.060870e+000 3.610789e+000 -1.230081e+001 91 78 72
-1.465792e+000 2.555450e+000 -1.125788e+001 111 81 47
-1.524799e+000 2.501221e+000 -1.122611e+001 150 117 76
-9.205433e-001 9.899963e-001 -1.012019e+001 211 212 206
-8.050598e-001 9.945090e-001 -9.997265e+000 93 79 85
-7.221913e-001 7.173733e-001 -9.829167e+000 205 211 207
-1.642783e+000 2.397267e+000 -1.129533e+001 75 56 59
-1.642783e+000 2.397267e+000 -1.129533e+001 75 56 59
-1.199157e+000 1.372366e+000 -1.061760e+001 212 212 206
-8.548947e-001 6.296043e-001 -9.980575e+000 201 211 203
-3.097943e-001 -1.082847e+000 -8.605290e+000 195 200 190
1.867341e-001 -2.690367e+000 -7.673290e+000 88 81 112
-5.295718e-001 5.155659e+000 -1.027732e+001 103 70 39
-9.491280e-002 3.418755e+000 -9.163266e+000 102 65 38
2.572886e-001 2.002225e+000 -8.428164e+000 206 213 200
2.160080e-001 1.768604e+000 -8.472685e+000 68 58 61
1.376097e-001 1.800053e+000 -8.594333e+000 73 63 73
2.134224e-001 1.512949e+000 -8.412511e+000 217 214 209
1.211824e+000 -1.765960e+000 -6.504372e+000 73 71 95
-2.192705e-003 1.906154e+000 -8.869436e+000 168 167 164
3.587725e-002 1.694891e+000 -8.757335e+000 75 59 74
5.915316e-002 1.441414e+000 -8.633131e+000 65 56 59
-6.230170e-001 3.558895e+000 -1.020689e+001 194 168 115
-4.162046e-001 2.824072e+000 -9.689075e+000 194 163 108
-8.845451e-001 3.381063e+000 -1.056590e+001 100 68 42
1.705888e-001 -3.858101e-002 -8.259754e+000 219 230 219
-3.987665e-001 1.012089e+000 -9.401933e+000 211 217 205
-4.520846e-001 1.066639e+000 -9.485504e+000 69 43 56
-1.326329e+000 2.646892e+000 -1.103071e+001 190 158 115
-1.145939e+000 1.756659e+000 -1.060119e+001 198 201 194
-6.637204e-001 7.433857e-001 -9.828889e+000 80 66 82
-6.637204e-001 7.433857e-001 -9.828889e+000 80 66 82
-1.507230e+000 2.215964e+000 -1.124850e+001 76 58 69
-2.510930e-001 -9.865197e-001 -8.678331e+000 73 49 71
-5.930170e-001 -9.574358e-001 -9.126863e+000 211 213 207
-5.809004e-001 -1.119753e+000 -9.034668e+000 188 191 184
-7.769319e-001 -1.072638e+000 -9.364058e+000 210 216 206
1.499816e-001 -2.680363e+000 -7.774918e+000 70 63 94
-4.725517e-001 -3.008526e+000 -8.330664e+000 68 57 87
-4.417107e-001 5.208195e+000 -1.011876e+001 131 100 56
-8.838792e-003 3.431935e+000 -9.052072e+000 191 169 119
-2.293585e-001 3.418618e+000 -9.448689e+000 110 73 36
2.536542e-001 1.735787e+000 -8.368633e+000 65 55 63
2.105985e-001 1.432808e+000 -8.438050e+000 62 59 58
8.160147e-001 -1.345517e+000 -6.693983e+000 128 125 147
-2.030874e-001 2.452512e+000 -9.274181e+000 216 223 208
-1.173363e-001 1.960925e+000 -9.088982e+000 212 221 210
6.705477e-001 -1.503362e+000 -6.820169e+000 101 90 120
-1.535529e+000 5.274006e+000 -1.137028e+001 118 99 85
-3.945359e-001 2.259740e+000 -9.581824e+000 213 225 205
-3.945359e-001 2.259740e+000 -9.581824e+000 213 225 205
-1.105362e+000 4.173951e+000 -1.104996e+001 159 124 73
4.212206e-001 -7.635237e-001 -7.553514e+000 69 54 83
-1.089877e+000 3.525740e+000 -1.096992e+001 150 117 72
-8.787514e-001 3.010339e+000 -1.043362e+001 169 137 81
-4.989987e-001 2.077705e+000 -9.785616e+000 214 224 215
-2.785026e-001 1.365273e+000 -9.248406e+000 87 62 66
3.542580e-001 -8.197182e-001 -7.643976e+000 67 50 82
5.516382e-001 -1.795139e+000 -6.973671e+000 88 81 117
-3.249808e-001 1.066678e+000 -9.250763e+000 214 219 205
-3.249808e-001 1.066678e+000 -9.250763e+000 214 219 205
-1.034938e+000 2.597841e+000 -1.066554e+001 123 80 55
7.983905e-002 -7.196465e-001 -8.148631e+000 207 221 202
7.983905e-002 -7.196465e-001 -8.148631e+000 207 221 202
-7.393038e-001 1.727568e+000 -1.012400e+001 67 57 76
-2.445046e+000 5.086690e+000 -1.293208e+001 169 177 179
-1.937304e+000 3.298162e+000 -1.184067e+001 96 65 47
-6.163710e-001 5.328410e-001 -9.582187e+000 77 61 74
-6.494500e-001 4.715877e-001 -9.680971e+000 211 225 211
-6.494500e-001 4.715877e-001 -9.680971e+000 211 225 211
8.139802e-001 -2.437781e+000 -7.227086e+000 69 57 74
-1.585715e+000 2.349073e+000 -1.132755e+001 170 136 93
-7.235703e-001 6.158251e-001 -9.834060e+000 83 65 79
-6.860648e-001 5.013302e-002 -9.612809e+000 71 52 56
-6.860648e-001 5.013302e-002 -9.612809e+000 71 52 56
-1.136148e+000 4.024326e-001 -1.034921e+001 73 70 89
5.128383e-001 8.879181e-002 -7.641990e+000 82 64 82
1.219954e+000 -1.800250e+000 -6.531022e+000 107 106 124
-3.801679e-001 3.042899e+000 -9.739364e+000 169 134 76
4.632905e-001 -7.510300e-001 -7.484698e+000 67 47 82
-1.213189e+000 4.726781e+000 -1.144647e+001 103 70 39
-6.972762e-002 1.010854e+000 -8.773038e+000 72 55 70
2.226676e-001 -1.834751e-001 -8.123215e+000 63 50 70
-3.323715e-001 8.970024e-001 -9.215686e+000 76 60 61
3.347694e-001 -1.174915e+000 -7.647001e+000 171 166 182
3.347694e-001 -1.174915e+000 -7.647001e+000 171 166 182
-9.257578e-001 2.487191e+000 -1.050962e+001 181 154 96
-4.153922e-001 5.724787e-001 -9.326896e+000 218 229 212
-4.153922e-001 5.724787e-001 -9.326896e+000 218 229 212
-5.317954e-001 5.167391e-001 -9.515269e+000 212 225 207
3.215294e-001 -2.167773e+000 -7.236739e+000 111 113 136
-8.131047e-001 3.557480e-001 -9.880155e+000 219 231 217
-5.869594e-001 -8.585396e-001 -9.119631e+000 71 59 65
-8.870094e-001 -3.161315e+000 -8.848855e+000 95 81 114
2.878219e-001 2.396101e+000 -8.359569e+000 120 57 78
7.449026e-002 2.712662e+000 -8.789473e+000 209 221 204
3.138587e-001 9.932617e-001 -8.138503e+000 64 56 69
3.138587e-001 9.932617e-001 -8.138503e+000 64 56 69
-7.238552e-001 3.818983e+000 -1.048473e+001 181 147 101
7.263983e-002 7.554336e-001 -8.465963e+000 66 52 77
4.301263e-001 -3.209616e-001 -7.752101e+000 63 46 74
4.301263e-001 -3.209616e-001 -7.752101e+000 63 46 74
2.957456e-001 -1.972499e-001 -7.970871e+000 66 53 81
2.957456e-001 -1.972499e-001 -7.970871e+000 66 53 81
-2.500687e-001 1.193663e+000 -9.216391e+000 108 59 67
4.366924e-001 -1.057632e+000 -7.586543e+000 65 57 80
-2.738987e-001 6.576245e-001 -9.102212e+000 211 227 205
-1.612415e-001 -1.015316e-001 -8.763427e+000 212 227 208
-1.612415e-001 -1.015316e-001 -8.763427e+000 212 227 208
2.588713e-002 -6.924422e-001 -8.260990e+000 104 51 86
-3.714613e-001 3.133813e-001 -9.208842e+000 217 225 210
-3.931809e-001 9.668782e-002 -9.216622e+000 72 62 70
-6.442057e-001 1.639662e-001 -9.556977e+000 214 225 210
-4.273339e-001 -3.950676e-001 -9.085406e+000 211 224 204
-1.187683e+000 6.649740e-001 -1.042766e+001 200 207 199
-1.101477e+000 5.301342e-002 -1.014797e+001 217 230 212
-9.977214e-001 -8.408277e-001 -9.751329e+000 226 227 215
-9.977214e-001 -8.408277e-001 -9.751329e+000 226 227 215
3.488245e-001 -2.811551e+000 -7.806358e+000 23 13 21
3.637800e-001 1.252357e+000 -8.140209e+000 214 222 207
-8.572488e-001 5.290995e+000 -1.075324e+001 192 195 174
3.995129e-001 4.807600e-001 -7.913955e+000 97 66 92
4.875458e-001 3.775065e-001 -7.744641e+000 219 230 213
-4.945168e-001 3.835173e+000 -1.007125e+001 187 161 104
4.816718e-001 -4.659447e-002 -7.691860e+000 76 62 83
4.816718e-001 -4.659447e-002 -7.691860e+000 76 62 83
2.247317e-001 6.475876e-001 -8.193112e+000 66 60 67
2.247317e-001 6.475876e-001 -8.193112e+000 66 60 67
3.707394e-001 2.894407e-001 -7.960815e+000 221 232 217
4.836446e-001 -2.706582e-001 -7.659078e+000 217 232 212
-2.774169e-001 2.002312e+000 -9.450879e+000 65 53 61
-2.774169e-001 2.002312e+000 -9.450879e+000 65 53 61
2.613923e-001 1.243856e-001 -8.095271e+000 215 228 211
2.613923e-001 1.243856e-001 -8.095271e+000 215 228 211
1.598905e-001 1.811616e-001 -8.219729e+000 72 58 84
5.373715e-002 -4.884151e-002 -8.412523e+000 214 230 211
5.373715e-002 -4.884151e-002 -8.412523e+000 214 230 211
2.307104e-001 -9.999772e-001 -7.834903e+000 73 55 96
-8.937925e-001 1.485035e+000 -1.031478e+001 72 59 71
-1.025154e+000 1.497559e+000 -1.053627e+001 71 56 69
-2.886895e-001 -2.059625e-001 -8.990792e+000 212 225 208
-6.406269e-001 -5.165865e-001 -9.337726e+000 211 226 207
-6.406269e-001 -5.165865e-001 -9.337726e+000 211 226 207
-1.046966e+000 2.183752e-001 -1.009435e+001 90 85 107
-8.501837e-001 -6.408518e-001 -9.592673e+000 218 229 213
-5.012632e-001 -2.946032e+000 -8.317398e+000 149 151 166
-5.012632e-001 -2.946032e+000 -8.317398e+000 149 151 166
5.826274e-001 -2.249710e-001 -7.491591e+000 214 227 211
3.936645e-001 -1.064233e+000 -7.526267e+000 179 172 189
-2.444790e-001 -7.551242e-001 -8.578742e+000 72 57 78
-4.701809e-002 -2.390800e+000 -7.913828e+000 132 137 156
-1.292644e+000 -6.239537e-001 -1.014766e+001 151 68 88
-6.483426e-001 -3.063976e+000 -8.649346e+000 92 83 110
-7.683834e-001 4.011970e+000 -1.030048e+001 116 79 60
-9.581486e-001 4.300942e+000 -1.083403e+001 99 74 44
3.919422e-002 7.799258e-001 -8.592561e+000 70 54 83
1.809504e+000 -2.121723e+000 -6.856052e+000 66 57 78
1.087943e-001 2.332840e-001 -8.334216e+000 68 54 80
1.087943e-001 2.332840e-001 -8.334216e+000 68 54 80
-1.272765e-001 4.509067e-001 -8.817538e+000 85 56 76
-1.272765e-001 4.509067e-001 -8.817538e+000 85 56 76
7.935183e-002 3.325875e+000 -8.868137e+000 66 51 46
8.516976e-002 -9.907949e-001 -8.173490e+000 72 54 97
-6.236222e-001 3.190099e+000 -1.023988e+001 194 169 113
8.253775e-001 -1.905561e+000 -6.912467e+000 163 163 173
8.253775e-001 -1.905561e+000 -6.912467e+000 163 163 173
-3.483977e-002 -2.440458e+000 -8.171137e+000 138 139 159
9.683248e-002 -3.103943e+000 -8.630647e+000 32 17 25
-9.961829e-001 4.332902e+000 -1.093682e+001 148 107 85
-1.964737e+000 3.499211e+000 -1.187299e+001 120 90 81
-1.829907e+000 3.269039e+000 -1.177209e+001 173 137 92
-3.070207e-001 4.424169e+000 -9.742017e+000 154 109 80
-8.210095e-001 3.123300e+000 -1.041977e+001 191 158 105
-1.147052e+000 2.727889e+000 -1.083083e+001 193 138 116
6.818673e-001 4.190144e+000 -8.969526e+000 61 43 28
-7.442078e-001 2.994223e+000 -1.033188e+001 206 157 98
-1.326421e+000 2.216681e+000 -1.091534e+001 155 109 88
-4.984396e-001 2.970776e+000 -9.885467e+000 186 168 127
-1.460636e-001 3.474162e+000 -9.280935e+000 147 100 72
-1.020899e+000 2.310597e+000 -1.059245e+001 151 123 97
-8.265934e-001 2.478449e+000 -1.031373e+001 188 152 98
-1.211497e-001 3.257374e+000 -9.160348e+000 176 144 97
-1.165631e+000 1.641587e+000 -1.061769e+001 91 68 81
-1.168861e+000 1.415723e+000 -1.058239e+001 85 82 95
-1.168960e+000 1.419784e+000 -1.057672e+001 85 82 95
-1.045408e+000 9.823880e-001 -1.031204e+001 225 215 240
3.194747e+000 2.380669e+000 -1.027694e+001 56 30 17
-1.198714e+000 3.441804e-001 -1.034357e+001 209 205 220
-6.835624e-001 8.416495e-001 -9.797062e+000 217 216 229
-4.959443e-001 8.314547e-001 -9.543859e+000 74 66 74
-4.959443e-001 8.314547e-001 -9.543859e+000 74 66 74
-5.709725e-001 4.535502e+000 -1.021642e+001 149 80 47
-4.656023e-001 4.457629e+000 -1.004218e+001 145 91 55
-4.656023e-001 4.457629e+000 -1.004218e+001 145 91 55
-1.657911e+000 3.147991e+000 -1.154841e+001 164 124 83
-3.362780e-001 4.189909e+000 -9.780657e+000 209 173 115
-1.755983e+000 2.957421e+000 -1.163980e+001 154 116 80
-1.223418e+000 3.387367e+000 -1.106833e+001 204 171 121
-1.186683e+000 3.415074e+000 -1.102426e+001 114 75 43
-8.349798e-001 3.588453e+000 -1.052788e+001 212 182 145
-5.858580e-001 3.876523e+000 -1.018322e+001 199 154 99
-1.161336e+000 3.176918e+000 -1.093033e+001 139 92 49
-7.707752e-001 3.605730e+000 -1.043077e+001 210 178 135
-1.134386e+000 3.133495e+000 -1.089919e+001 187 148 91
-6.674033e-001 3.529926e+000 -1.024297e+001 183 155 108
-1.265565e+000 2.757176e+000 -1.102020e+001 124 69 52
-8.967591e-001 3.147143e+000 -1.054517e+001 128 82 48
-6.880116e-001 3.351656e+000 -1.026516e+001 93 64 38
1.221399e+000 4.170690e+000 -9.516114e+000 75 53 32
-1.078719e+000 2.558217e+000 -1.069248e+001 113 65 50
-1.070294e+000 2.600233e+000 -1.071245e+001 191 158 126
-4.053850e-002 3.770439e+000 -9.087125e+000 145 99 85
