ply
format ascii 1.0
element face 0
property list uchar int vertex_indices
element vertex 891
property float x
property float y
property float z
property uchar diffuse_red
property uchar diffuse_green
property uchar diffuse_blue
end_header
2.794150e+000 2.172150e+000 -9.841946e+000 116 102 66
2.793709e+000 2.172885e+000 -9.848138e+000 116 102 66
-8.625974e-001 1.856311e+000 -1.049952e+001 96 86 85
-1.171832e+000 1.580172e+000 -1.087430e+001 74 69 69
3.264442e+000 1.328803e+000 -9.964811e+000 92 81 58
1.859364e+000 9.014915e-001 -8.190983e+000 126 115 77
-6.119349e-001 2.408263e+000 -1.023782e+001 89 72 51
3.025454e+000 1.699648e+000 -9.898456e+000 101 88 54
2.998622e+000 1.575994e+000 -9.853310e+000 112 96 65
2.858900e+000 1.402411e+000 -9.660980e+000 112 97 65
3.054097e+000 1.368588e+000 -9.811025e+000 114 97 68
1.989056e+000 -1.112103e-001 -7.811081e+000 80 66 29
2.080002e+000 -3.546642e-001 -7.745387e+000 129 115 78
2.179516e+000 -3.037865e-001 -7.857219e+000 119 106 62
1.699143e+000 2.425736e+000 -9.167500e+000 132 120 78
2.198996e+000 2.570061e+000 -9.608402e+000 128 114 75
2.427820e+000 2.492698e+000 -9.727536e+000 88 74 37
2.358420e+000 2.404025e+000 -9.644354e+000 91 78 41
-1.059367e+000 2.434102e+000 -1.087609e+001 191 167 121
1.754021e+000 1.931240e+000 -8.955331e+000 128 114 77
1.879528e+000 1.879917e+000 -9.057082e+000 128 114 72
2.017169e+000 1.971448e+000 -9.210504e+000 120 105 66
-1.414189e+000 2.179990e+000 -1.130015e+001 84 66 77
1.748897e+000 1.427962e+000 -8.556554e+000 75 59 25
-1.101986e+000 1.482277e+000 -1.071527e+001 85 68 69
2.874976e+000 1.444390e+000 -9.695084e+000 57 40 14
2.126850e+000 4.456451e-001 -8.210489e+000 131 112 69
-9.266098e-001 3.118506e+000 -1.089216e+001 194 155 96
-1.431601e-001 2.384000e+000 -9.487057e+000 87 69 68
2.012066e+000 2.026686e+000 -9.201841e+000 91 78 46
2.904144e+000 1.778962e+000 -9.815000e+000 51 40 10
3.237317e+000 1.370946e+000 -9.994454e+000 41 28 13
-5.555026e-001 1.346325e+000 -9.960869e+000 208 229 215
-5.525429e-001 1.348536e+000 -9.963720e+000 208 229 215
1.660584e+000 3.356949e-001 -7.674640e+000 119 106 64
3.025271e+000 2.914243e-001 -9.035905e+000 66 51 24
3.131954e+000 -4.703227e-001 -8.664723e+000 109 96 54
-3.200238e-001 -8.356809e-001 -8.957617e+000 200 207 204
2.981399e+000 -5.553080e-001 -8.457822e+000 124 106 63
6.094667e-001 -1.907434e-002 -7.772160e+000 197 225 207
2.242262e+000 -4.601871e-001 -7.821259e+000 127 111 67
-1.762938e+000 3.068721e+000 -1.188426e+001 100 77 84
-1.180249e+000 3.075635e+000 -1.124908e+001 124 81 53
-1.180249e+000 3.075635e+000 -1.124908e+001 124 81 53
-9.212571e-001 2.941421e+000 -1.079723e+001 185 134 105
-6.469919e-001 2.755217e+000 -1.040163e+001 192 154 108
-4.088894e-001 2.554676e+000 -9.963579e+000 104 74 82
-3.446543e-001 2.571342e+000 -9.872257e+000 97 74 66
2.042912e+000 2.574708e+000 -9.441148e+000 129 116 72
2.042912e+000 2.574708e+000 -9.441148e+000 129 116 72
-1.174535e+000 2.666852e+000 -1.113890e+001 197 168 124
-6.237493e-001 2.423366e+000 -1.027813e+001 87 70 53
-1.155974e+000 2.444999e+000 -1.105335e+001 147 107 48
-9.488065e-001 2.258020e+000 -1.072179e+001 144 111 82
3.128338e+000 2.102119e+000 -1.006036e+001 102 81 56
3.170792e+000 1.930554e+000 -9.967325e+000 49 31 11
-6.289236e-001 1.733293e+000 -1.016552e+001 204 219 205
1.940887e+000 1.525557e+000 -8.830030e+000 126 111 68
-5.954325e-001 1.369591e+000 -1.001915e+001 84 68 68
4.087622e+000 7.703555e-001 -9.049071e+000 196 160 86
1.684366e+000 -5.630514e-002 -7.528741e+000 74 58 28
9.549392e-002 -4.628146e-001 -8.475221e+000 95 72 92
3.027515e+000 -6.102196e-001 -8.494838e+000 66 50 14
3.027515e+000 -6.102196e-001 -8.494838e+000 66 50 14
3.288790e-001 -9.232497e-001 -7.985153e+000 154 148 162
4.995551e-001 -1.072737e+000 -7.752428e+000 62 48 73
2.183228e+000 2.904890e+000 -9.696881e+000 85 70 39
2.013777e+000 2.695211e+000 -9.497006e+000 127 113 73
2.191519e+000 2.816499e+000 -9.663312e+000 81 62 29
-1.255889e+000 2.583543e+000 -1.116609e+001 190 166 109
2.184098e+000 2.509033e+000 -9.508335e+000 123 110 68
-7.826563e-001 2.334965e+000 -1.051503e+001 179 155 93
6.950335e-002 2.212622e+000 -9.030678e+000 214 207 201
-1.105034e+000 2.194004e+000 -1.088977e+001 134 93 63
8.838899e-002 1.912621e+000 -8.944823e+000 87 73 77
1.817775e-001 1.836209e+000 -8.809714e+000 224 225 217
1.950392e+000 1.963846e+000 -9.156960e+000 119 105 66
2.282027e+000 1.365510e+000 -9.013912e+000 114 99 56
2.791171e+000 1.415277e+000 -9.581157e+000 113 97 64
2.397607e+000 9.862638e-001 -8.789485e+000 115 109 73
2.944375e+000 7.851360e-001 -9.230207e+000 116 102 71
3.188766e-001 -1.387817e-001 -8.248033e+000 196 212 202
1.960344e+000 -5.194957e-002 -7.819985e+000 121 104 61
2.618152e+000 -2.991236e-001 -8.330117e+000 118 103 59
2.049759e+000 -3.443897e-001 -7.741268e+000 71 57 29
2.232704e+000 -5.338313e-001 -7.773833e+000 127 110 67
3.762717e-001 -1.078250e+000 -7.938857e+000 179 176 185
1.493253e+000 2.762976e+000 -9.138117e+000 128 113 72
2.912163e+000 3.171481e+000 -1.062415e+001 61 47 21
1.275095e+000 2.628976e+000 -8.842259e+000 123 108 66
1.335763e+000 2.617246e+000 -8.928121e+000 113 99 60
1.606891e+000 2.757599e+000 -9.302893e+000 119 106 63
1.606891e+000 2.757599e+000 -9.302893e+000 119 106 63
1.983165e+000 2.812342e+000 -9.600751e+000 122 110 69
-1.062891e+000 2.765599e+000 -1.098998e+001 133 82 59
1.358924e+000 2.497589e+000 -8.842423e+000 121 105 69
1.561284e+000 2.451448e+000 -9.042917e+000 121 106 65
2.549091e+000 2.778185e+000 -1.003718e+001 113 96 60
2.598696e+000 2.781513e+000 -1.014538e+001 117 103 66
2.685988e+000 2.790549e+000 -1.018762e+001 79 64 33
-1.219668e+000 2.726124e+000 -1.118265e+001 184 156 116
-1.150565e+000 2.591538e+000 -1.103623e+001 189 177 117
2.093253e+000 2.434563e+000 -9.480278e+000 73 60 25
2.285077e+000 2.465071e+000 -9.613420e+000 127 112 69
-1.265634e+000 2.438006e+000 -1.119210e+001 176 146 82
1.397081e+000 2.147386e+000 -8.666622e+000 71 56 17
1.524042e+000 2.157748e+000 -8.833040e+000 119 105 60
1.616105e+000 2.273561e+000 -8.995997e+000 81 69 29
2.232143e+000 2.362104e+000 -9.493067e+000 120 107 63
2.668993e+000 2.396526e+000 -9.838323e+000 124 104 67
2.637808e+000 2.361078e+000 -9.812679e+000 91 74 37
2.535895e-001 1.920206e+000 -8.684358e+000 81 66 73
1.508712e+000 2.021139e+000 -8.716699e+000 69 54 14
2.284540e+000 2.146692e+000 -9.435976e+000 130 115 72
2.291034e+000 2.148962e+000 -9.460864e+000 130 115 72
2.660786e+000 2.303057e+000 -9.818245e+000 122 108 63
2.064573e+000 2.066256e+000 -9.236930e+000 120 105 62
1.838663e+000 1.890361e+000 -8.999758e+000 121 108 64
2.814671e+000 1.955167e+000 -9.752393e+000 118 98 62
2.819326e+000 1.841781e+000 -9.718869e+000 115 100 59
-1.069593e+000 1.633030e+000 -1.076220e+001 84 64 66
1.478058e+000 1.448836e+000 -8.257606e+000 127 108 68
2.499101e+000 1.470991e+000 -9.349244e+000 115 100 62
3.287808e+000 1.527565e+000 -1.006100e+001 94 78 54
4.229650e+000 1.598118e+000 -9.090825e+000 213 177 91
2.064088e+000 1.325707e+000 -8.759949e+000 122 107 67
2.201963e+000 1.293257e+000 -8.832891e+000 129 114 71
2.501269e+000 1.199855e+000 -9.079020e+000 77 61 27
2.572476e+000 1.184784e+000 -9.133701e+000 85 70 31
2.491186e+000 1.023378e+000 -8.910662e+000 69 73 46
4.088813e+000 1.136921e+000 -9.176077e+000 191 163 78
2.681380e+000 6.286863e-001 -8.868527e+000 118 103 64
4.147484e+000 5.537168e-001 -8.888226e+000 157 130 48
2.574577e+000 2.625174e-001 -8.578983e+000 78 59 27
2.097873e+000 1.250195e-001 -8.050689e+000 130 115 74
-1.613445e+000 -7.810794e-001 -1.122319e+001 109 70 89
1.025591e-001 -4.358376e-001 -8.495321e+000 198 220 206
2.837801e+000 -2.653018e-001 -8.549973e+000 91 72 40
-8.102301e-001 -1.260735e+000 -9.543271e+000 83 59 64
5.250723e-001 -8.476210e-001 -7.701201e+000 154 143 162
6.107996e-001 -7.778417e-001 -7.523868e+000 62 49 76
3.644586e-001 -9.535629e-001 -7.934182e+000 181 184 192
4.223264e-001 -9.438691e-001 -7.844093e+000 56 47 68
4.807330e-001 -9.521635e-001 -7.766430e+000 55 44 68
6.348448e-001 -8.690143e-001 -7.560854e+000 154 148 165
-9.231976e-001 3.119162e+000 -1.087568e+001 201 161 103
1.163772e+000 2.622474e+000 -8.709827e+000 67 50 19
2.051713e+000 2.863351e+000 -9.671446e+000 85 72 37
2.127418e+000 2.906111e+000 -9.723139e+000 125 110 67
1.836039e+000 2.735323e+000 -9.435511e+000 122 108 71
1.896474e+000 2.701042e+000 -9.430797e+000 126 112 73
2.410990e+000 2.919559e+000 -9.979455e+000 122 106 70
1.461899e+000 2.521373e+000 -8.986726e+000 87 73 38
1.920216e+000 2.516528e+000 -9.373754e+000 126 111 72
2.202867e+000 2.635828e+000 -9.665887e+000 91 75 42
1.361258e+000 2.246768e+000 -8.719638e+000 86 71 38
1.735736e+000 2.368353e+000 -9.164625e+000 105 89 55
1.728447e+000 2.363062e+000 -9.127859e+000 105 89 55
1.826737e+000 2.366531e+000 -9.240534e+000 79 66 32
1.912898e+000 2.455618e+000 -9.339997e+000 98 84 49
1.906965e+000 2.449638e+000 -9.301949e+000 98 84 49
1.930159e+000 2.300741e+000 -9.275273e+000 122 110 68
2.119093e+000 2.329387e+000 -9.408579e+000 86 72 35
1.672745e+000 2.128316e+000 -8.974032e+000 117 104 59
2.158143e+000 2.215061e+000 -9.369214e+000 78 63 24
2.113686e+000 2.114237e+000 -9.289404e+000 88 74 37
2.546194e+000 2.152883e+000 -9.626076e+000 90 76 39
1.020302e-001 1.879934e+000 -8.968794e+000 213 221 205
1.020302e-001 1.879934e+000 -8.968794e+000 213 221 205
1.250039e+000 1.821997e+000 -8.247099e+000 73 54 24
1.250039e+000 1.821997e+000 -8.247099e+000 73 54 24
1.922529e+000 2.037856e+000 -9.147775e+000 72 56 24
1.885311e+000 1.997586e+000 -9.116981e+000 125 110 71
2.896519e+000 2.103365e+000 -9.901663e+000 96 77 45
2.885687e+000 2.098462e+000 -9.855614e+000 96 77 45
1.445086e+000 1.758728e+000 -8.452049e+000 73 58 25
2.688175e-001 1.635613e+000 -8.601878e+000 208 226 212
-1.809729e-001 1.518046e+000 -9.382704e+000 204 225 210
2.218771e+000 1.574755e+000 -9.165099e+000 66 47 21
2.491208e+000 1.674330e+000 -9.475352e+000 112 97 60
2.491208e+000 1.674330e+000 -9.475352e+000 112 97 60
3.131660e+000 1.685661e+000 -9.992662e+000 113 94 62
1.595138e+000 1.322165e+000 -8.271503e+000 119 104 65
1.767297e+000 1.376016e+000 -8.527758e+000 125 110 71
1.767297e+000 1.376016e+000 -8.527758e+000 125 110 71
1.724163e+000 1.342655e+000 -8.436372e+000 76 60 26
1.726856e+000 1.342114e+000 -8.450761e+000 76 60 26
1.898813e+000 1.359531e+000 -8.608213e+000 128 111 65
2.784811e+000 1.515292e+000 -9.658643e+000 110 96 61
2.788655e+000 1.515361e+000 -9.667760e+000 110 96 61
2.781393e+000 1.461434e+000 -9.636358e+000 66 49 24
2.990438e+000 1.484912e+000 -9.822108e+000 112 93 63
2.355580e+000 1.353968e+000 -9.099150e+000 122 107 66
3.223654e+000 1.443429e+000 -1.000157e+001 66 54 32
1.600585e+000 1.140955e+000 -8.138018e+000 121 109 68
1.673417e+000 1.133485e+000 -8.206290e+000 121 109 72
1.893031e+000 1.088123e+000 -8.377806e+000 114 102 61
1.893031e+000 1.088123e+000 -8.377806e+000 114 102 61
2.084242e+000 1.144446e+000 -8.613873e+000 120 107 66
2.229875e+000 1.153054e+000 -8.777328e+000 82 67 38
2.361119e+000 1.181433e+000 -8.918044e+000 129 112 72
2.844782e+000 1.136790e+000 -9.360159e+000 76 59 31
1.640590e+000 1.045067e+000 -8.098169e+000 120 108 68
2.202399e+000 1.034456e+000 -8.631698e+000 133 118 75
2.524627e+000 1.096780e+000 -9.001600e+000 74 61 29
1.915045e+000 8.997622e-001 -8.242843e+000 126 113 68
2.897614e+000 9.832992e-001 -9.317464e+000 112 99 57
3.174522e+000 9.679592e-001 -9.599810e+000 70 62 39
-5.557963e-001 5.250967e-001 -9.802556e+000 207 225 210
2.554218e+000 7.554805e-001 -8.809259e+000 120 103 59
2.874676e+000 8.360284e-001 -9.187688e+000 74 68 42
2.874676e+000 8.360284e-001 -9.187688e+000 74 68 42
2.586232e+000 6.982321e-001 -8.794370e+000 77 58 26
2.853367e+000 5.863831e-001 -9.031535e+000 119 99 61
2.237650e-001 4.405730e-001 -8.493473e+000 84 67 82
2.237650e-001 4.405730e-001 -8.493473e+000 84 67 82
2.351938e+000 4.912331e-001 -8.475207e+000 122 101 56
2.405719e+000 4.843436e-001 -8.511326e+000 126 106 59
3.218545e+000 5.088603e-001 -9.355431e+000 103 87 51
4.216441e+000 4.851190e-001 -8.750089e+000 182 156 69
2.968131e+000 2.524298e-001 -8.977520e+000 112 97 54
3.048852e+000 -7.136755e-002 -8.871106e+000 117 97 63
3.354519e+000 1.635937e-002 -9.210554e+000 60 41 16
2.132527e+000 -7.594809e-002 -7.934971e+000 125 108 61
2.428745e+000 -3.542057e-001 -8.117075e+000 122 102 69
6.991500e-001 -3.890223e-001 -7.536640e+000 80 60 104
3.208025e+000 -5.023901e-001 -8.737604e+000 112 95 59
-2.973810e-001 -9.064791e-001 -8.926740e+000 95 65 73
2.691877e+000 -5.912205e-001 -8.117521e+000 126 103 69
-5.916627e-001 -1.188952e+000 -9.277260e+000 205 222 207
-2.082158e-002 -9.586810e-001 -8.431979e+000 83 69 84
1.094925e+000 -5.119630e-001 -6.882442e+000 66 58 95
1.558415e+000 -5.489587e-001 -7.133949e+000 117 103 66
-8.711487e-001 3.031353e+000 -1.075748e+001 125 71 47
1.999053e+000 2.545396e+000 -9.457052e+000 92 78 42
-1.022142e+000 2.691408e+000 -1.094090e+001 179 131 98
-1.091500e+000 2.617794e+000 -1.101553e+001 104 65 58
-1.430582e+000 2.279558e+000 -1.137874e+001 179 146 100
-3.799656e-001 2.176806e+000 -9.849219e+000 211 224 209
2.390181e+000 2.141581e+000 -9.520096e+000 119 104 61
2.266299e+000 1.976294e+000 -9.376584e+000 111 100 60
2.721717e+000 2.092246e+000 -9.785723e+000 129 110 68
2.713967e+000 2.090462e+000 -9.751414e+000 129 110 68
2.375264e+000 1.685375e+000 -9.403622e+000 121 105 62
2.840551e+000 1.784344e+000 -9.758641e+000 98 81 54
-5.872146e-001 1.271834e+000 -9.976394e+000 84 68 78
-5.925514e-001 1.270251e+000 -9.991714e+000 84 68 78
-9.257253e-001 1.037365e+000 -1.041061e+001 90 80 92
-8.293055e-001 1.102272e+000 -1.032478e+001 91 78 89
-6.102826e-001 9.828869e-001 -1.006452e+001 129 82 101
1.786004e+000 8.744262e-001 -8.088023e+000 98 83 47
1.786004e+000 8.744262e-001 -8.088023e+000 98 83 47
2.285777e+000 8.717310e-001 -8.596459e+000 81 81 57
4.195601e+000 9.063009e-001 -8.947126e+000 213 191 102
4.421998e-001 6.323303e-001 -8.113485e+000 91 77 87
2.037343e+000 6.211097e-001 -8.201587e+000 83 63 36
2.401781e+000 6.353856e-001 -8.588616e+000 87 71 37
3.073815e+000 6.883708e-001 -9.320839e+000 68 66 51
1.962222e+000 4.849461e-001 -8.062262e+000 121 104 58
2.477559e+000 5.164253e-001 -8.617753e+000 78 66 30
2.945820e+000 5.142461e-001 -9.077383e+000 80 61 28
2.217760e+000 4.224162e-001 -8.300754e+000 124 107 63
2.237528e+000 3.629175e-001 -8.297646e+000 76 62 33
2.329006e+000 3.433157e-001 -8.354289e+000 90 70 43
2.621771e+000 3.758154e-001 -8.693143e+000 92 78 36
1.712271e+000 2.773515e-001 -7.704337e+000 69 57 24
2.501206e+000 2.446234e-001 -8.502520e+000 116 99 56
2.510503e+000 2.412686e-001 -8.523913e+000 116 99 56
2.918044e+000 2.119746e-001 -8.904407e+000 71 57 28
3.313560e+000 2.291982e-001 -9.292480e+000 62 48 22
3.283909e+000 1.773202e-001 -9.238409e+000 118 98 65
1.820341e+000 2.110383e-001 -7.750671e+000 120 101 58
2.014399e+000 1.309607e-001 -7.964297e+000 120 105 61
2.624678e+000 1.730004e-001 -8.572609e+000 87 71 37
2.807608e+000 1.312913e-001 -8.752451e+000 74 54 29
2.904217e+000 1.610350e-001 -8.861025e+000 109 92 49
3.044976e+000 8.236969e-002 -8.934115e+000 84 67 35
3.314004e+000 7.967669e-002 -9.224701e+000 98 79 49
3.218573e+000 5.192969e-002 -9.092864e+000 80 61 30
2.624366e+000 6.493329e-002 -8.542489e+000 80 62 24
2.816695e+000 3.106518e-002 -8.691670e+000 77 61 27
3.148034e+000 1.335410e-002 -9.010202e+000 115 97 59
3.236471e+000 -6.131095e-002 -9.049690e+000 66 49 22
2.569857e+000 -1.215841e-001 -8.366595e+000 83 68 29
1.786800e+000 -1.603653e-001 -7.585849e+000 68 53 22
2.154903e+000 -1.902915e-001 -7.911202e+000 129 113 64
2.720246e+000 -2.507319e-001 -8.435106e+000 74 58 25
2.120055e+000 -2.377537e-001 -7.883397e+000 70 53 23
2.338881e+000 -3.225876e-001 -8.016679e+000 122 105 59
2.694698e+000 -3.064963e-001 -8.415814e+000 122 103 61
2.684505e+000 -3.919801e-001 -8.302618e+000 118 101 62
2.904037e+000 -3.966765e-001 -8.559095e+000 110 90 58
2.904037e+000 -3.966765e-001 -8.559095e+000 110 90 58
3.002905e+000 -4.069194e-001 -8.608109e+000 70 53 21
3.196619e+000 -4.472119e-001 -8.768348e+000 58 43 13
3.473810e+000 -4.098778e-001 -9.073235e+000 63 47 22
2.813963e+000 -5.693468e-001 -8.274198e+000 74 58 27
2.797208e+000 -6.122552e-001 -8.214197e+000 127 110 69
2.865616e+000 -6.247899e-001 -8.281618e+000 125 104 65
2.865616e+000 -6.247899e-001 -8.281618e+000 125 104 65
3.042675e+000 -6.169433e-001 -8.464365e+000 82 66 33
3.054090e+000 -6.254769e-001 -8.495661e+000 82 66 33
2.981893e+000 -6.467621e-001 -8.370575e+000 113 91 50
3.356667e+000 -6.505390e-001 -8.809594e+000 99 81 49
3.490184e+000 -6.871618e-001 -8.923655e+000 93 76 48
2.143167e+000 -5.899835e-001 -7.630797e+000 117 98 55
3.155580e+000 -8.077962e-001 -8.531717e+000 102 82 43
4.846325e-001 -8.551841e-001 -7.720744e+000 67 53 82
4.202219e+000 -8.509151e-001 -8.615327e+000 153 121 62
-1.493645e+000 3.195917e+000 -1.151889e+001 105 69 53
3.095271e+000 3.032611e+000 -1.065195e+001 48 29 12
-1.432964e+000 2.408852e+000 -1.136769e+001 170 140 99
-1.061114e+000 1.541928e+000 -1.069740e+001 208 226 210
2.901976e+000 1.654448e+000 -9.783303e+000 76 65 37
3.287795e+000 1.304275e+000 -9.970458e+000 90 76 48
4.109058e-001 7.895191e-001 -8.137865e+000 87 76 84
4.152995e+000 5.210686e-001 -9.012636e+000 205 180 100
4.243731e+000 6.096900e-001 -8.776439e+000 200 175 85
1.673164e+000 3.858498e-001 -7.733197e+000 70 56 27
2.277522e+000 4.577940e-001 -8.371661e+000 93 77 44
2.340038e-001 -1.322350e-001 -8.330036e+000 85 63 90
1.916528e+000 1.283047e-001 -7.825405e+000 70 57 19
1.918343e+000 1.272078e-001 -7.838185e+000 70 57 19
2.899144e+000 -4.473223e-002 -8.727128e+000 119 100 57
2.011416e+000 3.887023e-003 -7.859027e+000 88 75 41
2.381104e+000 -1.849213e-001 -8.149983e+000 62 47 16
1.839462e+000 -2.687256e-001 -7.548198e+000 81 67 32
2.467763e+000 -3.059624e-001 -8.181435e+000 79 63 27
2.467763e+000 -3.059624e-001 -8.181435e+000 79 63 27
-6.858436e-001 -9.328431e-001 -9.515808e+000 67 56 59
1.044192e+000 -3.042143e-001 -6.954098e+000 63 47 88
2.511829e+000 -5.149949e-001 -8.021827e+000 62 46 20
2.669302e+000 -5.454746e-001 -8.152208e+000 70 56 29
2.990584e+000 -5.653203e-001 -8.480495e+000 116 101 60
-1.496670e-001 -1.004804e+000 -8.709039e+000 82 63 82
2.502868e+000 -6.021578e-001 -7.930492e+000 69 54 25
4.209504e+000 -7.320746e-001 -8.694673e+000 159 126 63
-2.403361e-001 7.529643e-001 -9.338203e+000 206 225 209
1.552765e+000 5.142301e-001 -7.667626e+000 77 61 35
1.584392e+000 4.289803e-001 -7.660100e+000 121 107 60
6.723971e-001 -3.369078e-001 -7.540882e+000 202 223 210
2.120414e+000 -3.286355e-001 -7.778185e+000 90 75 44
2.337206e+000 -4.534151e-001 -7.981462e+000 126 105 58
1.973493e+000 -4.727134e-001 -7.582824e+000 126 110 59
-7.247962e-001 2.724524e+000 -1.047123e+001 111 69 51
3.915204e-001 1.259205e+000 -8.333276e+000 204 224 205
1.432973e+000 1.317330e+000 -8.119775e+000 128 107 60
1.533509e-001 1.064482e+000 -8.730097e+000 204 227 206
3.191532e-001 5.656702e-003 -8.234710e+000 204 225 207
4.506760e-001 7.160125e-001 -8.106193e+000 206 227 210
-3.953476e-001 -8.675059e-001 -9.151257e+000 85 71 72
1.571656e+000 1.236652e-002 -7.480819e+000 127 110 66
5.749939e-001 -2.647664e-001 -7.690428e+000 203 226 208
3.128414e-001 1.893064e+000 -8.510843e+000 69 53 58
1.255114e+000 1.836134e+000 -8.219663e+000 127 114 69
2.291875e-002 1.853386e+000 -9.042700e+000 72 61 65
-1.242376e+000 2.097214e+000 -1.106048e+001 173 156 131
-7.884854e-001 1.950009e+000 -1.039665e+001 88 76 71
-2.996896e-001 1.427708e+000 -9.579792e+000 217 219 212
-3.582280e-001 1.388806e+000 -9.686894e+000 214 230 213
-2.617528e-001 1.388064e+000 -9.491438e+000 86 58 55
-7.525896e-001 1.103185e+000 -1.020750e+001 207 218 213
-1.008085e+000 9.240004e-001 -1.048016e+001 201 213 211
-3.189966e-001 8.969154e-001 -9.490072e+000 213 230 219
-2.390814e-001 9.489121e-001 -9.388591e+000 90 60 65
-1.250651e-001 8.846941e-001 -9.183126e+000 202 229 210
-7.378140e-001 5.854779e-001 -1.000605e+001 203 229 215
-4.314582e-001 -8.068590e-001 -9.189641e+000 203 211 208
3.639935e-001 -7.121187e-001 -7.905223e+000 205 208 215
-5.412347e-001 -1.121315e+000 -9.189233e+000 51 40 46
5.491684e-001 -8.186364e-001 -7.617262e+000 67 55 79
6.558985e-001 -8.651392e-001 -7.456553e+000 188 199 202
-8.184065e-001 -1.275660e+000 -9.636357e+000 76 66 67
-5.687395e-001 -1.216578e+000 -9.319128e+000 74 59 64
-6.023306e-001 -1.334804e+000 -9.223169e+000 217 205 209
-8.268239e-001 -1.616172e+000 -9.592763e+000 177 165 170
-7.993033e-001 -1.626085e+000 -9.622853e+000 64 52 66
-1.599487e+000 3.550363e+000 -1.174030e+001 157 127 74
-9.250664e-001 2.884139e+000 -1.076731e+001 137 86 60
2.229868e+000 2.351888e+000 -9.481641e+000 125 112 70
-6.316940e-001 1.745591e+000 -1.014717e+001 216 217 207
2.540644e-001 1.590375e+000 -8.655606e+000 76 53 68
-1.067124e+000 1.630501e+000 -1.074232e+001 81 69 70
3.255284e+000 1.497086e+000 -1.005595e+001 33 18 1
-5.887338e-001 1.371150e+000 -9.968465e+000 77 67 73
2.155109e+000 1.045364e+000 -8.626441e+000 127 113 74
-3.542289e-001 9.600545e-001 -9.511556e+000 88 67 66
4.049167e+000 8.714568e-001 -9.236732e+000 142 110 46
-6.757709e-001 8.471364e-001 -1.004315e+001 94 80 91
3.472484e-001 6.931703e-001 -8.256960e+000 204 228 212
-8.690551e-001 5.071855e-001 -1.015692e+001 201 216 210
-6.301688e-001 2.702584e-001 -9.802742e+000 92 72 70
-7.457328e-001 -1.200909e+000 -9.487920e+000 62 51 50
-2.093024e-001 -9.772716e-001 -8.751382e+000 197 223 216
-1.082897e+000 2.832510e+000 -1.110506e+001 138 86 65
2.627283e+000 2.358230e+000 -9.807065e+000 96 82 48
-1.059195e+000 2.443395e+000 -1.091631e+001 191 167 121
1.878953e+000 2.002212e+000 -9.123883e+000 119 103 69
1.953375e+000 1.964509e+000 -9.138483e+000 118 104 65
2.387204e+000 1.986514e+000 -9.528401e+000 85 71 34
2.387204e+000 1.986514e+000 -9.528401e+000 85 71 34
2.337609e+000 1.810068e+000 -9.415004e+000 127 113 71
2.832904e+000 1.970200e+000 -9.839775e+000 119 106 65
2.922886e-002 1.687917e+000 -9.049950e+000 206 222 209
-1.697894e-001 1.523155e+000 -9.371311e+000 208 220 208
1.412978e+000 1.186846e+000 -7.988558e+000 124 110 63
2.966180e+000 1.441674e+000 -9.821166e+000 62 44 20
3.036811e+000 1.478394e+000 -9.896179e+000 116 95 66
3.207468e+000 1.521880e+000 -1.005525e+001 43 32 10
-5.678747e-001 1.202638e+000 -9.956766e+000 204 227 213
1.834183e+000 5.632645e-001 -7.993198e+000 130 115 72
1.978743e+000 3.780860e-001 -8.034062e+000 125 110 67
2.107896e+000 2.407388e-001 -8.104567e+000 129 111 63
2.648777e+000 2.194624e-001 -8.661633e+000 123 107 71
2.718669e+000 1.990576e-001 -8.732240e+000 123 106 62
2.808534e+000 -1.166079e-001 -8.646206e+000 122 107 68
3.369955e+000 -4.777311e-001 -8.981584e+000 68 51 23
-3.055063e-001 -9.032222e-001 -8.956564e+000 93 64 65
3.699962e+000 -9.007664e-001 -9.177723e+000 80 64 47
-5.876505e-001 -1.186952e+000 -9.250249e+000 206 218 209
-4.932110e-001 -1.118632e+000 -9.136639e+000 204 220 213
-1.266160e+000 3.260079e+000 -1.127688e+001 151 114 66
1.895147e+000 2.155939e+000 -9.172641e+000 91 76 46
-3.627947e-001 2.160009e+000 -9.776739e+000 212 222 213
2.090200e+000 1.905642e+000 -9.245836e+000 82 66 34
2.748794e+000 2.093609e+000 -9.837919e+000 128 111 68
4.904949e-002 1.738777e+000 -9.035686e+000 81 75 76
3.010474e+000 1.769486e+000 -9.913494e+000 62 51 23
1.616860e-001 1.294680e+000 -8.717781e+000 206 222 209
-1.120676e+000 8.937341e-001 -1.057413e+001 87 72 85
3.130183e+000 6.870831e-001 -9.444819e+000 47 41 26
-1.070649e+000 6.575431e-001 -1.049339e+001 199 218 207
1.993261e-001 5.945515e-001 -8.474702e+000 88 70 80
-1.718224e+001 1.155444e+000 -6.631562e+001 201 54 72
1.688208e+000 4.439372e-001 -7.791531e+000 119 105 65
-8.477300e-001 3.385321e-001 -1.016712e+001 203 225 214
4.347943e+000 3.274150e-001 -8.745245e+000 214 187 99
1.756820e+000 1.666332e-001 -7.677056e+000 75 63 31
1.758218e+000 1.669650e-001 -7.682479e+000 75 63 31
1.787472e+000 -1.560103e-001 -7.580921e+000 74 61 29
2.105241e+000 -2.316049e-001 -7.843527e+000 75 56 21
3.082399e+000 -5.795352e-001 -8.564274e+000 121 102 62
3.360861e+000 -6.460997e-001 -8.854448e+000 108 93 62
4.435891e+000 -5.553015e-001 -8.467787e+000 203 184 92
1.102264e+000 -1.380428e+000 -6.714955e+000 69 61 100
-1.539044e+000 3.208154e+000 -1.168489e+001 95 60 42
-1.539044e+000 3.208154e+000 -1.168489e+001 95 60 42
-1.763032e+000 3.152618e+000 -1.193879e+001 151 122 80
-1.687405e+000 3.237301e+000 -1.185237e+001 150 121 78
-8.747522e-001 2.457099e+000 -1.067141e+001 137 69 63
-5.837265e-002 1.670148e+000 -9.205532e+000 80 68 72
2.937699e+000 1.662627e+000 -9.871421e+000 72 56 30
3.798964e-001 1.156937e+000 -8.340835e+000 78 67 75
9.229936e-002 1.022442e+000 -8.822565e+000 205 226 211
4.471375e-001 6.308316e-001 -8.091530e+000 88 71 87
1.872879e-001 4.866868e-001 -8.538676e+000 205 226 207
4.174280e+000 5.231212e-001 -9.047381e+000 192 165 86
-7.167221e-001 4.048859e-001 -9.991917e+000 198 228 206
3.405859e+000 3.582165e-001 -9.512653e+000 97 81 55
1.917249e+000 1.341990e-001 -7.868707e+000 75 57 28
2.903799e+000 -1.280590e-001 -8.728609e+000 118 103 62
-5.171795e-001 -6.136569e-001 -9.307998e+000 204 229 211
2.405779e+000 -4.933955e-001 -7.988856e+000 74 64 33
4.216889e+000 -5.049036e-001 -8.721662e+000 139 110 46
2.270410e+000 -5.628148e-001 -7.778387e+000 78 62 33
2.958997e+000 -6.940370e-001 -8.359773e+000 94 80 48
3.311441e+000 -7.913391e-001 -8.741433e+000 56 36 12
3.230883e+000 -8.193790e-001 -8.651310e+000 102 87 46
6.615593e-001 -8.142836e-001 -7.461280e+000 84 66 88
-1.469052e+000 3.293800e+000 -1.161290e+001 102 65 49
-1.472065e+000 3.298817e+000 -1.162551e+001 102 65 49
-1.390854e+000 2.253213e+000 -1.121258e+001 171 139 93
-5.027983e-001 1.242325e+000 -9.895905e+000 99 72 85
-2.258205e+001 1.197574e+000 -6.277845e+001 178 34 47
-5.492735e-001 2.323355e-001 -9.710769e+000 209 225 212
5.011357e-001 2.744631e-001 -7.902673e+000 103 71 96
-6.585133e-001 1.966980e-001 -9.842958e+000 204 228 210
6.209405e-001 -2.257483e-002 -7.763830e+000 197 225 207
2.252106e-001 -1.302749e-001 -8.342328e+000 78 58 85
-1.346235e-001 -7.300530e-001 -8.746185e+000 78 64 81
-1.470924e-001 -1.008972e+000 -8.655000e+000 78 65 80
-1.151420e+000 2.957136e+000 -1.111136e+001 94 65 51
-6.654818e-001 1.627600e+000 -1.024050e+001 89 74 93
-1.323235e-001 9.873204e-001 -9.141797e+000 120 79 85
-2.022146e-001 8.619847e-001 -9.259449e+000 86 65 67
3.774862e-001 7.011998e-001 -8.208290e+000 205 226 209
4.817805e-001 7.226489e-001 -8.048029e+000 204 226 207
-1.787447e+001 2.000225e+000 -6.744669e+001 174 38 52
4.299573e+000 1.814383e-001 -8.719072e+000 175 140 62
-5.877911e-001 2.189245e+000 -1.011533e+001 93 71 74
1.519973e+000 1.158526e+000 -8.071195e+000 121 115 81
2.411375e-001 8.393249e-002 -8.273807e+000 81 65 92
2.601637e-001 -6.735702e-001 -8.024976e+000 96 69 104
5.215690e-001 -7.003296e-001 -7.644054e+000 70 53 89
1.298907e+000 1.374694e+000 -8.019648e+000 131 114 71
4.251052e+000 6.917970e-001 -8.929463e+000 211 186 96
3.941404e-001 -1.102115e-001 -8.107617e+000 81 60 96
3.477399e+000 -4.948632e-001 -9.091716e+000 68 51 25
-7.088915e-001 -8.867315e-001 -9.483720e+000 63 54 58
-8.184309e-001 1.380768e+000 -1.041838e+001 77 61 79
3.654054e+000 -7.971688e-001 -9.034091e+000 51 34 18
-7.099063e-001 2.960881e+000 -1.053366e+001 199 154 105
-6.660373e-001 2.786805e+000 -1.041254e+001 141 89 65
-1.672258e+000 2.832280e+000 -1.177900e+001 93 73 87
-4.899200e-001 2.526144e+000 -1.010358e+001 133 91 66
1.810787e+000 2.281901e+000 -9.172937e+000 123 109 69
-1.482731e+000 2.357869e+000 -1.147172e+001 169 137 93
-9.891376e-001 2.261698e+000 -1.076391e+001 199 182 138
2.341535e+000 2.127658e+000 -9.494247e+000 124 110 65
-5.358793e-001 1.970137e+000 -1.006190e+001 92 60 70
1.957519e+000 1.938195e+000 -9.157436e+000 124 111 71
-8.743906e-001 1.611983e+000 -1.046328e+001 84 68 70
-3.104690e+001 2.675798e+000 -7.549547e+001 104 63 57
-8.673407e-001 5.055254e-001 -1.015158e+001 211 227 223
4.136176e+000 4.355036e-001 -9.070145e+000 134 106 41
1.879576e+000 -1.768538e-001 -7.642547e+000 104 91 57
-1.261059e+000 2.738183e+000 -1.119757e+001 95 61 52
-8.569420e-001 1.855557e+000 -1.048197e+001 80 75 72
3.066689e+000 1.367410e+000 -9.827516e+000 102 81 54
-6.943932e-002 -5.360842e-001 -8.676506e+000 211 225 217
4.249052e+000 -3.954089e-001 -8.647176e+000 141 118 42
2.256722e+000 -5.240639e-001 -7.767056e+000 128 111 67
3.664922e-001 -7.100519e-001 -7.897213e+000 187 198 199
6.894203e-001 -9.148022e-001 -7.417938e+000 172 171 182
-6.883560e-001 2.858023e+000 -1.043894e+001 130 76 52
-8.593875e-001 2.431044e+000 -1.062300e+001 123 62 48
1.565437e+000 2.098302e+000 -8.874070e+000 90 76 38
2.030102e+000 1.973756e+000 -9.231416e+000 119 104 62
1.489738e+000 1.696862e+000 -8.469374e+000 132 109 70
1.904793e+000 1.593659e+000 -8.853490e+000 122 109 64
1.643586e+000 7.100738e-001 -7.846141e+000 79 64 30
1.601299e+000 4.717085e-001 -7.695867e+000 66 51 20
1.868658e+000 -1.051718e-001 -7.673371e+000 82 67 29
7.102438e-001 -2.957361e-001 -7.498885e+000 69 57 84
2.055965e+000 -2.255804e-001 -7.803052e+000 117 103 58
2.074071e+000 -3.553490e-001 -7.717076e+000 123 108 65
7.285039e-001 -4.488810e-001 -7.424502e+000 174 179 182
2.458001e+000 -4.743408e-001 -8.017532e+000 122 105 58
1.830638e+000 2.823750e+000 -9.496414e+000 123 108 69
1.752203e+000 2.784863e+000 -9.427047e+000 85 72 37
2.195939e+000 2.637074e+000 -9.628588e+000 91 75 42
1.826651e+000 2.368412e+000 -9.235584e+000 79 66 32
1.884196e+000 2.358262e+000 -9.284018e+000 97 82 51
-1.520496e+000 2.545003e+000 -1.154336e+001 80 63 75
2.654673e+000 2.418943e+000 -9.868810e+000 132 114 74
-2.545805e+001 9.061606e+000 -6.775401e+001 132 95 146
1.843064e+000 2.154820e+000 -9.132697e+000 74 59 28
2.272631e+000 2.098309e+000 -9.434029e+000 78 63 24
2.417267e+000 1.849976e+000 -9.472915e+000 76 61 28
2.417267e+000 1.849976e+000 -9.472915e+000 76 61 28
2.474229e+000 1.789035e+000 -9.519319e+000 122 107 66
3.230764e+000 1.669463e+000 -1.003902e+001 92 72 47
-5.773959e-001 1.205261e+000 -9.960035e+000 202 229 208
-1.795588e+001 -1.767620e-001 -6.498638e+001 151 57 57
-1.684021e+001 -1.440343e-001 -6.596210e+001 179 97 97
1.733821e+000 7.501092e-001 -7.959502e+000 125 107 59
4.119904e+000 6.083201e-001 -8.996891e+000 190 162 81
6.556373e-001 -6.792832e-001 -7.453299e+000 79 61 86
-6.692042e-003 9.524223e-001 -8.980447e+000 204 227 206
-6.692042e-003 9.524223e-001 -8.980447e+000 204 227 206
1.843688e+000 7.600761e-001 -8.067511e+000 91 73 37
-8.025068e-001 -1.016212e+000 -9.684444e+000 72 58 60
-2.342518e+001 -2.812042e+000 -6.568165e+001 32 24 44
7.265262e-001 -6.496505e-001 -7.336451e+000 132 138 149
7.243014e-001 -6.508682e-001 -7.365402e+000 132 138 149
-3.233486e+001 -3.547059e+000 -7.485137e+001 56 34 32
-8.986970e-001 2.991195e+000 -1.082463e+001 174 120 93
-1.223778e+000 2.850884e+000 -1.132073e+001 101 67 53
-8.270388e-001 2.775273e+000 -1.066215e+001 184 137 107
-6.101630e-001 2.740476e+000 -1.034012e+001 180 143 93
-8.225347e-001 2.616967e+000 -1.063755e+001 186 138 99
-4.772559e-001 2.593251e+000 -1.014984e+001 119 86 54
-4.492216e-001 2.559705e+000 -1.006377e+001 205 174 148
-1.234438e+000 2.374224e+000 -1.109276e+001 171 136 82
-2.626863e-001 2.345886e+000 -9.686193e+000 70 43 46
-4.705041e-001 2.208329e+000 -9.986399e+000 205 195 193
-4.705041e-001 2.208329e+000 -9.986399e+000 205 195 193
1.882619e+000 2.299239e+000 -9.310249e+000 127 108 75
1.789021e-001 2.001954e+000 -8.821770e+000 96 80 90
-2.098309e-001 2.914127e-001 -9.092546e+000 203 217 209
2.001713e+000 4.037790e-001 -7.991344e+000 86 64 25
2.743770e-001 -2.731052e-001 -8.248275e+000 80 66 84
5.453187e-001 -5.032818e-001 -7.652051e+000 76 61 90
-8.065954e-001 -1.603056e+000 -9.534077e+000 180 178 183
-3.066909e-001 2.848292e+000 -9.905534e+000 183 138 73
-2.104933e-001 2.875407e+000 -9.635752e+000 206 168 103
-1.593236e+000 2.725433e+000 -1.148102e+001 98 75 93
2.511413e+000 2.715042e+000 -1.003050e+001 131 108 74
2.561567e+000 2.746411e+000 -1.013127e+001 90 67 36
-9.439618e-001 2.360188e+000 -1.073931e+001 144 82 57
2.659757e+000 2.545691e+000 -1.007961e+001 91 68 37
2.900559e+000 2.536790e+000 -1.032104e+001 121 102 70
1.621252e+000 2.329263e+000 -9.102518e+000 121 104 61
4.001919e+000 2.276973e+000 -9.787121e+000 176 144 61
1.736432e+000 2.069466e+000 -9.058750e+000 119 99 64
-5.751525e-001 1.740178e+000 -1.006890e+001 76 58 70
-6.084563e-002 1.802018e+000 -9.238853e+000 76 62 65
1.697660e+000 1.838895e+000 -8.839849e+000 135 116 76
-5.454766e-001 1.312312e+000 -9.925847e+000 208 211 208
3.157122e+000 1.290906e+000 -9.852854e+000 104 85 55
4.103294e+000 7.650829e-001 -9.081453e+000 195 159 85
3.462082e+000 3.443597e-001 -9.528847e+000 88 70 49
4.112585e+000 1.588157e-001 -8.877119e+000 179 142 74
1.550447e+000 1.787190e-001 -7.397625e+000 123 104 62
1.762823e-001 -4.602062e-001 -8.248818e+000 90 53 78
-2.600874e-001 -8.186865e-001 -8.784295e+000 208 212 209
-2.274550e-001 -8.032584e-001 -8.777943e+000 75 58 61
3.038048e+000 -4.020635e-001 -8.584594e+000 115 96 58
2.757184e+000 -5.298992e-001 -8.215001e+000 71 50 23
2.496356e-002 -8.705403e-001 -8.301397e+000 204 197 204
2.866906e+000 -5.950293e-001 -8.265265e+000 122 104 65
-2.933800e-001 2.989964e+000 -9.810836e+000 208 168 109
2.104855e+000 3.215183e+000 -1.002065e+001 126 110 67
2.150593e+000 3.195890e+000 -9.965333e+000 118 103 66
2.101669e+000 3.150313e+000 -9.871871e+000 80 69 37
2.149179e+000 3.106435e+000 -9.973043e+000 119 102 60
2.273558e+000 3.167644e+000 -1.005237e+001 125 113 74
2.297370e+000 3.181206e+000 -1.017088e+001 125 113 74
2.666186e+000 3.224064e+000 -1.049237e+001 73 58 29
1.187361e+000 2.772636e+000 -8.863156e+000 125 106 66
1.187361e+000 2.772636e+000 -8.863156e+000 125 106 66
2.670242e+000 3.089417e+000 -1.041046e+001 122 105 69
2.907707e+000 3.082668e+000 -1.063496e+001 63 55 36
1.967962e+000 2.709475e+000 -9.569980e+000 119 99 62
1.548492e+000 2.561870e+000 -9.176922e+000 124 107 70
1.613433e+000 2.550897e+000 -9.229216e+000 126 108 71
1.759293e+000 2.526048e+000 -9.288075e+000 125 109 70
1.824398e+000 2.520091e+000 -9.335722e+000 118 102 66
1.981327e+000 2.609699e+000 -9.545489e+000 127 109 71
2.188579e+000 2.697454e+000 -9.760211e+000 124 106 70
2.309222e+000 2.565571e+000 -9.692392e+000 125 110 69
2.299993e+000 2.465696e+000 -9.691375e+000 124 106 67
2.423634e+000 2.446998e+000 -9.770584e+000 122 104 66
2.423634e+000 2.446998e+000 -9.770584e+000 122 104 66
-1.342781e+000 2.102783e+000 -1.116139e+001 96 67 67
2.383018e+000 2.348071e+000 -9.679055e+000 120 101 61
2.773611e+000 2.431547e+000 -1.008955e+001 82 61 30
2.858244e+000 2.408453e+000 -1.015175e+001 83 63 32
1.799856e+000 2.112029e+000 -9.088653e+000 125 107 67
1.516459e+000 2.022548e+000 -8.787469e+000 79 58 21
1.542040e+000 2.058685e+000 -8.823736e+000 124 103 62
1.544189e+000 2.058739e+000 -8.830160e+000 124 103 62
3.104253e+000 2.126817e+000 -1.014107e+001 112 91 62
1.980827e+000 1.909211e+000 -9.206509e+000 122 104 64
2.271504e-001 1.617213e+000 -8.666877e+000 212 226 208
-1.899659e-001 1.462177e+000 -9.352413e+000 95 66 82
2.001124e+000 1.568726e+000 -8.964495e+000 118 99 59
3.927997e+000 1.799835e+000 -9.635329e+000 191 159 83
4.074042e+000 1.786151e+000 -9.554100e+000 177 135 62
4.064924e+000 1.720949e+000 -9.352556e+000 213 172 93
1.963221e+000 1.431021e+000 -8.776475e+000 119 102 59
2.407856e+000 1.427254e+000 -9.235164e+000 119 99 62
3.957364e+000 1.536840e+000 -9.457047e+000 190 154 78
2.952376e+000 1.386683e+000 -9.749064e+000 113 92 63
3.942713e+000 1.496092e+000 -9.481423e+000 153 113 46
-6.923159e-001 8.878858e-001 -9.994826e+000 214 225 217
1.652463e-003 9.912665e-001 -8.847276e+000 202 224 205
1.762770e+000 1.203466e+000 -8.353410e+000 126 106 69
2.980597e+000 1.157522e+000 -9.517170e+000 123 103 70
3.954888e+000 1.378912e+000 -9.423780e+000 153 110 48
2.991670e+000 1.064981e+000 -9.470364e+000 111 91 56
3.111191e+000 1.032116e+000 -9.601072e+000 117 93 65
4.265305e+000 1.230781e+000 -9.027108e+000 188 151 70
2.310390e+000 7.044791e-001 -8.548218e+000 132 112 63
3.408117e+000 -3.662126e-002 -9.233470e+000 99 77 46
1.083727e-001 -4.033686e-001 -8.400849e+000 203 219 208
-6.978917e-001 -1.033820e+000 -9.436851e+000 66 56 60
4.303692e+000 -1.705966e-001 -8.725288e+000 156 122 48
1.998432e+000 -2.442433e-001 -7.688493e+000 122 103 63
2.214030e+000 -2.508293e-001 -7.911714e+000 134 113 68
-4.651891e-001 -1.053954e+000 -9.020554e+000 211 221 216
4.129784e-001 -8.328814e-001 -7.736252e+000 66 48 73
-9.849020e-003 2.917593e+000 -9.271438e+000 92 64 57
1.051679e+000 2.970999e+000 -8.835655e+000 83 63 26
1.650033e+000 3.110076e+000 -9.544525e+000 59 54 38
1.655026e+000 3.117828e+000 -9.616507e+000 59 54 38
-3.449892e-001 2.872590e+000 -9.892695e+000 202 177 117
1.151164e+000 2.936629e+000 -8.929590e+000 81 61 28
1.326795e+000 2.882368e+000 -9.136464e+000 93 75 39
1.326795e+000 2.882368e+000 -9.136464e+000 93 75 39
2.410997e+000 3.142763e+000 -1.023301e+001 121 104 65
3.828624e+000 3.218128e+000 -1.021455e+001 167 127 55
1.372865e+000 2.762483e+000 -9.119886e+000 74 56 20
1.372865e+000 2.762483e+000 -9.119886e+000 74 56 20
1.560686e+000 2.877545e+000 -9.411450e+000 119 100 59
2.848237e+000 2.986591e+000 -1.048664e+001 69 55 37
1.207144e+000 2.660506e+000 -8.823727e+000 128 100 61
1.297574e+000 2.679316e+000 -8.943815e+000 86 64 27
1.491847e+000 2.733174e+000 -9.231116e+000 78 60 25
1.433044e+000 2.644786e+000 -9.128800e+000 85 64 34
2.242555e+000 2.736651e+000 -9.782586e+000 93 73 38
3.897111e+000 2.860657e+000 -9.987412e+000 194 159 79
3.897111e+000 2.860657e+000 -9.987412e+000 194 159 79
-1.331175e+000 2.460582e+000 -1.126819e+001 102 69 38
1.408831e+000 2.547202e+000 -9.019560e+000 65 48 18
1.408831e+000 2.547202e+000 -9.019560e+000 65 48 18
1.945839e+000 2.658164e+000 -9.514009e+000 68 52 19
2.075851e+000 2.682778e+000 -9.612584e+000 127 105 69
2.020422e+000 2.601176e+000 -9.521778e+000 118 99 61
2.262118e+000 2.680658e+000 -9.774301e+000 123 105 68
2.262118e+000 2.680658e+000 -9.774301e+000 123 105 68
2.410142e+000 2.605216e+000 -9.840503e+000 83 67 33
2.908004e+000 2.817166e+000 -1.057654e+001 110 90 59
2.895105e+000 2.811942e+000 -1.051239e+001 110 90 59
3.940332e+000 2.821724e+000 -9.971784e+000 173 131 57
1.367895e+000 2.354701e+000 -8.829024e+000 81 65 32
1.853757e+000 2.414254e+000 -9.328995e+000 122 104 67
1.853757e+000 2.414254e+000 -9.328995e+000 122 104 67
1.966812e+000 2.402713e+000 -9.419383e+000 124 106 66
3.932911e+000 2.615762e+000 -1.014886e+001 157 120 46
-1.235789e+000 2.182911e+000 -1.105523e+001 122 85 60
-1.242494e+000 2.183595e+000 -1.109693e+001 122 85 60
-3.295997e-001 2.219845e+000 -9.784037e+000 85 69 74
1.280200e+000 2.283538e+000 -8.701924e+000 77 61 28
1.361624e+000 2.197067e+000 -8.707055e+000 124 103 62
1.468547e+000 2.227001e+000 -8.851251e+000 77 61 35
1.472411e+000 2.227290e+000 -8.868928e+000 77 61 35
2.657067e+000 2.360534e+000 -9.883234e+000 80 65 26
1.479721e+000 2.127204e+000 -8.791020e+000 89 68 37
1.609024e+000 2.139816e+000 -8.979859e+000 126 103 61
2.693333e+000 2.247796e+000 -9.808310e+000 84 63 32
2.693333e+000 2.247796e+000 -9.808310e+000 84 63 32
1.374544e-001 1.957007e+000 -8.910566e+000 210 218 205
1.462426e+000 1.996141e+000 -8.678981e+000 125 102 61
1.687916e+000 2.066811e+000 -8.992910e+000 86 68 32
1.545838e+000 1.962069e+000 -8.778162e+000 126 107 66
1.646798e+000 1.984350e+000 -8.916518e+000 81 65 31
2.529323e+000 2.059176e+000 -9.633315e+000 81 61 30
2.529323e+000 2.059176e+000 -9.633315e+000 81 61 30
2.489346e+000 2.008266e+000 -9.567702e+000 125 106 67
2.624408e+000 2.102159e+000 -9.754535e+000 121 101 64
2.624408e+000 2.102159e+000 -9.754535e+000 121 101 64
2.891864e+000 2.161056e+000 -9.969780e+000 121 96 65
3.020565e+000 2.090996e+000 -1.002403e+001 79 57 30
1.881481e+000 1.878971e+000 -9.071480e+000 118 103 59
2.225381e+000 1.935339e+000 -9.354194e+000 115 95 58
2.225381e+000 1.935339e+000 -9.354194e+000 115 95 58
3.931239e+000 2.000975e+000 -9.788020e+000 179 151 77
1.315740e+000 1.748891e+000 -8.308738e+000 124 106 60
1.897013e+000 1.777924e+000 -9.038252e+000 131 108 66
2.524945e+000 1.781636e+000 -9.555352e+000 116 98 59
3.036182e+000 1.813633e+000 -9.967497e+000 114 94 61
3.193419e+000 1.788006e+000 -1.005787e+001 115 97 67
3.844209e+000 1.862372e+000 -9.769740e+000 162 126 65
2.189068e+000 1.427503e+000 -9.031417e+000 55 39 8
2.189068e+000 1.427503e+000 -9.031417e+000 55 39 8
2.390029e+000 1.529989e+000 -9.334447e+000 77 60 34
2.500284e+000 1.512590e+000 -9.410940e+000 67 43 15
2.666397e+000 1.534556e+000 -9.589118e+000 122 101 60
2.662330e+000 1.534794e+000 -9.581971e+000 122 101 60
2.913831e+000 1.490886e+000 -9.774472e+000 113 95 60
2.913831e+000 1.490886e+000 -9.774472e+000 113 95 60
3.265245e+000 1.428241e+000 -1.013148e+001 78 61 42
3.292731e+000 1.531677e+000 -9.907376e+000 64 45 26
4.062187e+000 1.670602e+000 -9.414305e+000 181 137 62
2.069446e+000 1.406883e+000 -8.851982e+000 116 98 62
2.159069e+000 1.389786e+000 -8.945853e+000 127 108 66
2.236235e+000 1.333825e+000 -8.976973e+000 88 68 34
2.389889e+000 1.387316e+000 -9.194975e+000 64 45 21
2.559373e+000 1.359994e+000 -9.312437e+000 64 45 12
2.642911e+000 1.299845e+000 -9.365524e+000 118 98 63
2.642911e+000 1.299845e+000 -9.365524e+000 118 98 63
2.872393e+000 1.302202e+000 -9.593318e+000 79 59 30
-2.774365e-001 9.355582e-001 -9.347057e+000 214 226 214
1.699126e+000 1.300813e+000 -8.384424e+000 125 103 64
1.848253e+000 1.273186e+000 -8.535136e+000 125 101 63
1.848253e+000 1.273186e+000 -8.535136e+000 125 101 63
2.893552e+000 1.215588e+000 -9.508058e+000 68 49 21
2.765308e+000 1.196336e+000 -9.357920e+000 121 101 60
3.148785e+000 1.250878e+000 -9.828828e+000 61 43 19
-7.864366e-003 9.710772e-001 -8.932949e+000 208 229 206
1.476349e+000 1.167822e+000 -8.038828e+000 120 102 58
1.478885e+000 1.128431e+000 -7.975286e+000 92 81 61
2.156860e+000 1.079534e+000 -8.644531e+000 74 67 41
2.854521e+000 1.132767e+000 -9.383219e+000 67 47 23
3.195090e+000 1.013993e+000 -9.663562e+000 103 83 55
4.035593e+000 1.201151e+000 -9.362853e+000 201 168 92
2.096073e+000 1.053784e+000 -8.556918e+000 122 105 59
2.145343e+000 1.039422e+000 -8.589814e+000 123 105 62
2.367100e+000 9.948077e-001 -8.776741e+000 136 117 75
2.493004e+000 9.698150e-001 -8.902130e+000 129 112 68
4.089013e+000 1.085034e+000 -9.241765e+000 162 128 54
-8.362178e-001 3.445399e-001 -1.007924e+001 206 229 215
2.360987e+000 9.047181e-001 -8.696077e+000 132 115 71
2.004171e-001 5.860644e-001 -8.503900e+000 87 63 82
2.459680e+000 6.768324e-001 -8.680920e+000 126 106 68
2.859893e+000 6.857630e-001 -9.101243e+000 126 96 62
3.229806e+000 6.511088e-001 -9.476503e+000 64 51 34
2.497370e+000 5.626299e-001 -8.663416e+000 129 110 68
3.008671e+000 5.517732e-001 -9.163574e+000 121 99 60
3.303710e+000 4.814331e-001 -9.451867e+000 107 83 56
4.121617e+000 4.686957e-001 -9.045182e+000 151 117 49
4.180170e+000 5.852898e-001 -8.891557e+000 204 174 89
-2.242276e-001 -6.795756e-002 -9.077952e+000 212 226 212
1.662668e+000 4.552747e-001 -7.699885e+000 124 102 61
2.328511e+000 3.991203e-001 -8.389938e+000 131 111 68
2.129463e+000 3.427263e-001 -8.141110e+000 135 114 71
3.039051e+000 1.322243e-001 -8.977693e+000 112 89 55
3.118613e+000 1.224025e-001 -9.041007e+000 118 96 59
3.118613e+000 1.224025e-001 -9.041007e+000 118 96 59
4.152369e+000 2.994675e-001 -8.976544e+000 156 121 56
2.174234e+000 1.190183e-001 -8.090864e+000 129 108 63
3.034297e+000 4.127811e-002 -8.887862e+000 116 92 56
2.698407e+000 -9.182743e-002 -8.481580e+000 123 102 60
3.072714e+000 -1.259815e-001 -8.863791e+000 59 41 17
9.981504e-002 -5.309508e-001 -8.372414e+000 125 71 102
1.905042e+000 -1.292779e-001 -7.689792e+000 127 108 64
2.978980e+000 -3.607690e-001 -8.637512e+000 125 106 66
2.956698e+000 -3.367062e-001 -8.572212e+000 125 106 66
3.322552e+000 -4.083946e-001 -8.877260e+000 102 78 51
7.155394e-001 -2.640635e-001 -7.451038e+000 83 68 101
3.315282e+000 -5.161906e-001 -8.829517e+000 113 93 60
5.073744e-001 -4.683820e-001 -7.700375e+000 71 58 80
3.645737e+000 -8.982198e-001 -9.034714e+000 73 55 41
1.747358e+000 3.093220e+000 -9.610821e+000 70 70 60
3.964760e+000 3.342197e+000 -9.945120e+000 176 142 56
1.169676e+000 2.829968e+000 -8.887510e+000 89 66 32
1.472727e+000 2.937022e+000 -9.282593e+000 90 70 33
1.986608e+000 3.080953e+000 -9.798916e+000 65 62 45
8.623052e-002 2.668548e+000 -9.024703e+000 80 59 57
1.197967e+000 2.718234e+000 -8.851722e+000 80 57 27
1.626353e+000 2.910507e+000 -9.446594e+000 73 55 20
1.759239e+000 2.895309e+000 -9.553166e+000 83 66 33
3.868889e+000 3.140414e+000 -1.018176e+001 190 159 79
4.098930e+000 2.991786e+000 -9.973429e+000 210 179 89
-1.501965e+000 2.529373e+000 -1.145445e+001 80 63 78
-7.352705e-001 2.487281e+000 -1.047069e+001 185 114 78
1.819026e+000 2.573400e+000 -9.414466e+000 68 52 19
2.282399e+000 2.517141e+000 -9.667589e+000 75 55 22
-3.838341e-001 2.176537e+000 -9.857549e+000 211 220 203
1.512961e+000 2.273322e+000 -8.964433e+000 126 103 61
2.037117e+000 2.374695e+000 -9.393643e+000 125 107 67
1.851378e+000 2.152132e+000 -9.146849e+000 64 49 18
2.057658e+000 2.230014e+000 -9.364034e+000 99 80 47
2.183706e+000 2.000256e+000 -9.334228e+000 93 74 40
3.882581e+000 2.202961e+000 -9.837197e+000 187 155 80
4.900411e-002 1.742026e+000 -9.023670e+000 83 79 83
2.452374e+000 1.901243e+000 -9.513521e+000 129 110 68
2.620801e+000 1.932263e+000 -9.658564e+000 71 54 24
2.615018e+000 1.933575e+000 -9.628827e+000 71 54 24
2.941628e+000 1.996767e+000 -9.902294e+000 73 54 24
3.898369e+000 2.084301e+000 -9.775617e+000 184 153 80
-1.813353e+001 -2.161778e+000 -6.494049e+001 164 33 38
1.518077e+000 1.731399e+000 -8.537548e+000 85 69 43
2.496584e+000 1.841557e+000 -9.522205e+000 85 69 33
2.844532e+000 1.782525e+000 -9.784040e+000 83 67 42
4.093256e+000 1.900963e+000 -9.389200e+000 185 146 70
-4.872826e-001 1.223832e+000 -9.831410e+000 107 71 93
-4.790436e-001 1.233333e+000 -9.770580e+000 107 71 93
1.807774e+000 1.465666e+000 -8.670697e+000 133 110 66
2.038033e+000 1.455374e+000 -8.889628e+000 82 63 33
2.306861e+000 1.552474e+000 -9.254430e+000 73 56 30
-4.521544e-001 1.112739e+000 -9.657677e+000 117 73 98
1.483602e+000 1.399826e+000 -8.235887e+000 79 60 35
1.483602e+000 1.399826e+000 -8.235887e+000 79 60 35
1.816377e+000 1.412647e+000 -8.625477e+000 85 70 38
3.311798e+000 1.338720e+000 -1.002570e+001 92 71 51
3.724205e-001 1.151501e+000 -8.359809e+000 86 72 77
3.750209e-001 1.158420e+000 -8.316958e+000 86 72 77
1.663229e+000 1.264629e+000 -8.309680e+000 70 54 21
2.036030e+000 1.194128e+000 -8.623879e+000 112 94 58
2.036030e+000 1.194128e+000 -8.623879e+000 112 94 58
4.046047e+000 1.344107e+000 -9.434027e+000 166 126 56
4.035596e+000 1.261814e+000 -9.426414e+000 192 156 80
1.722310e+000 1.164256e+000 -8.286093e+000 60 56 30
2.086690e+000 1.142210e+000 -8.625676e+000 124 101 62
1.999080e+000 1.118870e+000 -8.484641e+000 80 72 49
1.999080e+000 1.118870e+000 -8.484641e+000 80 72 49
2.225659e+000 1.153334e+000 -8.774546e+000 65 50 24
2.701829e+000 1.060524e+000 -9.182660e+000 65 48 22
-2.489786e-001 6.598066e-001 -9.295348e+000 84 74 72
-2.489786e-001 6.598066e-001 -9.295348e+000 84 74 72
1.582707e+000 1.008951e+000 -8.003852e+000 71 66 47
1.726095e+000 1.034718e+000 -8.157760e+000 129 112 71
1.701099e+000 9.910468e-001 -8.077644e+000 61 62 37
1.904623e+000 1.044690e+000 -8.322869e+000 59 60 36
1.853428e+000 9.604117e-001 -8.218583e+000 86 78 49
2.212958e+000 1.027887e+000 -8.664041e+000 128 106 64
3.056574e+000 9.943275e-001 -9.501339e+000 73 59 33
4.105485e-001 7.874898e-001 -8.145936e+000 81 69 80
1.776045e+000 9.264283e-001 -8.141040e+000 137 114 73
1.772233e+000 9.313075e-001 -8.120696e+000 137 114 73
1.920586e+000 8.456290e-001 -8.205566e+000 80 63 25
2.128138e+000 9.046847e-001 -8.455294e+000 66 69 41
2.688975e+000 8.798043e-001 -9.030260e+000 72 67 41
2.689574e+000 8.768590e-001 -9.042097e+000 72 67 41
3.026559e+000 7.989991e-001 -9.353141e+000 90 80 54
1.771639e+000 7.753817e-001 -8.039846e+000 78 63 34
2.017901e+000 8.221898e-001 -8.308839e+000 86 67 35
2.095958e+000 7.143948e-001 -8.312525e+000 89 69 37
2.363141e+000 7.534297e-001 -8.608279e+000 82 62 29
