ply
format ascii 1.0
element face 0
property list uchar int vertex_indices
element vertex 878
property float x
property float y
property float z
property uchar diffuse_red
property uchar diffuse_green
property uchar diffuse_blue
end_header
-1.780285e-001 -3.261050e-001 -8.933769e+000 208 227 211
-6.742216e-002 -4.452089e-001 -8.673961e+000 103 68 88
3.555319e+000 -9.626608e-001 -8.983089e+000 100 79 59
1.288625e+000 -1.541091e+000 -6.657450e+000 63 59 94
-5.497282e-001 -1.121499e+000 -9.265168e+000 216 207 208
2.460498e+000 -2.362278e+000 -6.663508e+000 109 78 59
8.460004e-001 -2.291067e+000 -7.140816e+000 44 31 49
-1.977568e+000 4.373393e+000 -1.252136e+001 173 164 157
-1.374866e+000 3.461810e+000 -1.159013e+001 97 60 46
-1.377572e+000 2.258354e+000 -1.126439e+001 173 141 91
3.171207e+000 6.386525e-001 -9.389728e+000 104 97 71
3.551745e+000 5.795022e-001 -9.827622e+000 89 59 31
3.152582e-001 -3.559257e-001 -8.062359e+000 80 56 78
1.176236e+000 -1.313756e+000 -6.670423e+000 45 30 71
1.263262e+000 -1.706045e+000 -6.634498e+000 81 70 113
2.393742e+000 -2.283720e+000 -6.477128e+000 46 31 34
2.987372e+000 1.980731e+000 -1.001248e+001 143 127 93
-2.316082e-001 6.358038e-002 -9.126285e+000 87 67 78
-4.859055e-001 2.851478e+000 -1.017293e+001 200 186 139
1.477225e+000 9.545342e-001 -7.974999e+000 157 143 104
-7.253072e-001 9.105153e-001 -1.004639e+001 212 212 214
1.307666e+000 -1.471915e+000 -6.619426e+000 99 104 134
4.998656e-001 -1.828397e+000 -7.335152e+000 75 60 103
6.905168e-001 -7.857581e-001 -7.243028e+000 103 88 122
4.342454e-001 -9.604747e-001 -7.756739e+000 81 71 94
7.946936e-001 -4.566669e-001 -7.352701e+000 82 59 102
8.984625e-001 -1.873778e+000 -6.990644e+000 47 35 83
-3.315733e+001 1.704564e+001 -8.350853e+001 87 68 90
-3.237274e+001 2.315055e+001 -8.319029e+001 108 93 117
-3.209942e+001 1.941111e+001 -8.304389e+001 187 78 94
-2.513922e+001 1.230034e+001 -7.053597e+001 163 171 156
-2.814441e+001 1.868384e+001 -7.457268e+001 134 63 83
-2.584090e+001 2.219280e+001 -7.748784e+001 203 53 72
-2.873950e+001 2.159482e+001 -7.809327e+001 221 63 76
-2.106051e+001 2.062395e+001 -7.721979e+001 205 55 70
-1.552439e+001 -1.242019e+000 -6.758585e+001 32 27 50
-2.746123e+001 1.657207e+001 -7.389271e+001 100 62 115
-2.685963e+001 1.779893e+001 -7.388489e+001 207 209 196
-2.685963e+001 1.779893e+001 -7.388489e+001 207 209 196
-2.526794e+001 1.783078e+001 -7.363856e+001 190 43 53
-2.093484e+001 1.879179e+001 -7.804527e+001 189 43 56
-1.878396e+001 1.271419e+001 -7.380735e+001 176 50 53
-3.610434e+001 1.846058e+001 -8.747067e+001 167 146 101
-2.305081e+001 1.957685e+001 -7.768915e+001 39 28 58
-5.203546e+001 8.048389e+000 -9.014844e+001 63 36 46
-5.089234e+001 3.007711e-001 -8.834442e+001 218 199 195
-3.096480e+001 2.140587e+000 -7.773453e+001 83 49 64
2.061296e-001 6.059107e-001 -8.474174e+000 91 75 81
6.363163e-001 4.157810e-002 -7.690857e+000 74 56 95
7.573638e-001 -7.212365e-001 -7.285495e+000 133 128 151
7.535271e-001 -6.918188e-001 -7.274519e+000 69 58 92
4.152614e-001 -8.131023e-001 -7.785448e+000 167 166 170
1.301224e-001 1.789696e+000 -8.901400e+000 213 224 210
2.896610e+000 1.733558e+000 -9.829356e+000 126 109 76
-1.178318e-001 1.644972e+000 -9.252870e+000 88 71 77
7.049339e-001 -7.333491e-001 -7.355005e+000 63 51 78
-7.638186e-001 1.599810e+000 -1.026245e+001 92 71 87
7.733752e-001 -8.059079e-001 -7.260496e+000 179 191 182
-1.110071e+000 4.625995e+000 -1.146796e+001 163 130 82
-4.922047e-001 3.756647e+000 -1.026900e+001 175 130 84
-1.076476e+000 4.268366e+000 -1.132809e+001 155 124 76
-2.974904e-001 3.229425e+000 -9.882376e+000 149 106 68
-1.020246e-001 2.477755e+000 -9.316758e+000 83 69 61
-1.308846e+000 3.823409e+000 -1.153750e+001 168 160 125
-8.419223e-001 3.267787e+000 -1.067081e+001 141 113 76
-5.422495e-001 2.996036e+000 -1.027541e+001 178 157 92
-3.176526e-001 2.738872e+000 -9.823072e+000 196 171 122
1.147935e-001 1.723499e+000 -8.865647e+000 80 73 74
-9.542523e-001 2.551589e+000 -1.081204e+001 172 131 106
-1.218992e+000 2.582499e+000 -1.114132e+001 161 135 75
-5.814955e-001 2.053449e+000 -1.021133e+001 206 219 207
4.442381e+000 1.991923e-001 -8.442132e+000 180 138 54
-4.576224e-001 1.383133e+000 -9.600849e+000 79 64 73
1.846663e-001 -4.781774e-001 -8.295502e+000 215 219 220
9.409148e-002 -4.349092e-001 -8.476691e+000 93 65 68
1.602300e-001 -5.264204e-001 -8.324875e+000 73 48 68
6.126513e-001 -7.410312e-001 -7.535131e+000 74 60 82
6.126513e-001 -7.410312e-001 -7.535131e+000 74 60 82
5.800434e-001 -7.842883e-001 -7.501021e+000 68 58 82
4.234798e-001 -8.923551e-001 -7.796769e+000 70 53 75
3.517605e-001 -8.903175e-001 -7.866800e+000 58 51 68
4.542937e-001 -1.025748e+000 -7.730097e+000 65 57 81
5.039220e-001 -1.063430e+000 -7.697382e+000 73 56 92
8.223292e-001 -1.291263e+000 -6.742700e+000 60 50 103
-2.634649e-001 3.470699e+000 -9.845784e+000 197 185 133
-1.207355e+000 4.361178e+000 -1.149597e+001 127 112 83
-5.456805e-001 3.686174e+000 -1.034354e+001 120 81 41
-1.638673e+000 4.550761e+000 -1.212061e+001 186 175 147
-1.572840e+000 4.498655e+000 -1.205304e+001 144 130 101
-2.685367e-001 2.717267e+000 -9.610087e+000 190 162 101
2.182287e+000 2.062931e+000 -9.375219e+000 157 143 106
-6.032765e-001 2.944869e+000 -1.039268e+001 170 136 72
-8.307165e-001 3.084342e+000 -1.064026e+001 200 168 115
-8.960363e-001 3.050509e+000 -1.084036e+001 125 81 50
-2.790960e-001 2.341071e+000 -9.657337e+000 80 65 68
2.270210e-001 1.865742e+000 -8.691955e+000 217 220 215
2.270210e-001 1.865742e+000 -8.691955e+000 217 220 215
2.373162e+000 1.806624e+000 -9.461506e+000 150 138 101
3.031136e+000 1.923248e+000 -9.970477e+000 150 134 101
2.730610e+000 1.590551e+000 -9.696176e+000 104 89 58
-1.125861e+000 2.869212e+000 -1.111092e+001 188 155 120
4.560890e+000 2.673923e-001 -8.270779e+000 188 146 60
4.181033e-001 7.859875e-001 -8.090676e+000 75 62 67
-2.421592e-001 1.363907e+000 -9.456811e+000 210 220 208
-1.137310e-001 1.078806e+000 -9.125275e+000 198 223 213
-1.137310e-001 1.078806e+000 -9.125275e+000 198 223 213
1.859351e+000 1.483267e-001 -7.780945e+000 96 78 44
-3.422279e-001 9.490426e-001 -9.470017e+000 101 74 77
-7.765999e-001 1.100857e+000 -1.010244e+001 85 70 81
-7.521073e-001 1.105544e+000 -1.018247e+001 209 204 203
-9.614707e-001 9.863997e-001 -1.033812e+001 91 78 90
6.324179e-001 -4.028872e-001 -7.546803e+000 217 230 227
3.670547e+000 -8.782986e-001 -9.158841e+000 113 95 73
6.367530e-001 -8.682051e-001 -7.469598e+000 69 50 76
-8.694315e-001 4.283755e+000 -1.102191e+001 92 60 39
-7.885355e-001 4.210144e+000 -1.087486e+001 151 116 94
-7.591739e-002 3.114924e+000 -9.360781e+000 191 164 109
-1.434822e+000 4.470079e+000 -1.163387e+001 191 177 150
-1.414492e+000 4.606884e+000 -1.185921e+001 133 116 85
-4.640777e-001 3.682031e+000 -1.027467e+001 155 107 63
-2.109941e-001 3.040750e+000 -9.600463e+000 110 77 46
-1.457640e-001 3.040865e+000 -9.473460e+000 119 86 41
-1.453469e+000 4.211259e+000 -1.179191e+001 145 131 104
-9.352631e-001 3.292035e+000 -1.089656e+001 173 143 91
2.007564e+000 1.912168e+000 -9.200618e+000 119 105 68
-8.656611e-001 2.975736e+000 -1.079794e+001 162 113 82
2.231664e-001 1.679878e+000 -8.650499e+000 76 73 72
2.592167e+000 1.775092e+000 -9.626260e+000 148 134 99
2.886331e+000 1.935233e+000 -9.865346e+000 152 137 104
-1.732960e+000 3.370128e+000 -1.193163e+001 161 127 80
-1.028923e+000 2.686816e+000 -1.093139e+001 170 125 97
-6.178691e-001 2.395177e+000 -1.026121e+001 80 62 70
3.194122e+000 1.532815e+000 -1.007265e+001 56 39 19
4.579228e+000 4.257900e-001 -8.269011e+000 190 150 63
-1.116043e+000 2.530574e+000 -1.101454e+001 112 77 58
-1.610186e+000 2.638669e+000 -1.162213e+001 83 65 79
-9.242035e-001 1.055963e+000 -1.041642e+001 102 88 103
-8.194375e-001 1.042881e+000 -1.023590e+001 211 226 219
1.941564e+000 -2.869482e-001 -7.656462e+000 99 84 49
1.437466e+000 -1.336618e+000 -6.524413e+000 59 47 49
-2.168162e-001 -8.389651e-001 -8.779847e+000 215 231 221
-6.108452e-001 -9.041450e-001 -9.405104e+000 209 218 213
1.313548e+000 -1.721097e+000 -6.625023e+000 63 51 84
-1.282298e+000 4.370721e+000 -1.150172e+001 188 174 147
-1.282298e+000 4.370721e+000 -1.150172e+001 188 174 147
-4.012003e-001 3.540308e+000 -1.011753e+001 198 177 123
-3.629218e-001 3.319725e+000 -1.002883e+001 188 153 112
1.621225e+000 2.455452e+000 -9.134669e+000 156 140 106
-2.161837e+000 4.918122e+000 -1.261402e+001 72 70 81
2.951962e+000 3.034111e+000 -1.064752e+001 129 123 100
2.373418e+000 2.160466e+000 -9.545872e+000 159 146 108
3.804557e+000 1.918901e+000 -9.877755e+000 161 114 56
-1.325268e+000 2.442412e+000 -1.123845e+001 119 85 57
-3.506294e-001 7.709534e-001 -9.492578e+000 94 74 73
-1.065741e+000 2.812914e-001 -1.029210e+001 79 65 83
4.192967e-001 -9.697791e-001 -7.806597e+000 70 66 87
-7.896861e-001 -1.200984e+000 -9.536113e+000 215 231 220
-1.165334e+000 4.386006e+000 -1.127135e+001 191 178 146
-6.303856e-001 3.826413e+000 -1.056209e+001 193 160 107
2.873525e+000 1.874674e+000 -9.824536e+000 142 127 96
-1.157865e+000 2.958784e+000 -1.113802e+001 88 60 56
-1.913005e+000 3.446806e+000 -1.206691e+001 170 164 160
-3.857834e-001 1.976229e+000 -9.820963e+000 207 231 209
2.946425e+000 3.273435e-001 -9.019195e+000 144 128 95
-6.154473e-001 6.107559e-001 -9.867829e+000 97 74 100
-1.069481e+000 6.634361e-001 -1.045845e+001 211 218 215
-1.789937e-001 -5.633373e-001 -8.843736e+000 88 70 82
1.078051e+000 -1.516225e+000 -6.749228e+000 56 44 92
-2.444916e-001 -1.069170e+000 -8.740657e+000 97 57 78
3.617194e-001 2.333968e+000 -8.454660e+000 139 67 91
-1.804759e-001 1.975070e-001 -9.169922e+000 87 71 82
4.615992e-001 -7.204091e-001 -7.681101e+000 86 64 102
1.438759e-001 2.715065e+000 -8.971738e+000 213 226 209
1.535540e+000 1.350583e+000 -8.272242e+000 124 106 73
-9.510548e-001 3.225484e-001 -1.025187e+001 82 73 105
-1.116513e+000 4.074007e+000 -1.132300e+001 193 182 150
-2.507885e-001 2.200508e+000 -9.585249e+000 113 115 104
-2.507885e-001 2.200508e+000 -9.585249e+000 113 115 104
-4.210495e-001 2.061186e+000 -9.886673e+000 216 226 215
-1.590714e-001 1.928834e+000 -9.435535e+000 89 72 82
-1.037739e+000 2.013279e+000 -1.076929e+001 82 59 74
-1.217646e+000 1.884580e+000 -1.096287e+001 96 74 94
6.726298e-001 -2.206725e+000 -7.283869e+000 62 45 77
-9.977801e-001 7.159224e-001 -1.037992e+001 206 206 204
7.995247e-001 -1.418427e+000 -6.867874e+000 54 40 78
-1.146075e+000 1.161562e+000 -1.062841e+001 71 55 66
4.073960e-001 5.832850e-001 -8.112518e+000 88 70 89
-1.692648e+000 4.461000e+000 -1.212815e+001 176 164 139
-5.841863e-001 3.318104e+000 -1.028664e+001 193 173 118
-2.317937e-001 2.820206e+000 -9.729276e+000 135 86 49
-3.100599e-001 2.156966e+000 -9.750386e+000 99 82 82
1.529440e-001 1.339312e+000 -8.721044e+000 81 70 72
-6.069685e-001 1.048732e+000 -9.955653e+000 210 210 210
-1.092675e+000 8.175549e-001 -1.053428e+001 106 95 99
-7.390233e-001 5.935060e-001 -9.994932e+000 201 213 211
-6.773757e-001 6.258814e-001 -9.910911e+000 207 214 213
-1.108473e+000 4.085641e-001 -1.041339e+001 90 78 86
7.097067e-001 -6.916371e-001 -7.370827e+000 195 209 217
4.935291e-001 -7.521366e-001 -7.681105e+000 71 53 80
6.255004e-001 -8.202959e-001 -7.485361e+000 172 171 189
6.255004e-001 -8.202959e-001 -7.485361e+000 172 171 189
6.656616e-001 -8.505385e-001 -7.434331e+000 76 59 93
2.540784e-002 -9.043070e-001 -8.400670e+000 63 50 63
-1.462712e+000 4.250199e+000 -1.184751e+001 128 116 90
2.071504e+000 2.082103e+000 -9.307035e+000 156 143 108
2.246530e+000 2.109169e+000 -9.450430e+000 105 91 54
-5.258863e-001 2.545068e+000 -1.011428e+001 198 179 137
-9.524187e-001 2.540341e+000 -1.079416e+001 176 132 106
-6.876953e-001 2.069137e+000 -1.029071e+001 96 77 70
-1.114047e+000 1.550276e+000 -1.076631e+001 209 222 208
-2.222200e-001 9.913893e-001 -9.281024e+000 212 230 219
4.782981e-001 -1.043749e-001 -7.951628e+000 81 60 82
-2.847812e-001 1.782236e-001 -9.219923e+000 192 228 214
7.265655e-001 -5.822884e-001 -7.356346e+000 183 187 197
-2.564652e-001 2.991168e+000 -9.719056e+000 134 97 50
2.480121e+000 1.744746e+000 -9.522580e+000 86 75 43
-1.722496e+000 3.196042e+000 -1.188441e+001 152 121 74
-1.722496e+000 3.196042e+000 -1.188441e+001 152 121 74
3.644382e+000 1.233203e+000 -9.956918e+000 102 66 32
-7.359603e-001 1.474613e+000 -1.019268e+001 205 230 216
-7.359603e-001 1.474613e+000 -1.019268e+001 205 230 216
5.254187e-001 -8.666881e-001 -7.640270e+000 71 55 81
-1.394053e-001 2.356134e+000 -9.430527e+000 88 71 64
1.835997e-001 1.870210e+000 -8.749098e+000 89 79 82
-6.671284e-001 3.287195e+000 -1.051915e+001 200 179 130
1.879925e-001 3.561896e-002 -8.414558e+000 88 71 94
-7.211393e-001 2.733791e+000 -1.045778e+001 107 63 50
-3.981251e+001 2.598410e+001 -9.264171e+001 60 47 35
-2.584281e+001 3.164446e+001 -8.280615e+001 159 109 116
-2.902837e+001 2.852340e+001 -8.199414e+001 203 49 62
-3.085980e+001 2.642463e+001 -8.289960e+001 207 60 68
-2.509841e+001 3.199815e+001 -8.350008e+001 175 40 47
-2.236386e+001 2.836610e+001 -8.236350e+001 198 50 63
-2.236386e+001 2.836610e+001 -8.236350e+001 198 50 63
-2.042183e+001 2.406099e+001 -8.263308e+001 199 57 66
-2.400803e+001 3.169332e+001 -8.315756e+001 191 87 94
-2.530555e+001 3.127049e+001 -8.407454e+001 213 114 118
-2.424929e+001 3.122371e+001 -8.437006e+001 170 35 48
-2.857510e+001 2.829147e+001 -8.266416e+001 193 107 119
-2.223911e+001 2.517166e+001 -8.189599e+001 205 56 67
-1.903036e+001 2.283109e+001 -8.038074e+001 192 144 152
-2.621388e+001 2.586452e+001 -8.079212e+001 62 54 108
-2.023077e+001 2.506884e+001 -8.284143e+001 185 137 145
-2.405614e+001 3.008737e+001 -8.472968e+001 211 131 127
-2.160977e+001 2.814433e+001 -8.371576e+001 196 125 124
-3.160885e+001 2.605624e+001 -8.271629e+001 153 173 178
-2.421509e+001 2.433411e+001 -8.138204e+001 69 60 104
-2.448523e+001 2.755006e+001 -8.064773e+001 67 49 79
-3.039141e+001 2.864903e+001 -8.306909e+001 203 121 116
-3.234651e+001 2.827512e+001 -8.252776e+001 57 37 39
-2.478353e+001 2.583828e+001 -8.106937e+001 223 186 97
-2.474334e+001 2.579776e+001 -8.094784e+001 223 186 97
-1.384273e-001 2.113273e+000 -9.462354e+000 74 62 66
1.114128e-001 1.813648e+000 -8.880229e+000 74 63 68
-2.199617e-001 -3.502357e-002 -9.111512e+000 222 232 226
-2.199617e-001 -3.502357e-002 -9.111512e+000 222 232 226
7.282244e-001 -5.793819e-001 -7.366812e+000 213 214 226
7.198852e-001 -6.114252e-001 -7.352850e+000 60 43 75
-3.289956e-001 2.220003e+000 -9.783830e+000 85 67 73
3.060727e+000 1.654374e+000 -9.984830e+000 97 83 56
5.157661e-001 2.845220e-001 -7.895867e+000 105 66 71
-5.795667e-001 7.124958e-001 -9.824481e+000 78 63 72
4.255382e+000 -4.950202e-002 -8.745524e+000 165 118 48
-2.216749e-001 3.489951e+000 -9.747103e+000 203 184 133
-1.270323e-001 3.135142e+000 -9.546834e+000 136 102 57
-9.429907e-001 3.041912e+000 -1.091079e+001 117 76 57
4.697288e-001 6.628969e-001 -8.063880e+000 209 226 220
-6.935577e-001 1.507227e+000 -1.021992e+001 64 51 78
-4.319516e-001 1.110900e+000 -9.676589e+000 106 77 82
5.631139e-001 -2.331724e-002 -7.794979e+000 69 60 71
-4.768578e-001 8.210594e-001 -9.665591e+000 102 76 90
-2.206995e-001 3.066101e-001 -9.230380e+000 216 221 219
7.603768e-001 -7.090921e-001 -7.318874e+000 155 157 156
3.642346e-001 -6.643107e-001 -7.887564e+000 65 50 74
-8.686569e-001 2.343026e-001 -1.010934e+001 93 80 93
5.566150e-001 -9.344648e-001 -7.589414e+000 175 176 193
3.726137e-001 -9.046047e-001 -7.853574e+000 172 186 192
3.952307e-001 -1.032287e+000 -7.808379e+000 70 60 88
-2.539974e-001 -8.376287e-001 -8.855689e+000 213 230 222
-1.246696e+000 5.052123e+000 -1.168483e+001 119 105 84
-4.931769e-001 3.518244e+000 -1.026204e+001 202 180 130
-4.442309e-001 3.310105e+000 -1.019104e+001 125 87 53
-6.581792e-001 3.189837e+000 -1.054677e+001 143 111 55
-3.406026e-001 2.577908e+000 -9.884485e+000 76 57 80
3.158308e+000 1.845505e+000 -1.009559e+001 140 126 97
3.158308e+000 1.845505e+000 -1.009559e+001 140 126 97
-8.013033e-001 3.065367e+000 -1.067310e+001 152 109 62
-4.729193e-002 1.182852e+000 -9.031929e+000 96 67 81
5.706669e-001 8.477715e-004 -7.780091e+000 205 228 211
7.508336e-001 -6.103764e-001 -7.339860e+000 68 55 98
6.724384e-001 -6.677360e-001 -7.435768e+000 180 183 196
7.306283e-001 -7.459902e-001 -7.338001e+000 172 172 188
6.084339e-001 -6.640999e-001 -7.527917e+000 183 183 195
6.292964e-001 -6.789398e-001 -7.495598e+000 64 55 84
-9.093056e-001 4.966074e-001 -1.010509e+001 84 63 78
-5.768549e-001 1.591207e-001 -9.696561e+000 86 70 73
-5.768549e-001 1.591207e-001 -9.696561e+000 86 70 73
5.117550e-001 -7.480489e-001 -7.649992e+000 183 186 195
4.952820e-001 -7.428122e-001 -7.701192e+000 68 54 83
6.187461e-001 -8.904955e-001 -7.489307e+000 164 182 187
-8.816443e-001 2.832160e-001 -1.006970e+001 90 76 96
-9.748038e-001 2.477211e-001 -1.030293e+001 75 78 106
3.452196e-001 -9.190574e-001 -7.871211e+000 200 206 218
3.940015e-001 -9.156302e-001 -7.810537e+000 61 57 80
-5.662742e-001 -1.141665e+000 -9.194326e+000 207 209 208
-1.229395e+000 5.143383e+000 -1.166988e+001 195 207 192
-1.294616e-001 3.258813e+000 -9.545682e+000 137 92 60
-4.843408e-001 3.911596e+000 -1.036231e+001 154 111 64
-1.423331e+000 4.657388e+000 -1.192218e+001 130 116 89
3.355648e-002 1.684826e+000 -9.043086e+000 216 227 221
1.944595e-001 6.126765e-001 -8.487263e+000 77 60 79
-7.640000e-001 1.597663e+000 -1.025914e+001 70 56 71
-1.213005e+000 1.641488e+000 -1.091201e+001 210 229 225
1.300649e-001 -1.496055e-001 -8.485583e+000 206 231 215
1.300649e-001 -1.496055e-001 -8.485583e+000 206 231 215
5.655401e-001 -7.976983e-001 -7.567463e+000 187 204 204
6.745639e-001 -8.903921e-001 -7.418825e+000 195 202 209
1.322812e-001 -5.462675e-001 -8.329081e+000 209 231 211
5.167914e-001 -9.703477e-001 -7.638709e+000 58 49 80
4.321738e+000 7.114927e-001 -8.892618e+000 197 153 66
3.809337e-001 1.200465e+000 -8.364397e+000 72 56 63
3.809337e-001 1.200465e+000 -8.364397e+000 72 56 63
-4.090959e-001 1.404420e+000 -9.774417e+000 81 63 78
5.485935e-001 -8.289001e-001 -7.583663e+000 77 62 98
4.370820e-001 -1.040186e+000 -7.720824e+000 65 55 88
3.704553e-001 -1.085292e+000 -7.845627e+000 79 62 89
-1.861121e-001 -1.037409e+000 -8.675124e+000 76 56 78
-6.757921e-001 -9.921098e-001 -9.444189e+000 204 224 217
-6.769359e-001 -9.913313e-001 -9.444626e+000 204 224 217
7.751377e-001 -2.332094e+000 -7.266028e+000 26 13 30
-2.248870e+000 5.137296e+000 -1.287357e+001 81 85 97
-1.961718e-001 2.138284e+000 -9.514208e+000 208 230 217
1.891600e-001 1.119845e+000 -8.626803e+000 212 234 215
1.901737e-001 1.128227e+000 -8.640774e+000 212 234 215
-6.194384e-002 1.067865e+000 -9.065813e+000 97 75 84
-1.546528e+000 2.532836e+000 -1.154201e+001 74 63 78
-1.642791e-001 9.894765e-001 -9.224900e+000 103 61 75
-5.827052e-001 9.205031e-001 -9.877995e+000 107 72 96
-2.790924e-001 1.932823e-001 -9.196096e+000 214 235 221
-8.805005e-001 4.384920e-001 -1.014314e+001 95 73 94
-8.865852e-001 4.518037e-001 -1.017014e+001 95 73 94
-1.111952e+000 4.833425e+000 -1.147355e+001 209 224 203
3.149763e-001 1.699941e+000 -8.541431e+000 72 60 64
1.616606e-002 1.458888e+000 -9.047900e+000 86 72 95
1.321371e-001 1.220958e+000 -8.744569e+000 88 72 87
6.675076e-001 -5.635581e-001 -7.438496e+000 79 60 93
3.981374e-001 -1.052992e+000 -7.835279e+000 171 180 186
-3.123055e-001 2.471400e+000 -9.787709e+000 78 61 79
-3.123055e-001 2.471400e+000 -9.787709e+000 78 61 79
-1.386880e+000 3.463953e+000 -1.157476e+001 98 67 49
1.932253e-001 1.070154e+000 -8.655463e+000 208 230 218
-2.047880e-001 7.508026e-001 -9.279198e+000 210 229 216
-1.080669e+000 1.561576e+000 -1.072289e+001 213 231 218
1.791942e-001 2.926798e-002 -8.368607e+000 81 65 93
-7.870046e-001 -1.002722e+000 -9.570611e+000 60 48 54
-1.295427e+000 4.040325e+000 -1.162247e+001 191 182 153
-5.279048e-001 2.004299e+000 -1.009163e+001 147 140 140
-1.300862e+000 4.840250e+000 -1.171488e+001 192 181 150
-5.980205e-001 3.537929e+000 -1.038383e+001 179 160 104
-1.569764e+000 4.640271e+000 -1.200975e+001 182 177 148
-2.937301e+001 3.581869e+001 -8.324986e+001 140 112 142
-2.806149e+001 3.554008e+001 -8.308696e+001 216 106 123
-2.634959e+001 3.366523e+001 -8.456177e+001 204 123 122
-2.634959e+001 3.366523e+001 -8.456177e+001 204 123 122
-2.500118e+001 3.316263e+001 -8.101756e+001 177 15 35
-2.446893e-001 3.118495e-001 -9.200479e+000 80 73 78
-1.245702e+000 2.177856e+000 -1.107532e+001 126 93 60
-2.134033e-001 3.105035e+000 -9.689458e+000 113 81 34
7.988680e-001 -1.275726e+000 -6.825049e+000 59 46 91
1.223911e-001 3.407183e+000 -9.249023e+000 61 47 35
-1.915267e-001 3.424917e+000 -9.686879e+000 146 118 73
-3.634941e-001 3.147974e+000 -1.000555e+001 133 96 54
7.557525e-001 -7.228719e-001 -7.295842e+000 175 166 183
6.651129e-001 -8.537765e-001 -7.430037e+000 96 75 127
-1.066050e+000 1.626180e+000 -1.071893e+001 101 95 95
5.400678e-001 -7.799610e-001 -7.600297e+000 187 200 209
1.839174e-001 -4.863514e-001 -8.282345e+000 200 214 213
4.620551e-001 -8.783693e-001 -7.719411e+000 189 198 217
5.379924e-001 -9.495655e-001 -7.620135e+000 201 204 225
5.379924e-001 -9.495655e-001 -7.620135e+000 201 204 225
-5.126868e-003 -9.290599e-001 -8.399237e+000 67 57 75
-8.588857e-002 -9.652881e-001 -8.512649e+000 221 220 228
-4.577394e-001 -1.039759e+000 -9.080038e+000 79 59 70
-6.967758e-001 -1.009796e+000 -9.479961e+000 88 54 66
-7.039025e-001 -1.191972e+000 -9.397062e+000 219 212 215
-7.874992e-001 5.297643e+000 -1.106716e+001 154 162 145
-8.264319e-001 5.246774e+000 -1.109727e+001 169 173 158
-6.429989e-001 4.573855e+000 -1.074547e+001 101 65 39
-6.359101e-001 4.423691e+000 -1.059714e+001 101 65 39
-5.250139e-001 3.844573e+000 -1.042860e+001 158 115 69
-1.581644e-001 3.138024e+000 -9.606267e+000 123 89 44
-2.143683e-001 3.136624e+000 -9.718919e+000 116 84 36
-8.056923e-001 4.382255e+000 -1.095676e+001 102 67 47
-8.275770e-001 4.188348e+000 -1.096744e+001 139 107 82
-2.588702e-001 2.983246e+000 -9.717170e+000 132 98 51
3.194916e-001 1.593375e+000 -8.504228e+000 201 221 215
3.502966e-001 1.569368e+000 -8.466622e+000 59 48 46
-5.121402e-001 3.189737e+000 -1.030730e+001 198 178 127
-5.916822e-002 2.504414e+000 -9.421398e+000 76 58 71
-1.356368e-001 2.381020e+000 -9.442944e+000 80 57 58
-1.387479e+000 4.303809e+000 -1.178066e+001 136 120 95
-1.472574e+000 4.309722e+000 -1.191826e+001 146 130 105
-2.428998e-001 2.141275e+000 -9.610879e+000 72 56 67
-1.357100e+000 3.692073e+000 -1.157031e+001 144 104 68
-7.900526e-001 2.977079e+000 -1.065090e+001 168 123 84
6.319181e-001 5.422416e-003 -7.652751e+000 74 51 96
-1.126206e+000 2.880168e+000 -1.112431e+001 181 143 116
2.268897e-001 4.758177e-001 -8.449632e+000 78 58 67
-5.133892e-001 1.298760e+000 -9.873002e+000 84 60 77
7.289004e-001 -7.536452e-001 -7.325196e+000 197 196 216
7.474602e-001 -7.905386e-001 -7.325555e+000 64 49 88
7.193036e-001 -8.540599e-001 -7.338605e+000 197 197 207
7.193036e-001 -8.540599e-001 -7.338605e+000 197 197 207
1.714348e+000 -1.614296e+000 -6.608251e+000 24 16 31
-6.821094e-001 1.152413e+000 -1.011203e+001 198 219 211
4.899674e-001 -7.747388e-001 -7.643014e+000 84 64 92
5.111486e-001 -7.494046e-001 -7.647974e+000 199 213 218
5.801301e-001 -7.606912e-001 -7.555846e+000 63 52 83
-6.127241e-001 6.819968e-001 -9.853187e+000 203 219 219
5.234433e-001 -8.575385e-001 -7.635220e+000 70 51 83
4.636657e-001 -8.648136e-001 -7.690971e+000 72 54 94
-1.007551e+000 9.406846e-001 -1.050593e+001 206 220 213
-6.834181e-001 6.387949e-001 -9.937056e+000 202 219 215
3.433722e-001 -9.087206e-001 -7.890596e+000 197 207 218
-8.076907e-001 5.442628e-001 -1.006272e+001 194 217 209
-1.075392e+000 3.939511e-001 -1.038695e+001 202 201 214
-1.077500e+000 3.918703e-001 -1.037789e+001 202 201 214
-2.982035e-001 -1.003748e+000 -8.835423e+000 205 224 219
-2.982035e-001 -1.003748e+000 -8.835423e+000 205 224 219
-5.497788e-001 -1.171652e+000 -9.200663e+000 83 60 68
-4.891836e-001 -1.254374e+000 -9.113466e+000 77 60 78
-8.582868e-001 -1.040086e+000 -9.644279e+000 83 54 65
7.877102e-001 -2.366757e+000 -7.275137e+000 32 19 38
-5.514200e-001 3.724310e+000 -1.041179e+001 138 101 56
2.786198e-001 1.800534e+000 -8.578502e+000 206 215 214
-1.218855e+000 4.432230e+000 -1.159675e+001 142 124 98
-2.278259e-001 2.288591e+000 -9.569792e+000 208 225 212
1.167866e-001 1.754930e+000 -8.953511e+000 77 71 75
4.575803e-002 1.734139e+000 -9.024401e+000 74 69 73
1.783906e-001 1.378850e+000 -8.669275e+000 215 224 221
1.783906e-001 1.378850e+000 -8.669275e+000 215 224 221
-3.264932e-001 2.201879e+000 -9.761328e+000 71 59 68
-5.867415e-002 1.651433e+000 -9.172293e+000 83 71 79
3.704144e-001 7.820746e-001 -8.194792e+000 75 63 75
-1.652487e+000 4.208275e+000 -1.211815e+001 151 139 115
-7.074968e-002 1.604420e+000 -9.198725e+000 209 227 216
1.554179e-001 1.018769e+000 -8.707293e+000 86 60 77
-1.091378e+000 3.041103e+000 -1.113452e+001 107 70 51
-2.835408e-001 1.445866e+000 -9.515585e+000 77 63 69
-2.997099e-001 1.403174e+000 -9.560103e+000 214 217 212
6.836888e-001 -2.704098e-001 -7.524631e+000 76 55 99
-1.172283e+000 2.476505e+000 -1.106406e+001 141 104 48
7.564320e-001 -6.904526e-001 -7.287052e+000 63 47 93
1.447217e+000 -1.299247e+000 -6.640657e+000 53 39 54
-1.191452e+000 2.362038e+000 -1.103517e+001 168 132 70
-3.486465e-001 9.235971e-001 -9.428014e+000 88 60 72
7.081721e-001 -7.119355e-001 -7.393000e+000 65 52 82
1.769491e+000 -1.637817e+000 -6.527004e+000 88 80 108
-1.384002e+000 2.168692e+000 -1.127427e+001 77 59 85
-6.679383e-001 1.225550e+000 -1.010301e+001 92 72 88
-2.368905e-001 6.876220e-001 -9.300569e+000 88 71 77
-2.368905e-001 6.876220e-001 -9.300569e+000 88 71 77
6.366290e-001 -8.114671e-001 -7.450900e+000 72 56 92
1.702551e+000 -1.608779e+000 -6.575001e+000 89 79 106
-8.138510e-001 1.042680e+000 -1.024065e+001 210 227 221
-7.128891e-001 8.747174e-001 -1.002783e+001 211 226 222
-9.155441e-001 1.032680e+000 -1.036809e+001 97 83 102
1.143999e-001 -4.241351e-001 -8.426436e+000 207 228 221
1.027344e-001 -4.778536e-001 -8.409743e+000 77 52 69
-8.726790e-001 5.157703e-001 -1.014056e+001 195 227 218
-8.726790e-001 5.157703e-001 -1.014056e+001 195 227 218
2.517751e-002 -4.770470e-001 -8.544222e+000 203 224 213
2.517751e-002 -4.770470e-001 -8.544222e+000 203 224 213
-6.394778e-002 -4.889435e-001 -8.660092e+000 84 56 82
-6.164305e-002 -5.365405e-001 -8.662685e+000 204 223 221
-2.136746e-001 -6.501906e-001 -8.861555e+000 204 225 216
-8.131246e-001 -8.884966e-001 -9.617342e+000 76 55 62
-5.861526e-001 -1.166853e+000 -9.243434e+000 214 213 211
8.202175e-001 -2.299069e+000 -7.347630e+000 60 47 65
-7.998878e-001 5.441507e+000 -1.105299e+001 195 208 191
-7.201161e-001 5.159151e+000 -1.096090e+001 190 204 187
-1.045638e-003 3.349751e+000 -9.307888e+000 112 68 45
3.177340e-001 1.947477e+000 -8.559207e+000 209 220 212
-1.300044e+000 4.979667e+000 -1.169745e+001 182 175 149
3.727197e-001 1.551334e+000 -8.345797e+000 212 223 215
3.727197e-001 1.551334e+000 -8.345797e+000 212 223 215
2.778175e-001 1.594274e+000 -8.472382e+000 66 58 60
4.168949e-001 1.321070e+000 -8.280250e+000 198 229 213
-3.552099e-001 2.141157e+000 -9.783925e+000 217 227 218
7.061328e-002 1.028237e+000 -8.829186e+000 214 231 220
7.061328e-002 1.028237e+000 -8.829186e+000 214 231 220
4.646849e-001 2.355945e-001 -7.931152e+000 102 68 98
-7.064305e-001 2.001769e+000 -1.033576e+001 211 229 217
1.710855e-001 5.137134e-001 -8.549275e+000 206 230 216
1.710855e-001 5.137134e-001 -8.549275e+000 206 230 216
-3.263686e-001 8.590083e-001 -9.502303e+000 73 63 63
-3.519161e-001 7.545145e-001 -9.477027e+000 63 63 61
2.403879e-001 -8.093900e-003 -8.389150e+000 203 232 220
6.540897e-001 -7.712509e-001 -7.462237e+000 73 61 91
5.853349e-001 -8.620271e-001 -7.515905e+000 69 59 92
-1.133406e+000 1.513731e+000 -1.078982e+001 83 67 71
-3.384088e-001 -6.873298e-001 -9.056071e+000 84 53 67
-1.789937e-001 -9.983439e-001 -8.686388e+000 78 60 84
-2.389666e-001 -1.066378e+000 -8.721617e+000 90 55 66
-6.398105e-001 -7.545640e-001 -9.417217e+000 79 60 66
-5.929010e-001 -8.561763e-001 -9.383750e+000 78 61 69
-5.925157e-001 -9.262678e-001 -9.355226e+000 219 225 224
-5.915684e-001 -9.267179e-001 -9.355201e+000 219 225 224
9.204794e-001 -2.517472e+000 -7.624015e+000 60 31 43
5.019583e-002 -2.449914e+000 -7.860027e+000 50 39 82
-2.314966e-002 3.105656e+000 -9.319893e+000 191 162 106
-7.372485e-001 4.000930e+000 -1.076693e+001 100 68 54
-5.119986e-001 3.438799e+000 -1.026386e+001 195 174 118
3.399524e-001 1.440358e+000 -8.469993e+000 67 56 58
-3.020990e-002 1.846852e+000 -9.138665e+000 210 228 212
-3.005772e-001 2.279274e+000 -9.733698e+000 218 226 213
-2.319116e+000 5.189235e+000 -1.314484e+001 150 167 175
1.974353e-002 1.359934e+000 -8.922005e+000 90 71 90
3.679218e-002 1.183386e+000 -8.941184e+000 93 71 97
-1.689120e-001 1.026808e+000 -9.273570e+000 110 68 75
-1.693723e+000 2.919375e+000 -1.176272e+001 71 64 80
-1.268759e+000 2.536233e+000 -1.117602e+001 187 158 100
-8.065016e-001 1.836044e+000 -1.040701e+001 212 231 223
-6.186237e-001 6.044164e-001 -9.856508e+000 86 72 97
-7.598284e-001 5.464078e-001 -1.004407e+001 102 62 88
-6.166969e-001 2.709167e-001 -9.684981e+000 108 74 88
-8.681389e-001 -8.712025e-001 -9.677297e+000 218 233 225
-8.681389e-001 -8.712025e-001 -9.677297e+000 218 233 225
-5.308748e-001 -1.314874e+000 -9.039780e+000 70 62 74
-1.214102e-001 3.387291e+000 -9.595152e+000 121 83 63
-2.085019e+000 4.504337e+000 -1.276284e+001 167 169 158
5.610510e-001 -1.099798e-001 -7.765400e+000 81 66 93
-6.428554e-001 1.492906e+000 -1.000380e+001 77 65 90
-6.486234e-001 1.562578e+000 -1.010317e+001 77 65 90
-4.619333e-001 1.000173e+000 -9.717884e+000 112 72 94
6.175092e-001 -7.131654e-001 -7.495228e+000 145 142 161
3.928253e-001 -5.260523e-001 -7.929967e+000 74 60 95
-8.020011e-001 4.284031e-001 -1.004926e+001 116 76 98
3.990098e-001 -1.059220e+000 -7.824695e+000 198 210 217
1.644755e+000 -2.401557e+000 -7.531624e+000 60 19 59
4.305227e-001 -2.645691e+000 -7.950925e+000 31 11 20
4.305227e-001 -2.645691e+000 -7.950925e+000 31 11 20
-5.615825e-001 4.531917e+000 -1.057647e+001 184 154 94
1.489951e-001 2.694393e+000 -8.954410e+000 208 225 209
-2.701165e-001 3.282611e+000 -9.873836e+000 185 153 110
3.459793e-001 7.214297e-001 -8.224997e+000 205 225 213
2.977764e-001 6.880789e-001 -8.338989e+000 80 68 79
3.888322e-001 5.289608e-001 -8.210994e+000 214 231 221
3.888322e-001 5.289608e-001 -8.210994e+000 214 231 221
-7.962862e-001 2.433681e+000 -1.055935e+001 182 152 100
-2.358251e-003 8.703929e-001 -8.940043e+000 206 230 217
3.629802e-001 -1.203610e-001 -8.163774e+000 82 61 99
-1.386877e+000 2.266317e+000 -1.127447e+001 171 140 89
-1.386877e+000 2.266317e+000 -1.127447e+001 171 140 89
-1.075834e+000 1.531836e+000 -1.069327e+001 216 228 219
4.862409e-001 -1.009204e+000 -7.711903e+000 67 54 81
8.499756e-001 -2.309654e+000 -7.379975e+000 55 41 66
-9.124557e-001 5.052214e+000 -1.113640e+001 194 202 188
-1.121891e+000 4.962872e+000 -1.148494e+001 195 206 190
2.518950e-001 4.947405e-001 -8.376561e+000 210 230 221
4.156419e-001 -4.650615e-001 -7.850813e+000 206 226 215
1.584473e+000 -1.662457e+000 -6.833109e+000 51 43 56
8.280439e-001 -1.905618e+000 -7.271478e+000 79 77 116
8.169067e-001 -1.923026e+000 -7.234331e+000 79 77 116
6.783355e-001 -2.181776e+000 -7.268050e+000 50 33 75
1.656162e+000 -2.497054e+000 -7.776713e+000 79 26 103
1.161485e-001 7.401689e-001 -8.632011e+000 80 64 92
-1.152592e+000 2.466048e+000 -1.107581e+001 186 152 97
-1.134752e+000 2.377769e+000 -1.096197e+001 186 152 97
1.411961e+000 -1.282187e+000 -6.676225e+000 110 98 134
6.267539e-001 -5.008063e-001 -7.576321e+000 66 51 82
-8.856734e-001 1.457495e+000 -1.056263e+001 72 58 75
2.752392e-001 -8.997050e-001 -8.021205e+000 76 55 97
2.752392e-001 -8.997050e-001 -8.021205e+000 76 55 97
-2.061748e-002 -7.814206e-001 -8.511602e+000 123 111 127
1.697264e+000 -2.459977e+000 -7.650899e+000 157 127 191
1.697264e+000 -2.459977e+000 -7.650899e+000 157 127 191
1.941419e-001 2.467425e-001 -8.427269e+000 71 60 90
-8.403739e-001 -3.788190e-001 -9.749968e+000 214 233 224
-4.541641e-002 -1.117019e+000 -8.541517e+000 77 64 108
1.504373e+000 -2.525954e+000 -7.656843e+000 60 27 51
-3.760758e+001 -1.836981e+001 -6.818788e+001 86 79 72
-4.265640e+001 -2.157355e+001 -7.345897e+001 168 151 143
-4.046381e+001 -2.125357e+001 -7.155803e+001 162 156 144
-3.972260e+001 -2.081088e+001 -7.032964e+001 162 156 144
-3.501046e+001 -2.862891e+001 -7.102263e+001 116 121 115
-2.905877e+001 -2.830350e+001 -7.083009e+001 122 134 124
-2.542934e+001 -2.893143e+001 -7.415255e+001 123 129 115
-2.575186e+001 -2.978530e+001 -6.987351e+001 178 182 165
-2.963141e+001 -2.771059e+001 -7.418299e+001 121 130 117
-2.721534e+001 -3.217299e+001 -6.801707e+001 107 115 100
-3.145202e+001 -2.835608e+001 -6.971927e+001 170 180 169
-3.029533e+001 -2.889993e+001 -6.890764e+001 96 78 65
-2.508019e+001 -2.969025e+001 -7.107602e+001 95 72 64
-2.349317e+001 -2.912129e+001 -7.208519e+001 155 165 156
-3.000771e+001 -3.144490e+001 -6.736807e+001 154 152 139
-2.841673e+001 -3.131337e+001 -6.740292e+001 193 197 182
-2.841673e+001 -3.131337e+001 -6.740292e+001 193 197 182
-2.900761e+001 -1.330521e+001 -5.801376e+001 45 39 35
-2.772634e+001 -2.840395e+001 -7.082380e+001 177 187 176
-3.452990e+001 -2.925066e+001 -6.554714e+001 130 132 121
-2.488535e+001 -3.259977e+001 -7.013432e+001 44 39 39
-3.006383e+001 -3.020143e+001 -6.825768e+001 207 219 208
-3.265697e+001 -2.860468e+001 -6.815739e+001 89 80 74
-3.282198e+001 -3.089956e+001 -6.778378e+001 188 188 178
-2.597993e+001 -3.123007e+001 -6.968054e+001 197 206 187
-1.036274e+000 2.616244e+000 -1.091362e+001 105 58 48
-1.338509e+000 2.411702e+000 -1.126221e+001 105 69 37
9.261423e-002 2.219868e+000 -9.016932e+000 94 64 81
3.122619e+000 1.490677e+000 -9.940691e+000 45 29 12
-5.355269e-001 2.990480e+000 -1.027959e+001 183 146 87
2.058231e+000 2.666959e+000 -9.611948e+000 125 104 73
-1.150054e+000 1.589449e+000 -1.075325e+001 80 67 68
1.958423e+000 7.941940e-001 -8.229739e+000 128 108 71
2.504295e+000 2.964726e+000 -1.016889e+001 79 71 52
1.304084e+000 2.473958e+000 -8.808499e+000 80 60 36
1.639803e+000 2.536234e+000 -9.210081e+000 120 103 66
-5.716851e-001 3.271065e+000 -1.029309e+001 94 59 38
-9.054630e-001 2.979700e+000 -1.086663e+001 174 119 92
-1.179414e+000 2.808409e+000 -1.123315e+001 199 155 126
-1.300606e+000 2.210436e+000 -1.114290e+001 152 112 64
-9.844931e-001 2.381771e+000 -1.082052e+001 125 70 47
-5.781880e-001 1.860303e+000 -1.007689e+001 113 90 102
-1.169070e+000 2.774654e+000 -1.111193e+001 120 68 48
-5.900608e-001 2.460677e+000 -1.020470e+001 192 164 128
-8.629551e-002 2.545002e+000 -9.266225e+000 77 55 56
-6.568656e-001 2.083110e+000 -1.018497e+001 92 63 67
-7.794598e-001 1.986237e+000 -1.035125e+001 79 57 56
-1.165941e+000 1.691159e+000 -1.084099e+001 73 57 62
-6.434695e-002 1.800710e+000 -9.208556e+000 65 51 58
-8.195429e-001 -9.527379e-001 -9.508211e+000 175 165 173
-4.938532e-001 -1.118153e+000 -8.952953e+000 191 178 188
-1.046850e+000 3.082436e+000 -1.107525e+001 143 95 57
3.283191e-002 3.208253e+000 -9.223524e+000 181 136 71
-8.039705e-001 2.736222e+000 -1.061275e+001 99 56 43
-5.810477e-001 2.796015e+000 -1.033750e+001 189 149 82
-3.481075e-001 2.794644e+000 -9.867623e+000 181 143 81
-2.220783e-001 2.831940e+000 -9.703974e+000 201 166 110
-1.054505e+000 1.764092e+000 -1.065795e+001 81 66 73
-1.093630e+000 1.484093e+000 -1.068515e+001 74 61 69
-5.384281e-001 1.362551e+000 -9.832703e+000 205 221 210
-1.914046e-001 1.538625e+000 -9.182979e+000 88 72 83
-3.827491e-001 8.892082e-001 -9.474086e+000 213 221 221
-2.684036e-001 9.726935e-001 -9.445537e+000 88 58 67
1.717505e-001 6.321501e-001 -8.359154e+000 214 227 215
-6.586778e-001 -9.495401e-001 -9.283058e+000 194 192 195
-6.586778e-001 -9.495401e-001 -9.283058e+000 194 192 195
-4.438751e-002 -4.497501e-001 -8.462829e+000 204 205 207
-5.564539e-001 3.132157e+000 -1.034152e+001 205 173 119
-5.248343e-001 3.077059e+000 -1.027366e+001 160 96 55
1.171538e+000 3.275547e+000 -9.170552e+000 129 106 73
-6.230345e-001 2.411904e+000 -1.026141e+001 78 59 60
-3.337352e-001 2.248750e+000 -9.704992e+000 87 76 84
-3.337352e-001 2.248750e+000 -9.704992e+000 87 76 84
-1.079446e+000 1.526047e+000 -1.055705e+001 72 58 68
-8.796825e-001 1.599886e+000 -1.034446e+001 215 225 211
2.926979e-001 1.976073e+000 -8.495575e+000 206 226 214
-6.994707e-001 5.115341e-001 -9.784964e+000 212 228 212
-6.095077e-001 3.011236e-001 -9.793562e+000 98 74 84
1.365327e+000 1.494501e+000 -8.147420e+000 128 109 73
1.957862e+000 1.178527e+000 -8.524740e+000 130 111 74
-2.138650e-001 -5.379356e-001 -8.731119e+000 211 220 218
2.899951e+000 7.509496e-002 -8.812859e+000 108 88 53
2.899951e+000 7.509496e-002 -8.812859e+000 108 88 53
-4.758843e-001 -9.695235e-001 -8.978397e+000 204 203 209
8.586736e-002 -4.874455e-001 -8.349182e+000 108 61 97
-5.254232e-004 3.387027e+000 -9.237801e+000 114 65 48
1.921140e+000 3.575984e+000 -1.004133e+001 94 73 41
1.953101e+000 3.563461e+000 -1.018662e+001 94 73 41
1.865588e-002 3.158514e+000 -9.148493e+000 185 138 72
1.724546e+000 3.338028e+000 -9.860866e+000 121 100 63
1.756163e+000 3.283889e+000 -9.830880e+000 65 58 41
1.632396e+000 3.166775e+000 -9.565466e+000 127 107 73
-7.356602e-001 2.484814e+000 -1.045823e+001 177 110 70
1.920105e+000 3.123069e+000 -9.757284e+000 114 94 62
2.464144e+000 3.059540e+000 -1.031031e+001 111 88 67
2.432765e+000 2.925263e+000 -1.010771e+001 123 98 57
2.649502e+000 2.926095e+000 -1.029665e+001 64 55 42
-3.234403e-001 2.321021e+000 -9.732869e+000 220 223 216
2.783010e+000 2.763892e+000 -1.048979e+001 56 38 14
-8.545939e-001 1.922787e+000 -1.046327e+001 211 226 215
-3.921755e-001 2.194190e+000 -9.793247e+000 216 221 212
1.567949e+000 2.713119e+000 -9.233791e+000 80 63 35
2.386387e+000 2.675257e+000 -9.964068e+000 68 45 19
-1.666285e-001 2.134428e+000 -9.381251e+000 213 220 213
-1.666285e-001 2.134428e+000 -9.381251e+000 213 220 213
2.978506e+000 2.532042e+000 -1.047796e+001 81 57 36
-3.556336e-001 1.978854e+000 -9.670925e+000 212 224 216
-3.582649e-001 1.959095e+000 -9.737338e+000 212 224 216
1.560240e+000 2.454856e+000 -9.097088e+000 125 105 66
2.072467e+000 2.424909e+000 -9.498364e+000 79 57 28
2.428466e+000 2.486110e+000 -9.779233e+000 85 65 39
2.991083e+000 2.350241e+000 -1.034643e+001 69 44 22
9.939749e-002 1.916391e+000 -8.849154e+000 212 224 214
1.422137e+000 2.197607e+000 -8.765305e+000 131 112 72
2.285370e+000 2.232426e+000 -9.614628e+000 123 101 62
2.785686e+000 2.226511e+000 -9.931737e+000 82 58 35
2.005918e+000 2.029893e+000 -9.225563e+000 81 61 35
3.051442e+000 2.054586e+000 -1.014547e+001 81 57 29
1.817268e+000 1.921894e+000 -9.103776e+000 82 60 33
2.950452e+000 1.689053e+000 -9.927837e+000 108 83 53
3.953464e+000 1.823590e+000 -9.908088e+000 150 116 52
3.178928e+000 1.210903e+000 -9.932460e+000 70 47 30
2.217262e+000 1.334356e+000 -8.980643e+000 79 62 35
2.983643e+000 1.213750e+000 -9.687597e+000 112 87 57
2.230807e+000 1.190728e+000 -8.881879e+000 126 104 67
1.881037e+000 1.240572e+000 -8.493445e+000 60 43 17
2.085572e+000 1.015575e+000 -8.516378e+000 75 63 47
2.842825e+000 6.839290e-001 -9.122641e+000 114 96 58
2.842825e+000 6.839290e-001 -9.122641e+000 114 96 58
2.861462e+000 6.221922e-001 -9.112726e+000 60 40 15
-6.957874e-001 -6.582232e-001 -9.468623e+000 211 221 213
-3.154931e-001 -3.966494e-001 -8.996119e+000 209 222 213
1.485633e-001 -6.409324e-002 -8.383382e+000 216 224 214
5.034858e-001 2.843166e-001 -7.950566e+000 92 59 86
2.184803e+000 4.502810e-001 -8.273741e+000 130 107 67
3.020024e+000 1.904302e-001 -9.019439e+000 70 48 24
-3.236297e-001 -7.792169e-001 -8.895567e+000 187 176 184
2.448625e+000 1.276920e-001 -8.382591e+000 91 65 41
2.448625e+000 1.276920e-001 -8.382591e+000 91 65 41
-2.046721e-001 -8.371747e-001 -8.567589e+000 206 211 214
-2.046721e-001 -8.371747e-001 -8.567589e+000 206 211 214
2.528710e+000 7.237336e-002 -8.402820e+000 123 97 60
1.471270e+000 3.489438e+000 -9.687060e+000 127 105 67
1.390273e+000 3.460014e+000 -9.575649e+000 110 90 58
1.245902e+000 3.297412e+000 -9.321832e+000 78 69 45
-8.263839e-001 2.564953e+000 -1.059489e+001 199 167 122
-8.306630e-001 2.558327e+000 -1.062784e+001 199 167 122
1.646558e+000 2.788376e+000 -9.398056e+000 94 75 46
1.276082e+000 2.571944e+000 -8.857213e+000 79 61 37
1.414672e+000 2.544332e+000 -8.977612e+000 76 59 42
1.414672e+000 2.544332e+000 -8.977612e+000 76 59 42
-7.700452e-001 1.615278e+000 -1.020122e+001 78 63 82
1.326549e+000 2.264614e+000 -8.690029e+000 84 70 42
1.889646e+000 2.246022e+000 -9.244704e+000 74 57 30
2.397116e+000 2.203827e+000 -9.658837e+000 117 97 60
3.843663e+000 1.958482e+000 -1.007664e+001 155 120 62
1.947652e+000 1.805364e+000 -9.130003e+000 71 54 28
1.462630e+000 1.517982e+000 -8.282721e+000 79 59 32
2.026947e+000 9.970786e-001 -8.407191e+000 126 110 70
3.059029e+000 6.817068e-001 -9.349772e+000 57 53 42
1.669270e+000 1.028956e+000 -8.044342e+000 78 66 50
1.669270e+000 1.028956e+000 -8.044342e+000 78 66 50
1.819290e+000 7.986017e-001 -8.033829e+000 88 64 38
-4.503894e-001 -6.619876e-001 -9.093598e+000 75 61 72
1.720067e+000 3.916109e-001 -7.693278e+000 111 87 53
-4.424659e-001 3.165307e+000 -1.012369e+001 201 177 133
2.922265e+000 3.458538e+000 -1.084937e+001 83 56 32
-3.608397e-001 2.611231e+000 -9.899513e+000 197 172 130
-6.272682e-001 1.702787e+000 -9.963843e+000 84 67 99
5.296717e-002 1.941964e+000 -8.999541e+000 71 58 75
-1.019620e+000 4.928160e-001 -1.026619e+001 178 182 185
1.969433e+000 1.621489e+000 -8.996032e+000 84 68 42
-2.596011e-001 7.940415e-001 -9.256867e+000 215 224 217
1.619353e+000 1.002023e+000 -7.934158e+000 125 103 66
-1.128196e-001 -2.187392e-001 -8.710025e+000 211 222 214
-2.760395e-001 -5.724454e-001 -8.888206e+000 84 63 78
4.114005e-001 1.235111e-001 -7.985842e+000 85 62 94
1.517290e+000 5.807803e-001 -7.592664e+000 75 51 27
1.709162e-001 -1.753263e-001 -8.198798e+000 110 62 96
7.832448e-002 2.751967e+000 -9.072543e+000 215 221 209
-9.175046e-001 3.995809e-001 -1.016962e+001 90 76 101
-9.008020e-001 4.604254e-001 -1.004439e+001 90 76 101
1.054755e-001 1.025696e+000 -8.550491e+000 83 66 100
2.360715e-001 8.346640e-002 -8.372858e+000 83 62 95
3.056123e-001 9.426352e-002 -8.145611e+000 210 221 214
5.295958e-001 2.927523e-001 -7.784247e+000 207 219 208
-6.976070e-001 -1.140808e+000 -9.169088e+000 66 52 60
-5.323264e-001 -1.028661e+000 -9.057611e+000 193 193 194
1.222516e+000 3.402589e+000 -9.265539e+000 127 102 59
-7.403608e-001 2.716489e+000 -1.055643e+001 103 63 51
2.044689e+000 2.952492e+000 -9.742314e+000 128 104 66
2.044689e+000 2.952492e+000 -9.742314e+000 128 104 66
-6.153052e-001 5.933007e-001 -9.828993e+000 80 61 88
3.679485e-001 1.291117e+000 -8.292543e+000 206 222 209
-2.189278e+001 -3.213739e+001 -7.255944e+001 127 124 107
-2.622200e+001 -2.886143e+001 -7.897423e+001 118 121 103
-2.622200e+001 -2.886143e+001 -7.897423e+001 118 121 103
9.557996e-001 3.099735e+000 -8.763307e+000 126 104 67
-1.084958e+000 2.126229e+000 -1.083671e+001 87 65 84
1.466312e+000 3.173571e+000 -9.411764e+000 84 77 56
1.766136e+000 2.930973e+000 -9.531006e+000 117 97 64
-3.622698e+001 -2.876184e+001 -6.563782e+001 161 161 151
-2.343855e+001 -2.865145e+001 -7.329858e+001 105 108 93
-2.226879e+001 -4.233881e+001 -7.189887e+001 125 116 98
-1.904608e+001 -4.333227e+001 -7.466028e+001 133 127 110
-3.478599e+001 -2.846282e+001 -6.838994e+001 157 160 151
-2.213087e+001 -3.035464e+001 -7.351277e+001 122 121 106
-2.364092e+001 -4.427270e+001 -7.318895e+001 63 48 32
-2.739495e+001 -3.287088e+001 -6.725086e+001 182 192 181
-3.788616e+001 -2.923046e+001 -6.792339e+001 179 184 177
-2.728349e+001 -3.405476e+001 -6.653073e+001 37 33 30
-3.232498e+001 -3.266576e+001 -6.495292e+001 79 52 48
-2.924626e+001 -3.162250e+001 -6.859234e+001 192 199 183
-2.493759e+001 4.842439e+001 -9.272917e+001 165 38 61
-2.661967e+001 4.616430e+001 -9.178351e+001 194 43 60
-3.690124e+001 5.088496e+001 -9.505071e+001 204 52 71
-3.428987e+001 4.706504e+001 -9.054908e+001 206 60 77
-2.805549e+001 5.014102e+001 -9.340912e+001 197 37 55
-2.714306e+001 5.289793e+001 -9.708649e+001 185 48 61
-2.437984e+001 4.593164e+001 -9.360506e+001 191 39 58
-4.267743e+001 6.352590e+001 -9.722715e+001 99 89 88
-2.496481e+001 5.183487e+001 -9.319749e+001 62 48 47
-3.455445e+001 5.712150e+001 -9.630884e+001 132 96 82
-9.839836e-001 1.571754e+000 -1.061350e+001 89 72 82
2.343143e+000 3.478048e+000 -1.036949e+001 73 48 18
2.344509e+000 3.478953e+000 -1.036870e+001 73 48 18
2.425817e+000 3.467926e+000 -1.043464e+001 85 59 32
2.425817e+000 3.467926e+000 -1.043464e+001 85 59 32
2.306719e+000 3.328830e+000 -1.024404e+001 114 90 58
1.889467e+000 3.168392e+000 -9.771329e+000 71 65 46
2.252042e+000 2.660244e+000 -9.742143e+000 130 110 75
2.217114e+000 2.415372e+000 -9.577213e+000 84 68 42
2.298304e+000 2.190458e+000 -9.529968e+000 98 78 45
2.376276e+000 1.387164e+000 -9.203272e+000 62 41 14
2.556363e+000 1.351656e+000 -9.352376e+000 65 43 19
1.995070e+000 2.536601e+000 -9.497711e+000 80 60 33
1.101466e-001 1.825638e+000 -8.892574e+000 92 90 96
-7.066648e-001 1.588945e+000 -1.017653e+001 79 62 81
-9.704198e-001 9.952014e-001 -1.041278e+001 87 75 91
-6.571738e-001 2.990976e+000 -1.043029e+001 189 154 93
-7.282058e-001 1.154824e+000 -1.015126e+001 77 65 86
-8.534822e-001 5.325041e+000 -1.106279e+001 185 197 179
-7.721722e-001 5.109971e+000 -1.101761e+001 186 199 180
-6.909878e-001 3.300578e+000 -1.057776e+001 198 180 128
-5.477268e-001 2.021778e+000 -1.012938e+001 155 139 142
-9.592494e-001 1.818270e+000 -1.062202e+001 161 153 154
-8.267443e-001 1.067535e+000 -1.021576e+001 95 75 85
-2.545019e-002 3.529523e+000 -9.345446e+000 176 158 108
-6.497274e-001 5.244366e+000 -1.073915e+001 165 174 157
-6.109809e-001 4.713354e+000 -1.066241e+001 175 144 84
-8.373989e-001 4.514659e+000 -1.101796e+001 135 110 79
-4.348722e-001 3.531059e+000 -1.019018e+001 189 150 107
-3.674375e-001 3.419977e+000 -1.011521e+001 175 143 105
-8.600049e-001 4.202336e+000 -1.104094e+001 135 109 77
-5.211542e-001 3.296514e+000 -1.033390e+001 116 93 52
7.134180e-002 1.603635e+000 -8.955315e+000 64 61 62
-6.525132e-001 3.019894e+000 -1.043392e+001 194 159 99
-1.377249e+000 4.615238e+000 -1.192385e+001 182 173 144
-8.537520e-001 3.001547e+000 -1.073420e+001 124 76 45
-1.038171e+000 4.188779e-001 -1.036513e+001 75 62 85
-1.958425e-001 3.256064e+000 -9.665250e+000 185 163 113
-8.544903e-001 2.943940e+000 -1.077258e+001 152 107 74
-5.639541e-001 1.197711e+000 -9.937652e+000 211 227 219
-1.078081e+000 1.369936e+000 -1.068257e+001 203 212 210
-4.546920e-001 -9.326507e-001 -9.149234e+000 72 51 62
7.222322e-002 -2.482295e+000 -7.825575e+000 92 90 125
-2.674818e-001 5.100134e+000 -1.008384e+001 143 112 66
-9.119155e-001 5.893758e+000 -1.113642e+001 124 110 95
-6.566559e-001 5.548800e+000 -1.085162e+001 200 213 195
-5.712339e-001 5.332599e+000 -1.076901e+001 190 202 182
-4.158886e-001 3.094293e+000 -1.005713e+001 184 170 121
4.490657e-001 6.657371e-001 -8.093938e+000 81 58 75
-2.307888e-001 2.138304e+000 -9.623683e+000 84 69 74
-1.132070e+000 2.758586e+000 -1.105471e+001 159 118 88
-1.762810e+000 3.130471e+000 -1.191655e+001 164 131 90
-9.197859e-001 1.603012e+000 -1.051164e+001 209 217 208
-1.128669e+000 6.684654e-001 -1.056680e+001 78 65 82
-6.532187e-001 -1.224450e+000 -9.327882e+000 67 51 53
9.851625e-002 -2.506307e+000 -7.834601e+000 52 44 83
-1.851871e-001 4.315486e+000 -9.846888e+000 117 81 33
-4.703866e-001 4.519855e+000 -1.033678e+001 181 151 87
-4.828344e-001 1.275403e+000 -9.864066e+000 101 75 91
-1.577866e+000 2.704960e+000 -1.160483e+001 167 127 79
4.248286e-001 -9.799413e-001 -7.782650e+000 68 56 93
6.182950e-002 -2.385329e+000 -7.771110e+000 81 80 114
1.645479e-001 -2.540915e+000 -7.841136e+000 82 71 111
-1.460502e+000 4.822540e+000 -1.190650e+001 179 173 146
-6.994091e-001 2.115462e+000 -1.029680e+001 73 61 51
-1.240033e+000 2.782436e+000 -1.115768e+001 89 65 53
-1.974923e+000 3.675351e+000 -1.237181e+001 173 166 156
-5.435177e-001 5.666405e+000 -1.081097e+001 179 190 172
-5.435177e-001 5.666405e+000 -1.081097e+001 179 190 172
-6.927502e-001 3.385114e+000 -1.051487e+001 180 163 111
-6.413520e-001 4.218263e-001 -9.815941e+000 109 76 93
-7.300160e-001 5.312370e+000 -1.095046e+001 195 203 185
-1.123891e+000 4.934569e+000 -1.146735e+001 197 209 189
4.635301e-001 5.264426e-001 -8.075119e+000 86 69 95
