ply
format ascii 1.0
element face 0
property list uchar int vertex_indices
element vertex 882
property float x
property float y
property float z
property uchar diffuse_red
property uchar diffuse_green
property uchar diffuse_blue
end_header
-8.619192e-002 -4.719561e-001 -8.689546e+000 94 67 88
6.869212e-002 -5.182850e-001 -8.344613e+000 133 82 111
-2.834147e-001 -6.313494e-001 -8.867599e+000 88 70 78
-7.451861e-001 -7.422299e-001 -9.524826e+000 210 227 210
-7.455889e-001 -7.430440e-001 -9.516865e+000 210 227 210
-4.521011e-001 -7.448001e-001 -9.148119e+000 88 68 73
-2.912585e-001 -8.120756e-001 -8.838125e+000 96 66 73
-7.209400e-001 -9.299804e-001 -9.473623e+000 71 54 62
-5.320700e-001 -7.993307e-001 -9.266802e+000 79 68 74
5.649792e-001 -8.564299e-001 -7.507017e+000 72 62 85
5.649792e-001 -8.564299e-001 -7.507017e+000 72 62 85
-5.679925e-001 -1.324459e+000 -9.072539e+000 74 59 71
-1.055824e+000 3.044719e+000 -1.101076e+001 109 69 57
2.190364e+000 2.154009e+000 -9.413622e+000 123 109 62
-1.816788e+000 3.215722e+000 -1.200498e+001 159 125 87
2.937974e-001 1.691251e+000 -8.476710e+000 73 56 56
3.204646e+000 1.873469e+000 -9.973295e+000 67 47 22
3.345449e-001 1.425100e+000 -8.408321e+000 82 66 68
2.823071e-001 1.383354e+000 -8.512057e+000 79 65 65
1.291863e+000 1.219104e+000 -7.911489e+000 137 122 83
4.075696e+000 1.141645e+000 -9.322652e+000 176 147 71
-1.093722e+000 1.545336e+000 -1.068094e+001 212 231 217
-6.707792e-001 1.475504e+000 -1.008860e+001 79 67 79
-1.183660e+000 1.533912e+000 -1.080572e+001 93 73 82
3.754585e-001 8.158247e-001 -8.127135e+000 90 64 79
-5.663389e-001 6.559517e-001 -9.776338e+000 92 68 90
-6.454128e-001 6.160474e-001 -9.865190e+000 89 70 89
-2.850443e-001 2.402799e-001 -9.177538e+000 208 226 210
2.310329e-001 -1.653190e-002 -8.371415e+000 203 224 205
4.947209e-001 -1.050306e-001 -7.875201e+000 202 227 206
4.947209e-001 -1.050306e-001 -7.875201e+000 202 227 206
4.176496e-001 -5.137356e-001 -7.779416e+000 199 226 207
1.777085e-001 -7.507802e-001 -8.183354e+000 96 65 96
-1.799055e-001 -8.875242e-001 -8.666148e+000 82 65 79
-8.294110e-001 -1.010952e+000 -9.605110e+000 76 59 67
-7.299769e-001 -1.263010e+000 -9.404494e+000 67 52 55
-7.195966e-001 -1.261970e+000 -9.325793e+000 67 52 55
1.782544e+000 -1.561117e+000 -6.523484e+000 66 58 95
-7.727000e-001 2.809120e+000 -1.057188e+001 111 70 50
-8.901214e-001 2.397030e+000 -1.069874e+001 197 179 121
-6.941040e-001 1.641048e+000 -1.019167e+001 85 74 93
-2.312390e-001 8.842916e-001 -9.250873e+000 111 75 82
4.129829e+000 5.877565e-001 -9.126166e+000 151 117 57
-2.486336e-001 7.620539e-001 -9.270588e+000 209 225 207
1.603307e+000 3.105643e-001 -7.586862e+000 129 112 68
5.004386e-001 -7.898213e-001 -7.599894e+000 143 145 153
8.570529e-001 -1.317338e+000 -6.751344e+000 144 149 173
-1.314051e+000 2.878141e+000 -1.123240e+001 95 62 55
-1.998537e-001 2.081314e+000 -9.608803e+000 100 76 81
-1.147365e+000 1.619643e+000 -1.079734e+001 209 226 210
4.509660e-001 1.901998e-001 -7.960328e+000 205 226 209
1.721648e+000 9.252230e-002 -7.615302e+000 128 112 63
5.376920e-001 1.051976e-001 -7.823395e+000 155 153 160
3.096702e-001 -8.299703e-001 -7.893530e+000 77 57 94
-4.510929e-001 2.079066e+000 -9.869361e+000 217 218 208
-8.999223e-001 2.110488e+000 -1.055025e+001 81 62 59
8.231870e-002 9.145648e-001 -8.849766e+000 93 72 99
8.231870e-002 9.145648e-001 -8.849766e+000 93 72 99
1.635168e+000 -1.041849e+000 -6.864391e+000 24 18 22
-3.816290e-001 1.826970e+000 -9.847109e+000 94 72 84
1.488453e+000 3.642991e-001 -7.535377e+000 128 111 67
6.307561e-001 1.260922e-001 -7.702964e+000 85 60 91
4.206579e+000 -1.626697e+000 -8.426395e+000 89 58 29
1.863938e-001 -9.950405e-001 -7.918429e+000 81 59 98
8.470936e-001 4.491880e-001 -7.172989e+000 126 72 106
5.900793e-001 -2.423913e-001 -7.623956e+000 105 101 106
3.315837e+000 1.483206e+000 -9.643863e+000 77 47 21
-9.244860e-001 2.989930e+000 -1.079433e+001 132 72 51
-1.622102e+000 2.846037e+000 -1.153738e+001 163 125 77
-1.333348e+000 2.716572e+000 -1.126429e+001 125 92 53
-1.832227e-001 2.768667e+000 -9.549210e+000 88 61 51
-5.339889e-001 2.632556e+000 -1.010098e+001 194 174 129
-4.777745e-001 2.596961e+000 -1.001286e+001 202 174 145
-1.298070e+000 2.088048e+000 -1.110611e+001 85 66 85
-1.029465e+000 1.841944e+000 -1.070972e+001 82 66 73
2.197038e-001 2.105768e+000 -8.640387e+000 127 101 112
3.875462e+000 2.175137e+000 -9.592763e+000 157 123 47
-6.033935e-001 3.049804e+000 -1.029710e+001 213 175 110
-1.048820e+000 2.797701e+000 -1.094539e+001 197 145 117
-6.936759e-001 2.862976e+000 -1.041908e+001 195 143 102
-7.405002e-001 2.670430e+000 -1.048602e+001 199 162 118
2.896934e+000 3.163229e+000 -1.059064e+001 92 80 58
-1.199115e+000 2.570685e+000 -1.106414e+001 174 144 95
-1.033675e+000 2.581099e+000 -1.086877e+001 106 59 53
-4.410485e-001 2.591440e+000 -9.930876e+000 107 76 85
-7.030871e-001 2.446831e+000 -1.034583e+001 204 181 136
2.089453e+000 2.519018e+000 -9.461194e+000 126 111 72
1.869124e+000 2.295407e+000 -9.230510e+000 61 41 16
2.647129e+000 1.668007e+000 -9.594815e+000 114 94 63
2.647129e+000 1.668007e+000 -9.594815e+000 114 94 63
2.402300e+000 1.098098e+000 -8.879658e+000 123 108 72
4.136834e+000 -1.955280e-001 -8.896245e+000 135 95 36
2.299306e+000 3.250071e+000 -1.007589e+001 83 69 43
2.838532e+000 3.394850e+000 -1.064329e+001 118 94 68
2.768428e+000 3.291984e+000 -1.053010e+001 114 92 64
1.902460e+000 3.078749e+000 -9.664237e+000 123 108 68
1.814390e+000 2.808361e+000 -9.449912e+000 124 105 65
2.294826e+000 2.806031e+000 -9.777795e+000 121 98 66
1.771479e+000 2.668327e+000 -9.344093e+000 128 110 78
-7.595912e-001 1.701305e+000 -1.024935e+001 218 220 215
3.812873e+000 2.318084e+000 -9.841214e+000 150 117 48
2.809865e+000 1.644378e+000 -9.701760e+000 106 89 62
2.936153e+000 1.624865e+000 -9.800086e+000 108 91 63
4.034757e+000 1.817531e+000 -9.318894e+000 217 178 99
2.688974e+000 1.326151e+000 -9.368255e+000 123 97 66
3.967554e+000 1.467831e+000 -9.476291e+000 167 129 58
2.126014e+000 1.192003e+000 -8.720820e+000 89 71 36
-1.058592e+000 2.536356e-001 -1.026541e+001 214 225 218
2.619576e+000 1.051576e+000 -9.063698e+000 120 101 69
3.179629e+000 1.144821e-001 -9.095860e+000 122 99 67
3.179629e+000 1.144821e-001 -9.095860e+000 122 99 67
5.473463e-003 -9.762041e-001 -8.431883e+000 85 66 89
9.876944e-001 3.125227e+000 -8.771915e+000 93 70 39
2.674461e+000 3.429160e+000 -1.060718e+001 118 98 62
2.847043e+000 3.453178e+000 -1.077865e+001 67 47 23
2.847043e+000 3.453178e+000 -1.077865e+001 67 47 23
1.806646e+000 3.185437e+000 -9.625781e+000 117 98 65
2.580570e+000 3.382497e+000 -1.042573e+001 84 58 33
2.580570e+000 3.382497e+000 -1.042573e+001 84 58 33
1.720575e+000 2.880865e+000 -9.411934e+000 127 107 72
1.961124e+000 2.854315e+000 -9.555882e+000 128 110 74
2.191908e+000 2.973947e+000 -9.782616e+000 76 55 26
2.268507e+000 3.004371e+000 -9.890292e+000 117 94 61
2.505306e+000 2.950861e+000 -1.009154e+001 118 98 61
3.008900e+000 2.989408e+000 -1.069490e+001 68 53 34
2.188224e+000 2.876629e+000 -9.744498e+000 76 56 23
2.586498e+000 2.879328e+000 -1.011740e+001 83 62 35
3.832084e+000 2.965183e+000 -9.839883e+000 200 164 86
-1.000408e+000 2.209597e+000 -1.070003e+001 72 56 68
-1.790347e-001 2.419048e+000 -9.487795e+000 88 68 70
3.097197e+000 2.704038e+000 -1.056345e+001 74 57 37
3.905640e+000 2.860886e+000 -9.867168e+000 172 131 55
2.347443e-002 2.238353e+000 -9.047522e+000 213 209 205
1.955616e+000 2.234826e+000 -9.223542e+000 124 106 68
1.667908e+000 2.102190e+000 -8.965635e+000 84 67 37
2.548226e+000 2.189642e+000 -9.693564e+000 92 76 43
-1.887619e-002 1.715772e+000 -9.073518e+000 210 222 211
2.367616e+000 1.999951e+000 -9.443504e+000 69 49 24
2.222307e+000 1.854280e+000 -9.322619e+000 124 104 64
2.617140e+000 1.914210e+000 -9.599004e+000 125 107 71
2.617140e+000 1.914210e+000 -9.599004e+000 125 107 71
2.931617e+000 1.748310e+000 -9.815870e+000 117 94 60
2.491322e+000 1.596626e+000 -9.428344e+000 110 96 59
3.225804e+000 1.539362e+000 -9.996732e+000 45 30 14
1.841063e+000 1.527464e+000 -8.715988e+000 76 60 34
2.510324e+000 1.496652e+000 -9.374537e+000 117 96 56
1.737605e+000 1.311701e+000 -8.443700e+000 125 105 68
2.451421e+000 1.271003e+000 -9.092345e+000 125 106 66
2.529295e+000 1.349802e+000 -9.241535e+000 133 115 79
1.516003e+000 1.266615e+000 -8.172311e+000 118 102 68
1.516003e+000 1.266615e+000 -8.172311e+000 118 102 68
2.888469e+000 1.198164e+000 -9.445887e+000 121 101 67
3.038678e+000 1.213189e+000 -9.613726e+000 79 59 28
2.268635e+000 1.044560e+000 -8.690543e+000 127 110 69
2.700431e+000 9.542916e-001 -9.067358e+000 117 99 59
1.807528e+000 9.421506e-001 -8.154497e+000 128 110 71
2.130764e+000 8.239770e-001 -8.389509e+000 88 69 35
2.503294e+000 1.552353e-001 -8.452669e+000 126 106 68
1.006326e-001 -5.953809e-001 -8.416500e+000 209 228 216
3.458836e+000 -4.972583e-001 -8.992024e+000 69 49 24
1.850529e+000 3.117248e+000 -9.675193e+000 68 61 44
2.105597e+000 3.093822e+000 -9.854891e+000 74 67 46
2.520803e+000 3.001483e+000 -1.019659e+001 79 71 52
-1.461107e+000 2.305340e+000 -1.136092e+001 176 143 92
2.014137e+000 2.793665e+000 -9.601697e+000 71 56 27
2.014137e+000 2.793665e+000 -9.601697e+000 71 56 27
2.102636e+000 2.781485e+000 -9.619866e+000 111 93 61
-2.341653e-001 2.375313e+000 -9.560624e+000 219 221 210
1.247083e+000 2.560719e+000 -8.788873e+000 125 104 58
1.872875e+000 2.656638e+000 -9.400013e+000 126 104 66
1.187281e+000 2.344749e+000 -8.552438e+000 59 42 19
2.111923e+000 2.364446e+000 -9.432979e+000 92 73 40
2.292904e+000 2.344480e+000 -9.537635e+000 88 71 37
2.292904e+000 2.344480e+000 -9.537635e+000 88 71 37
2.764850e+000 2.408850e+000 -9.947494e+000 124 100 67
2.754402e+000 2.334618e+000 -9.874026e+000 124 105 63
-7.548300e-001 1.541976e+000 -1.017036e+001 215 228 215
2.107863e+000 2.154536e+000 -9.309543e+000 94 73 47
2.403616e+000 2.116233e+000 -9.485159e+000 118 99 66
1.792046e+000 1.926993e+000 -8.991831e+000 129 110 70
1.950422e+000 1.911940e+000 -9.092436e+000 122 104 66
2.329408e+000 1.958935e+000 -9.425102e+000 124 102 65
2.930285e+000 2.036166e+000 -9.868289e+000 82 63 39
3.752640e+000 2.035901e+000 -9.988210e+000 150 115 57
1.833895e+000 1.867813e+000 -8.987252e+000 94 78 45
2.976483e+000 1.915354e+000 -9.863597e+000 83 60 30
3.082931e+000 1.890411e+000 -9.982711e+000 82 59 34
1.389935e+000 1.753907e+000 -8.366035e+000 128 107 64
3.487687e-001 1.493809e+000 -8.382228e+000 213 222 211
2.661812e+000 1.506691e+000 -9.563233e+000 69 51 29
1.686252e+000 1.322354e+000 -8.391495e+000 121 106 67
2.479051e+000 1.313676e+000 -9.148197e+000 75 56 26
1.892213e+000 1.245018e+000 -8.504351e+000 88 67 40
2.759786e+000 1.223816e+000 -9.344258e+000 122 100 63
1.468054e+000 1.140577e+000 -8.008985e+000 89 81 66
2.893711e+000 7.553286e-001 -9.144849e+000 61 59 38
3.283729e+000 7.155509e-001 -9.530074e+000 100 83 53
2.925474e+000 4.823235e-001 -9.040243e+000 123 97 62
2.037015e+000 5.250985e-001 -8.166356e+000 83 69 34
2.508705e+000 4.179210e-001 -8.591825e+000 84 65 33
2.508705e+000 4.179210e-001 -8.591825e+000 84 65 33
2.809121e+000 4.079935e-001 -8.885107e+000 121 97 60
2.856010e+000 4.450885e-001 -8.953229e+000 92 71 41
2.856010e+000 4.450885e-001 -8.953229e+000 92 71 41
2.987832e+000 4.189404e-001 -9.071447e+000 92 70 39
3.023174e+000 3.086591e-001 -9.035901e+000 89 66 42
1.952656e+000 5.064465e-001 -8.030100e+000 126 104 62
2.412304e+000 2.793788e-001 -8.429746e+000 125 108 65
2.349623e+000 2.406046e-001 -8.337734e+000 92 72 37
3.155980e+000 2.719005e-002 -9.010268e+000 116 89 52
1.694438e+000 2.874083e-001 -7.677609e+000 80 62 38
1.814835e+000 2.144609e-001 -7.762507e+000 124 106 68
3.352272e+000 -1.273269e-001 -9.137742e+000 110 84 57
1.993651e+000 1.431180e-001 -7.926429e+000 131 109 68
2.978301e+000 -9.597717e-002 -8.777272e+000 99 83 57
3.080404e+000 -1.278150e-001 -8.877405e+000 68 52 27
3.177431e+000 -1.397382e-001 -8.939851e+000 72 55 29
6.424646e-002 -6.236552e-001 -8.380498e+000 112 73 98
2.569878e+000 -1.181682e-001 -8.368312e+000 92 71 40
2.672194e+000 -1.990900e-001 -8.442642e+000 129 110 68
2.723895e+000 -2.494124e-001 -8.433532e+000 89 67 35
-2.689493e-001 2.245480e+000 -9.563124e+000 107 89 93
2.183381e+000 2.181219e+000 -9.382532e+000 124 105 63
2.167607e+000 2.101876e+000 -9.326677e+000 130 108 64
1.715486e+000 1.900460e+000 -8.876521e+000 62 44 21
1.627552e+000 1.730452e+000 -8.648910e+000 62 45 19
1.627552e+000 1.730452e+000 -8.648910e+000 62 45 19
3.083551e+000 1.659333e+000 -9.905450e+000 64 47 24
1.496664e+000 7.570025e-001 -7.694642e+000 81 61 37
1.830055e+000 5.374278e-001 -7.912982e+000 118 102 60
1.873469e+000 5.640195e-001 -7.999710e+000 92 74 50
2.268320e+000 4.732689e-001 -8.364799e+000 93 76 43
2.787968e+000 3.432642e-001 -8.848051e+000 94 73 42
1.655113e+000 3.992094e-001 -7.703496e+000 73 57 32
2.232916e+000 1.601206e-001 -8.191709e+000 92 73 41
2.232916e+000 1.601206e-001 -8.191709e+000 92 73 41
2.162565e+000 -3.876957e-002 -8.015755e+000 100 82 46
2.162565e+000 -3.876957e-002 -8.015755e+000 100 82 46
9.561332e-001 3.058690e+000 -8.780242e+000 126 103 63
1.954879e-001 5.223371e-001 -8.490972e+000 213 225 211
4.297172e+000 7.651154e-001 -8.981888e+000 220 194 101
-1.345751e-001 2.921913e+000 -9.315079e+000 205 185 135
2.299469e+000 1.674389e+000 -9.328127e+000 125 103 63
1.689901e+000 8.120779e-002 -7.571619e+000 127 103 62
1.287312e+000 1.406713e+000 -8.005578e+000 122 103 60
5.150407e-001 1.454683e+000 -8.323115e+000 70 55 62
2.089133e+000 2.762794e+000 -9.671775e+000 167 153 119
-1.064626e+000 4.105199e+000 -1.123951e+001 139 106 56
-5.086690e-001 3.635995e+000 -1.066991e+001 120 86 46
-3.742621e-001 3.268407e+000 -1.002151e+001 127 90 46
1.797076e+000 2.498596e+000 -9.349908e+000 160 146 111
1.947207e+000 2.465953e+000 -9.409812e+000 158 145 110
2.172189e+000 2.454230e+000 -9.563624e+000 158 145 110
-1.203755e+000 3.892371e+000 -1.122464e+001 169 154 125
1.845689e+000 2.228886e+000 -9.224865e+000 104 91 57
2.153409e+000 2.239733e+000 -9.447053e+000 157 144 109
2.153409e+000 2.239733e+000 -9.447053e+000 157 144 109
2.448568e+000 2.209130e+000 -9.615990e+000 118 104 69
2.516918e+000 2.252165e+000 -9.748694e+000 120 106 71
4.542169e+000 1.468047e+000 -8.804199e+000 196 156 68
-1.422016e+000 3.805323e+000 -1.160506e+001 184 163 122
-7.703186e-001 3.202120e+000 -1.069150e+001 164 130 69
-8.595108e-002 2.463366e+000 -9.326698e+000 79 63 67
1.653482e+000 1.757189e+000 -8.736059e+000 107 93 54
1.404691e+000 1.451997e+000 -8.182508e+000 116 102 63
2.303212e+000 2.110080e+000 -9.517515e+000 151 137 100
2.453767e+000 2.121581e+000 -9.616342e+000 109 95 60
2.617519e+000 2.143109e+000 -9.728095e+000 149 135 100
2.649098e+000 2.044810e+000 -9.737021e+000 152 139 104
-1.110639e+000 3.468653e+000 -1.125838e+001 151 119 76
-4.142123e-001 2.607451e+000 -9.922178e+000 178 161 127
3.006885e-001 1.632112e+000 -8.518398e+000 219 225 221
1.312564e+000 1.313441e+000 -7.999412e+000 113 102 72
2.753055e+000 1.997912e+000 -9.827142e+000 106 91 58
2.697133e+000 1.904655e+000 -9.697912e+000 151 136 102
3.084269e+000 1.907845e+000 -1.000586e+001 111 96 63
3.075239e+000 1.884114e+000 -1.003497e+001 151 136 103
3.129161e+000 1.875479e+000 -1.007822e+001 143 126 96
-9.714205e-001 2.991700e+000 -1.087608e+001 168 118 93
2.449775e+000 1.690540e+000 -9.505640e+000 97 84 49
2.601523e+000 1.709417e+000 -9.625161e+000 144 131 97
-1.139548e+000 2.740349e+000 -1.106073e+001 162 114 91
1.780006e+000 8.589403e-001 -8.084422e+000 163 148 109
1.780006e+000 8.589403e-001 -8.084422e+000 163 148 109
1.928790e+000 8.915231e-001 -8.274241e+000 120 104 70
3.047935e+000 1.509543e+000 -9.911255e+000 135 124 93
3.209747e+000 1.519748e+000 -1.012009e+001 66 51 28
3.274199e+000 1.554834e+000 -1.005552e+001 108 89 65
1.039462e+000 4.287460e-001 -7.176664e+000 53 39 51
1.651801e+000 5.660520e-001 -7.790604e+000 154 139 106
1.689343e+000 5.672161e-001 -7.818072e+000 150 136 98
1.979268e+000 7.636608e-001 -8.222063e+000 112 96 60
2.120234e+000 8.069217e-001 -8.418895e+000 156 142 99
2.055658e+000 6.896915e-001 -8.255720e+000 150 138 96
2.463694e+000 8.442995e-001 -8.760526e+000 126 114 88
2.463694e+000 8.442995e-001 -8.760526e+000 126 114 88
-7.987133e-001 1.951981e+000 -1.046322e+001 101 94 89
-7.987133e-001 1.951981e+000 -1.046322e+001 101 94 89
1.636537e+000 4.746431e-001 -7.730628e+000 153 139 102
1.721563e+000 5.407716e-001 -7.822994e+000 158 144 106
1.923089e+000 5.238340e-001 -8.038441e+000 158 143 99
1.847491e+000 4.251685e-001 -7.892944e+000 157 143 104
1.996658e+000 6.074109e-001 -8.159409e+000 156 144 102
2.044534e+000 6.404697e-001 -8.222245e+000 96 81 46
2.044534e+000 6.404697e-001 -8.222245e+000 96 81 46
2.252717e+000 6.853021e-001 -8.453090e+000 121 107 68
2.248822e+000 6.555869e-001 -8.453933e+000 154 139 98
2.439964e+000 7.968551e-001 -8.713671e+000 155 142 106
2.439964e+000 7.968551e-001 -8.713671e+000 155 142 106
2.400444e+000 6.689351e-001 -8.621457e+000 110 92 54
2.400444e+000 6.689351e-001 -8.621457e+000 110 92 54
2.878715e+000 9.258418e-001 -9.269455e+000 138 131 102
2.605393e+000 7.301587e-001 -8.873393e+000 114 96 62
2.605393e+000 7.301587e-001 -8.873393e+000 114 96 62
2.707839e+000 7.051906e-001 -8.964725e+000 107 93 56
2.845022e+000 7.993268e-001 -9.187648e+000 101 93 68
2.808530e+000 7.182536e-001 -9.061282e+000 148 134 106
-2.985635e-001 1.417794e+000 -9.491782e+000 98 78 72
-3.336191e-001 1.447722e+000 -9.564768e+000 214 217 207
3.073251e-001 7.104492e-001 -8.246713e+000 214 228 218
2.128658e+000 4.802701e-001 -8.246279e+000 153 135 97
2.267231e+000 5.318642e-001 -8.396879e+000 156 143 101
2.228584e+000 4.770266e-001 -8.313096e+000 101 87 49
2.583608e+000 6.071765e-001 -8.758671e+000 112 98 59
2.547418e+000 4.671230e-001 -8.659484e+000 153 141 103
3.046711e+000 6.775288e-001 -9.297398e+000 131 123 96
3.272152e+000 8.234109e-001 -9.607872e+000 133 127 103
3.241625e+000 7.006994e-001 -9.530716e+000 104 98 72
2.088356e+000 1.725396e-001 -8.059058e+000 147 133 94
2.161581e+000 1.467059e-001 -8.115698e+000 150 135 96
2.491796e+000 2.753130e-001 -8.518149e+000 153 135 99
2.491796e+000 2.753130e-001 -8.518149e+000 153 135 99
2.459269e+000 2.211360e-001 -8.445271e+000 93 75 38
2.927088e+000 3.621285e-001 -8.967254e+000 150 134 101
3.052012e+000 4.334821e-001 -9.194583e+000 105 89 56
-7.169117e-001 1.079051e+000 -9.587612e+000 76 60 71
2.237550e+000 1.175015e-001 -8.158175e+000 152 137 98
2.851854e+000 1.891832e-001 -8.822770e+000 153 137 104
3.262214e+000 3.078971e-001 -9.282726e+000 145 130 99
-7.182409e-001 1.168592e+000 -1.010858e+001 211 210 212
2.031767e+000 -1.679715e-001 -7.793215e+000 147 133 96
2.031767e+000 -1.679715e-001 -7.793215e+000 147 133 96
2.151744e+000 -8.792870e-002 -7.981610e+000 151 133 97
2.840847e+000 -2.680725e-002 -8.681868e+000 156 140 107
3.186329e+000 1.202541e-001 -9.101891e+000 138 121 93
3.108710e+000 3.620984e-002 -8.991183e+000 147 132 100
3.034476e+000 -5.032953e-002 -8.861337e+000 146 130 96
3.034476e+000 -5.032953e-002 -8.861337e+000 146 130 96
3.374209e+000 9.489732e-002 -9.281625e+000 142 125 97
-1.112998e+000 9.138014e-001 -1.058647e+001 203 212 207
6.777861e-001 -2.921381e-001 -7.498855e+000 67 66 84
2.253112e+000 -5.493767e-001 -7.723891e+000 91 77 48
2.253112e+000 -5.493767e-001 -7.723891e+000 91 77 48
2.299903e+000 -5.640878e-001 -7.749247e+000 84 71 39
2.299903e+000 -5.640878e-001 -7.749247e+000 84 71 39
2.517913e+000 -5.120489e-001 -8.022899e+000 91 78 44
2.915181e+000 -4.260358e-001 -8.514490e+000 152 134 101
3.064173e+000 -3.142219e-001 -8.728755e+000 92 76 43
3.064173e+000 -3.142219e-001 -8.728755e+000 92 76 43
3.156629e+000 -2.852998e-001 -8.839882e+000 146 131 98
-8.363207e-001 5.431079e-001 -1.003316e+001 203 210 209
2.776834e+000 -5.933166e-001 -8.208699e+000 156 135 104
3.563498e+000 -4.713770e-001 -9.135698e+000 120 101 77
-1.043615e+000 4.307033e-001 -1.030339e+001 205 205 211
7.091669e-001 -6.720910e-001 -7.320932e+000 62 43 74
7.183108e-001 -6.518446e-001 -7.286834e+000 197 210 219
7.183108e-001 -6.518446e-001 -7.286834e+000 197 210 219
3.062769e+000 -7.628687e-001 -8.415948e+000 136 119 77
6.748783e-001 -6.779243e-001 -7.350542e+000 75 55 89
6.175642e-001 -6.851769e-001 -7.520108e+000 57 52 70
6.623995e-001 -7.671620e-001 -7.369767e+000 71 51 81
7.639689e-001 -8.208933e-001 -7.246259e+000 192 222 208
7.639689e-001 -8.208933e-001 -7.246259e+000 192 222 208
7.823770e-001 -7.988409e-001 -7.282486e+000 65 62 100
5.287359e-001 -7.591756e-001 -7.599362e+000 58 49 74
4.601280e-001 -7.799972e-001 -7.676647e+000 216 217 227
3.908154e-001 -8.630970e-001 -7.763947e+000 60 53 68
3.694804e-001 -8.732141e-001 -7.837687e+000 55 48 68
-3.854920e-001 -7.461954e-001 -9.058803e+000 213 210 207
-3.835488e-001 -7.486565e-001 -9.044377e+000 213 210 207
-3.303654e-001 -8.510642e-001 -8.920323e+000 200 217 206
-1.114722e-001 -9.777109e-001 -8.519064e+000 220 220 225
-2.312845e-002 -9.180365e-001 -8.369183e+000 221 219 224
7.919438e-001 -1.317287e+000 -6.823570e+000 143 142 177
7.909659e-001 -1.318767e+000 -6.812212e+000 143 142 177
1.173830e+000 -1.495352e+000 -6.639223e+000 127 126 158
-5.805462e-001 -1.115694e+000 -9.204732e+000 84 70 67
-5.124116e-001 -1.076109e+000 -9.144346e+000 216 217 215
-7.358109e-001 -1.201649e+000 -9.383572e+000 199 210 206
1.462651e+000 -2.342304e+000 -6.971539e+000 163 142 173
-1.103587e+000 4.043257e+000 -1.130886e+001 173 150 112
1.414012e+000 2.079880e+000 -8.650102e+000 153 137 101
-1.807145e+000 4.530743e+000 -1.239281e+001 152 139 112
-1.304205e+000 3.944780e+000 -1.155238e+001 181 166 130
-5.545082e-001 3.377102e+000 -1.042619e+001 99 72 43
-5.479071e-001 3.097915e+000 -1.022337e+001 153 121 69
-4.247777e-001 3.116433e+000 -1.006544e+001 203 179 130
1.869630e+000 2.052007e+000 -9.151289e+000 157 143 106
-1.867651e+000 4.573510e+000 -1.258220e+001 156 142 116
-1.865799e+000 4.387354e+000 -1.236334e+001 141 127 100
-1.772476e+000 4.183696e+000 -1.222311e+001 147 135 109
-5.791513e-001 2.916540e+000 -1.027876e+001 205 190 134
2.510659e+000 2.076229e+000 -9.660298e+000 157 143 109
2.583586e+000 2.048009e+000 -9.688086e+000 152 138 103
2.553910e+000 1.952506e+000 -9.633575e+000 156 142 105
2.950104e+000 2.044337e+000 -9.948479e+000 110 96 62
-1.820986e+000 4.055734e+000 -1.216359e+001 139 130 101
-1.820986e+000 4.055734e+000 -1.216359e+001 139 130 101
2.476359e+000 1.728040e+000 -9.519234e+000 149 136 104
2.814684e+000 1.775347e+000 -9.768534e+000 147 132 99
2.829981e+000 1.797265e+000 -9.818961e+000 147 132 99
-3.531354e-001 2.270845e+000 -9.768150e+000 83 69 69
3.987546e-001 1.388793e+000 -8.322101e+000 223 228 220
3.987546e-001 1.388793e+000 -8.322101e+000 223 228 220
2.872179e+000 1.778568e+000 -9.830533e+000 146 132 98
2.866306e+000 1.768330e+000 -9.807458e+000 146 132 98
3.237740e+000 1.645530e+000 -1.008073e+001 77 60 36
-3.946978e-001 2.060424e+000 -9.796448e+000 95 87 84
2.708318e-001 1.442107e+000 -8.477067e+000 215 224 216
2.185329e-001 1.399465e+000 -8.584915e+000 219 227 220
2.898301e+000 1.532260e+000 -9.788762e+000 144 129 99
3.000645e+000 1.535182e+000 -9.896066e+000 137 123 94
3.000645e+000 1.535182e+000 -9.896066e+000 137 123 94
1.017105e+000 4.596754e-001 -7.230033e+000 94 81 100
1.725143e+000 7.184982e-001 -7.937012e+000 115 99 66
1.846725e+000 6.768729e-001 -8.019189e+000 122 107 68
1.908322e+000 6.281503e-001 -8.063146e+000 154 140 101
2.343178e+000 7.686648e-001 -8.587208e+000 110 94 60
1.927981e+000 5.594091e-001 -8.044994e+000 115 100 61
1.819389e+000 4.829024e-001 -7.891804e+000 108 93 58
1.799316e+000 4.334970e-001 -7.845475e+000 155 140 101
2.005596e+000 6.477752e-001 -8.180405e+000 110 96 59
2.005596e+000 6.477752e-001 -8.180405e+000 110 96 59
1.965734e+000 5.051761e-001 -8.069100e+000 154 140 95
2.089488e+000 5.663470e-001 -8.228673e+000 149 135 92
2.168188e+000 6.852426e-001 -8.396016e+000 149 135 97
2.134538e+000 5.204502e-001 -8.264742e+000 107 89 51
2.565596e+000 7.863176e-001 -8.863850e+000 155 141 111
1.783747e+000 3.884957e-001 -7.811856e+000 98 80 49
1.783747e+000 3.884957e-001 -7.811856e+000 98 80 49
1.779783e+000 3.399677e-001 -7.773217e+000 156 140 106
2.129561e+000 4.176970e-001 -8.201145e+000 81 63 25
2.203302e+000 4.614390e-001 -8.318571e+000 154 140 98
2.238742e+000 4.403719e-001 -8.335765e+000 151 139 99
2.132828e+000 3.663430e-001 -8.188010e+000 149 134 95
2.220833e+000 3.892422e-001 -8.281795e+000 93 78 39
2.220833e+000 3.892422e-001 -8.281795e+000 93 78 39
2.410543e+000 5.236440e-001 -8.569171e+000 151 136 97
2.807424e+000 5.716171e-001 -8.993921e+000 110 94 60
2.807424e+000 5.716171e-001 -8.993921e+000 110 94 60
-1.046700e+000 1.879744e+000 -1.071647e+001 94 77 81
-6.350066e-001 1.403263e+000 -9.993902e+000 93 74 80
1.917212e+000 1.965845e-001 -7.852087e+000 154 139 100
1.893100e+000 1.462190e-001 -7.796842e+000 94 78 42
1.893100e+000 1.462190e-001 -7.796842e+000 94 78 42
1.955661e+000 1.972992e-001 -7.902688e+000 140 125 86
1.893198e+000 1.085261e-001 -7.799298e+000 151 136 97
2.309568e+000 3.071644e-001 -8.333461e+000 161 143 105
2.380682e+000 3.022670e-001 -8.405783e+000 152 134 96
2.350917e+000 2.504543e-001 -8.347086e+000 102 83 51
2.502075e+000 3.178965e-001 -8.540334e+000 110 94 58
2.689282e+000 3.401040e-001 -8.738164e+000 147 132 94
2.669032e+000 2.919736e-001 -8.707776e+000 108 92 58
2.915132e+000 4.442689e-001 -9.039679e+000 105 88 57
3.214070e+000 5.798186e-001 -9.397997e+000 100 88 59
-1.206574e+000 1.676440e+000 -1.080215e+001 114 90 100
-1.204617e+000 1.589937e+000 -1.084732e+001 81 72 73
5.596622e-001 2.250485e-001 -7.763329e+000 209 222 210
1.799521e+000 -8.307015e-002 -7.626591e+000 154 138 102
2.435836e+000 1.956510e-002 -8.326082e+000 121 107 72
2.528866e+000 2.052178e-001 -8.501896e+000 102 86 50
2.567278e+000 1.445730e-001 -8.503220e+000 147 135 97
2.717741e+000 2.363942e-001 -8.736815e+000 150 138 100
2.801231e+000 1.606121e-001 -8.771397e+000 110 93 63
2.941827e+000 1.801718e-001 -8.918912e+000 145 131 96
3.000097e+000 1.491887e-001 -8.941769e+000 143 126 94
-1.123110e+000 1.348344e+000 -1.050180e+001 88 64 68
5.967435e-001 4.775263e-002 -7.716117e+000 205 227 218
1.770732e+000 -1.460849e-001 -7.533708e+000 94 75 41
1.822818e+000 -1.973747e-001 -7.577797e+000 150 135 98
1.897844e+000 -1.715737e-001 -7.650266e+000 106 87 53
1.929254e+000 -2.267251e-001 -7.651259e+000 156 141 104
2.055498e+000 -2.140442e-001 -7.813739e+000 147 131 95
2.546059e+000 -4.951618e-003 -8.411022e+000 111 95 59
2.546059e+000 -4.951618e-003 -8.411022e+000 111 95 59
2.540949e+000 -1.412248e-001 -8.349078e+000 151 135 101
2.757999e+000 1.423298e-002 -8.631520e+000 152 136 102
2.757999e+000 1.423298e-002 -8.631520e+000 152 136 102
2.835288e+000 5.358067e-002 -8.748138e+000 103 87 53
2.576111e+000 -1.034823e-001 -8.391009e+000 100 82 47
2.576111e+000 -1.034823e-001 -8.391009e+000 100 82 47
2.662161e+000 -7.480613e-002 -8.503389e+000 153 135 101
2.718976e+000 -8.499422e-002 -8.541611e+000 150 134 97
2.718976e+000 -8.499422e-002 -8.541611e+000 150 134 97
2.785184e+000 -6.063972e-002 -8.613727e+000 109 93 62
2.949455e+000 2.801722e-002 -8.834511e+000 95 74 45
3.381910e+000 1.354067e-001 -9.299561e+000 101 85 59
-7.479904e-001 9.030813e-001 -1.007272e+001 207 227 212
2.439735e+000 -2.762419e-001 -8.148192e+000 116 100 68
2.439735e+000 -2.762419e-001 -8.148192e+000 116 100 68
2.325382e+000 -3.563716e-001 -7.980554e+000 103 84 50
2.411130e+000 -3.245548e-001 -8.087723e+000 151 135 99
2.625217e+000 -1.671688e-001 -8.389361e+000 153 137 101
2.653266e+000 -2.742057e-001 -8.342508e+000 151 135 101
2.606639e+000 -3.169869e-001 -8.275336e+000 102 86 52
2.606639e+000 -3.169869e-001 -8.275336e+000 102 86 52
2.752543e+000 -1.923332e-001 -8.506173e+000 144 128 94
2.752543e+000 -1.923332e-001 -8.506173e+000 144 128 94
2.790211e+000 -2.136590e-001 -8.511896e+000 149 133 100
2.844109e+000 -1.675821e-001 -8.599759e+000 92 76 43
2.844109e+000 -1.675821e-001 -8.599759e+000 92 76 43
2.783109e+000 -2.964574e-001 -8.469951e+000 151 137 102
3.066541e+000 -1.094303e-001 -8.853814e+000 89 74 43
3.175377e+000 -1.318142e-001 -8.950404e+000 91 75 46
3.122468e+000 -1.560056e-001 -8.905306e+000 138 122 89
2.908298e+000 -2.805557e-001 -8.588958e+000 113 97 64
2.908298e+000 -2.805557e-001 -8.588958e+000 113 97 64
3.047251e+000 -2.026273e-001 -8.792216e+000 113 94 62
3.320300e+000 -1.135029e-001 -9.081843e+000 144 129 100
3.242449e+000 -1.843277e-001 -8.997715e+000 140 123 95
3.154870e+000 -2.168817e-001 -8.905082e+000 96 85 50
3.301047e+000 -1.541518e-001 -9.067308e+000 93 76 47
3.301047e+000 -1.541518e-001 -9.067308e+000 93 76 47
-6.446296e-001 6.918277e-001 -9.870394e+000 215 218 213
1.952189e+000 -5.196814e-001 -7.459676e+000 148 135 100
2.074963e+000 -5.154392e-001 -7.580540e+000 102 86 54
2.425502e+000 -3.791465e-001 -8.058160e+000 102 86 52
2.160033e+000 -5.345174e-001 -7.644895e+000 90 71 41
2.416592e+000 -5.408788e-001 -7.897313e+000 153 142 110
2.677430e+000 -3.611054e-001 -8.342216e+000 146 131 98
2.784599e+000 -3.538544e-001 -8.431139e+000 92 76 43
2.566189e+000 -4.751908e-001 -8.097417e+000 145 130 97
2.658146e+000 -5.358449e-001 -8.146062e+000 88 72 41
2.989425e+000 -4.020341e-001 -8.584931e+000 107 87 59
2.989425e+000 -4.020341e-001 -8.584931e+000 107 87 59
3.418619e+000 -2.793828e-001 -9.110320e+000 89 67 46
3.323430e+000 -4.123664e-001 -8.937293e+000 139 119 95
3.486931e+000 -3.477157e-001 -9.131369e+000 138 120 97
4.433535e+000 -7.067444e-001 -8.376635e+000 171 133 58
4.398196e+000 -7.717322e-001 -8.276293e+000 178 145 63
2.180053e-001 -8.854770e-002 -8.266631e+000 203 228 217
2.180053e-001 -8.854770e-002 -8.266631e+000 203 228 217
2.897175e+000 -5.267390e-001 -8.404393e+000 147 131 97
2.897175e+000 -5.267390e-001 -8.404393e+000 147 131 97
2.942456e+000 -5.420778e-001 -8.416471e+000 148 133 100
2.992833e+000 -5.515699e-001 -8.469982e+000 146 132 97
2.942205e+000 -6.761536e-001 -8.302188e+000 77 62 29
3.230793e+000 -5.522117e-001 -8.711250e+000 95 78 52
3.220824e+000 -6.570462e-001 -8.611089e+000 76 60 35
3.220824e+000 -6.570462e-001 -8.611089e+000 76 60 35
3.341326e+000 -5.744702e-001 -8.815704e+000 82 65 39
3.341326e+000 -5.744702e-001 -8.815704e+000 82 65 39
-1.116827e+000 3.944608e-001 -1.040642e+001 202 196 207
-1.099538e+000 3.684874e-001 -1.029526e+001 202 196 207
2.212917e-001 -2.027130e-001 -8.319406e+000 91 61 85
2.212917e-001 -2.027130e-001 -8.319406e+000 91 61 85
1.081742e+000 -8.539616e-001 -6.803993e+000 70 46 93
3.489377e+000 -7.883616e-001 -8.890084e+000 123 102 81
6.470720e-001 -7.240261e-001 -7.382233e+000 68 60 82
-1.105514e-002 -4.695382e-001 -8.539579e+000 214 228 220
5.717869e-001 -7.745789e-001 -7.543730e+000 66 54 75
6.828850e-001 -8.424420e-001 -7.345932e+000 62 41 72
-3.720701e-001 -5.101794e-001 -9.110355e+000 210 224 217
-3.720701e-001 -5.101794e-001 -9.110355e+000 210 224 217
4.090327e-001 -8.004943e-001 -7.741114e+000 63 49 74
5.080185e-001 -8.859817e-001 -7.576032e+000 67 53 79
5.545721e-001 -9.137896e-001 -7.550450e+000 57 49 72
3.444863e-001 -9.566120e-001 -7.843779e+000 69 55 78
4.564646e-001 -9.917488e-001 -7.657796e+000 63 43 73
4.681220e-001 -1.041222e+000 -7.675890e+000 63 52 73
-3.154230e-001 -8.243978e-001 -8.898183e+000 90 55 68
-2.822523e-001 -8.660027e-001 -8.774978e+000 202 219 211
-5.458005e-001 -8.600700e-001 -9.247994e+000 210 213 212
-2.404548e-001 -9.650681e-001 -8.707603e+000 206 228 218
-2.504493e-001 -9.992888e-001 -8.732134e+000 218 231 217
1.720753e+000 -1.606086e+000 -6.536831e+000 24 18 44
-4.792256e-001 3.480644e+000 -1.019508e+001 115 78 46
1.912270e+000 2.580053e+000 -9.438504e+000 155 142 107
-1.421684e+000 4.332856e+000 -1.176129e+001 145 131 104
-3.363750e-001 3.046876e+000 -9.825267e+000 193 159 98
1.509611e+000 2.385663e+000 -9.023687e+000 156 144 106
-1.666349e+000 4.629663e+000 -1.238335e+001 189 175 148
-1.153968e+000 3.945840e+000 -1.130164e+001 175 150 114
1.602164e+000 1.873942e+000 -8.776540e+000 152 134 98
-1.781913e+000 4.324804e+000 -1.225922e+001 185 171 145
-1.819698e+000 4.431164e+000 -1.245392e+001 185 171 145
-6.261379e-001 3.107283e+000 -1.039117e+001 203 173 113
1.661690e+000 1.837633e+000 -8.795661e+000 154 140 101
2.310906e+000 1.955572e+000 -9.421875e+000 152 138 103
-7.740525e-001 3.049637e+000 -1.059889e+001 195 168 113
-2.551966e-001 2.350255e+000 -9.598045e+000 208 222 209
-2.084339e-001 2.325183e+000 -9.565833e+000 80 65 66
2.825474e+000 1.937652e+000 -9.804363e+000 123 108 77
2.827539e+000 1.823308e+000 -9.777150e+000 102 87 57
2.819517e+000 1.809804e+000 -9.745697e+000 102 87 57
-1.666119e+000 3.632713e+000 -1.190797e+001 153 121 74
-1.115011e+000 3.060631e+000 -1.112319e+001 104 67 48
2.407948e-001 1.652777e+000 -8.578338e+000 211 224 214
3.276804e-001 1.512048e+000 -8.437101e+000 213 223 214
2.656719e+000 1.747178e+000 -9.655041e+000 93 79 47
3.161282e+000 1.673013e+000 -1.004448e+001 87 73 46
-4.002174e-001 2.149953e+000 -9.853975e+000 77 70 72
3.574747e-001 1.232548e+000 -8.380723e+000 78 61 70
3.574747e-001 1.232548e+000 -8.380723e+000 78 61 70
-1.214241e+000 2.523382e+000 -1.109823e+001 135 103 53
1.215791e-001 1.331505e+000 -8.746084e+000 214 222 215
1.651568e+000 6.888657e-001 -7.846166e+000 151 137 100
2.127195e-002 1.240772e+000 -8.895705e+000 211 232 220
-1.437813e+000 2.199896e+000 -1.129651e+001 80 57 73
1.724019e+000 3.540180e-001 -7.738739e+000 150 134 98
1.708450e+000 2.361380e-001 -7.644862e+000 158 142 106
-5.901554e-001 1.353174e+000 -9.927147e+000 210 224 213
1.855858e+000 1.069393e-001 -7.746845e+000 152 137 96
2.040270e+000 2.586401e-001 -8.004582e+000 152 134 96
2.040270e+000 2.586401e-001 -8.004582e+000 152 134 96
2.431610e+000 2.779015e-001 -8.446571e+000 147 131 95
4.646365e-001 2.797742e-001 -7.993691e+000 98 79 93
4.646365e-001 2.797742e-001 -7.993691e+000 98 79 93
1.653185e+000 -1.743287e-002 -7.452587e+000 104 88 52
1.653185e+000 -1.743287e-002 -7.452587e+000 104 88 52
2.468766e+000 1.216019e-001 -8.415586e+000 104 88 53
2.722842e+000 1.236641e-001 -8.651587e+000 152 136 100
-2.713433e-001 6.875899e-001 -9.282657e+000 91 68 71
1.775966e+000 -1.931776e-001 -7.516164e+000 155 141 105
1.775048e+000 -2.962161e-001 -7.450420e+000 147 134 90
1.839325e+000 -2.508399e-001 -7.565942e+000 87 74 42
2.157007e+000 -1.812861e-001 -7.923087e+000 158 139 106
2.363391e+000 -1.686671e-001 -8.136985e+000 104 88 52
-5.769342e-001 7.496478e-001 -9.810487e+000 210 224 218
4.432283e-001 -5.828017e-002 -7.889656e+000 77 63 82
1.995019e+000 -2.907978e-001 -7.697027e+000 85 68 38
2.046053e+000 -3.021377e-001 -7.746000e+000 102 85 54
2.479179e+000 -2.868738e-001 -8.185600e+000 98 82 48
2.951496e+000 -1.514192e-001 -8.719672e+000 146 132 98
-1.096357e+000 9.574888e-001 -1.053899e+001 93 76 88
-1.161787e+000 9.145843e-001 -1.061335e+001 80 78 81
2.393825e+000 -4.785374e-001 -7.938657e+000 90 75 43
2.393825e+000 -4.785374e-001 -7.938657e+000 90 75 43
3.280937e+000 -7.767118e-001 -8.644121e+000 60 39 20
3.572154e+000 -7.044250e-001 -9.043038e+000 119 99 75
-1.415361e-001 -4.966796e-001 -8.768061e+000 96 70 84
-3.401305e-001 -8.811164e-001 -8.942550e+000 103 64 73
1.245314e+000 -1.480289e+000 -6.500587e+000 133 141 164
-5.078036e-001 -1.276985e+000 -9.082612e+000 73 55 70
1.410598e+000 2.235662e+000 -8.769240e+000 121 102 71
1.666923e+000 2.165088e+000 -8.990716e+000 155 144 108
-1.587052e+000 4.147130e+000 -1.183137e+001 144 128 103
-1.511223e+000 4.386567e+000 -1.184744e+001 187 171 143
-5.948928e-001 3.290478e+000 -1.037342e+001 93 65 43
-6.038748e-001 3.319076e+000 -1.040968e+001 93 65 43
-1.881744e+000 4.244505e+000 -1.230955e+001 189 177 151
1.621826e+000 1.591675e+000 -8.541007e+000 151 138 100
1.621826e+000 1.591675e+000 -8.541007e+000 151 138 100
-1.379482e+000 3.644981e+000 -1.156633e+001 150 109 68
1.765775e+000 1.567285e+000 -8.689832e+000 155 141 104
-1.566173e+000 3.444049e+000 -1.168362e+001 160 124 85
3.260728e+000 1.769514e+000 -1.008880e+001 92 62 32
-3.968517e-001 2.190894e+000 -9.801000e+000 209 229 213
-6.176872e-001 2.097706e+000 -1.015322e+001 214 221 214
-1.830493e-001 1.586063e+000 -9.260233e+000 82 66 69
1.597476e+000 5.233410e-001 -7.725295e+000 129 117 86
2.043410e+000 3.710052e-001 -8.073938e+000 156 140 97
-7.015785e-001 1.221503e+000 -1.007078e+001 90 70 81
-1.402266e-001 8.817713e-001 -9.122375e+000 207 231 211
-1.395711e-001 8.790859e-001 -9.114539e+000 207 231 211
1.548605e-001 4.928811e-001 -8.473494e+000 210 230 218
-5.011865e-001 9.390750e-001 -9.819314e+000 118 81 98
2.930566e+000 -3.165060e-002 -8.798501e+000 146 130 94
-3.120759e-001 1.955400e-001 -9.227772e+000 213 232 220
-8.707613e-001 3.513620e-001 -1.013985e+001 213 234 224
3.497359e+000 -8.982320e-001 -8.893349e+000 120 101 70
3.986869e-001 -9.886305e-001 -7.771992e+000 70 66 87
-4.986297e-002 -9.430346e-001 -8.415881e+000 84 67 85
1.105931e+000 -1.380828e+000 -6.624011e+000 47 41 79
-9.075615e-001 -8.642021e-001 -9.719828e+000 215 226 219
2.036385e+000 2.405649e+000 -9.440819e+000 152 139 104
3.196457e+000 3.104266e+000 -1.094997e+001 91 63 34
2.716775e+000 2.174736e+000 -9.813655e+000 156 142 107
-1.054385e+000 3.324305e+000 -1.110062e+001 86 52 43
-1.054385e+000 3.324305e+000 -1.110062e+001 86 52 43
1.665969e+000 7.773588e-001 -7.859257e+000 155 140 101
-1.147771e-002 1.478827e+000 -9.034979e+000 85 73 89
2.778819e-002 1.171412e+000 -8.896920e+000 98 70 92
-1.357125e+000 2.174657e+000 -1.118979e+001 157 130 95
-2.969575e-001 1.374917e+000 -9.479584e+000 210 215 208
5.739670e-002 1.045498e+000 -8.805151e+000 211 230 212
-4.517114e-001 1.361007e+000 -9.638448e+000 89 73 82
3.386865e+000 3.445166e-001 -9.436668e+000 133 116 86
-6.117548e-001 9.174141e-001 -9.860289e+000 97 62 83
-4.684789e-001 9.039815e-001 -9.571330e+000 119 75 92
-4.684789e-001 9.039815e-001 -9.571330e+000 119 75 92
2.261646e-001 -1.847365e-002 -8.362161e+000 210 229 219
-8.434563e-001 5.099816e-001 -1.015821e+001 121 84 101
-8.434563e-001 5.099816e-001 -1.015821e+001 121 84 101
3.689785e+000 -4.764874e-001 -9.304794e+000 81 48 28
-9.715094e-001 4.051462e-001 -1.026395e+001 82 71 94
-9.538482e-001 3.742673e-001 -1.012957e+001 82 71 94
-6.538910e-001 3.294753e-001 -9.791989e+000 111 79 82
-4.625478e-001 -6.147944e-001 -9.089764e+000 83 67 74
9.114436e-001 -1.248101e+000 -6.751771e+000 62 44 99
-6.271201e-001 -8.635404e-001 -9.390166e+000 82 65 71
-3.915506e-001 -9.648933e-001 -8.978894e+000 104 66 74
1.104527e+000 -1.462081e+000 -6.619195e+000 60 54 90
1.361472e+000 -1.519865e+000 -6.563317e+000 138 147 174
8.294250e-001 1.908765e+000 -7.904958e+000 64 48 50
-1.397749e-001 2.486967e+000 -9.422881e+000 207 228 210
3.022519e+000 2.281232e+000 -1.019002e+001 140 124 92
-1.816271e+000 3.151208e+000 -1.217108e+001 77 65 75
-1.240667e+000 2.685661e+000 -1.114541e+001 193 170 125
2.287473e-001 1.349132e+000 -8.637900e+000 82 65 69
-5.339412e-001 1.259918e+000 -9.874060e+000 105 72 88
-4.526425e-001 7.049561e-001 -9.579511e+000 90 79 87
3.387901e+000 -3.205466e-002 -9.254550e+000 116 101 72
4.405288e+000 -6.886564e-001 -8.466553e+000 195 164 81
4.361257e+000 -7.831098e-001 -8.315041e+000 192 163 83
3.491209e+000 -4.663429e-001 -9.085165e+000 97 77 52
4.421760e+000 -8.732002e-001 -8.369381e+000 200 176 88
6.460224e-001 -5.704533e-001 -7.430134e+000 84 62 97
4.160731e-001 -5.092075e-001 -7.800851e+000 206 228 214
8.616327e-001 -1.315966e+000 -6.782180e+000 158 167 185
1.908313e+000 -1.549611e+000 -6.552423e+000 142 146 172
-3.135092e-001 -9.262371e-001 -8.860339e+000 185 167 167
1.027835e+000 -1.455563e+000 -6.675513e+000 55 44 84
-7.944770e-001 3.122702e+000 -1.063258e+001 170 140 79
1.272645e+000 1.406416e+000 -8.008374e+000 157 139 99
-1.159538e+000 3.274567e+000 -1.119945e+001 187 158 102
-1.121543e+000 2.848167e+000 -1.108606e+001 131 85 54
-1.306241e+000 2.856772e+000 -1.119312e+001 96 65 60
-7.407953e-001 2.118757e+000 -1.023734e+001 78 68 63
-2.452995e-001 7.534962e-001 -9.249711e+000 211 232 215
3.439239e+000 -9.161825e-001 -8.824315e+000 111 90 61
-2.029358e-001 -3.267605e-001 -8.953081e+000 208 227 211
-2.052304e-001 -3.319628e-001 -8.927210e+000 208 227 211
-9.314709e-002 -4.529659e-001 -8.663862e+000 103 68 88
3.585264e+000 -9.771394e-001 -8.974937e+000 100 79 59
1.283705e+000 -1.567393e+000 -6.617192e+000 63 59 94
-5.820820e-001 -1.139384e+000 -9.264165e+000 216 207 208
2.475311e+000 -2.401888e+000 -6.623210e+000 109 78 59
8.342651e-001 -2.329338e+000 -7.109386e+000 44 31 49
-2.025544e+000 4.428954e+000 -1.255184e+001 173 164 157
-1.416440e+000 3.507586e+000 -1.161204e+001 97 60 46
-1.419605e+000 2.288576e+000 -1.128426e+001 173 141 91
3.194145e+000 6.482030e-001 -9.385682e+000 104 97 71
3.579951e+000 5.882258e-001 -9.828867e+000 89 59 31
2.949698e-001 -3.624585e-001 -8.043121e+000 80 56 78
1.169384e+000 -1.336323e+000 -6.630242e+000 45 30 71
1.258006e+000 -1.735107e+000 -6.594228e+000 81 70 113
2.407453e+000 -2.322281e+000 -6.433796e+000 46 31 34
3.006479e+000 2.009368e+000 -1.001510e+001 143 127 93
-2.595201e-001 6.366190e-002 -9.121946e+000 87 67 78
-5.169699e-001 2.891258e+000 -1.017906e+001 200 186 139
1.474658e+000 9.687409e-001 -7.952708e+000 157 143 104
-7.596355e-001 9.228186e-001 -1.005307e+001 212 212 214
1.303023e+000 -1.497102e+000 -6.578479e+000 99 104 134
4.824426e-001 -1.858947e+000 -7.306514e+000 75 60 103
6.758096e-001 -7.994301e-001 -7.211683e+000 103 88 122
4.157986e-001 -9.766735e-001 -7.733651e+000 81 71 94
7.816194e-001 -4.649505e-001 -7.322701e+000 82 59 102
8.873712e-001 -1.905341e+000 -6.956317e+000 47 35 83
-3.242016e+001 1.669214e+001 -8.181936e+001 87 68 90
-3.161713e+001 2.264053e+001 -8.141210e+001 108 93 117
-3.138364e+001 1.900654e+001 -8.135754e+001 187 78 94
-2.474465e+001 1.212687e+001 -6.953996e+001 163 171 156
-2.763368e+001 1.836960e+001 -7.334377e+001 134 63 83
-2.530448e+001 2.176399e+001 -7.602484e+001 203 53 72
-2.814022e+001 2.117314e+001 -7.660743e+001 221 63 76
-2.062309e+001 2.023237e+001 -7.577735e+001 205 55 70
-1.531801e+001 -1.217926e+000 -6.682555e+001 32 27 50
-2.697535e+001 1.630206e+001 -7.270855e+001 100 62 115
-2.638197e+001 1.750716e+001 -7.269440e+001 207 209 196
-2.638197e+001 1.750716e+001 -7.269440e+001 207 209 196
-2.480494e+001 1.752984e+001 -7.241518e+001 190 43 53
-2.049457e+001 1.843223e+001 -7.657327e+001 189 43 56
-1.845265e+001 1.251814e+001 -7.265844e+001 176 50 53
-3.523175e+001 1.804133e+001 -8.553999e+001 167 146 101
-2.259309e+001 1.922200e+001 -7.630218e+001 39 28 58
-5.088888e+001 7.883654e+000 -8.833829e+001 63 36 46
-4.981484e+001 2.996989e-001 -8.664685e+001 218 199 195
-3.043536e+001 2.114966e+000 -7.655110e+001 83 49 64
1.842045e-001 6.142786e-001 -8.460038e+000 91 75 81
6.207411e-001 4.124953e-002 -7.665630e+000 74 56 95
7.437351e-001 -7.338712e-001 -7.254670e+000 133 128 151
7.398221e-001 -7.039865e-001 -7.243505e+000 69 58 92
3.964812e-001 -8.269895e-001 -7.762575e+000 167 166 170
1.070889e-001 1.815701e+000 -8.892048e+000 213 224 210
2.914566e+000 1.758749e+000 -9.829861e+000 126 109 76
-1.442465e-001 1.668583e+000 -9.248601e+000 88 71 77
6.905041e-001 -7.461445e-001 -7.325374e+000 63 51 78
-7.985314e-001 1.621883e+000 -1.027106e+001 92 71 87
7.600178e-001 -8.199209e-001 -7.229340e+000 179 191 182
-1.148249e+000 4.686620e+000 -1.148627e+001 163 130 82
-5.233440e-001 3.808336e+000 -1.027474e+001 175 130 84
-1.114380e+000 4.324757e+000 -1.134543e+001 155 124 76
-3.261967e-001 3.274619e+000 -9.884056e+000 149 106 68
-1.283020e-001 2.513185e+000 -9.312160e+000 83 69 61
-1.349560e+000 3.873743e+000 -1.155794e+001 168 160 125
-8.774226e-001 3.312306e+000 -1.068220e+001 141 113 76
-5.739851e-001 3.037494e+000 -1.028234e+001 178 157 92
-3.465828e-001 2.776981e+000 -9.824012e+000 196 171 122
9.151628e-002 1.748475e+000 -8.855864e+000 80 73 74
-9.909956e-001 2.586024e+000 -1.082557e+001 172 131 106
-1.259032e+000 2.617222e+000 -1.115927e+001 161 135 75
-6.137388e-001 2.082004e+000 -1.021880e+001 206 219 207
4.485641e+000 2.024150e-001 -8.424610e+000 180 138 54
-4.886537e-001 1.402577e+000 -9.601458e+000 79 64 73
1.625403e-001 -4.865455e-001 -8.279920e+000 215 219 220
7.069144e-002 -4.425303e-001 -8.463762e+000 93 65 68
1.377580e-001 -5.355335e-001 -8.309777e+000 73 48 68
5.968539e-001 -7.537874e-001 -7.508462e+000 74 60 82
5.968539e-001 -7.537874e-001 -7.508462e+000 74 60 82
5.637149e-001 -7.977694e-001 -7.473894e+000 68 58 82
4.048661e-001 -9.074284e-001 -7.774253e+000 70 53 75
3.320535e-001 -9.053358e-001 -7.845357e+000 58 51 68
4.361663e-001 -1.042968e+000 -7.706784e+000 65 57 81
4.865760e-001 -1.081278e+000 -7.673502e+000 73 56 92
8.096929e-001 -1.313474e+000 -6.704126e+000 60 50 103
-2.917114e-001 3.518508e+000 -9.845585e+000 197 185 133
-1.246782e+000 4.418408e+000 -1.151506e+001 127 112 83
-5.774779e-001 3.736801e+000 -1.035031e+001 120 81 41
-1.682826e+000 4.609038e+000 -1.214612e+001 186 175 147
-1.616018e+000 4.555541e+000 -1.207648e+001 144 130 101
-2.970120e-001 2.755723e+000 -9.609046e+000 190 162 101
2.189774e+000 2.092875e+000 -9.369989e+000 157 143 106
-6.356685e-001 2.985076e+000 -1.040042e+001 170 136 72
-8.660834e-001 3.126460e+000 -1.065156e+001 200 168 115
-9.320521e-001 3.091905e+000 -1.085403e+001 125 81 50
-3.076115e-001 2.374210e+000 -9.657387e+000 80 65 68
2.052634e-001 1.892950e+000 -8.679588e+000 217 220 215
2.052634e-001 1.892950e+000 -8.679588e+000 217 220 215
2.383578e+000 1.832892e+000 -9.457562e+000 150 138 101
3.050776e+000 1.950915e+000 -9.972150e+000 150 134 101
2.746294e+000 1.613671e+000 -9.695203e+000 104 89 58
-1.164676e+000 2.907813e+000 -1.112807e+001 188 155 120
4.606155e+000 2.716544e-001 -8.250635e+000 188 146 60
3.991353e-001 7.972825e-001 -8.070923e+000 75 62 67
-2.701429e-001 1.383132e+000 -9.455277e+000 210 220 208
-1.400654e-001 1.094025e+000 -9.119651e+000 198 223 213
-1.400654e-001 1.094025e+000 -9.119651e+000 198 223 213
1.863114e+000 1.501300e-001 -7.756298e+000 96 78 44
-3.716178e-001 9.622494e-001 -9.469358e+000 101 74 77
-8.116639e-001 1.115941e+000 -1.010986e+001 85 70 81
-7.866763e-001 1.120583e+000 -1.019061e+001 209 204 203
-9.988852e-001 9.997170e-001 -1.034866e+001 91 78 90
6.168421e-001 -4.102227e-001 -7.520003e+000 217 230 227
3.702242e+000 -8.912735e-001 -9.153374e+000 113 95 73
6.213451e-001 -8.830268e-001 -7.442076e+000 69 50 76
-9.051286e-001 4.342261e+000 -1.103737e+001 92 60 39
-8.231240e-001 4.266686e+000 -1.088712e+001 151 116 94
-1.019023e-001 3.159261e+000 -9.355920e+000 191 164 109
-1.477076e+000 4.528355e+000 -1.165441e+001 191 177 150
-1.455912e+000 4.665461e+000 -1.188037e+001 133 116 85
-4.949373e-001 3.733934e+000 -1.028208e+001 155 107 63
-2.387021e-001 3.083729e+000 -9.598836e+000 110 77 46
-1.726470e-001 3.084017e+000 -9.470183e+000 119 86 41
-1.495724e+000 4.266007e+000 -1.181451e+001 145 131 104
-9.716641e-001 3.336053e+000 -1.090970e+001 173 143 91
2.012589e+000 1.940057e+000 -9.193477e+000 119 105 68
-9.013045e-001 3.016203e+000 -1.081123e+001 162 113 82
2.013669e-001 1.704110e+000 -8.637295e+000 76 73 72
2.605745e+000 1.800845e+000 -9.624264e+000 148 134 99
2.903942e+000 1.963117e+000 -9.865832e+000 152 137 104
-1.778525e+000 3.413442e+000 -1.195618e+001 161 127 80
-1.066637e+000 2.723216e+000 -1.094671e+001 170 125 97
-6.506193e-001 2.428414e+000 -1.026885e+001 80 62 70
3.216322e+000 1.555001e+000 -1.007602e+001 56 39 19
4.624637e+000 4.324684e-001 -8.248644e+000 190 150 63
-1.154768e+000 2.564576e+000 -1.103069e+001 112 77 58
-1.654826e+000 2.673512e+000 -1.164550e+001 83 65 79
-9.609853e-001 1.070258e+000 -1.042779e+001 102 88 103
-8.549449e-001 1.057080e+000 -1.024505e+001 211 226 219
1.946841e+000 -2.920032e-001 -7.630343e+000 99 84 49
1.434950e+000 -1.359567e+000 -6.482026e+000 59 47 49
-2.446544e-001 -8.527734e-001 -8.771731e+000 215 231 221
-6.439990e-001 -9.186579e-001 -9.405732e+000 209 218 213
1.309148e+000 -1.750390e+000 -6.584661e+000 63 51 84
-1.322719e+000 4.428042e+000 -1.152092e+001 188 174 147
-1.322719e+000 4.428042e+000 -1.152092e+001 188 174 147
-4.311887e-001 3.589355e+000 -1.012170e+001 198 177 123
-3.924260e-001 3.365933e+000 -1.003221e+001 188 153 112
1.620260e+000 2.491080e+000 -9.126288e+000 156 140 106
-2.212042e+000 4.980219e+000 -1.264495e+001 72 70 81
2.969309e+000 3.076181e+000 -1.065558e+001 129 123 100
