ply
format ascii 1.0
element face 0
property list uchar int vertex_indices
element vertex 874
property float x
property float y
property float z
property uchar diffuse_red
property uchar diffuse_green
property uchar diffuse_blue
end_header
1.916308e-001 -7.571061e-001 -8.237908e+000 212 209 218
1.916308e-001 -7.571061e-001 -8.237908e+000 212 209 218
1.858010e+000 1.644045e+000 -8.744528e+000 172 150 129
1.989110e+000 1.669355e+000 -8.917829e+000 140 117 99
2.073417e+000 1.628878e+000 -8.997697e+000 127 102 80
2.170590e+000 1.540987e+000 -9.011727e+000 174 153 132
2.392752e+000 1.493793e+000 -9.200294e+000 175 154 133
2.420885e+000 1.567312e+000 -9.231176e+000 176 154 131
-7.636529e-001 5.134967e+000 -1.097494e+001 191 205 198
-3.081272e-001 5.714878e+000 -1.034351e+001 66 55 50
-4.908446e-001 5.021339e+000 -1.049327e+001 199 175 137
1.035536e-001 6.232111e+000 -9.709007e+000 88 87 106
9.051111e-002 5.991395e+000 -9.721670e+000 149 136 105
-3.953969e-001 4.359729e+000 -1.024167e+001 175 135 83
-8.072304e-002 5.321700e+000 -9.863149e+000 202 188 149
-9.833128e-001 2.526175e+000 -1.084682e+001 97 62 52
1.765103e-001 5.978128e+000 -9.549261e+000 61 52 68
2.178373e-001 6.018778e+000 -9.545819e+000 167 163 116
-1.108024e+000 1.670586e+000 -1.079334e+001 211 233 221
2.758146e-001 5.818892e+000 -9.436717e+000 49 36 31
-8.921874e-001 1.661100e+000 -1.050148e+001 210 227 221
-6.879333e-001 1.636141e+000 -1.027531e+001 214 229 226
-3.163767e-001 3.119528e+000 -9.946925e+000 100 68 55
1.279900e+000 5.335592e+000 -9.988341e+000 150 123 93
1.439641e+000 5.234150e+000 -1.010808e+001 152 125 88
-3.702717e-001 2.130448e+000 -9.861686e+000 207 222 222
-4.306676e-001 9.874594e-001 -9.755224e+000 104 63 98
-1.698496e-001 2.368790e+000 -9.530064e+000 213 216 219
-2.115112e-002 2.939370e+000 -9.322073e+000 198 187 143
3.108238e+000 3.065706e+000 -1.069106e+001 124 110 95
3.205394e+000 2.685820e+000 -1.062460e+001 145 124 109
2.000710e-001 -1.855487e-001 -8.506505e+000 218 219 229
3.437792e-001 1.182110e+000 -8.407817e+000 216 226 221
1.780838e+000 2.128567e+000 -9.058807e+000 169 147 125
2.253823e+000 2.149086e+000 -9.381983e+000 173 148 126
2.491739e+000 2.175943e+000 -9.594274e+000 172 147 125
1.212171e-001 -7.783111e-001 -8.326825e+000 128 81 127
3.868582e-001 -6.423085e-002 -8.220759e+000 208 220 218
2.104697e+000 1.556227e+000 -8.949231e+000 172 151 132
2.288774e+000 1.487480e+000 -9.104154e+000 174 154 132
2.558964e+000 1.418884e+000 -9.342627e+000 177 155 134
-5.350017e-001 5.046794e+000 -1.056390e+001 179 155 107
-1.285821e-001 5.342342e+000 -9.983349e+000 201 184 139
7.317731e-002 6.189493e+000 -9.703042e+000 171 171 152
7.317731e-002 6.189493e+000 -9.703042e+000 171 171 152
1.549546e-001 6.115409e+000 -9.611076e+000 123 113 119
4.583044e-001 6.119110e+000 -9.807408e+000 72 53 46
8.988633e-002 5.621061e+000 -9.714864e+000 80 75 98
-4.322755e-001 3.733614e+000 -1.019759e+001 164 105 61
-4.322755e-001 3.733614e+000 -1.019759e+001 164 105 61
-9.352919e-001 1.667347e+000 -1.057747e+001 69 54 77
-9.352919e-001 1.667347e+000 -1.057747e+001 69 54 77
1.302075e+000 5.360757e+000 -1.004544e+001 146 119 89
1.776806e+000 5.258907e+000 -1.047875e+001 154 125 97
1.112813e+000 3.926391e+000 -9.326257e+000 166 142 110
1.143710e-001 1.667462e+000 -8.904862e+000 170 166 177
2.862237e-001 2.222432e+000 -8.662714e+000 148 123 137
1.198175e+000 3.191065e+000 -8.991367e+000 167 140 110
-3.846918e-002 -3.292647e-001 -8.819786e+000 219 224 228
-4.119344e-002 -3.581982e-001 -8.823723e+000 219 224 228
1.349540e+000 2.982216e+000 -9.043505e+000 146 123 92
2.777266e+000 2.570748e+000 -1.006449e+001 167 144 120
2.096372e+000 2.389960e+000 -9.369571e+000 172 154 130
-6.181099e-002 -9.702295e-001 -8.406931e+000 84 74 110
2.095297e-001 4.543791e-001 -8.398545e+000 93 87 103
2.786594e-001 5.456330e-001 -8.432498e+000 217 222 222
2.352842e-001 -5.325046e-001 -8.354913e+000 119 76 112
2.738623e+000 1.462684e+000 -9.500936e+000 172 151 134
2.965493e+000 1.424592e+000 -9.674789e+000 174 151 133
5.431008e-002 6.422020e+000 -9.816427e+000 129 131 154
1.547453e-001 6.210147e+000 -9.667746e+000 109 108 124
-4.446271e-001 4.131316e+000 -1.035218e+001 93 66 57
2.200119e-001 6.081999e+000 -9.579799e+000 80 50 47
2.020633e+000 4.413926e+000 -1.035492e+001 139 114 94
1.254792e+000 3.605796e+000 -9.292779e+000 130 107 80
1.131829e+000 3.573758e+000 -9.088944e+000 166 139 110
1.254531e+000 3.512513e+000 -9.233498e+000 171 143 115
1.363160e+000 3.232602e+000 -9.235286e+000 147 132 111
1.392096e+000 2.273528e+000 -8.691038e+000 134 110 86
1.392096e+000 2.273528e+000 -8.691038e+000 134 110 86
3.450423e+000 1.308574e+000 -9.911669e+000 105 61 34
-1.362765e+000 3.375588e+000 -1.149622e+001 88 61 54
-8.254388e-001 4.292386e+000 -1.100359e+001 92 66 60
-8.248886e-001 4.295304e+000 -1.100199e+001 92 66 60
-1.403829e+000 2.509122e+000 -1.131479e+001 164 135 95
-1.827289e-001 5.614211e+000 -1.018366e+001 191 170 113
-3.831054e-001 3.391116e+000 -1.008003e+001 163 119 90
-3.880800e-001 3.446520e+000 -1.005142e+001 163 119 90
7.853259e-003 4.659513e+000 -9.534024e+000 201 185 139
2.849000e+000 4.838040e+000 -1.135362e+001 65 42 32
-2.161313e-001 2.019797e+000 -9.697542e+000 204 209 211
3.931673e-003 2.517000e+000 -9.382422e+000 66 56 63
-6.364136e-001 -1.832666e+000 -9.230451e+000 80 68 109
2.484997e-001 2.157749e+000 -8.843150e+000 208 222 218
-1.206820e-002 6.272186e+000 -9.900222e+000 79 73 101
-1.217605e+000 2.955035e+000 -1.118762e+001 84 56 53
-1.217605e+000 2.955035e+000 -1.118762e+001 84 56 53
-3.329051e-001 4.269794e+000 -1.012808e+001 90 61 50
-2.641589e-001 3.186130e+000 -9.885714e+000 180 127 96
2.354650e-001 3.868600e+000 -9.047733e+000 203 189 152
4.907485e-002 2.165709e+000 -9.245160e+000 75 60 81
4.389470e-002 2.198426e+000 -9.232221e+000 75 60 81
2.514532e-002 -8.376324e-001 -8.499194e+000 147 134 152
2.203612e-001 6.607982e+000 -9.919599e+000 41 30 38
-5.270006e-001 4.104367e+000 -1.045773e+001 78 63 58
-5.270006e-001 4.104367e+000 -1.045773e+001 78 63 58
4.682803e-003 5.471151e+000 -9.665953e+000 203 191 153
-8.448460e-001 1.514144e+000 -1.028790e+001 75 63 86
-9.481418e-001 4.592754e+000 -1.121785e+001 89 68 63
-1.112079e+000 3.620593e+000 -1.128630e+001 85 62 54
-6.497902e-001 4.024792e+000 -1.066987e+001 98 81 71
-6.497902e-001 4.024792e+000 -1.066987e+001 98 81 71
-3.599128e-001 4.999750e+000 -1.030057e+001 102 75 64
-1.234254e+000 2.752044e+000 -1.102872e+001 194 167 105
9.465819e-002 5.898988e+000 -9.555907e+000 74 63 93
2.365656e+000 4.973920e+000 -1.097280e+001 142 116 91
2.365656e+000 4.973920e+000 -1.097280e+001 142 116 91
-1.178975e+000 4.152579e+000 -1.137785e+001 202 191 171
-1.178975e+000 4.152579e+000 -1.137785e+001 202 191 171
-4.882811e-001 5.246795e+000 -1.060010e+001 161 174 165
4.295800e-001 6.667423e+000 -1.001372e+001 70 63 89
3.167415e+000 3.984390e+000 -1.113738e+001 88 52 26
2.051149e+000 5.951557e+000 -1.344689e+001 181 132 74
2.258826e+000 6.041332e+000 -1.321634e+001 142 109 38
2.295023e+000 5.992222e+000 -1.329812e+001 142 109 38
2.267308e+000 6.249636e+000 -1.317747e+001 223 195 111
-1.270334e+000 3.760263e+000 -1.143565e+001 166 132 81
-5.051891e-001 5.605262e+000 -1.061528e+001 159 175 165
2.618368e+000 6.221321e+000 -1.284057e+001 155 115 56
-2.337331e-001 5.656573e+000 -1.021403e+001 164 125 62
-9.242813e-001 2.545762e+000 -1.077750e+001 181 154 120
-2.927692e-001 4.251872e+000 -1.006617e+001 103 65 46
-1.105646e+000 7.002047e-001 -1.048961e+001 80 79 94
2.071965e+000 5.166389e+000 -1.076016e+001 136 116 91
2.418913e+000 4.990393e+000 -1.101844e+001 81 54 33
-5.836969e-001 6.276874e-001 -9.888127e+000 205 205 215
-1.614682e-001 8.891842e-001 -9.210645e+000 96 70 83
1.028320e-002 -1.099407e+000 -8.478121e+000 111 103 127
2.209000e-001 -6.657279e-001 -8.186665e+000 100 74 105
2.624579e+000 1.365294e+000 -9.323960e+000 128 105 89
2.149533e+000 6.294956e+000 -1.341541e+001 195 163 76
2.167305e+000 6.123511e+000 -1.337837e+001 201 167 86
2.361121e+000 6.369347e+000 -1.336102e+001 211 178 85
2.197050e+000 6.095675e+000 -1.315163e+001 188 155 84
2.208737e+000 6.159991e+000 -1.324788e+001 205 176 96
2.495735e+000 6.291271e+000 -1.271497e+001 163 125 62
-1.185170e+000 2.174064e+000 -1.107814e+001 185 149 91
-1.049675e+000 2.536855e+000 -1.090717e+001 88 57 52
-7.494421e-001 2.418030e+000 -1.048850e+001 194 158 102
-1.213193e-001 4.177895e+000 -9.788634e+000 206 177 121
-3.632851e-002 4.384029e+000 -9.647014e+000 156 114 53
-2.596734e-001 3.242317e+000 -9.864764e+000 177 128 99
2.298047e+000 4.454109e+000 -1.057396e+001 86 64 40
-1.710807e-001 9.130657e-001 -9.326980e+000 202 209 214
2.036241e+000 3.592064e+000 -1.005336e+001 134 110 83
1.886989e+000 3.393821e+000 -9.791056e+000 165 147 125
1.940583e+000 3.325222e+000 -9.793782e+000 118 112 112
2.108560e+000 3.444043e+000 -1.001686e+001 169 148 121
2.108560e+000 3.444043e+000 -1.001686e+001 169 148 121
2.587263e+000 3.226833e+000 -1.030647e+001 155 140 122
1.941398e+000 3.229257e+000 -9.723502e+000 121 118 113
2.221879e+000 3.033788e+000 -9.816106e+000 169 148 125
1.842057e+000 2.816125e+000 -9.428519e+000 122 100 79
1.855839e+000 2.673618e+000 -9.363522e+000 168 148 123
2.229378e+000 2.562457e+000 -9.572839e+000 143 121 97
2.947397e-001 1.323735e+000 -8.579063e+000 193 198 200
1.868156e+000 2.499659e+000 -9.280423e+000 132 115 90
1.733458e-001 -4.976250e-001 -8.452772e+000 126 81 113
1.254918e+000 2.307408e+000 -8.547759e+000 134 108 85
2.476657e+000 1.536703e+000 -9.346903e+000 134 112 91
2.523891e+000 1.581778e+000 -9.386013e+000 138 116 93
2.523891e+000 1.581778e+000 -9.386013e+000 138 116 93
2.241782e+000 1.598979e+000 -9.144956e+000 136 115 94
2.241782e+000 1.598979e+000 -9.144956e+000 136 115 94
2.420494e+000 1.246325e+000 -9.052502e+000 138 118 97
2.267084e+000 6.308768e+000 -1.342677e+001 233 212 119
-1.022551e+000 4.924628e+000 -1.130245e+001 209 225 215
2.079011e+000 5.974108e+000 -1.354593e+001 174 134 65
2.058419e+000 5.943871e+000 -1.345812e+001 174 133 71
2.368276e+000 6.274915e+000 -1.303057e+001 192 156 77
-1.550539e+000 3.054592e+000 -1.161242e+001 105 77 62
-1.214874e+000 3.643050e+000 -1.138391e+001 95 62 45
-4.306223e-001 5.359624e+000 -1.047562e+001 209 219 194
-6.953143e-002 6.342161e+000 -9.951310e+000 112 100 114
-6.796365e-001 3.874107e+000 -1.066070e+001 153 110 72
-1.079373e-001 4.437451e+000 -9.804883e+000 186 137 81
1.488889e+000 5.188286e+000 -1.014527e+001 156 130 97
-2.316783e-001 1.490600e+000 -9.492162e+000 73 60 77
2.009793e+000 3.563157e+000 -9.998958e+000 165 144 115
9.862330e-001 3.763232e+000 -9.022189e+000 125 99 74
9.862330e-001 3.763232e+000 -9.022189e+000 125 99 74
1.958419e+000 3.386680e+000 -9.839397e+000 165 145 126
2.056312e+000 3.442690e+000 -9.979282e+000 162 140 117
2.697515e+000 3.136570e+000 -1.033189e+001 151 139 123
1.763988e+000 3.286766e+000 -9.643631e+000 160 151 136
2.017407e+000 3.152101e+000 -9.747185e+000 158 148 141
2.274750e-001 1.328651e+000 -8.658173e+000 206 211 214
2.818289e+000 2.477782e+000 -1.000859e+001 137 115 92
1.525960e-001 -9.430792e-001 -8.296526e+000 98 72 105
2.363218e+000 1.550813e+000 -9.250025e+000 124 99 79
2.384292e+000 1.383428e+000 -9.068567e+000 178 157 136
2.236221e+000 6.310667e+000 -1.327573e+001 230 205 115
2.192021e+000 6.116035e+000 -1.329492e+001 173 133 64
2.379104e+000 6.394357e+000 -1.308405e+001 194 159 69
2.379104e+000 6.394357e+000 -1.308405e+001 194 159 69
2.300056e+000 6.059196e+000 -1.310037e+001 170 135 71
-5.807039e-001 5.018877e+000 -1.068963e+001 197 175 123
1.558620e+000 7.130081e+000 -1.081535e+001 123 94 124
-8.308468e-001 3.049147e+000 -1.073956e+001 126 89 63
1.355487e-001 5.950035e+000 -9.611819e+000 72 70 85
-4.929844e-001 2.204972e+000 -1.003873e+001 72 58 74
-2.179558e-001 -6.242632e-001 -9.055931e+000 77 62 84
4.503101e-001 2.119018e+000 -8.394739e+000 119 72 101
-5.323376e-003 -8.757235e-001 -8.313167e+000 80 69 103
1.699279e+000 1.843958e+000 -8.730667e+000 176 151 131
2.159936e+000 1.609372e+000 -9.062959e+000 120 97 80
2.252671e+000 6.402280e+000 -1.340138e+001 239 220 126
2.240959e+000 5.915314e+000 -1.331150e+001 170 134 71
2.350834e+000 6.261255e+000 -1.309951e+001 170 134 60
-7.947061e-001 5.009102e+000 -1.096930e+001 204 225 212
-8.776032e-001 2.713195e+000 -1.071226e+001 86 53 52
-4.145688e-001 4.001864e+000 -1.027316e+001 160 111 69
-5.186866e-001 2.080691e-001 -9.710744e+000 216 231 228
-7.858799e-001 -9.323602e-001 -9.745419e+000 61 54 65
-2.390488e-001 -1.774460e+000 -8.830891e+000 89 78 111
4.347645e-001 1.391792e+000 -8.216180e+000 218 229 225
3.439177e+000 1.232601e+000 -1.005348e+001 162 143 129
1.998934e+000 1.604983e+000 -8.862403e+000 175 153 132
2.166518e+000 6.227650e+000 -1.340732e+001 219 187 100
2.246987e+000 6.026473e+000 -1.314615e+001 152 114 53
2.392390e+000 6.158939e+000 -1.302569e+001 156 116 54
-1.068945e+000 4.259768e+000 -1.123390e+001 195 188 169
8.672427e-001 4.061873e+000 -9.067172e+000 164 139 109
-2.479301e-001 -1.482365e-001 -9.206022e+000 69 65 81
1.141093e+000 4.226477e+000 -9.476276e+000 165 135 104
-7.379156e-001 5.317528e+000 -1.090281e+001 116 121 117
-3.681898e-001 3.896570e+000 -1.019483e+001 180 149 90
-1.059632e+000 4.984762e+000 -1.139795e+001 209 226 215
-1.204355e+000 4.426499e+000 -1.153181e+001 182 179 161
-9.931396e-001 4.906577e+000 -1.128653e+001 120 135 128
-8.934023e-001 5.174418e+000 -1.116767e+001 212 228 210
-7.520323e-001 5.492764e+000 -1.095506e+001 196 213 197
-8.349024e-001 5.091099e+000 -1.103138e+001 203 225 213
-7.417404e-001 5.198418e+000 -1.092807e+001 181 200 188
-7.315750e-001 5.060653e+000 -1.092742e+001 203 224 208
-1.046500e+000 3.891921e+000 -1.127978e+001 166 142 82
-6.883552e-001 4.996026e+000 -1.085229e+001 107 77 58
-6.680195e-001 5.126108e+000 -1.082577e+001 197 216 202
-6.680195e-001 5.126108e+000 -1.082577e+001 197 216 202
-5.466457e-001 5.433056e+000 -1.068379e+001 203 219 199
1.096939e+000 6.833733e+000 -1.122909e+001 121 98 111
-5.478713e-001 5.292087e+000 -1.064398e+001 199 219 207
-4.641150e-001 5.340305e+000 -1.053038e+001 202 222 210
1.291199e+000 6.974346e+000 -1.105520e+001 125 101 125
-6.792761e-001 4.564648e+000 -1.076035e+001 128 103 58
-4.167344e-001 5.412834e+000 -1.046175e+001 179 160 93
-4.601301e-001 5.057584e+000 -1.047458e+001 117 79 64
-4.252479e-001 5.225690e+000 -1.036904e+001 155 122 99
1.536583e+000 7.097126e+000 -1.086890e+001 45 25 33
-5.484608e-001 4.534547e+000 -1.053653e+001 174 143 87
-4.055073e-001 4.999114e+000 -1.035422e+001 83 64 46
-3.731910e-001 5.043821e+000 -1.029849e+001 104 78 60
1.563495e+000 7.150862e+000 -1.082225e+001 66 36 49
-5.740113e-001 3.896383e+000 -1.058423e+001 77 55 47
-8.381650e-001 2.869092e+000 -1.071646e+001 119 65 39
-7.896945e-001 3.029089e+000 -1.064344e+001 114 58 35
-4.253986e-001 4.340780e+000 -1.029508e+001 180 137 82
-1.705510e-002 5.777133e+000 -9.852521e+000 168 155 90
-1.170920e+000 1.778548e+000 -1.085663e+001 69 58 76
-9.177222e-001 2.306865e+000 -1.070623e+001 208 183 151
-2.787665e-001 4.513696e+000 -1.007782e+001 164 124 65
-4.842028e-001 3.651627e+000 -1.029104e+001 151 122 65
-1.983673e-001 4.429377e+000 -9.946523e+000 180 144 84
-7.499322e-001 1.970301e+000 -1.040126e+001 63 53 59
-9.263295e-001 4.013680e-001 -1.027195e+001 188 204 204
-2.656074e-001 2.921913e+000 -9.814903e+000 166 138 73
-6.849058e-001 8.368454e-001 -1.004681e+001 203 218 213
-3.215179e-001 2.622053e+000 -9.818977e+000 86 70 94
-2.547172e-001 2.741232e+000 -9.737253e+000 110 83 48
1.738251e+000 5.234212e+000 -1.045613e+001 63 43 18
1.921634e+000 5.072740e+000 -1.055364e+001 61 40 10
2.021979e+000 5.055597e+000 -1.064739e+001 65 50 17
-7.120512e-001 5.631328e-001 -1.004052e+001 200 206 209
-5.723369e-001 8.190948e-001 -9.911037e+000 107 82 102
-3.059444e-001 2.023346e+000 -9.737790e+000 78 73 80
-3.059444e-001 2.023346e+000 -9.737790e+000 78 73 80
-6.044762e-002 3.365414e+000 -9.583771e+000 190 158 99
-7.571587e-002 3.389547e+000 -9.499947e+000 128 72 47
4.845043e-002 3.714864e+000 -9.250908e+000 193 179 128
-3.966431e-001 1.062092e+000 -9.622028e+000 119 102 113
1.211806e-001 3.723890e+000 -9.186352e+000 180 145 118
1.268398e-001 3.854820e+000 -9.108745e+000 188 167 134
-7.723995e-001 -1.223440e+000 -9.662379e+000 67 64 71
-1.783219e-001 1.390995e+000 -9.392189e+000 93 92 94
2.396131e+000 4.021729e+000 -1.051922e+001 72 46 31
2.768854e+000 3.408488e+000 -1.058232e+001 175 153 129
2.809889e-001 1.822009e+000 -8.681369e+000 210 217 220
2.809889e-001 1.822009e+000 -8.681369e+000 210 217 220
1.803487e+000 2.919202e+000 -9.465937e+000 123 109 83
1.978589e+000 2.841381e+000 -9.545327e+000 166 151 126
3.969088e-001 -4.886923e-001 -8.127201e+000 143 127 156
4.078972e-001 -6.856479e-001 -8.048690e+000 143 127 153
-1.064655e+000 5.045968e+000 -1.139531e+001 200 231 210
1.971551e+000 5.947844e+000 -1.373305e+001 188 152 77
-1.093990e+000 4.726739e+000 -1.143180e+001 206 231 218
-9.723553e-001 5.055249e+000 -1.123297e+001 210 230 218
-8.226751e-001 5.434814e+000 -1.105466e+001 199 216 201
-8.452340e-001 5.313712e+000 -1.107681e+001 201 223 205
-8.073249e-001 5.299455e+000 -1.105865e+001 200 227 210
-7.027044e-001 5.531440e+000 -1.088396e+001 208 223 210
-6.686024e-001 5.541403e+000 -1.085133e+001 204 212 202
-1.391833e+000 3.487995e+000 -1.155117e+001 108 70 52
-6.744110e-001 5.168155e+000 -1.083938e+001 205 226 212
-6.350114e-001 5.390500e+000 -1.078636e+001 196 223 206
-6.257504e-001 5.464281e+000 -1.078135e+001 205 230 208
-6.080565e-001 5.298245e+000 -1.075066e+001 206 228 212
-5.489604e-001 5.357551e+000 -1.065389e+001 204 225 210
-5.236514e-001 5.382183e+000 -1.061097e+001 205 225 212
-4.637307e-001 5.537660e+000 -1.052621e+001 198 219 195
-3.875227e-001 5.639344e+000 -1.041750e+001 153 121 72
-1.038211e+000 3.507739e+000 -1.112947e+001 146 118 69
-3.403321e-001 5.364507e+000 -1.033831e+001 183 164 98
-2.383752e-001 5.183242e+000 -1.012259e+001 197 177 124
6.250203e-002 6.358454e+000 -9.758490e+000 77 80 100
-9.214988e-001 2.729945e+000 -1.081063e+001 181 130 101
-5.609334e-001 3.901405e+000 -1.047270e+001 102 54 34
-5.721189e-001 3.846870e+000 -1.046500e+001 199 181 132
-1.539157e-001 5.449373e+000 -1.000648e+001 179 164 104
-1.539157e-001 5.449373e+000 -1.000648e+001 179 164 104
-7.811218e-001 2.444477e+000 -1.055105e+001 185 151 93
-4.327332e-001 3.866764e+000 -1.026583e+001 142 98 49
-1.558422e-001 5.013118e+000 -9.896839e+000 199 180 120
-5.583037e-001 2.886704e+000 -1.032978e+001 159 116 59
-3.752446e-001 3.492682e+000 -1.012471e+001 205 190 144
-1.010399e+000 9.124811e-001 -1.051497e+001 71 68 89
-1.465543e-001 4.253368e+000 -9.849178e+000 178 136 77
-5.723966e-001 2.004591e+000 -1.012680e+001 112 65 83
-5.723966e-001 2.004591e+000 -1.012680e+001 112 65 83
-2.178533e-001 3.268300e+000 -9.797483e+000 190 139 85
-7.412260e-002 3.570183e+000 -9.552746e+000 178 150 84
1.187070e+000 5.382284e+000 -9.963496e+000 157 142 112
2.191600e+000 5.008124e+000 -1.077769e+001 159 140 109
-1.279528e-001 3.174279e+000 -9.576178e+000 192 178 129
-8.934912e-002 3.292438e+000 -9.481490e+000 96 56 42
-3.107369e-002 3.420282e+000 -9.429086e+000 202 188 139
1.568166e+000 5.137769e+000 -1.020488e+001 162 142 108
-3.260485e-002 3.259347e+000 -9.401817e+000 100 63 53
-2.040938e-002 3.079364e+000 -9.384465e+000 196 182 135
-8.553650e-001 -1.332594e+000 -9.775775e+000 94 83 97
2.408803e+000 4.409426e+000 -1.067442e+001 83 60 30
1.062698e+000 4.151932e+000 -9.368286e+000 166 146 116
-5.396507e-001 -1.290267e+000 -9.175947e+000 101 100 108
-4.409864e-001 -9.293583e-001 -9.244760e+000 74 72 79
2.241246e+000 3.405102e+000 -1.015010e+001 109 92 66
2.631591e+000 3.440388e+000 -1.047442e+001 166 146 119
2.815128e+000 3.272454e+000 -1.056618e+001 169 152 124
-3.567942e-001 -9.675582e-001 -9.049321e+000 90 76 91
1.042750e-001 1.687086e+000 -8.963973e+000 81 84 91
1.253318e-001 1.705249e+000 -8.916943e+000 208 217 219
1.932732e+000 3.253700e+000 -9.749982e+000 162 158 146
2.333508e+000 3.310560e+000 -1.014961e+001 115 98 72
1.601994e+000 3.152425e+000 -9.466757e+000 165 157 137
1.621642e+000 2.917216e+000 -9.315944e+000 179 161 135
1.845928e+000 2.763444e+000 -9.409886e+000 173 157 132
1.883696e+000 2.906654e+000 -9.516133e+000 130 114 89
1.883696e+000 2.906654e+000 -9.516133e+000 130 114 89
2.118094e+000 2.885140e+000 -9.659493e+000 121 104 78
2.220863e+000 2.869778e+000 -9.720977e+000 125 105 78
2.954043e+000 2.474867e+000 -1.016103e+001 172 156 131
2.052661e+000 2.451934e+000 -9.402085e+000 134 118 92
3.293370e-001 -3.531860e-001 -8.289493e+000 123 121 132
2.842180e+000 9.746891e-001 -9.283810e+000 176 158 134
-2.556061e-001 6.422955e+000 -1.126108e+001 121 96 56
1.727098e+000 5.828181e+000 -1.378945e+001 170 136 69
1.789255e+000 5.875281e+000 -1.382215e+001 179 146 80
-9.680906e-001 5.321520e+000 -1.125643e+001 208 223 212
-1.641034e+000 3.153858e+000 -1.176488e+001 93 64 51
-1.407572e+000 3.806242e+000 -1.161206e+001 192 190 159
-7.311624e-001 5.381888e+000 -1.093833e+001 207 230 212
-1.145800e+000 3.952964e+000 -1.134749e+001 190 190 152
-7.226070e-001 5.262311e+000 -1.089841e+001 115 129 118
-7.226070e-001 5.262311e+000 -1.089841e+001 115 129 118
1.079107e+000 6.792113e+000 -1.126845e+001 135 109 131
-7.016454e-001 4.272970e+000 -1.076306e+001 183 157 129
-5.929444e-001 4.332501e+000 -1.061773e+001 111 68 50
-3.910750e-001 5.095842e+000 -1.035200e+001 121 84 65
-4.951432e-001 4.352939e+000 -1.039981e+001 168 133 69
-3.065365e-001 5.029232e+000 -1.018869e+001 184 157 110
-2.569361e-001 5.030251e+000 -1.009419e+001 184 152 100
-3.438995e-001 4.473209e+000 -1.018001e+001 165 104 58
1.360184e-001 6.160850e+000 -9.634907e+000 71 72 84
-7.209967e-001 2.553376e+000 -1.050414e+001 199 159 97
7.439547e-002 5.877124e+000 -9.674517e+000 70 61 82
1.284410e-001 6.016135e+000 -9.636037e+000 70 65 69
-6.132417e-001 2.902528e+000 -1.035115e+001 190 147 101
-3.495154e-002 5.195435e+000 -9.709965e+000 166 128 98
2.816826e-001 6.096707e+000 -9.545067e+000 113 102 88
-8.576757e-001 9.936327e-001 -1.033593e+001 86 71 96
-7.052284e-002 4.403511e+000 -9.715979e+000 108 68 43
-1.037636e+000 3.888275e-001 -1.032172e+001 78 75 93
-5.326050e-001 1.854325e+000 -1.008231e+001 121 89 115
5.653609e-001 5.623113e+000 -9.509075e+000 109 75 58
-8.303437e-001 6.083388e-001 -1.006559e+001 92 77 88
-6.808536e-001 1.134178e+000 -1.012216e+001 74 62 83
1.327137e-002 3.089434e+000 -9.340299e+000 191 174 123
-5.277102e-001 -9.588486e-001 -9.364230e+000 88 88 96
-4.676528e-001 -1.002027e+000 -9.205231e+000 192 191 200
2.372760e+000 3.402629e+000 -1.020455e+001 176 159 133
-3.863577e-001 -9.676060e-001 -9.110383e+000 196 195 203
1.764299e-001 2.080520e+000 -8.929067e+000 132 123 144
1.247591e+000 3.750744e+000 -9.329975e+000 167 146 115
1.828694e+000 3.359280e+000 -9.755165e+000 172 157 133
-8.945977e-002 -3.262444e-001 -8.910003e+000 85 83 89
1.740873e+000 3.100665e+000 -9.540979e+000 117 129 143
1.857006e+000 2.889104e+000 -9.503638e+000 139 123 98
3.101504e+000 2.397299e+000 -1.024667e+001 136 114 93
1.209128e-001 -6.746182e-001 -8.422172e+000 117 75 99
2.908718e-001 -1.219277e-001 -8.338391e+000 199 214 209
4.441203e-001 1.465952e+000 -8.341215e+000 218 222 224
1.819465e+000 1.986567e+000 -8.974770e+000 171 155 129
1.819465e+000 1.986567e+000 -8.974770e+000 171 155 129
1.540248e+000 1.785306e+000 -8.545728e+000 175 158 129
2.031228e+000 5.999869e+000 -1.366941e+001 186 149 70
-1.468654e+000 3.813197e+000 -1.170839e+001 169 168 147
-1.017478e+000 4.857017e+000 -1.128200e+001 204 229 215
-6.638674e-001 5.079712e+000 -1.081575e+001 207 231 218
-6.709283e-001 4.225301e+000 -1.067623e+001 109 75 60
-9.254346e-001 3.093515e+000 -1.091771e+001 188 151 99
-9.254346e-001 3.093515e+000 -1.091771e+001 188 151 99
-3.397383e-001 5.214102e+000 -1.029922e+001 137 105 90
-8.593656e-002 5.919832e+000 -9.975523e+000 138 125 92
-3.684885e-001 4.474579e+000 -1.021654e+001 160 99 61
-2.059773e-001 5.251463e+000 -1.006022e+001 83 58 39
-8.883871e-001 2.348532e+000 -1.065718e+001 204 188 151
-1.090788e+000 1.660463e+000 -1.074269e+001 213 230 227
-6.542678e-001 2.761400e+000 -1.040593e+001 111 66 46
2.174242e+000 6.861491e+000 -1.080201e+001 69 31 79
-3.809522e-002 5.124151e+000 -9.713485e+000 200 184 133
2.803213e-001 6.031142e+000 -9.543227e+000 144 144 117
-6.143944e-001 2.415272e+000 -1.027523e+001 71 63 62
5.476163e-001 5.875004e+000 -9.690877e+000 65 49 34
3.177955e-001 5.880452e+000 -9.435707e+000 50 35 29
-1.542057e-002 3.968205e+000 -9.466509e+000 186 162 84
1.375356e+000 5.234466e+000 -1.007137e+001 136 115 84
1.558414e+000 5.258584e+000 -1.025335e+001 161 142 109
1.674950e+000 5.175502e+000 -1.031486e+001 161 145 109
1.951301e+000 5.113000e+000 -1.060835e+001 155 140 105
-7.534350e-001 3.857889e-001 -1.004954e+001 119 87 104
-5.536136e-001 8.614353e-001 -9.908178e+000 121 85 112
-9.410626e-002 3.265698e+000 -9.518444e+000 126 79 60
-6.596515e-001 -1.191108e+000 -9.445367e+000 188 191 198
2.331479e-002 9.426477e-001 -8.912807e+000 209 228 217
2.331479e-002 9.426477e-001 -8.912807e+000 209 228 217
1.950654e-001 1.878039e+000 -8.822581e+000 96 95 113
1.443631e-001 1.214870e+000 -8.765208e+000 84 83 91
3.218597e+000 2.568473e+000 -1.055125e+001 154 135 120
-1.327642e-001 -9.138052e-001 -8.731155e+000 71 66 89
4.148967e-001 6.052524e-001 -8.163148e+000 209 222 220
4.184841e-001 5.924133e-001 -8.165272e+000 209 222 220
-9.409358e-001 5.069015e+000 -1.119315e+001 208 229 214
-5.447272e-001 5.814504e+000 -1.062941e+001 173 161 111
2.430455e+000 5.988790e+000 -1.309175e+001 113 79 34
2.430455e+000 5.988790e+000 -1.309175e+001 113 79 34
-6.116103e-001 4.978983e+000 -1.069752e+001 86 63 59
-4.416276e-001 5.409124e+000 -1.052083e+001 200 223 210
1.337267e-002 6.590350e+000 -1.004768e+001 118 123 142
-6.290033e-001 4.564699e+000 -1.067074e+001 81 56 42
2.434868e-002 6.351268e+000 -9.825806e+000 83 81 103
-4.662632e-001 3.961989e+000 -1.035888e+001 153 113 73
3.807733e-002 5.906789e+000 -9.767224e+000 174 178 129
-6.030092e-001 3.016180e+000 -1.040382e+001 191 163 97
-6.030092e-001 3.016180e+000 -1.040382e+001 191 163 97
2.011287e-001 6.226708e+000 -9.616745e+000 63 54 74
3.079003e-001 6.148948e+000 -9.648587e+000 55 42 43
5.410678e-001 6.247326e+000 -9.855453e+000 49 36 41
-5.365697e-001 3.054965e+000 -1.031395e+001 180 160 95
8.339965e-002 5.506199e+000 -9.607894e+000 78 70 96
-5.911458e-001 1.810246e+000 -1.012407e+001 212 229 223
-6.303381e-001 1.443012e-001 -9.789240e+000 215 232 226
3.496847e+000 5.832580e+000 -1.121654e+001 168 123 57
1.655536e+000 3.664021e+000 -9.725016e+000 140 117 86
-2.837833e-001 -5.495085e-001 -9.155179e+000 219 233 229
5.962663e-002 1.402177e+000 -8.994430e+000 86 76 103
6.023735e-002 1.404654e+000 -8.994546e+000 86 76 103
2.737522e+000 3.151387e+000 -1.037710e+001 161 153 133
1.169891e+000 3.041294e+000 -8.850508e+000 133 114 82
2.232586e+000 2.440376e+000 -9.509821e+000 178 161 136
3.518821e-001 1.126286e+000 -8.416677e+000 212 223 217
3.347961e+000 1.636487e+000 -1.015653e+001 162 141 116
-5.229090e-001 5.754145e+000 -1.058334e+001 174 174 135
-4.241070e-002 6.384828e+000 -9.932927e+000 157 164 157
2.221436e-001 6.696217e+000 -9.992133e+000 76 72 93
-3.297087e-001 5.219682e+000 -1.025552e+001 128 97 79
9.538221e-002 6.156128e+000 -9.655822e+000 76 73 98
9.538221e-002 6.156128e+000 -9.655822e+000 76 73 98
6.203944e-002 4.409729e+000 -9.424186e+000 185 169 109
1.071656e-002 3.227358e+000 -9.370313e+000 109 69 57
8.874915e-001 4.272016e+000 -9.240851e+000 165 147 111
2.630020e+000 3.122563e+000 -1.026321e+001 163 153 141
2.630020e+000 3.122563e+000 -1.026321e+001 163 153 141
2.179045e+000 2.991021e+000 -9.752307e+000 180 161 138
2.179045e+000 2.991021e+000 -9.752307e+000 180 161 138
4.490518e-001 -1.508836e-001 -8.068835e+000 118 107 135
4.490518e-001 -1.508836e-001 -8.068835e+000 118 107 135
1.901252e+000 6.090555e+000 -1.375081e+001 203 171 94
-9.136749e-001 5.311807e+000 -1.118861e+001 169 183 169
-4.319892e-001 5.624034e+000 -1.053846e+001 78 68 66
-9.927472e-002 6.359521e+000 -1.000436e+001 108 97 111
7.238036e-002 6.557459e+000 -1.000767e+001 76 74 98
-3.728614e-001 5.003021e+000 -1.025790e+001 79 60 50
-7.161420e-003 6.188586e+000 -9.832802e+000 69 69 83
7.099711e-001 6.681527e+000 -1.008617e+001 29 18 24
-4.494776e-002 2.348070e+000 -9.329175e+000 206 224 218
2.815067e+000 2.768710e+000 -1.030006e+001 135 119 97
2.815067e+000 2.768710e+000 -1.030006e+001 135 119 97
3.333463e+000 2.570621e+000 -1.059117e+001 94 59 31
2.800838e+000 2.407671e+000 -9.950121e+000 178 156 132
-1.693120e+000 3.224000e+000 -1.183874e+001 143 115 65
-8.834600e-001 4.394853e+000 -1.107997e+001 153 133 72
6.980490e-001 6.469228e+000 -9.946583e+000 61 58 80
-6.110602e-001 1.547961e+000 -1.006706e+001 71 64 95
1.783099e-001 3.520470e+000 -9.074779e+000 76 70 84
-4.853848e-001 -1.189501e+000 -9.169217e+000 177 179 188
3.022538e-001 1.602212e+000 -8.617605e+000 197 211 206
-4.024305e-001 5.593764e+000 -1.055548e+001 79 67 64
-2.355592e-002 6.324522e+000 -9.858474e+000 80 74 101
-2.165210e-001 4.302487e+000 -9.962272e+000 109 65 46
-2.165210e-001 4.302487e+000 -9.962272e+000 109 65 46
-8.403722e-001 1.496694e+000 -1.029478e+001 64 55 76
1.025076e-001 4.465301e+000 -9.496919e+000 80 67 87
8.226496e-002 3.560540e+000 -9.216709e+000 114 83 75
-7.168746e-002 1.873466e+000 -9.319559e+000 76 68 86
-8.373027e-002 1.976403e+000 -9.289116e+000 76 68 86
-1.483856e+000 2.966637e+000 -1.153602e+001 150 123 68
-3.972115e-001 5.633869e+000 -1.051662e+001 91 77 71
-4.560406e-001 4.477616e+000 -1.045257e+001 191 164 94
-2.830915e-001 3.760539e+000 -1.005657e+001 192 175 119
2.703845e+000 3.820383e+000 -1.063441e+001 168 142 115
-3.988234e-001 6.171270e+000 -1.059036e+001 150 136 107
-2.384008e-001 4.686951e+000 -1.007624e+001 194 180 124
-4.799225e-001 3.033822e+000 -1.005545e+001 200 192 146
2.956164e+000 2.296909e+000 -1.007725e+001 165 145 120
-6.681329e-001 6.191382e+000 -1.077709e+001 142 127 108
7.412210e-001 6.623742e+000 -1.084741e+001 89 64 44
-6.251593e-001 5.460538e+000 -1.066803e+001 150 163 152
-6.251593e-001 5.460538e+000 -1.066803e+001 150 163 152
1.826228e+000 5.140105e+000 -1.187559e+001 44 34 34
-1.567295e+000 4.193782e+000 -1.192149e+001 188 187 166
-1.759547e+000 3.536105e+000 -1.200129e+001 194 190 161
2.239245e+000 6.163616e+000 -1.325071e+001 170 145 55
-4.515320e-001 4.367647e+000 -1.017228e+001 87 57 46
-9.672128e-001 9.345265e-001 -1.047534e+001 78 75 97
-9.064534e-001 9.553112e-001 -1.036678e+001 199 201 213
-3.274511e-001 1.380834e+000 -9.620833e+000 205 208 210
1.128883e-001 -3.496788e-001 -8.535645e+000 154 121 142
-1.729990e+000 3.385245e+000 -1.194079e+001 169 143 91
-1.116107e+000 4.692011e+000 -1.143748e+001 176 153 94
2.024150e+000 5.964041e+000 -1.355202e+001 177 136 71
-1.039362e+000 3.507614e+000 -1.112881e+001 146 118 69
1.748563e-002 5.833929e+000 -9.792231e+000 175 177 129
-5.169638e-001 2.930185e+000 -1.025237e+001 207 191 122
-2.927425e-001 3.240300e+000 -9.937329e+000 205 196 149
2.515137e-001 1.834915e+000 -8.722449e+000 77 80 87
3.651929e-001 -7.342735e-001 -7.986293e+000 78 65 91
2.426519e-001 4.395752e+000 -9.087987e+000 69 67 77
-1.921214e+000 3.442049e+000 -1.222775e+001 170 172 170
-9.368865e-001 5.148821e+000 -1.122015e+001 209 223 206
-1.590627e+000 3.155306e+000 -1.173259e+001 140 108 85
-9.169570e-001 5.080158e+000 -1.116881e+001 207 227 215
-8.853134e-001 5.099969e+000 -1.112937e+001 209 230 218
-1.048671e+000 3.274112e+000 -1.109675e+001 172 142 87
-5.492370e-001 4.908213e+000 -1.059361e+001 108 77 58
-1.314726e+000 2.241951e+000 -1.114178e+001 188 165 94
-1.203795e+000 2.523391e+000 -1.111973e+001 192 167 109
-1.083690e+000 2.465695e+000 -1.094244e+001 178 152 79
-1.020433e+000 2.761460e+000 -1.095940e+001 110 62 42
-3.682410e-001 5.163320e+000 -1.031614e+001 161 125 101
-2.511201e-001 5.641532e+000 -1.020776e+001 197 176 111
-2.984433e-001 5.180301e+000 -1.019048e+001 195 173 131
-5.218266e-001 3.699680e+000 -1.038260e+001 163 140 87
-7.317391e-001 2.538899e+000 -1.041036e+001 188 153 91
-5.945325e-001 2.963406e+000 -1.038507e+001 195 169 103
-4.450762e-001 3.933084e+000 -1.027862e+001 125 72 42
-2.842797e-002 5.816575e+000 -9.865558e+000 182 157 98
-8.448709e-001 1.840653e+000 -1.049267e+001 87 70 76
-8.448709e-001 1.840653e+000 -1.049267e+001 87 70 76
-1.092213e-001 5.382191e+000 -9.900885e+000 182 165 117
-1.083256e+000 1.204212e-001 -1.045817e+001 86 84 95
-3.998173e-001 3.364229e+000 -1.013285e+001 187 167 134
-7.914968e-001 8.247927e-001 -1.018891e+001 100 98 112
-7.914968e-001 8.247927e-001 -1.018891e+001 100 98 112
-7.818536e-001 4.618599e-001 -1.012531e+001 193 204 213
-3.160320e-001 2.910346e+000 -9.868122e+000 197 183 138
-3.813344e-002 4.153690e+000 -9.609100e+000 162 142 66
-3.077079e-001 -1.183026e+000 -8.876485e+000 104 88 99
3.594231e+000 5.407812e+000 -1.097210e+001 184 136 63
3.682770e-001 -5.011053e-001 -7.984360e+000 127 115 139
-1.224766e+000 4.405787e+000 -1.156860e+001 187 183 156
-7.552806e-001 5.286709e+000 -1.096097e+001 191 202 185
2.088297e+000 5.981393e+000 -1.347254e+001 125 94 29
-1.378865e+000 2.956261e+000 -1.144025e+001 156 127 77
-4.550805e-001 5.616320e+000 -1.056862e+001 78 67 60
-8.305979e-001 3.698940e+000 -1.089562e+001 146 114 75
-3.622103e-001 5.227657e+000 -1.034383e+001 192 190 130
-3.722834e-001 4.746520e+000 -1.029142e+001 167 138 65
-5.200385e-001 3.774968e+000 -1.038702e+001 121 76 48
-4.620503e-001 3.891763e+000 -1.031984e+001 118 71 35
-4.620503e-001 3.891763e+000 -1.031984e+001 118 71 35
-2.277203e-001 5.113570e+000 -1.004290e+001 128 77 47
5.741373e-002 6.139457e+000 -9.709594e+000 71 76 95
-1.163209e-001 4.492322e+000 -9.900569e+000 177 145 84
-4.813416e-002 5.230659e+000 -9.749703e+000 117 73 59
1.316060e-001 6.188996e+000 -9.675283e+000 115 114 128
-2.897699e-001 3.210381e+000 -9.896401e+000 96 56 50
-6.807355e-001 4.307026e-001 -9.989388e+000 116 88 105
-8.024202e-001 -1.291454e+000 -9.623426e+000 167 172 177
-3.350426e-001 8.051957e-001 -9.560846e+000 200 210 211
-3.251917e-001 1.359393e+000 -9.623572e+000 197 198 203
-4.325058e-001 -1.068963e+000 -9.137921e+000 86 78 89
-2.224410e-001 -7.924420e-001 -8.860557e+000 95 93 99
3.241398e-001 1.888424e+000 -8.581873e+000 195 211 213
2.369416e+000 1.174734e+000 -8.926859e+000 146 129 103
-1.175565e+000 4.456683e+000 -1.150573e+001 74 69 51
-1.047719e+000 4.590750e+000 -1.135163e+001 169 148 93
-8.753959e-001 4.488273e+000 -1.107995e+001 144 117 73
-5.517903e-001 5.197881e+000 -1.062336e+001 208 225 200
-5.517903e-001 5.197881e+000 -1.062336e+001 208 225 200
-1.176510e+000 2.835726e+000 -1.116244e+001 80 52 42
-1.147834e+000 2.653758e+000 -1.106265e+001 194 186 140
-2.773859e-001 5.783286e+000 -1.030953e+001 112 101 78
-2.555850e-001 5.827622e+000 -1.026414e+001 109 96 73
-6.861605e-001 3.530765e+000 -1.060013e+001 199 186 134
-6.019992e-001 3.947471e+000 -1.053325e+001 184 151 83
-6.043845e-002 5.930506e+000 -9.902824e+000 112 95 69
3.873349e-002 6.140300e+000 -9.785251e+000 170 161 110
-2.265318e-001 4.668433e+000 -9.990514e+000 196 183 121
-1.092453e-001 5.256589e+000 -9.899427e+000 101 71 51
-9.399089e-002 5.293907e+000 -9.832206e+000 108 71 55
2.427844e-002 6.024547e+000 -9.786146e+000 144 139 106
1.337832e-001 6.250160e+000 -9.674073e+000 101 99 114
-2.402551e-002 5.236931e+000 -9.721222e+000 189 181 142
-1.411326e-001 3.071260e+000 -9.585614e+000 101 78 51
-1.238459e-002 3.962787e+000 -9.467897e+000 186 167 96
-7.262770e-001 -1.372937e+000 -9.450432e+000 75 76 83
-1.970236e-001 2.070153e-001 -9.171677e+000 205 221 220
-1.053536e-001 7.181117e-001 -9.085519e+000 108 88 97
9.562595e-001 -4.230272e+000 -9.523391e+000 91 82 110
2.148144e-001 4.577741e-001 -8.514820e+000 199 213 215
2.148144e-001 4.577741e-001 -8.514820e+000 199 213 215
2.432149e-001 5.633486e-001 -8.522502e+000 93 89 103
3.085792e-001 1.371055e-001 -8.306741e+000 92 90 98
-6.567995e-001 5.078729e+000 -1.075321e+001 91 65 48
-9.989747e-001 3.319512e+000 -1.102716e+001 74 47 31
1.060148e+000 6.764358e+000 -1.126427e+001 45 12 50
-4.415410e-001 3.479599e+000 -1.023767e+001 184 176 127
-4.415410e-001 3.479599e+000 -1.023767e+001 184 176 127
6.206419e-002 5.929929e+000 -9.730328e+000 73 58 75
-1.094068e+000 5.070436e-001 -1.048030e+001 70 61 92
-3.500756e-002 5.283930e+000 -9.762182e+000 198 194 153
-2.284413e-001 3.290083e+000 -9.847597e+000 94 66 47
-4.263910e-001 6.082232e-001 -9.579808e+000 211 230 226
-4.263910e-001 6.082232e-001 -9.579808e+000 211 230 226
-1.658270e-001 1.383164e+000 -9.341556e+000 87 74 83
-1.035365e-001 7.618472e-001 -9.065105e+000 109 92 100
3.907724e+000 5.497030e+000 -1.055576e+001 216 176 89
5.880799e-001 4.370920e-003 -7.800190e+000 112 106 118
6.411730e-001 -4.557570e-001 -7.630595e+000 82 72 97
7.572200e-001 -6.448995e-001 -7.331662e+000 130 120 148
1.299786e+000 1.027565e+000 -7.666352e+000 83 57 43
-2.710815e-001 4.398496e+000 -1.006753e+001 171 136 79
-2.970431e-001 5.808742e-001 -9.393479e+000 201 227 218
-5.728435e-001 -1.221712e+000 -9.281596e+000 177 181 192
-4.586269e-001 -1.365082e+000 -9.158278e+000 180 183 193
-4.646220e-001 -1.327586e+000 -9.151567e+000 180 183 193
-8.168601e-002 6.876123e-001 -9.045480e+000 103 87 97
3.603709e-001 1.671822e+000 -8.501309e+000 78 80 85
-5.409089e-001 4.868601e+000 -1.056463e+001 99 70 55
-5.409089e-001 4.868601e+000 -1.056463e+001 99 70 55
-3.979740e-001 5.152713e+000 -1.035519e+001 125 89 67
-1.247500e-001 6.380943e+000 -1.006231e+001 106 94 105
1.256150e-001 3.243271e+000 -9.059471e+000 191 184 137
1.256150e-001 3.243271e+000 -9.059471e+000 191 184 137
1.255331e-001 -8.605987e-001 -8.165709e+000 81 71 103
4.472061e-001 -3.441833e-001 -7.958328e+000 211 231 222
5.196855e-001 7.523017e-001 -8.066284e+000 214 228 226
6.157381e-001 -5.025197e-001 -7.732833e+000 209 229 223
6.157381e-001 -5.025197e-001 -7.732833e+000 209 229 223
6.079424e-001 2.613227e-001 -7.841011e+000 210 224 223
1.535771e+000 1.419373e+000 -8.215550e+000 147 130 102
-1.591230e+000 3.531021e+000 -1.178913e+001 158 126 73
-4.685527e-001 3.477044e+000 -1.025897e+001 198 191 139
-3.433821e-001 2.185354e+000 -9.966489e+000 74 62 100
1.916383e-002 1.927335e+000 -9.159426e+000 213 223 225
2.101555e-001 4.597788e-001 -8.634020e+000 82 78 104
-7.347862e-001 4.577833e+000 -1.084824e+001 182 166 108
-7.335608e-001 4.567157e+000 -1.085215e+001 182 166 108
-6.942843e-001 2.806346e+000 -1.047397e+001 93 60 55
-6.385678e-001 2.499143e+000 -1.036143e+001 198 185 141
1.447819e-001 5.937325e+000 -9.548855e+000 74 66 91
1.447819e-001 5.937325e+000 -9.548855e+000 74 66 91
-6.583890e-001 8.842048e-001 -1.002345e+001 186 191 195
-2.947588e-001 2.119352e+000 -9.496307e+000 75 67 88
-1.882495e-001 5.383287e+000 -1.018178e+001 192 186 136
-1.882495e-001 5.383287e+000 -1.018178e+001 192 186 136
-1.919997e+000 2.069466e+000 -1.194887e+001 66 66 63
-1.234350e+000 1.691882e+000 -1.090224e+001 78 64 77
1.620220e-001 1.826264e+000 -8.812717e+000 200 212 216
1.620220e-001 1.826264e+000 -8.812717e+000 200 212 216
1.964747e+000 6.006900e+000 -1.361202e+001 119 91 31
-1.586240e-001 5.021231e+000 -9.936270e+000 151 118 62
1.573759e+000 7.117853e+000 -1.079503e+001 66 25 83
-1.573656e+000 3.704990e+000 -1.179414e+001 198 193 165
-1.099382e+000 5.016405e+000 -1.144137e+001 204 233 212
-1.389165e+000 3.859151e+000 -1.157064e+001 198 193 173
2.007837e+000 6.283916e+000 -1.349268e+001 205 182 109
-1.039136e+000 4.103083e+000 -1.125187e+001 195 188 160
-7.949164e-001 5.061807e+000 -1.098051e+001 204 223 212
-8.941238e-001 4.113973e+000 -1.100703e+001 171 143 84
-6.994906e-001 5.072123e+000 -1.084227e+001 202 227 216
-1.014336e+000 2.898911e+000 -1.098348e+001 189 154 132
-9.338417e-001 3.250865e+000 -1.100635e+001 174 153 90
-9.886289e-001 2.883214e+000 -1.092353e+001 101 62 42
-9.964326e-001 2.665177e+000 -1.090507e+001 179 141 117
-9.413461e-001 2.747244e+000 -1.085795e+001 97 53 35
-5.080489e-001 5.469175e+000 -1.061724e+001 204 226 204
-8.317490e-001 2.824255e+000 -1.072920e+001 127 67 46
-8.177166e-001 2.937999e+000 -1.069940e+001 200 149 120
-6.495948e-001 3.158118e+000 -1.051684e+001 207 192 124
-1.017117e+000 2.944088e-001 -1.042621e+001 115 118 125
-1.017117e+000 2.944088e-001 -1.042621e+001 115 118 125
-3.060665e-001 5.199626e+000 -1.023157e+001 200 168 135
-2.318064e-001 4.994575e+000 -1.003870e+001 99 62 35
-1.683273e-001 5.596868e+000 -1.010684e+001 178 164 95
-2.392750e-001 3.223643e+000 -9.794401e+000 129 74 42
-1.063918e-001 4.434146e+000 -9.801182e+000 185 148 78
-1.901315e-002 5.155049e+000 -9.720598e+000 161 135 104
-2.446911e-001 2.028100e+000 -9.606840e+000 86 83 100
-2.047461e-001 2.248741e+000 -9.596852e+000 106 98 104
1.106908e-001 5.887405e+000 -9.632958e+000 70 74 92
-6.852528e-002 3.329168e+000 -9.485118e+000 174 132 107
2.984061e-001 5.987917e+000 -9.527866e+000 108 80 56
1.466152e-002 2.002393e+000 -8.850638e+000 111 108 119
3.473751e+000 5.881807e+000 -1.118347e+001 163 113 50
3.536289e+000 5.453499e+000 -1.096444e+001 227 179 109
-1.627361e+000 4.226509e+000 -1.197746e+001 55 52 33
-1.627361e+000 4.226509e+000 -1.197746e+001 55 52 33
-1.591074e+000 4.122668e+000 -1.193479e+001 73 67 51
-1.519670e+000 4.194141e+000 -1.184131e+001 66 61 41
-1.517334e+000 4.175778e+000 -1.185218e+001 66 61 41
-1.330378e+000 4.796355e+000 -1.171063e+001 70 62 43
-1.206299e+000 5.219005e+000 -1.152878e+001 220 220 209
-1.202316e+000 5.178131e+000 -1.155106e+001 220 220 209
-1.277106e+000 4.382257e+000 -1.161004e+001 187 183 161
-1.172271e+000 4.949136e+000 -1.150914e+001 123 86 60
-1.312009e+000 3.847676e+000 -1.152509e+001 193 194 164
-1.310730e+000 3.850694e+000 -1.152453e+001 193 194 164
-1.160109e+000 4.407983e+000 -1.146129e+001 69 60 43
-9.815548e-001 4.852762e+000 -1.124462e+001 205 226 210
-9.682247e-001 5.051282e+000 -1.123803e+001 210 232 220
-1.098448e+000 3.996488e+000 -1.129246e+001 186 193 160
-9.805971e-001 4.039062e+000 -1.116218e+001 119 79 43
-1.070000e+000 2.891263e+000 -1.099383e+001 120 75 53
-5.416933e-001 5.665762e+000 -1.065349e+001 205 222 205
-5.341495e-001 5.634128e+000 -1.066731e+001 205 222 205
-7.458939e-001 4.176545e+000 -1.080414e+001 84 57 45
-5.698527e-001 5.210506e+000 -1.068332e+001 137 154 146
-4.914946e-001 5.394706e+000 -1.057497e+001 200 225 210
-5.144349e-001 5.190784e+000 -1.054994e+001 195 188 137
-9.554691e-001 1.779045e+000 -1.065841e+001 81 64 88
-8.233521e-001 2.715702e+000 -1.067792e+001 186 156 123
-3.361171e-001 5.638232e+000 -1.038132e+001 155 123 66
-3.689961e-001 5.107288e+000 -1.031548e+001 120 83 64
-3.865343e-001 5.189931e+000 -1.035950e+001 139 105 78
-7.440993e-001 1.931181e+000 -1.042099e+001 74 69 73
-5.707407e-001 3.138745e+000 -1.035086e+001 188 165 94
-3.827462e-001 4.534076e+000 -1.026134e+001 199 177 108
-6.256981e-001 2.035540e+000 -1.026712e+001 75 64 69
-4.733789e-001 2.989815e+000 -1.019870e+001 196 184 135
-3.905288e-001 3.563002e+000 -1.016126e+001 195 160 96
-1.718176e-001 5.745479e+000 -1.010781e+001 173 143 79
-8.156707e-001 4.227715e-001 -1.012374e+001 116 92 105
-6.453035e-001 5.206601e-001 -9.984925e+000 190 210 212
-3.348635e-001 3.427126e+000 -1.003965e+001 144 106 70
-1.672628e-001 5.022991e+000 -9.905095e+000 208 185 138
-5.761092e-001 8.464246e-001 -9.908113e+000 111 91 109
-3.913646e-001 2.108224e+000 -9.971167e+000 80 74 103
-8.042426e-001 -1.262030e+000 -9.621186e+000 165 170 173
-3.908065e-001 1.040190e+000 -9.724049e+000 111 90 109
-2.654806e-001 1.390128e+000 -9.540856e+000 201 209 211
-2.697958e-001 1.928128e+000 -9.667277e+000 89 87 98
-7.905351e-002 3.175060e+000 -9.475846e+000 198 185 141
-3.549049e-001 -9.038166e-001 -9.138615e+000 96 90 100
-3.013442e-001 -1.037386e+000 -8.925739e+000 102 82 93
-2.165024e-001 -1.201077e+000 -8.764750e+000 126 115 124
1.215896e-001 3.453218e+000 -9.132270e+000 183 152 133
1.810580e-001 1.858083e+000 -8.828265e+000 89 87 99
2.938817e-001 1.340284e+000 -8.579892e+000 202 214 214
3.784691e-001 1.523334e+000 -8.445985e+000 192 204 200
8.842524e-001 4.414799e+000 -1.438493e+001 112 73 47
-1.284222e+000 4.712268e+000 -1.167000e+001 68 60 39
-1.182384e+000 5.001083e+000 -1.153899e+001 107 77 57
-1.182384e+000 5.001083e+000 -1.153899e+001 107 77 57
-1.647054e+000 3.130990e+000 -1.177880e+001 90 64 58
-1.468149e+000 3.852240e+000 -1.168351e+001 168 159 138
-1.342224e+000 4.278327e+000 -1.167984e+001 68 59 42
-1.356347e+000 3.811497e+000 -1.157233e+001 194 190 163
-1.003647e+000 4.672848e+000 -1.128561e+001 186 168 106
-9.806237e-001 4.873429e+000 -1.127766e+001 137 153 143
-6.412845e-001 5.162773e+000 -1.078170e+001 119 135 125
-9.312364e-001 3.006745e+000 -1.089471e+001 89 58 50
-9.467144e-001 2.589852e+000 -1.082219e+001 101 67 58
-4.696146e-001 5.298504e+000 -1.052406e+001 127 144 133
2.494852e+000 6.365345e+000 -1.282002e+001 182 148 74
-9.916613e-001 1.408636e+000 -1.061123e+001 207 223 223
-3.344426e-001 5.356981e+000 -1.031467e+001 180 159 91
-4.708734e-001 3.591387e+000 -1.030977e+001 155 125 75
-3.026585e-001 5.018875e+000 -1.019712e+001 181 149 109
-5.767395e-001 1.995587e+000 -1.014179e+001 133 79 101
-4.308148e-001 3.416528e+000 -1.015979e+001 188 174 131
-3.394452e-001 4.375507e+000 -1.017284e+001 172 139 90
-1.390257e-001 5.915471e+000 -1.008151e+001 169 160 129
-6.231056e-001 1.215421e+000 -1.002496e+001 93 83 96
-4.904989e-001 2.031185e+000 -1.003816e+001 106 66 91
-4.106889e-001 2.535869e+000 -1.001540e+001 206 188 160
-4.941039e-001 1.565919e+000 -9.938083e+000 80 77 94
-4.941039e-001 1.565919e+000 -9.938083e+000 80 77 94
-4.333584e-001 2.146437e+000 -9.884638e+000 77 77 101
-3.469610e-001 3.047857e+000 -9.944562e+000 200 195 152
-1.908784e-001 4.100534e+000 -9.893905e+000 192 170 106
-3.138276e-002 5.099928e+000 -9.721959e+000 205 189 149
-3.390846e-001 8.618149e-001 -9.556671e+000 203 208 211
-2.440418e-001 1.506622e+000 -9.491661e+000 85 84 92
-1.738770e-001 3.105169e+000 -9.651878e+000 124 97 65
7.465899e-002 5.919426e+000 -9.694690e+000 178 162 97
-2.115898e-001 8.969819e-001 -9.330368e+000 89 89 87
-5.408999e-004 3.179275e+000 -9.311483e+000 194 180 132
3.583996e-002 3.245510e+000 -9.248856e+000 203 183 139
-7.616163e-002 -6.648834e-001 -8.649403e+000 87 79 99
2.821092e-001 4.297494e+000 -9.043255e+000 71 66 87
3.442937e-001 1.425947e+000 -8.497171e+000 204 213 214
-1.321457e+000 3.921139e+000 -1.154393e+001 170 168 144
-7.327002e-001 5.146136e+000 -1.091603e+001 195 215 207
-8.432040e-001 3.748290e+000 -1.087659e+001 150 118 72
-7.514675e-001 4.236923e+000 -1.082492e+001 173 153 120
-5.183720e-001 5.214200e+000 -1.058273e+001 211 233 210
-4.744680e-001 5.100296e+000 -1.049569e+001 117 74 58
-6.886261e-001 3.544889e+000 -1.059893e+001 200 189 134
-5.610262e-001 4.325622e+000 -1.050203e+001 170 135 80
-7.238177e-001 1.923400e+000 -1.031479e+001 74 73 87
-8.390090e-002 5.906753e+000 -9.980553e+000 140 125 99
-1.839607e-002 5.930032e+000 -9.859322e+000 124 85 56
-7.534192e-001 -1.141478e+000 -9.610092e+000 80 83 82
-4.830997e-001 6.389455e-001 -9.697459e+000 82 76 93
8.811143e-002 6.160179e+000 -9.713494e+000 183 193 155
8.811143e-002 6.160179e+000 -9.713494e+000 183 193 155
1.734128e-001 6.120272e+000 -9.619611e+000 129 119 123
-3.300370e-002 2.992358e+000 -9.319615e+000 201 192 153
-3.584667e-002 8.529635e-001 -8.945428e+000 101 88 104
1.550179e-003 1.688625e+000 -9.126838e+000 81 84 91
8.385697e-002 1.844563e+000 -9.091652e+000 82 82 94
1.786123e-001 4.242631e+000 -9.140952e+000 189 176 142
2.455418e-001 1.295800e+000 -8.601612e+000 69 67 75
5.763864e-001 4.905327e-002 -7.801975e+000 107 108 113
7.300310e-001 -1.290795e-001 -7.589031e+000 80 64 92
-1.320168e+000 3.801078e+000 -1.148092e+001 158 127 73
-8.790657e-001 2.706809e+000 -1.071800e+001 98 64 65
-8.787647e-001 2.399575e+000 -1.070886e+001 140 86 65
-8.873403e-001 2.333970e+000 -1.065033e+001 204 189 157
-9.457840e-001 1.636043e+000 -1.058141e+001 82 72 95
-8.950569e-001 1.581782e+000 -1.050334e+001 211 231 228
-3.250982e-001 5.195732e+000 -1.026310e+001 120 79 57
-7.544171e-001 1.584656e+000 -1.039606e+001 217 234 228
-4.004207e-001 3.935657e+000 -1.028978e+001 163 122 72
-1.392564e-001 6.428830e+000 -1.019113e+001 108 96 106
