ply
format ascii 1.0
element face 0
property list uchar int vertex_indices
element vertex 898
property float x
property float y
property float z
property uchar diffuse_red
property uchar diffuse_green
property uchar diffuse_blue
end_header
2.373210e+000 6.609458e-001 -9.048553e+000 104 88 55
1.499432e+000 5.953577e-001 -8.076287e+000 102 89 57
1.635649e+000 6.065334e-001 -8.240866e+000 124 108 65
2.204641e+000 4.758631e-001 -8.763968e+000 120 104 66
2.204641e+000 4.758631e-001 -8.763968e+000 120 104 66
2.250837e+000 5.196157e-001 -8.840431e+000 115 99 63
2.247895e+000 5.200428e-001 -8.834221e+000 115 99 63
1.621812e+000 4.381310e-001 -8.151881e+000 117 104 61
1.717670e+000 4.718874e-001 -8.277934e+000 127 112 68
1.973670e+000 4.151166e-001 -8.485931e+000 129 111 68
2.245263e+000 4.110899e-001 -8.762291e+000 120 102 66
1.704735e+000 3.872379e-001 -8.205304e+000 124 109 66
6.300333e-001 2.723275e-001 -8.570415e+000 200 228 209
2.007158e+000 2.952335e-001 -8.466030e+000 124 111 67
2.141932e+000 2.448383e-001 -8.549225e+000 54 41 7
2.141932e+000 2.448383e-001 -8.549225e+000 54 41 7
2.540894e+000 8.306441e-002 -8.896006e+000 42 23 6
9.092327e-001 1.114499e-001 -8.077106e+000 67 57 83
4.261994e-001 -4.101049e-002 -8.771634e+000 91 52 63
6.010922e-001 1.182720e-002 -8.460139e+000 88 64 90
8.081901e-001 4.335633e-003 -8.192570e+000 64 53 76
8.840643e-001 -1.674410e-002 -8.087832e+000 162 162 174
1.584085e+000 1.939481e+000 -9.143426e+000 86 72 37
1.575284e+000 1.925388e+000 -9.088948e+000 86 72 37
8.378392e-002 2.054682e+000 -9.853931e+000 166 119 91
1.568777e+000 1.868045e+000 -9.051238e+000 88 75 40
2.352006e+000 2.022725e+000 -9.927562e+000 57 39 19
1.700092e+000 1.770461e+000 -9.086021e+000 129 116 71
1.713110e+000 1.738759e+000 -9.089659e+000 76 62 25
1.709095e+000 1.735655e+000 -9.075623e+000 76 62 25
2.195695e+000 1.863862e+000 -9.567586e+000 97 84 49
1.353581e+000 1.585425e+000 -8.637765e+000 82 68 23
1.600548e+000 1.701361e+000 -9.007730e+000 80 67 33
1.665272e+000 1.692024e+000 -9.040355e+000 89 74 41
1.665272e+000 1.692024e+000 -9.040355e+000 89 74 41
1.636760e+000 1.629288e+000 -8.973120e+000 75 60 27
1.814763e+000 1.725761e+000 -9.170762e+000 84 70 33
1.752758e+000 1.679838e+000 -9.108510e+000 63 51 15
1.830098e+000 1.660984e+000 -9.133914e+000 76 64 22
2.078494e+000 1.702383e+000 -9.347676e+000 125 108 65
1.200351e-002 1.839753e+000 -9.903954e+000 129 74 56
1.534502e+000 1.534192e+000 -8.828542e+000 61 47 12
1.764657e+000 1.576207e+000 -9.054456e+000 119 105 68
1.860289e+000 1.568427e+000 -9.138159e+000 122 109 67
1.917317e+000 1.589403e+000 -9.194781e+000 76 64 26
2.026274e+000 1.634731e+000 -9.280623e+000 99 84 50
2.021274e+000 1.630902e+000 -9.259116e+000 99 84 50
1.955464e+000 1.581650e+000 -9.203144e+000 113 99 61
2.089413e+000 1.597018e+000 -9.310315e+000 126 113 69
1.369404e+000 1.366928e+000 -8.499673e+000 123 109 62
1.708154e+000 1.526472e+000 -8.997955e+000 131 117 75
1.859780e+000 1.534289e+000 -9.122524e+000 81 66 33
1.945735e+000 1.557345e+000 -9.220107e+000 125 112 70
1.983627e+000 1.546906e+000 -9.207181e+000 124 111 67
2.039679e+000 1.506843e+000 -9.245860e+000 82 68 33
2.039679e+000 1.506843e+000 -9.245860e+000 82 68 33
2.180086e+000 1.570783e+000 -9.373846e+000 111 98 56
2.223356e+000 1.536938e+000 -9.386049e+000 73 59 24
2.696057e+000 1.539357e+000 -9.394860e+000 129 92 45
2.732347e+000 1.529403e+000 -9.252623e+000 174 145 69
7.802076e-001 1.318058e+000 -8.549512e+000 211 224 208
1.357997e+000 1.288345e+000 -8.419697e+000 82 66 32
2.007753e+000 1.473345e+000 -9.210330e+000 128 111 69
1.961481e+000 1.397598e+000 -9.169981e+000 65 50 19
1.961481e+000 1.397598e+000 -9.169981e+000 65 50 19
2.138431e+000 1.423550e+000 -9.309837e+000 73 56 30
2.295618e+000 1.433087e+000 -9.425743e+000 105 93 55
1.431240e+000 1.266100e+000 -8.488736e+000 77 62 28
5.675547e-002 1.374858e+000 -9.707646e+000 202 234 213
3.661167e-001 1.304262e+000 -9.264485e+000 94 77 87
1.458832e+000 1.188033e+000 -8.444238e+000 123 107 72
1.419006e+000 1.098490e+000 -8.332086e+000 130 117 73
1.917433e+000 1.119945e+000 -8.857616e+000 75 59 30
2.797671e+000 1.161005e+000 -9.088674e+000 184 152 77
1.413439e-001 1.147439e+000 -9.562177e+000 79 67 84
1.677054e+000 1.068940e+000 -8.576185e+000 73 74 45
2.018508e+000 1.024979e+000 -8.883599e+000 123 111 70
5.488103e-001 9.612537e-001 -8.860743e+000 100 68 86
1.420703e+000 9.119090e-001 -8.219548e+000 66 52 21
1.416092e+000 9.112891e-001 -8.192295e+000 66 52 21
1.577088e+000 9.588634e-001 -8.364823e+000 125 113 65
1.634292e+000 9.720352e-001 -8.441313e+000 102 90 51
1.635229e+000 9.721341e-001 -8.444866e+000 102 90 51
1.674415e+000 9.114223e-001 -8.446986e+000 84 69 36
1.735771e+000 9.776056e-001 -8.555359e+000 128 113 70
1.731023e+000 9.281553e-001 -8.516923e+000 117 104 61
1.942799e+000 9.589029e-001 -8.760870e+000 82 78 54
1.942799e+000 9.589029e-001 -8.760870e+000 82 78 54
1.537255e+000 8.879769e-001 -8.288212e+000 78 63 30
1.592875e+000 8.750703e-001 -8.341299e+000 85 72 40
1.644357e+000 8.885789e-001 -8.398097e+000 122 111 66
1.630027e+000 8.391654e-001 -8.355157e+000 126 110 67
1.724501e+000 8.984565e-001 -8.480902e+000 99 87 50
1.729178e+000 8.989146e-001 -8.500208e+000 99 87 50
1.697430e+000 8.489353e-001 -8.436695e+000 68 53 20
1.878305e+000 9.177891e-001 -8.670569e+000 80 66 29
2.087720e+000 8.699189e-001 -8.886372e+000 76 59 30
2.087720e+000 8.699189e-001 -8.886372e+000 76 59 30
2.109418e+000 9.187380e-001 -8.920656e+000 61 59 45
2.106660e+000 9.185492e-001 -8.907888e+000 61 59 45
2.172206e+000 9.054669e-001 -8.974579e+000 60 62 43
2.116604e+000 8.880336e-001 -8.907272e+000 123 106 63
2.345303e+000 8.627264e-001 -9.125304e+000 77 69 50
3.132848e-001 8.383596e-001 -9.253774e+000 206 232 217
4.341582e-001 8.715305e-001 -9.021481e+000 96 74 83
4.341582e-001 8.715305e-001 -9.021481e+000 96 74 83
1.587960e+000 7.941754e-001 -8.282713e+000 128 110 69
1.584399e+000 7.944173e-001 -8.271476e+000 128 110 69
1.610857e+000 8.145610e-001 -8.316739e+000 52 41 9
1.609728e+000 8.143658e-001 -8.317544e+000 52 41 9
1.583424e+000 7.636495e-001 -8.268403e+000 62 45 13
1.750087e+000 7.784634e-001 -8.455754e+000 80 64 28
1.987143e+000 8.337264e-001 -8.741019e+000 69 53 19
2.168137e+000 8.475919e-001 -8.950612e+000 67 50 20
2.119384e+000 8.013412e-001 -8.860037e+000 70 54 21
2.123536e+000 8.013641e-001 -8.870176e+000 70 54 21
2.220075e+000 8.346309e-001 -8.987509e+000 70 54 22
2.220075e+000 8.346309e-001 -8.987509e+000 70 54 22
2.349778e+000 8.084886e-001 -9.127789e+000 76 56 29
1.662645e+000 7.158622e-001 -8.327440e+000 124 109 66
1.805126e+000 7.075930e-001 -8.483824e+000 60 46 20
1.954840e+000 7.261288e-001 -8.652282e+000 69 54 20
1.952297e+000 7.264202e-001 -8.642010e+000 69 54 20
1.985598e+000 6.908983e-001 -8.666525e+000 125 111 64
1.985598e+000 6.908983e-001 -8.666525e+000 125 111 64
2.109227e+000 7.226276e-001 -8.800772e+000 110 95 52
2.217415e+000 7.228923e-001 -8.920966e+000 62 43 16
2.852173e+000 7.287889e-001 -8.848708e+000 183 154 76
1.527233e+000 6.332951e-001 -8.147912e+000 129 114 73
1.567020e+000 6.836038e-001 -8.199253e+000 126 112 70
1.866862e+000 6.357645e-001 -8.498872e+000 80 63 33
1.915193e+000 6.491931e-001 -8.574177e+000 125 111 66
2.242000e+000 6.611446e-001 -8.915155e+000 66 51 24
2.178271e+000 6.197694e-001 -8.826834e+000 74 57 27
2.430027e+000 6.532607e-001 -9.099678e+000 109 92 63
1.620212e+000 5.547036e-001 -8.212126e+000 123 111 63
1.707785e+000 5.588918e-001 -8.285940e+000 73 54 22
1.906261e+000 5.978745e-001 -8.533346e+000 130 110 69
1.895448e+000 5.428648e-001 -8.495462e+000 119 104 62
2.078518e+000 5.619113e-001 -8.702144e+000 113 102 56
2.168011e+000 5.355189e-001 -8.756490e+000 116 102 62
2.217287e+000 5.300078e-001 -8.815270e+000 114 99 56
1.808536e+000 4.909487e-001 -8.387438e+000 123 106 60
1.933599e+000 4.781854e-001 -8.490413e+000 122 105 62
2.026869e+000 4.853961e-001 -8.597767e+000 76 60 24
2.024709e+000 4.860591e-001 -8.590395e+000 76 60 24
2.294211e+000 5.121049e-001 -8.860194e+000 111 96 56
2.376074e+000 4.933401e-001 -8.942460e+000 112 97 65
6.768570e-001 4.077513e-001 -8.524071e+000 104 65 95
1.981869e+000 4.416788e-001 -8.509311e+000 86 69 34
2.032407e+000 4.544674e-001 -8.582284e+000 128 115 71
2.203693e+000 4.489413e-001 -8.744331e+000 55 37 7
2.256679e+000 4.351172e-001 -8.789963e+000 67 52 23
2.256679e+000 4.351172e-001 -8.789963e+000 67 52 23
2.241158e+000 3.845161e-001 -8.746321e+000 74 61 28
2.316965e+000 4.234176e-001 -8.848185e+000 78 61 31
2.401313e+000 4.337096e-001 -8.927433e+000 101 84 55
1.736910e+000 3.820999e-001 -8.242131e+000 75 56 21
1.738859e+000 3.551907e-001 -8.232781e+000 126 112 67
1.842697e+000 3.877197e-001 -8.355905e+000 118 100 60
2.105731e+000 3.334654e-001 -8.575265e+000 127 113 68
2.200662e+000 3.691901e-001 -8.697859e+000 120 105 66
2.304509e+000 3.115160e-001 -8.776134e+000 77 60 29
2.304509e+000 3.115160e-001 -8.776134e+000 77 60 29
2.441805e+000 3.402734e-001 -8.915620e+000 69 51 28
2.419735e+000 3.168905e-001 -8.891042e+000 98 82 49
2.419735e+000 3.168905e-001 -8.891042e+000 98 82 49
1.825982e+000 3.359079e-001 -8.299410e+000 128 114 66
1.860951e+000 3.302793e-001 -8.334977e+000 126 111 67
2.123119e+000 2.710382e-001 -8.565353e+000 124 106 59
2.163404e+000 2.656787e-001 -8.582945e+000 128 113 69
2.342868e+000 2.844953e-001 -8.767540e+000 115 99 63
2.331725e+000 2.564677e-001 -8.753900e+000 64 55 25
2.432276e+000 2.116201e-001 -8.803619e+000 106 89 63
1.803725e+000 2.277504e-001 -8.179521e+000 128 111 67
1.955316e+000 2.021485e-001 -8.305216e+000 130 112 72
1.955316e+000 2.021485e-001 -8.305216e+000 130 112 72
1.838605e+000 1.819075e-001 -8.148978e+000 129 112 69
1.995002e+000 1.512956e-001 -8.291435e+000 121 108 63
2.134206e+000 1.431987e-001 -8.413161e+000 58 45 12
2.351838e+000 1.374023e-001 -8.684464e+000 64 46 22
2.339460e+000 1.142998e-001 -8.640721e+000 107 91 55
2.308275e+000 9.923699e-002 -8.606405e+000 63 50 24
5.590722e-001 -2.184796e-002 -8.561357e+000 70 57 77
8.916595e-001 4.508344e-002 -8.070140e+000 69 57 81
9.049311e-001 4.364435e-002 -8.063034e+000 67 55 80
9.747399e-001 1.048806e-001 -7.957169e+000 58 48 72
8.684654e-001 7.847154e-003 -8.142071e+000 66 60 83
8.684654e-001 7.847154e-003 -8.142071e+000 66 60 83
1.361961e-001 2.201518e+000 -9.865826e+000 197 169 106
1.902914e+000 1.729205e+000 -9.232187e+000 129 114 71
6.731825e-001 1.549118e+000 -8.767767e+000 91 84 93
7.501286e-001 1.457071e+000 -8.631905e+000 78 64 63
7.489075e-001 1.460268e+000 -8.657163e+000 78 64 63
7.567169e-001 1.416160e+000 -8.599945e+000 84 65 67
2.169966e+000 1.520199e+000 -9.336879e+000 114 99 58
2.365769e+000 1.530814e+000 -9.503629e+000 55 37 15
5.369775e-001 1.432424e+000 -8.997870e+000 80 68 72
1.664330e+000 1.354461e+000 -8.806351e+000 119 104 65
5.813305e-001 1.318672e+000 -8.904302e+000 89 72 85
2.286736e+000 1.404522e+000 -9.458692e+000 74 59 36
1.062454e-001 1.363263e+000 -9.663794e+000 80 62 74
1.062454e-001 1.363263e+000 -9.663794e+000 80 62 74
5.889970e-001 1.273319e+000 -8.859725e+000 101 74 93
5.881591e-001 1.274481e+000 -8.869456e+000 101 74 93
1.879918e-001 1.176050e+000 -9.502761e+000 85 73 83
3.107755e-001 1.120161e+000 -9.263837e+000 111 73 86
2.818528e+000 1.045621e+000 -9.034834e+000 178 146 70
2.868614e+000 1.083395e+000 -8.893707e+000 208 178 90
2.902825e+000 1.084926e+000 -8.884819e+000 193 145 80
2.902825e+000 1.084926e+000 -8.884819e+000 193 145 80
-3.170629e-003 1.048731e+000 -9.705047e+000 95 83 97
3.136997e-001 1.062839e+000 -9.269796e+000 113 77 91
3.146990e-001 1.062708e+000 -9.264949e+000 113 77 91
2.397065e-001 1.003952e+000 -9.383175e+000 101 69 90
3.286169e-001 9.930758e-001 -9.212479e+000 118 82 99
3.286169e-001 9.930758e-001 -9.212479e+000 118 82 99
3.878755e-001 8.668302e-001 -9.105998e+000 210 227 211
1.508755e+000 7.787571e-001 -8.191668e+000 72 61 29
2.913721e+000 7.969751e-001 -8.794440e+000 176 150 63
2.912965e+000 8.352721e-001 -8.771638e+000 199 174 81
1.543420e+000 7.439879e-001 -8.215602e+000 126 109 66
1.563326e+000 7.127008e-001 -8.219385e+000 72 56 22
1.563326e+000 7.127008e-001 -8.219385e+000 72 56 22
1.750181e+000 7.241478e-001 -8.426251e+000 50 39 8
2.271936e-001 6.707030e-001 -9.281344e+000 103 75 84
1.658572e+000 6.844393e-001 -8.311139e+000 93 78 45
1.693480e+000 6.521867e-001 -8.307496e+000 127 110 67
1.699101e+000 6.510902e-001 -8.329361e+000 127 110 67
1.740560e+000 6.669958e-001 -8.382550e+000 81 68 33
1.796980e+000 6.529810e-001 -8.445375e+000 87 74 39
1.796980e+000 6.529810e-001 -8.445375e+000 87 74 39
7.399767e-001 5.517533e-001 -8.448447e+000 90 78 99
1.679484e+000 5.833823e-001 -8.286541e+000 125 108 60
1.802855e+000 5.933836e-001 -8.421123e+000 73 56 28
1.940070e+000 5.596016e-001 -8.563590e+000 65 50 17
8.939661e-001 5.286388e-001 -8.221886e+000 85 66 88
1.608104e+000 5.286307e-001 -8.176430e+000 79 63 34
1.683483e+000 5.422974e-001 -8.269710e+000 129 113 67
1.877595e+000 5.182273e-001 -8.459148e+000 70 56 21
1.834317e+000 5.060837e-001 -8.401135e+000 124 102 61
1.991019e+000 5.188371e-001 -8.561361e+000 121 107 62
1.958210e+000 5.006125e-001 -8.533242e+000 71 56 21
2.055106e+000 5.329312e-001 -8.642292e+000 76 63 21
2.174055e+000 4.762229e-001 -8.743285e+000 117 102 61
1.560348e+000 4.564362e-001 -8.086694e+000 122 106 63
1.808879e+000 4.548217e-001 -8.350378e+000 122 109 65
2.143736e+000 4.043178e-001 -8.663608e+000 63 48 16
2.200452e+000 4.115223e-001 -8.739242e+000 112 102 59
4.923490e-001 3.618825e-001 -8.827881e+000 84 78 85
1.670432e+000 3.948902e-001 -8.168475e+000 76 62 29
1.670432e+000 3.948902e-001 -8.168475e+000 76 62 29
1.632303e+000 3.798030e-001 -8.130680e+000 127 114 72
1.839141e+000 3.586244e-001 -8.329687e+000 87 73 44
1.956726e+000 3.919011e-001 -8.453833e+000 96 80 48
1.956726e+000 3.919011e-001 -8.453833e+000 96 80 48
2.192606e+000 3.391496e-001 -8.667693e+000 72 56 24
2.192606e+000 3.391496e-001 -8.667693e+000 72 56 24
2.344596e+000 3.293980e-001 -8.821209e+000 108 93 52
1.660181e+000 3.451026e-001 -8.137861e+000 54 48 21
1.841263e+000 3.071486e-001 -8.288197e+000 68 55 23
1.977280e+000 3.051594e-001 -8.435232e+000 119 105 61
2.001632e+000 2.738680e-001 -8.421001e+000 62 50 26
2.097322e+000 3.042345e-001 -8.559982e+000 53 39 10
2.092376e+000 3.062312e-001 -8.548848e+000 53 39 10
2.228391e+000 2.768469e-001 -8.673229e+000 61 45 12
1.709871e-001 8.908427e-002 -9.171975e+000 203 227 206
1.615531e+000 2.421061e-001 -8.019049e+000 59 43 20
1.683714e+000 2.322302e-001 -8.063672e+000 112 97 68
1.888073e+000 2.407030e-001 -8.283322e+000 74 64 33
1.897413e+000 2.099120e-001 -8.263066e+000 129 116 72
2.065463e+000 2.308054e-001 -8.457484e+000 124 107 62
2.208936e+000 2.289609e-001 -8.612941e+000 80 65 32
2.333849e-001 2.607546e-002 -9.084629e+000 78 65 72
6.258173e-001 1.670715e-001 -8.527652e+000 121 73 96
1.654620e+000 2.152663e-001 -8.013176e+000 120 105 62
2.234710e+000 1.157347e-001 -8.534721e+000 73 53 28
2.232592e+000 1.169154e-001 -8.529541e+000 73 53 28
2.457017e+000 1.026087e-001 -8.801794e+000 68 56 32
2.450143e+000 1.053815e-001 -8.787133e+000 68 56 32
6.847507e-001 8.280608e-002 -8.368234e+000 85 64 90
2.666141e-001 -2.297759e-001 -8.940684e+000 60 51 64
2.259735e+000 2.217300e+000 -9.947754e+000 86 80 52
-2.330778e-002 2.190347e+000 -1.006383e+001 112 74 55
5.068295e-001 1.871627e+000 -9.136644e+000 213 220 204
1.512102e+000 9.264237e-001 -8.301102e+000 124 110 63
2.938981e+000 8.955603e-001 -8.874570e+000 209 182 93
4.322358e-001 6.298301e-001 -8.958063e+000 200 227 210
8.582040e-001 6.624342e-001 -8.270821e+000 103 71 96
1.504262e+000 4.953512e-001 -8.046396e+000 57 41 14
1.506517e+000 4.939853e-001 -8.059503e+000 57 41 14
1.538404e+000 3.742270e-001 -8.024983e+000 68 53 22
2.943839e+000 3.514221e-001 -8.755886e+000 176 155 74
5.365455e-001 2.386834e-001 -8.715851e+000 90 69 88
7.515944e-001 1.246701e+000 -8.595838e+000 81 65 68
-9.660639e-002 1.412735e+000 -9.946525e+000 206 227 212
6.131268e-001 1.132994e+000 -8.793113e+000 92 66 93
2.535618e-001 8.496199e-001 -9.334077e+000 82 68 91
1.446593e+000 6.222043e-001 -8.061678e+000 78 66 42
1.443842e+000 6.234161e-001 -8.043139e+000 78 66 42
4.927543e-001 3.135114e-001 -8.807866e+000 202 226 210
-2.532916e+001 -1.028804e+001 -5.114756e+001 86 86 78
1.183729e-001 1.802435e+000 -9.745962e+000 176 156 98
1.536597e+000 1.354347e+000 -8.705679e+000 130 114 66
6.307439e-001 1.004891e+000 -8.781975e+000 96 77 109
6.312491e-001 1.004627e+000 -8.788608e+000 96 77 109
2.907785e+000 9.766577e-001 -8.898876e+000 201 171 85
5.186440e-001 9.159443e-001 -8.939777e+000 114 72 88
2.478722e+000 -1.142844e-002 -8.804929e+000 88 64 37
3.572271e-001 -5.212797e-002 -8.874376e+000 100 58 70
1.213449e+000 1.239793e-001 -7.573940e+000 145 153 172
4.622011e-001 1.983535e+000 -9.277512e+000 102 71 66
6.017554e-001 1.792341e+000 -8.936438e+000 92 68 78
3.890068e-001 1.873381e+000 -9.333846e+000 93 70 81
9.577784e-001 1.601487e+000 -8.242856e+000 95 54 68
-2.009729e-002 1.922147e+000 -1.000715e+001 128 90 70
2.803443e-001 1.795627e+000 -9.482770e+000 90 73 82
2.803443e-001 1.795627e+000 -9.482770e+000 90 73 82
3.203822e-001 1.998322e+000 -9.420903e+000 199 186 137
3.111639e-001 1.636054e+000 -9.409888e+000 93 74 80
3.111639e-001 1.636054e+000 -9.409888e+000 93 74 80
1.198560e+000 1.875003e+000 -8.737822e+000 124 111 59
1.265392e+000 1.635694e+000 -8.613314e+000 127 113 64
1.936548e-001 1.535238e+000 -9.603843e+000 129 109 116
1.936548e-001 1.535238e+000 -9.603843e+000 129 109 116
4.321209e-001 1.498712e+000 -9.204225e+000 96 77 83
1.405207e+000 7.071004e-001 -8.084602e+000 120 104 60
2.173794e+000 1.578152e+000 -9.359985e+000 121 106 70
6.845725e-001 1.416167e+000 -8.704619e+000 175 178 173
1.404463e+000 1.007117e+000 -8.269044e+000 129 113 65
1.509915e+000 2.833311e-001 -7.942320e+000 126 109 64
1.886629e-001 2.231011e+000 -9.742136e+000 204 170 108
4.947976e-001 2.037955e+000 -9.200252e+000 89 65 52
-3.194977e-001 1.945810e+000 -1.030898e+001 85 64 68
-1.329807e-001 1.949729e+000 -1.013163e+001 153 127 68
2.119016e+000 1.702497e+000 -9.368149e+000 116 102 66
2.118947e+000 1.702856e+000 -9.371144e+000 116 102 66
7.786083e-002 1.538358e+000 -9.727122e+000 96 86 85
-1.011377e-001 1.384955e+000 -9.941052e+000 74 69 69
2.379154e+000 1.233306e+000 -9.438781e+000 92 81 58
1.600295e+000 1.003180e+000 -8.431792e+000 126 115 77
2.223436e-001 1.845128e+000 -9.580904e+000 89 72 51
2.244023e+000 1.440366e+000 -9.389238e+000 101 88 54
2.231584e+000 1.371263e+000 -9.374151e+000 112 96 65
2.153247e+000 1.275312e+000 -9.263520e+000 112 97 65
2.262030e+000 1.256010e+000 -9.350459e+000 114 97 68
1.670036e+000 4.480698e-001 -8.220055e+000 80 66 29
1.719397e+000 3.147175e-001 -8.183734e+000 129 115 78
1.773922e+000 3.417053e-001 -8.246378e+000 119 106 62
1.513521e+000 1.844274e+000 -8.983949e+000 132 120 78
1.789874e+000 1.924177e+000 -9.235204e+000 128 114 75
1.912260e+000 1.878737e+000 -9.291592e+000 88 74 37
1.877800e+000 1.831634e+000 -9.254567e+000 91 78 41
-3.380356e-002 1.862737e+000 -9.944699e+000 191 167 121
1.543105e+000 1.570374e+000 -8.861690e+000 128 114 77
1.612154e+000 1.541794e+000 -8.918844e+000 128 114 72
1.688200e+000 1.592208e+000 -9.006156e+000 120 105 66
-2.358339e-001 1.721275e+000 -1.018293e+001 84 66 77
1.539981e+000 1.292667e+000 -8.636363e+000 75 59 25
-6.034499e-002 1.329960e+000 -9.850635e+000 85 68 69
2.162296e+000 1.298533e+000 -9.283026e+000 57 40 14
1.746432e+000 7.518421e-001 -8.443403e+000 131 112 69
3.853589e-002 2.250427e+000 -9.977823e+000 194 155 96
4.923651e-001 1.825742e+000 -9.150335e+000 87 69 68
1.685520e+000 1.622810e+000 -9.002151e+000 91 78 46
2.179221e+000 1.484203e+000 -9.352307e+000 51 40 10
2.362872e+000 1.256862e+000 -9.448057e+000 41 28 13
2.547065e-001 1.254247e+000 -9.420438e+000 208 229 215
2.555322e-001 1.254116e+000 -9.420750e+000 208 229 215
1.490995e+000 6.946801e-001 -8.143208e+000 119 106 64
2.242107e+000 6.612871e-001 -8.910542e+000 66 51 24
2.298405e+000 2.425458e-001 -8.701267e+000 109 96 54
3.885354e-001 4.265636e-002 -8.851660e+000 200 207 204
2.214607e+000 1.975949e-001 -8.584365e+000 124 106 63
9.134984e-001 5.013737e-001 -8.191547e+000 197 225 207
1.807967e+000 2.560837e-001 -8.226060e+000 127 111 67
-4.441023e-001 2.226715e+000 -1.053072e+001 100 77 84
-1.062095e-001 2.224798e+000 -1.016196e+001 124 81 53
-1.062095e-001 2.224798e+000 -1.016196e+001 124 81 53
4.456072e-002 2.146160e+000 -9.901181e+000 185 134 105
2.025892e-001 2.038799e+000 -9.671428e+000 192 154 108
3.410907e-001 1.923937e+000 -9.415644e+000 104 74 82
3.758637e-001 1.933587e+000 -9.372031e+000 97 74 66
1.703129e+000 1.926310e+000 -9.137037e+000 129 116 72
1.703129e+000 1.926310e+000 -9.137037e+000 129 116 72
-1.022388e-001 1.994550e+000 -1.009452e+001 197 168 124
2.148413e-001 1.854139e+000 -9.607011e+000 87 70 53
-9.148652e-002 1.869892e+000 -1.004511e+001 147 107 48
2.832476e-002 1.763571e+000 -9.854227e+000 144 111 82
2.304166e+000 1.663142e+000 -9.491478e+000 102 81 56
2.327171e+000 1.567622e+000 -9.438573e+000 49 31 11
2.119791e-001 1.468744e+000 -9.535891e+000 204 219 205
1.645456e+000 1.345983e+000 -8.789913e+000 126 111 68
2.310781e-001 1.265912e+000 -9.452402e+000 84 68 68
2.828229e+000 9.236532e-001 -8.922793e+000 196 160 86
1.503659e+000 4.803225e-001 -8.062540e+000 74 58 28
6.242492e-001 2.527126e-001 -8.581633e+000 95 72 92
2.240298e+000 1.665338e-001 -8.606126e+000 66 50 14
2.240298e+000 1.665338e-001 -8.606126e+000 66 50 14
7.556077e-001 2.477365e-003 -8.307982e+000 154 148 162
8.507264e-001 -7.758792e-002 -8.178702e+000 62 48 73
1.781371e+000 2.109864e+000 -9.283670e+000 85 70 39
1.687166e+000 1.993263e+000 -9.168637e+000 127 113 73
1.785735e+000 2.060655e+000 -9.264102e+000 81 62 29
-1.486525e-001 1.948241e+000 -1.011013e+001 190 166 109
1.781036e+000 1.889790e+000 -9.175280e+000 123 110 68
1.237316e-001 1.805715e+000 -9.739193e+000 179 155 93
6.123507e-001 1.730745e+000 -8.896385e+000 214 207 201
-6.164232e-002 1.728699e+000 -9.950829e+000 134 93 63
6.227843e-001 1.564736e+000 -8.846766e+000 87 73 77
6.752919e-001 1.522096e+000 -8.771027e+000 224 225 217
1.652767e+000 1.588572e+000 -8.983090e+000 119 105 66
1.833234e+000 1.256725e+000 -8.894721e+000 114 99 56
2.115268e+000 1.282701e+000 -9.217348e+000 113 97 64
1.896264e+000 1.047368e+000 -8.768901e+000 115 109 73
2.198416e+000 9.338896e-001 -9.019755e+000 116 102 71
7.501444e-001 4.329704e-001 -8.455448e+000 196 212 202
1.654495e+000 4.803984e-001 -8.225584e+000 121 104 61
2.015368e+000 3.399195e-001 -8.512763e+000 118 103 59
1.702915e+000 3.202404e-001 -8.181781e+000 71 57 29
1.802715e+000 2.157485e-001 -8.200318e+000 127 110 67
7.816571e-001 -8.244132e-002 -8.282026e+000 179 176 185
1.400334e+000 2.030885e+000 -8.965315e+000 128 113 72
2.187722e+000 2.260815e+000 -9.814912e+000 61 47 21
1.280553e+000 1.956309e+000 -8.797704e+000 123 108 66
1.313755e+000 1.949083e+000 -8.839713e+000 113 99 60
1.462559e+000 2.027920e+000 -9.056446e+000 119 106 63
1.462559e+000 2.027920e+000 -9.056446e+000 119 106 63
1.669093e+000 2.057902e+000 -9.218269e+000 122 110 69
-3.379003e-002 2.046754e+000 -9.992573e+000 133 82 59
1.326523e+000 1.883634e+000 -8.797718e+000 121 105 69
1.437456e+000 1.858225e+000 -8.910408e+000 121 106 65
1.983815e+000 2.039958e+000 -9.476737e+000 113 96 60
2.015292e+000 2.044085e+000 -9.551812e+000 117 103 66
2.059959e+000 2.047081e+000 -9.562742e+000 79 64 33
-1.291451e-001 2.029389e+000 -1.012915e+001 184 156 116
-9.375843e-002 1.954058e+000 -1.006208e+001 189 177 117
1.730687e+000 1.848708e+000 -9.158345e+000 73 60 25
1.836884e+000 1.865498e+000 -9.234708e+000 127 112 69
-1.543078e-001 1.866146e+000 -1.011992e+001 176 146 82
1.347348e+000 1.689970e+000 -8.697711e+000 71 56 17
1.416854e+000 1.695709e+000 -8.791389e+000 119 105 60
1.467444e+000 1.759727e+000 -8.883462e+000 81 69 29
1.807347e+000 1.808304e+000 -9.166452e+000 120 107 63
2.049384e+000 1.827140e+000 -9.363543e+000 124 104 67
2.032325e+000 1.807587e+000 -9.349521e+000 91 74 37
7.160895e-001 1.568058e+000 -8.701539e+000 81 66 73
1.408432e+000 1.620209e+000 -8.725625e+000 69 54 14
1.836647e+000 1.689102e+000 -9.137171e+000 130 115 72
1.836715e+000 1.688443e+000 -9.130819e+000 130 115 72
2.044992e+000 1.775388e+000 -9.352761e+000 122 108 63
1.714228e+000 1.644527e+000 -9.020071e+000 120 105 62
1.589488e+000 1.547642e+000 -8.885293e+000 121 108 64
2.129167e+000 1.581882e+000 -9.314430e+000 118 98 62
2.131698e+000 1.519022e+000 -9.295959e+000 115 100 59
-4.772321e-002 1.415207e+000 -9.905208e+000 84 64 66
1.391687e+000 1.304958e+000 -8.467405e+000 127 108 68
1.953482e+000 1.314365e+000 -9.084916e+000 115 100 62
2.392572e+000 1.343689e+000 -9.493726e+000 94 78 54
2.908366e+000 1.380283e+000 -8.948173e+000 213 177 91
1.713148e+000 1.235469e+000 -8.751244e+000 122 107 67
1.789020e+000 1.217156e+000 -8.792847e+000 129 114 71
1.954170e+000 1.164595e+000 -8.932877e+000 77 61 27
1.993322e+000 1.156033e+000 -8.963411e+000 85 70 31
1.948045e+000 1.067387e+000 -8.837641e+000 69 73 46
2.830091e+000 1.125860e+000 -8.994656e+000 191 163 78
2.052310e+000 8.490757e-001 -8.814806e+000 118 103 64
2.860019e+000 8.044366e-001 -8.832449e+000 157 130 48
1.992563e+000 6.483140e-001 -8.651855e+000 78 59 27
1.730108e+000 5.761296e-001 -8.354588e+000 130 115 74
-3.636073e-001 5.495043e-002 -1.014688e+001 109 70 89
6.280616e-001 2.674700e-001 -8.592951e+000 198 220 206
2.136646e+000 3.567060e-001 -8.636716e+000 91 72 40
1.004743e-001 -2.085168e-001 -9.209233e+000 83 59 64
8.656043e-001 4.651209e-002 -8.150992e+000 154 143 162
9.137052e-001 8.604213e-002 -8.054069e+000 62 49 76
7.754838e-001 -1.376212e-002 -8.279662e+000 181 184 192
8.079660e-001 -7.623981e-003 -8.229769e+000 56 47 68
8.405731e-001 -1.151331e-002 -8.186844e+000 55 44 68
9.266700e-001 3.596692e-002 -8.073524e+000 154 148 165
4.294997e-002 2.246128e+000 -9.947349e+000 201 161 103
1.219598e+000 1.952103e+000 -8.721067e+000 67 50 19
1.705758e+000 2.085668e+000 -9.255778e+000 85 72 37
1.750338e+000 2.110563e+000 -9.296909e+000 125 110 67
1.589106e+000 2.016101e+000 -9.136590e+000 122 108 71
1.622418e+000 1.996615e+000 -9.131088e+000 126 112 73
1.907511e+000 2.118604e+000 -9.444105e+000 122 106 70
1.382927e+000 1.896951e+000 -8.878998e+000 87 73 38
1.636197e+000 1.894771e+000 -9.102875e+000 126 111 72
1.781941e+000 1.955067e+000 -9.215227e+000 91 75 42
1.327626e+000 1.744931e+000 -8.727377e+000 86 71 38
1.533316e+000 1.812105e+000 -8.978437e+000 105 89 55
1.529343e+000 1.809178e+000 -8.958286e+000 105 89 55
1.583463e+000 1.811085e+000 -9.021659e+000 79 66 32
1.631113e+000 1.860379e+000 -9.078358e+000 98 84 49
1.627868e+000 1.857057e+000 -9.057486e+000 98 84 49
1.641889e+000 1.774860e+000 -9.043549e+000 122 110 68
1.744859e+000 1.790249e+000 -9.117935e+000 86 72 35
1.498452e+000 1.679366e+000 -8.870836e+000 117 104 59
1.766163e+000 1.726824e+000 -9.095654e+000 78 63 24
1.741450e+000 1.671028e+000 -9.050187e+000 88 74 37
1.980717e+000 1.691920e+000 -9.242224e+000 90 76 39
6.300759e-001 1.546634e+000 -8.859583e+000 213 221 205
6.300759e-001 1.546634e+000 -8.859583e+000 213 221 205
1.267182e+000 1.510630e+000 -8.461879e+000 73 54 24
1.267182e+000 1.510630e+000 -8.461879e+000 73 54 24
1.635844e+000 1.629081e+000 -8.969261e+000 72 56 24
1.614024e+000 1.606560e+000 -8.945879e+000 125 110 71
2.175553e+000 1.664226e+000 -9.401079e+000 96 77 45
2.168998e+000 1.661324e+000 -9.373760e+000 96 77 45
1.373613e+000 1.475535e+000 -8.576555e+000 73 58 25
7.244312e-001 1.411020e+000 -8.654247e+000 208 226 212
4.686559e-001 1.347487e+000 -9.091717e+000 204 225 210
1.798781e+000 1.372493e+000 -8.980065e+000 66 47 21
1.948779e+000 1.426903e+000 -9.155236e+000 112 97 60
1.948779e+000 1.426903e+000 -9.155236e+000 112 97 60
2.303374e+000 1.432010e+000 -9.445281e+000 113 94 62
1.455763e+000 1.235019e+000 -8.475641e+000 119 104 65
1.550005e+000 1.264080e+000 -8.619543e+000 125 110 71
1.550005e+000 1.264080e+000 -8.619543e+000 125 110 71
1.526406e+000 1.245867e+000 -8.568335e+000 76 60 26
1.526406e+000 1.245867e+000 -8.568335e+000 76 60 26
1.622241e+000 1.254621e+000 -8.665189e+000 128 111 65
2.112368e+000 1.338164e+000 -9.262271e+000 110 96 61
2.112368e+000 1.338164e+000 -9.262271e+000 110 96 61
2.108551e+000 1.308271e+000 -9.246149e+000 66 49 24
2.222968e+000 1.320644e+000 -9.349379e+000 112 93 63
1.873783e+000 1.250120e+000 -8.942801e+000 122 107 66
2.356630e+000 1.297109e+000 -9.459477e+000 66 54 32
1.458703e+000 1.135546e+000 -8.401006e+000 121 109 68
1.498572e+000 1.131164e+000 -8.439535e+000 121 109 72
1.618902e+000 1.105426e+000 -8.536246e+000 114 102 61
1.618902e+000 1.105426e+000 -8.536246e+000 114 102 61
1.723931e+000 1.135646e+000 -8.668983e+000 120 107 66
1.805060e+000 1.139750e+000 -8.763498e+000 82 67 38
1.876580e+000 1.154960e+000 -8.841258e+000 129 112 72
2.144397e+000 1.128483e+000 -9.093463e+000 76 59 31
1.480615e+000 1.082811e+000 -8.379130e+000 120 108 68
1.788909e+000 1.074677e+000 -8.679967e+000 133 118 75
1.966690e+000 1.107692e+000 -8.888983e+000 74 61 29
1.630822e+000 1.001989e+000 -8.460928e+000 126 113 68
2.173290e+000 1.043446e+000 -9.069505e+000 112 99 57
2.326935e+000 1.033772e+000 -9.229607e+000 70 62 39
2.530825e-001 7.954613e-001 -9.328480e+000 207 225 210
1.982324e+000 9.195568e-001 -8.780979e+000 120 103 59
2.159900e+000 9.623170e-001 -8.995523e+000 74 68 42
2.159900e+000 9.623170e-001 -8.995523e+000 74 68 42
1.999871e+000 8.879195e-001 -8.772795e+000 77 58 26
2.147586e+000 8.247036e-001 -8.907792e+000 119 99 61
6.973556e-001 7.519106e-001 -8.591966e+000 84 67 82
6.973556e-001 7.519106e-001 -8.591966e+000 84 67 82
1.870309e+000 7.753427e-001 -8.592786e+000 122 101 56
1.899972e+000 7.712519e-001 -8.613523e+000 126 106 59
2.350090e+000 7.798439e-001 -9.092001e+000 103 87 51
2.896958e+000 7.669973e-001 -8.754900e+000 182 156 69
2.210438e+000 6.399457e-001 -8.878117e+000 112 97 54
2.253895e+000 4.621648e-001 -8.815306e+000 117 97 63
2.424278e+000 5.073010e-001 -9.011063e+000 60 41 16
1.748656e+000 4.662777e-001 -8.290023e+000 125 108 61
1.910891e+000 3.114635e-001 -8.392734e+000 122 102 69
9.630484e-001 2.992759e-001 -8.061980e+000 80 60 104
2.340710e+000 2.238255e-001 -8.743242e+000 112 95 59
4.014976e-001 3.676926e-003 -8.833770e+000 95 65 73
2.054814e+000 1.806470e-001 -8.393762e+000 126 103 69
2.386049e-001 -1.474030e-001 -9.007348e+000 205 222 207
5.587171e-001 -2.119718e-002 -8.557266e+000 83 69 84
1.182443e+000 2.367601e-001 -7.702156e+000 66 58 95
1.434473e+000 2.137443e-001 -7.842931e+000 117 103 66
7.197865e-002 2.197549e+000 -9.887567e+000 125 71 47
1.678784e+000 1.910175e+000 -9.144955e+000 92 78 42
-1.492729e-002 2.007280e+000 -9.985388e+000 179 131 98
-5.549124e-002 1.967224e+000 -1.003093e+001 104 65 58
-2.510922e-001 1.779038e+000 -1.023348e+001 179 146 100
3.555244e-001 1.714236e+000 -9.356278e+000 211 224 209
1.893125e+000 1.684991e+000 -9.178970e+000 119 104 61
1.825492e+000 1.594497e+000 -9.099541e+000 111 100 60
2.078364e+000 1.658288e+000 -9.334232e+000 129 110 68
2.078364e+000 1.658288e+000 -9.334232e+000 129 110 68
1.885512e+000 1.433371e+000 -9.115581e+000 121 105 62
2.143555e+000 1.487203e+000 -9.319606e+000 98 81 54
2.344972e-001 1.211471e+000 -9.428491e+000 84 68 78
2.329450e-001 1.210540e+000 -9.435586e+000 84 68 78
4.068816e-002 1.080731e+000 -9.676274e+000 90 80 92
9.594801e-002 1.116954e+000 -9.627142e+000 91 78 89
2.213454e-001 1.050244e+000 -9.477250e+000 129 82 101
1.560102e+000 9.887299e-001 -8.373928e+000 98 83 47
1.560102e+000 9.887299e-001 -8.373928e+000 98 83 47
1.834462e+000 9.848755e-001 -8.660239e+000 81 81 57
2.887265e+000 9.987348e-001 -8.866042e+000 213 191 102
8.209488e-001 8.585755e-001 -8.380734e+000 91 77 87
1.697547e+000 8.485471e-001 -8.438353e+000 83 63 36
1.897962e+000 8.543276e-001 -8.656355e+000 87 71 37
2.270339e+000 8.796976e-001 -9.072210e+000 68 66 51
1.656222e+000 7.743190e-001 -8.360357e+000 121 104 58
1.939587e+000 7.884127e-001 -8.673274e+000 78 66 30
2.198633e+000 7.844356e-001 -8.934043e+000 80 61 28
1.796395e+000 7.383978e-001 -8.494684e+000 124 107 63
1.805523e+000 7.067537e-001 -8.486916e+000 76 62 33
1.857361e+000 6.943886e-001 -8.524979e+000 90 70 43
2.018910e+000 7.099979e-001 -8.717021e+000 92 78 36
1.519304e+000 6.623053e-001 -8.160355e+000 69 57 24
1.952032e+000 6.389649e-001 -8.608646e+000 116 99 56
1.957238e+000 6.369650e-001 -8.620808e+000 116 99 56
2.178723e+000 6.191646e-001 -8.829657e+000 71 57 28
2.402032e+000 6.249631e-001 -9.056735e+000 62 48 22
2.385557e+000 5.964726e-001 -9.026509e+000 118 98 65
1.578196e+000 6.255184e-001 -8.186334e+000 120 101 58
1.684346e+000 5.800220e-001 -8.306067e+000 120 105 61
2.020007e+000 5.988271e-001 -8.648618e+000 87 71 37
2.121130e+000 5.744739e-001 -8.750561e+000 74 54 29
2.174620e+000 5.901862e-001 -8.811855e+000 109 92 49
2.252374e+000 5.460123e-001 -8.853677e+000 84 67 35
2.402025e+000 5.423838e-001 -9.018886e+000 98 79 49
2.348690e+000 5.279667e-001 -8.943872e+000 80 61 30
2.019749e+000 5.393084e-001 -8.631999e+000 80 62 24
2.125853e+000 5.194300e-001 -8.716446e+000 77 61 27
2.309472e+000 5.071730e-001 -8.897163e+000 115 97 59
2.358281e+000 4.654859e-001 -8.919608e+000 66 49 22
1.989149e+000 4.376258e-001 -8.533034e+000 83 68 29
1.559451e+000 4.226850e-001 -8.094692e+000 68 53 22
1.760729e+000 4.035307e-001 -8.276861e+000 129 113 64
2.071845e+000 3.656380e-001 -8.572235e+000 74 58 25
1.741668e+000 3.776332e-001 -8.261401e+000 70 53 23
1.861435e+000 3.297656e-001 -8.336283e+000 122 105 59
2.057555e+000 3.351654e-001 -8.560872e+000 122 103 61
2.051498e+000 2.889093e-001 -8.497336e+000 118 101 62
2.173032e+000 2.839391e-001 -8.642310e+000 110 90 58
2.173032e+000 2.839391e-001 -8.642310e+000 110 90 58
2.227520e+000 2.778044e-001 -8.670052e+000 70 53 21
2.334668e+000 2.540544e-001 -8.760684e+000 58 43 13
2.489174e+000 2.718028e-001 -8.934147e+000 63 47 22
2.122238e+000 1.912502e-001 -8.481702e+000 74 58 27
2.112784e+000 1.681698e-001 -8.447971e+000 127 110 69
2.150651e+000 1.604913e-001 -8.486217e+000 125 104 65
2.150651e+000 1.604913e-001 -8.486217e+000 125 104 65
2.248507e+000 1.630491e-001 -8.589128e+000 82 66 33
2.254946e+000 1.580247e-001 -8.606819e+000 82 66 33
2.214728e+000 1.474850e-001 -8.536327e+000 113 91 50
2.422919e+000 1.409788e-001 -8.784606e+000 99 81 49
2.497004e+000 1.195784e-001 -8.849176e+000 93 76 48
1.753557e+000 1.862123e-001 -8.120531e+000 117 98 55
2.310675e+000 5.693894e-002 -8.627182e+000 102 82 43
8.429997e-001 4.190762e-002 -8.162595e+000 67 53 82
2.888040e+000 3.033989e-002 -8.678250e+000 153 121 62
-2.862817e-001 2.295209e+000 -1.031899e+001 105 69 53
2.270497e+000 2.171822e+000 -9.773129e+000 48 29 12
-2.527224e-001 1.852126e+000 -1.023252e+001 170 140 99
-4.724633e-002 1.364236e+000 -9.885579e+000 208 226 210
2.177701e+000 1.415063e+000 -9.333523e+000 76 65 37
2.391846e+000 1.220842e+000 -9.439243e+000 90 76 48
8.038381e-001 9.450960e-001 -8.394508e+000 87 76 84
2.863838e+000 7.859523e-001 -8.902284e+000 205 180 100
2.912492e+000 8.354867e-001 -8.770302e+000 200 175 85
1.498011e+000 7.218196e-001 -8.176096e+000 70 56 27
1.829254e+000 7.574842e-001 -8.534482e+000 93 77 44
7.025276e-001 4.361539e-001 -8.501313e+000 85 63 90
1.628717e+000 5.820569e-001 -8.217991e+000 70 57 19
1.631773e+000 5.787970e-001 -8.235573e+000 70 57 19
2.171161e+000 4.772642e-001 -8.736413e+000 119 100 57
1.682419e+000 5.108260e-001 -8.247263e+000 88 75 41
1.884960e+000 4.045276e-001 -8.410877e+000 62 47 16
1.587989e+000 3.634490e-001 -8.073936e+000 81 67 32
1.932488e+000 3.374769e-001 -8.428929e+000 79 63 27
1.932488e+000 3.374769e-001 -8.428929e+000 79 63 27
1.786516e-001 -1.628405e-002 -9.167444e+000 67 56 59
1.154985e+000 3.496082e-001 -7.741905e+000 63 47 88
1.955960e+000 2.236535e-001 -8.339673e+000 62 46 20
2.042549e+000 2.056047e-001 -8.412995e+000 70 56 29
2.219945e+000 1.915145e-001 -8.597896e+000 116 101 60
4.851877e-001 -4.900182e-002 -8.711576e+000 82 63 82
1.950759e+000 1.764838e-001 -8.288679e+000 69 54 25
2.892663e+000 9.528184e-002 -8.723111e+000 159 126 63
4.340492e-001 9.231145e-001 -9.065483e+000 206 225 209
1.432354e+000 7.927936e-001 -8.139068e+000 77 61 35
1.449519e+000 7.460106e-001 -8.134970e+000 121 107 60
9.489696e-001 3.269203e-001 -8.067753e+000 202 223 210
1.741563e+000 3.285057e-001 -8.202663e+000 90 75 44
1.860391e+000 2.580102e-001 -8.316752e+000 126 105 58
1.660904e+000 2.512392e-001 -8.093103e+000 126 110 59
1.582289e-001 2.022270e+000 -9.711059e+000 111 69 51
7.930194e-001 1.203390e+000 -8.503736e+000 204 224 205
1.367044e+000 1.232883e+000 -8.390204e+000 128 107 60
6.582818e-001 1.096100e+000 -8.724287e+000 204 227 206
7.505730e-001 5.127289e-001 -8.448309e+000 204 225 207
8.263448e-001 9.044144e-001 -8.376323e+000 206 227 210
3.449573e-001 2.337212e-002 -8.960425e+000 85 71 72
1.442246e+000 5.184193e-001 -8.035655e+000 127 110 66
8.943038e-001 3.667065e-001 -8.146544e+000 203 226 208
7.484883e-001 1.555705e+000 -8.619967e+000 69 53 58
1.270280e+000 1.521398e+000 -8.461925e+000 127 114 69
5.842628e-001 1.534072e+000 -8.911096e+000 72 61 65
-1.419282e-001 1.675506e+000 -1.005149e+001 173 156 131
1.202410e-001 1.590684e+000 -9.670535e+000 88 76 71
4.000962e-001 1.297726e+000 -9.203341e+000 217 219 212
3.672827e-001 1.275160e+000 -9.257291e+000 214 230 213
4.218880e-001 1.275665e+000 -9.153468e+000 86 58 55
1.405057e-001 1.117241e+000 -9.556018e+000 207 218 213
-6.219356e-003 1.017157e+000 -9.711569e+000 201 213 211
3.907589e-001 1.001368e+000 -9.141811e+000 213 230 219
4.344718e-001 1.031733e+000 -9.092348e+000 90 60 65
4.994146e-001 9.963222e-001 -8.976873e+000 202 229 210
1.508904e-001 8.288412e-001 -9.442188e+000 203 229 215
3.248115e-001 5.680928e-002 -8.982079e+000 203 211 208
7.770312e-001 1.185844e-001 -8.273438e+000 205 208 215
2.608935e-001 -1.202663e-001 -8.998489e+000 51 40 46
8.783788e-001 6.010505e-002 -8.127994e+000 67 55 79
9.405166e-001 3.536602e-002 -8.039632e+000 188 199 202
1.041713e-001 -2.077409e-001 -9.231514e+000 76 66 67
2.465774e-001 -1.721096e-001 -9.053757e+000 74 59 64
2.247024e-001 -2.415128e-001 -9.025722e+000 217 205 209
1.000456e-001 -3.964503e-001 -9.203543e+000 177 165 170
1.149266e-001 -4.025115e-001 -9.221204e+000 64 52 66
-3.511561e-001 2.501220e+000 -1.046622e+001 157 127 74
4.067788e-002 2.116950e+000 -9.896449e+000 137 86 60
1.807151e+000 1.803894e+000 -9.166864e+000 125 112 70
2.154677e-001 1.470976e+000 -9.506680e+000 216 217 207
7.147421e-001 1.386990e+000 -8.690383e+000 76 53 68
-3.690749e-002 1.409619e+000 -9.847499e+000 81 69 70
2.378950e+000 1.327887e+000 -9.495919e+000 33 18 1
2.351861e-001 1.266669e+000 -9.422027e+000 77 67 73
1.763171e+000 1.080785e+000 -8.676798e+000 127 113 74
3.815487e-001 1.025496e+000 -9.149838e+000 88 67 66
2.808421e+000 9.789773e-001 -9.028364e+000 142 110 46
1.844877e-001 9.745048e-001 -9.461908e+000 94 80 91
7.681930e-001 8.902520e-001 -8.444516e+000 204 228 212
7.442619e-002 7.845275e-001 -9.529635e+000 201 216 210
2.096718e-001 6.536478e-001 -9.339539e+000 92 72 70
1.410888e-001 -1.688726e-001 -9.177556e+000 62 51 50
4.519468e-001 -3.424629e-002 -8.736272e+000 197 223 216
-4.080605e-002 2.071816e+000 -1.002700e+001 138 86 65
2.027102e+000 1.806173e+000 -9.348738e+000 96 82 48
-2.526385e-002 1.851608e+000 -9.906947e+000 191 167 121
1.607910e+000 1.602596e+000 -8.931926e+000 119 103 69
1.653422e+000 1.589236e+000 -8.969187e+000 118 104 65
1.888243e+000 1.595094e+000 -9.167236e+000 85 71 34
1.888243e+000 1.595094e+000 -9.167236e+000 85 71 34
1.865193e+000 1.502197e+000 -9.121737e+000 127 113 71
2.130731e+000 1.582863e+000 -9.334076e+000 119 106 65
5.875982e-001 1.438366e+000 -8.894040e+000 206 222 209
4.744714e-001 1.347278e+000 -9.070966e+000 208 220 208
1.356286e+000 1.162266e+000 -8.324261e+000 124 110 63
2.212374e+000 1.295548e+000 -9.347087e+000 62 44 20
2.251895e+000 1.315776e+000 -9.390404e+000 116 95 66
2.343915e+000 1.337767e+000 -9.471973e+000 43 32 10
2.428759e-001 1.174617e+000 -9.420170e+000 204 227 213
1.586408e+000 8.180007e-001 -8.322555e+000 130 115 72
1.665439e+000 7.157166e-001 -8.344937e+000 125 110 67
1.741533e+000 6.404927e-001 -8.404888e+000 129 111 63
2.038804e+000 6.247859e-001 -8.716960e+000 123 107 71
2.072196e+000 6.123211e-001 -8.734598e+000 123 106 62
2.120936e+000 4.385428e-001 -8.686493e+000 122 107 68
2.429894e+000 2.361650e-001 -8.874313e+000 68 51 23
3.968267e-001 5.089853e-003 -8.851335e+000 93 64 65
2.611453e+000 5.504162e-004 -8.982945e+000 80 64 47
2.292201e-001 -1.598093e-001 -9.052971e+000 206 218 209
2.860013e-001 -1.191745e-001 -8.978678e+000 204 220 213
-1.569855e-001 2.332787e+000 -1.019444e+001 151 114 66
1.616777e+000 1.691200e+000 -8.975195e+000 91 76 46
3.642952e-001 1.706405e+000 -9.324658e+000 212 222 213
1.728635e+000 1.555917e+000 -9.027558e+000 82 66 34
2.093428e+000 1.658231e+000 -9.361839e+000 128 111 68
5.995645e-001 1.465285e+000 -8.882406e+000 81 75 76
2.237859e+000 1.477458e+000 -9.402445e+000 62 51 23
6.626346e-001 1.223770e+000 -8.722203e+000 206 222 209
-7.063236e-002 1.000263e+000 -9.765656e+000 87 72 85
2.301162e+000 8.780154e-001 -9.134583e+000 47 41 26
-4.278017e-002 8.683470e-001 -9.722721e+000 199 218 207
6.855747e-001 8.365212e-001 -8.575045e+000 88 70 80
-1.641144e+001 1.093131e+000 -6.362159e+001 201 54 72
1.506334e+000 7.535165e-001 -8.209812e+000 119 105 65
8.537847e-002 6.903756e-001 -9.532995e+000 203 225 214
2.968363e+000 6.798462e-001 -8.751378e+000 214 187 99
1.543398e+000 6.017208e-001 -8.145243e+000 75 63 31
1.543398e+000 6.017208e-001 -8.145243e+000 75 63 31
1.560111e+000 4.251641e-001 -8.092650e+000 74 61 29
1.739450e+000 3.809297e-001 -8.254676e+000 75 56 21
2.281999e+000 1.810408e-001 -8.672785e+000 121 102 62
2.423783e+000 1.442947e-001 -8.802452e+000 108 93 62
3.012598e+000 1.954445e-001 -8.590418e+000 203 184 92
1.184782e+000 -2.357411e-001 -7.611194e+000 69 61 100
-3.160956e-001 2.306035e+000 -1.042719e+001 95 60 42
-3.160956e-001 2.306035e+000 -1.042719e+001 95 60 42
-4.264243e-001 2.250977e+000 -1.048939e+001 151 122 80
-3.755598e-001 2.285969e+000 -1.041288e+001 150 121 78
7.871106e-002 1.855037e+000 -9.766048e+000 137 69 63
5.374060e-001 1.431426e+000 -8.992023e+000 80 68 72
2.192391e+000 1.415194e+000 -9.361713e+000 72 56 30
7.854717e-001 1.147680e+000 -8.512701e+000 78 67 75
6.230129e-001 1.072989e+000 -8.776962e+000 205 226 211
8.219099e-001 8.624571e-001 -8.412114e+000 88 71 87
6.765324e-001 7.773805e-001 -8.616225e+000 205 226 207
2.873287e+000 7.859491e-001 -8.917847e+000 192 165 86
1.585706e-001 7.291436e-001 -9.437581e+000 198 228 206
2.453390e+000 6.951396e-001 -9.173663e+000 97 81 55
1.631410e+000 5.825909e-001 -8.252330e+000 75 57 28
2.173526e+000 4.315593e-001 -8.732860e+000 118 103 62
2.775721e-001 1.629971e-001 -9.051954e+000 204 229 211
1.898030e+000 2.362581e-001 -8.319637e+000 74 64 33
2.854849e+000 2.242510e-001 -8.655395e+000 139 110 46
1.823487e+000 1.999362e-001 -8.202601e+000 78 62 33
2.201175e+000 1.224368e-001 -8.525990e+000 94 80 48
2.395861e+000 6.522694e-002 -8.738976e+000 56 36 12
2.351096e+000 5.067400e-002 -8.688234e+000 102 87 46
9.435118e-001 6.597433e-002 -8.029075e+000 84 66 88
-2.582325e-001 2.326735e+000 -1.030532e+001 102 65 49
-2.582325e-001 2.326735e+000 -1.030532e+001 102 65 49
-2.273649e-001 1.764228e+000 -1.014170e+001 171 139 93
2.836179e-001 1.194678e+000 -9.379721e+000 99 72 85
-2.072238e+001 1.159407e+000 -5.854844e+001 178 34 47
2.585767e-001 6.318845e-001 -9.241190e+000 209 225 212
8.557907e-001 6.626414e-001 -8.278256e+000 103 71 96
1.926204e-001 6.126500e-001 -9.376544e+000 204 228 210
9.148295e-001 5.006436e-001 -8.202540e+000 197 225 207
6.975490e-001 4.373832e-001 -8.507322e+000 78 58 85
4.948940e-001 1.027323e-001 -8.726145e+000 78 64 81
4.864288e-001 -5.373029e-002 -8.697484e+000 78 65 80
-8.253828e-002 2.146402e+000 -1.004871e+001 94 65 51
1.901725e-001 1.409840e+000 -9.577821e+000 89 74 93
5.041246e-001 1.051371e+000 -8.952538e+000 120 79 85
4.558608e-001 9.837070e-001 -9.019557e+000 86 65 67
7.861626e-001 8.966711e-001 -8.437319e+000 205 226 209
8.396982e-001 9.103332e-001 -8.355826e+000 204 226 207
-1.738950e+001 1.898782e+000 -6.567040e+001 174 38 52
2.941302e+000 5.996508e-001 -8.736179e+000 175 140 62
2.365962e-001 1.716161e+000 -9.482526e+000 93 71 74
1.412892e+000 1.142186e+000 -8.348554e+000 121 115 81
7.072625e-001 5.560710e-001 -8.468911e+000 81 65 92
7.169433e-001 1.355338e-001 -8.374367e+000 96 69 104
8.619578e-001 1.260569e-001 -8.149128e+000 70 53 89
1.293894e+000 1.266141e+000 -8.343697e+000 131 114 71
2.917791e+000 8.803839e-001 -8.857427e+000 211 186 96
7.924382e-001 4.495862e-001 -8.377099e+000 81 60 96
2.489393e+000 2.257348e-001 -8.935858e+000 68 51 25
1.672773e-001 1.026387e-002 -9.146906e+000 63 54 58
1.181407e-001 1.257616e+000 -9.599728e+000 77 61 79
2.585740e+000 5.903963e-002 -8.903567e+000 51 34 18
1.665689e-001 2.154161e+000 -9.747200e+000 199 154 105
1.918912e-001 2.056410e+000 -9.677669e+000 141 89 65
-3.911773e-001 2.092047e+000 -1.046579e+001 93 73 87
2.910266e-001 1.911615e+000 -9.512693e+000 133 91 66
1.574566e+000 1.764179e+000 -8.983393e+000 123 109 69
-2.815097e-001 1.823458e+000 -1.028724e+001 169 137 93
4.461704e-003 1.766395e+000 -9.884209e+000 199 182 138
1.867603e+000 1.678310e+000 -9.167196e+000 124 110 65
2.657309e-001 1.600258e+000 -9.476977e+000 92 60 70
1.655071e+000 1.573990e+000 -8.974838e+000 124 111 71
7.069608e-002 1.401955e+000 -9.705783e+000 84 68 70
-3.352197e+001 2.750865e+000 -8.061795e+001 104 63 57
7.676103e-002 7.835110e-001 -9.523539e+000 211 227 223
2.855495e+000 7.384085e-001 -8.935222e+000 134 106 41
1.609971e+000 4.131326e-001 -8.126480e+000 104 91 57
-1.514188e-001 2.034977e+000 -1.012833e+001 95 61 52
8.120955e-002 1.537959e+000 -9.716686e+000 80 75 72
2.269012e+000 1.255412e+000 -9.359527e+000 102 81 54
5.307233e-001 2.107253e-001 -8.694695e+000 211 225 217
2.914222e+000 2.816268e-001 -8.696777e+000 141 118 42
1.815799e+000 2.211090e-001 -8.196807e+000 128 111 67
7.770858e-001 1.203575e-001 -8.260472e+000 187 198 199
9.573005e-001 1.139295e-002 -7.996849e+000 172 171 182
1.793503e-001 2.096270e+000 -9.692811e+000 130 76 52
7.885362e-002 1.860847e+000 -9.805207e+000 123 62 48
1.439377e+000 1.662821e+000 -8.813757e+000 90 76 38
1.694470e+000 1.592623e+000 -9.013131e+000 119 104 62
1.397941e+000 1.441360e+000 -8.586062e+000 132 109 70
1.625715e+000 1.383662e+000 -8.803249e+000 122 109 64
1.482033e+000 8.994307e-001 -8.238656e+000 79 64 30
1.457696e+000 7.707184e-001 -8.146479e+000 66 51 20
1.604106e+000 4.522831e-001 -8.143576e+000 82 67 29
9.694928e-001 3.507155e-001 -8.041496e+000 69 57 84
1.706403e+000 3.850355e-001 -8.216249e+000 117 103 58
1.716089e+000 3.143539e-001 -8.168521e+000 123 108 65
9.795036e-001 2.672158e-001 -8.000159e+000 174 179 182
1.926482e+000 2.461433e-001 -8.337051e+000 122 105 58
1.584874e+000 2.063501e+000 -9.159758e+000 123 108 69
1.542662e+000 2.043084e+000 -9.127356e+000 85 72 37
1.787829e+000 1.960988e+000 -9.243235e+000 91 75 42
1.583041e+000 1.812447e+000 -9.023057e+000 79 66 32
1.615105e+000 1.806475e+000 -9.046436e+000 97 82 51
-2.976888e-001 1.925351e+000 -1.031199e+001 80 63 75
2.041901e+000 1.839819e+000 -9.381551e+000 132 114 74
-2.393972e+001 8.487681e+000 -6.434489e+001 132 95 146
1.592233e+000 1.693838e+000 -8.960667e+000 74 59 28
1.829428e+000 1.662133e+000 -9.132816e+000 78 63 24
1.909112e+000 1.524436e+000 -9.155249e+000 76 61 28
1.909112e+000 1.524436e+000 -9.155249e+000 76 61 28
1.940947e+000 1.490217e+000 -9.179053e+000 122 107 66
2.361106e+000 1.422735e+000 -9.480812e+000 92 72 47
2.411251e-001 1.174355e+000 -9.418981e+000 202 229 208
-1.732013e+001 -1.727319e-001 -6.297155e+001 151 57 57
-1.611018e+001 -1.302116e-001 -6.335776e+001 179 97 97
1.529391e+000 9.213542e-001 -8.296739e+000 125 107 59
2.846083e+000 8.342167e-001 -8.893964e+000 190 162 81
9.388396e-001 1.406791e-001 -8.015524e+000 79 61 86
5.659846e-001 1.034148e+000 -8.860719e+000 204 227 206
5.659846e-001 1.034148e+000 -8.860719e+000 204 227 206
1.591549e+000 9.257965e-001 -8.362776e+000 91 73 37
1.124238e-001 -6.369476e-002 -9.260942e+000 72 58 60
-2.243679e+001 -2.633377e+000 -6.333169e+001 32 24 44
