ply
format ascii 1.0
element face 0
property list uchar int vertex_indices
element vertex 878
property float x
property float y
property float z
property uchar diffuse_red
property uchar diffuse_green
property uchar diffuse_blue
end_header
-8.268683e-001 3.593187e-001 -1.012247e+001 213 234 224
3.449958e+000 -8.645266e-001 -8.901199e+000 120 101 70
4.179045e-001 -9.512789e-001 -7.799998e+000 70 66 87
-2.134239e-002 -9.071889e-001 -8.430212e+000 84 67 85
1.109822e+000 -1.333640e+000 -6.677236e+000 47 41 79
-8.622396e-001 -8.310649e-001 -9.707726e+000 215 226 219
2.021240e+000 2.370702e+000 -9.440214e+000 152 139 104
3.159145e+000 3.057204e+000 -1.092436e+001 91 63 34
2.687738e+000 2.144766e+000 -9.806528e+000 156 142 107
-1.008198e+000 3.274234e+000 -1.107025e+001 86 52 43
-1.008198e+000 3.274234e+000 -1.107025e+001 86 52 43
1.657883e+000 7.758213e-001 -7.888042e+000 155 140 101
1.597785e-002 1.463046e+000 -9.039830e+000 85 73 89
5.450129e-002 1.162004e+000 -8.904216e+000 98 70 92
-1.305052e+000 2.146636e+000 -1.115577e+001 157 130 95
-2.639801e-001 1.361543e+000 -9.475695e+000 210 215 208
8.354517e-002 1.038705e+000 -8.814139e+000 211 230 212
-4.156996e-001 1.348010e+000 -9.631448e+000 89 73 82
3.342907e+000 3.518443e-001 -9.435282e+000 133 116 86
-5.727245e-001 9.135688e-001 -9.848467e+000 97 62 83
-4.320737e-001 9.003550e-001 -9.565016e+000 119 75 92
-4.320737e-001 9.003550e-001 -9.565016e+000 119 75 92
2.488924e-001 -2.639015e-003 -8.378894e+000 210 229 219
-8.000522e-001 5.144910e-001 -1.014013e+001 121 84 101
-8.000522e-001 5.144910e-001 -1.014013e+001 121 84 101
3.639003e+000 -4.520398e-001 -9.305276e+000 81 48 28
-9.256517e-001 4.118295e-001 -1.024378e+001 82 71 94
-9.081360e-001 3.815717e-001 -1.011172e+001 82 71 94
-6.139292e-001 3.377116e-001 -9.780577e+000 111 79 82
-4.258231e-001 -5.864759e-001 -9.090708e+000 83 67 74
9.197232e-001 -1.204020e+000 -6.802144e+000 62 44 99
-5.872824e-001 -8.301635e-001 -9.384754e+000 82 65 71
-3.562454e-001 -9.290335e-001 -8.981581e+000 104 66 74
1.108428e+000 -1.413042e+000 -6.672431e+000 60 54 90
1.359513e+000 -1.469519e+000 -6.617743e+000 138 147 174
8.398094e-001 1.883005e+000 -7.932943e+000 64 48 50
-1.099040e-001 2.450935e+000 -9.421572e+000 207 228 210
2.987603e+000 2.249441e+000 -1.017649e+001 140 124 92
-1.757089e+000 3.105804e+000 -1.212209e+001 77 65 75
-1.190867e+000 2.647848e+000 -1.111320e+001 193 170 125
2.514435e-001 1.335860e+000 -8.650570e+000 82 65 69
-4.965147e-001 1.249074e+000 -9.862489e+000 105 72 88
-4.166060e-001 7.054593e-001 -9.572864e+000 90 79 87
3.343573e+000 -1.682068e-002 -9.256263e+000 116 101 72
4.338219e+000 -6.593013e-001 -8.483656e+000 195 164 81
4.294809e+000 -7.516036e-001 -8.335016e+000 192 163 83
3.444360e+000 -4.419176e-001 -9.089784e+000 97 77 52
4.354068e+000 -8.398048e-001 -8.388262e+000 200 176 88
6.600747e-001 -5.420931e-001 -7.466211e+000 84 62 97
4.349832e-001 -4.824101e-001 -7.828937e+000 206 228 214
8.710068e-001 -1.270371e+000 -6.831760e+000 158 167 185
1.893943e+000 -1.498722e+000 -6.607395e+000 142 146 172
-2.797425e-001 -8.911101e-001 -8.865504e+000 185 167 167
1.033457e+000 -1.406720e+000 -6.727440e+000 55 44 84
-7.525608e-001 3.074830e+000 -1.060860e+001 170 140 79
1.273271e+000 1.391418e+000 -8.034277e+000 157 139 99
-1.111904e+000 3.228281e+000 -1.116952e+001 187 158 102
-1.073930e+000 2.806974e+000 -1.105481e+001 131 85 54
-1.255170e+000 2.815587e+000 -1.115995e+001 96 65 60
-6.995686e-001 2.090872e+000 -1.022008e+001 78 68 63
-2.132225e-001 7.529262e-001 -9.249521e+000 211 232 215
3.392978e+000 -8.820233e-001 -8.833438e+000 111 90 61
-1.715669e-001 -3.045241e-001 -8.957302e+000 208 227 211
-1.737889e-001 -3.096038e-001 -8.931916e+000 208 227 211
-6.385965e-002 -4.278790e-001 -8.673766e+000 103 68 88
3.536064e+000 -9.418495e-001 -8.981189e+000 100 79 59
1.283516e+000 -1.516002e+000 -6.670484e+000 63 59 94
-5.430610e-001 -1.100050e+000 -9.260818e+000 216 207 208
2.447868e+000 -2.331827e+000 -6.676288e+000 109 78 59
8.438344e-001 -2.261246e+000 -7.150163e+000 44 31 49
-1.963383e+000 4.361001e+000 -1.249889e+001 173 164 157
-1.363954e+000 3.454658e+000 -1.157277e+001 97 60 46
-1.366406e+000 2.258382e+000 -1.124859e+001 173 141 91
3.154269e+000 6.492584e-001 -9.385399e+000 104 97 71
3.532576e+000 5.904770e-001 -9.820664e+000 89 59 31
3.163868e-001 -3.389984e-001 -8.066216e+000 80 56 78
1.171849e+000 -1.290168e+000 -6.683426e+000 45 30 71
1.258324e+000 -1.679864e+000 -6.647646e+000 81 70 113
2.381516e+000 -2.253711e+000 -6.491197e+000 46 31 34
2.971626e+000 1.982887e+000 -1.000444e+001 143 127 93
-2.270787e-001 7.755783e-002 -9.123293e+000 87 67 78
-4.801579e-001 2.847954e+000 -1.016391e+001 200 186 139
1.470784e+000 9.631166e-001 -7.979603e+000 157 143 104
-7.178372e-001 9.189668e-001 -1.003772e+001 212 212 214
1.302428e+000 -1.447267e+000 -6.632745e+000 99 104 134
4.999281e-001 -1.801693e+000 -7.343403e+000 75 60 103
6.892684e-001 -7.658171e-001 -7.252261e+000 103 88 122
4.346601e-001 -9.395509e-001 -7.762484e+000 81 71 94
7.927430e-001 -4.388868e-001 -7.361277e+000 82 59 102
8.959280e-001 -1.846638e+000 -7.001226e+000 47 35 83
-3.317069e+001 1.704805e+001 -8.352626e+001 87 68 90
-3.238937e+001 2.315702e+001 -8.321589e+001 108 93 117
-3.211202e+001 1.941405e+001 -8.306059e+001 187 78 94
-2.511634e+001 1.228862e+001 -7.047044e+001 163 171 156
-2.813490e+001 1.867505e+001 -7.454035e+001 134 63 83
-2.583766e+001 2.218615e+001 -7.746735e+001 203 53 72
-2.873896e+001 2.159053e+001 -7.808043e+001 221 63 76
-2.105411e+001 2.061401e+001 -7.718573e+001 205 55 70
-1.549969e+001 -1.238083e+000 -6.748321e+001 32 27 50
-2.744803e+001 1.656213e+001 -7.385138e+001 100 62 115
-2.684731e+001 1.778863e+001 -7.384496e+001 207 209 196
-2.684731e+001 1.778863e+001 -7.384496e+001 207 209 196
-2.525396e+001 1.781881e+001 -7.359203e+001 190 43 53
-2.092843e+001 1.878256e+001 -7.801046e+001 189 43 56
-1.876878e+001 1.270275e+001 -7.374303e+001 176 50 53
-3.613439e+001 1.847028e+001 -8.752296e+001 167 146 101
-2.304580e+001 1.956920e+001 -7.766194e+001 39 28 58
-5.212621e+001 8.056358e+000 -9.027482e+001 63 36 46
-5.096403e+001 2.958431e-001 -8.844083e+001 218 199 195
-3.095669e+001 2.138653e+000 -7.770539e+001 83 49 64
2.078638e-001 6.165775e-001 -8.475509e+000 91 75 81
6.353545e-001 5.603994e-002 -7.697249e+000 74 56 95
7.556753e-001 -7.017276e-001 -7.294446e+000 133 128 151
7.518621e-001 -6.724988e-001 -7.283551e+000 69 58 92
4.157871e-001 -7.931491e-001 -7.791026e+000 167 166 170
1.322187e-001 1.792764e+000 -8.900071e+000 213 224 210
2.881403e+000 1.737248e+000 -9.822413e+000 126 109 76
-1.141763e-001 1.648933e+000 -9.249334e+000 88 71 77
7.035859e-001 -7.137829e-001 -7.363482e+000 63 51 78
-7.562103e-001 1.603952e+000 -1.025260e+001 92 71 87
7.715880e-001 -7.858407e-001 -7.269593e+000 179 191 182
-1.100901e+000 4.611970e+000 -1.145156e+001 163 130 82
-4.865315e-001 3.747637e+000 -1.025953e+001 175 130 84
-1.067435e+000 4.256406e+000 -1.131241e+001 155 124 76
-2.929244e-001 3.223575e+000 -9.875159e+000 149 106 68
-9.855659e-002 2.476515e+000 -9.312925e+000 83 69 61
-1.298364e+000 3.814067e+000 -1.152045e+001 168 160 125
-8.340847e-001 3.261720e+000 -1.065881e+001 141 113 76
-5.361795e-001 2.991611e+000 -1.026575e+001 178 157 92
-3.129037e-001 2.736008e+000 -9.816125e+000 196 171 122
1.169922e-001 1.727002e+000 -8.864568e+000 80 73 74
-9.456519e-001 2.549856e+000 -1.079903e+001 172 131 106
-1.208817e+000 2.580560e+000 -1.112632e+001 161 135 75
-5.750694e-001 2.054800e+000 -1.020190e+001 206 219 207
4.417452e+000 2.127763e-001 -8.443581e+000 180 138 54
-4.518348e-001 1.388695e+000 -9.595084e+000 79 64 73
1.866340e-001 -4.605285e-001 -8.297782e+000 215 219 220
9.662882e-002 -4.175824e-001 -8.477808e+000 93 65 68
1.623572e-001 -5.084688e-001 -8.326953e+000 73 48 68
6.119000e-001 -7.214597e-001 -7.542420e+000 74 60 82
6.119000e-001 -7.214597e-001 -7.542420e+000 74 60 82
5.795081e-001 -7.644295e-001 -7.508525e+000 68 58 82
4.239590e-001 -8.718818e-001 -7.802272e+000 70 53 75
3.527019e-001 -8.698821e-001 -7.871832e+000 58 51 68
4.545835e-001 -1.004388e+000 -7.736016e+000 65 57 81
5.038943e-001 -1.041813e+000 -7.703507e+000 73 56 92
8.202582e-001 -1.267864e+000 -6.755208e+000 60 50 103
-2.591319e-001 3.463368e+000 -9.838804e+000 197 185 133
-1.197562e+000 4.348688e+000 -1.147932e+001 127 112 83
-5.396776e-001 3.677589e+000 -1.033361e+001 120 81 41
-1.626427e+000 4.537228e+000 -1.210037e+001 186 175 147
-1.560970e+000 4.485439e+000 -1.203321e+001 144 130 101
-2.640733e-001 2.714542e+000 -9.604464e+000 190 162 101
2.171444e+000 2.064479e+000 -9.371049e+000 157 143 106
-5.968362e-001 2.940754e+000 -1.038229e+001 170 136 72
-8.229203e-001 3.079380e+000 -1.062840e+001 200 168 115
-8.878602e-001 3.045755e+000 -1.082728e+001 125 81 50
-2.745324e-001 2.340671e+000 -9.651370e+000 80 65 68
2.285049e-001 1.868359e+000 -8.691986e+000 217 220 215
2.285049e-001 1.868359e+000 -8.691986e+000 217 220 215
2.361143e+000 1.809792e+000 -9.456782e+000 150 138 101
3.015128e+000 1.925777e+000 -9.962708e+000 150 134 101
2.716409e+000 1.595106e+000 -9.690009e+000 104 89 58
-1.116290e+000 2.865546e+000 -1.109617e+001 188 155 120
4.535190e+000 2.805667e-001 -8.273267e+000 188 146 60
4.184795e-001 7.955488e-001 -8.094485e+000 75 62 67
-2.377136e-001 1.369607e+000 -9.451937e+000 210 220 208
-1.100431e-001 1.086339e+000 -9.122447e+000 198 223 213
-1.100431e-001 1.086339e+000 -9.122447e+000 198 223 213
1.850490e+000 1.621548e-001 -7.786728e+000 96 78 44
-3.371117e-001 9.573540e-001 -9.465009e+000 101 74 77
-7.688373e-001 1.108112e+000 -1.009347e+001 85 70 81
-7.445078e-001 1.112761e+000 -1.017301e+001 209 204 203
-9.525700e-001 9.943258e-001 -1.032765e+001 91 78 90
6.315143e-001 -3.855189e-001 -7.554069e+000 217 230 227
3.650539e+000 -8.580698e-001 -9.155709e+000 113 95 73
6.358543e-001 -8.477881e-001 -7.477293e+000 69 50 76
-8.616170e-001 4.271761e+000 -1.100816e+001 92 60 39
-7.811738e-001 4.198489e+000 -1.086186e+001 151 116 94
-7.267765e-002 3.109755e+000 -9.356752e+000 191 164 109
-1.423701e+000 4.456967e+000 -1.161644e+001 191 177 150
-1.403554e+000 4.593024e+000 -1.184054e+001 133 116 85
-4.585776e-001 3.673531e+000 -1.026523e+001 155 107 63
-2.069223e-001 3.036041e+000 -9.594947e+000 110 77 46
-1.420891e-001 3.036153e+000 -9.468726e+000 119 86 41
-1.442218e+000 4.199662e+000 -1.177348e+001 145 131 104
-9.268864e-001 3.285832e+000 -1.088320e+001 173 143 91
1.997799e+000 1.914635e+000 -9.197499e+000 119 105 68
-8.576565e-001 2.971434e+000 -1.078510e+001 162 113 82
2.246932e-001 1.683654e+000 -8.650746e+000 76 73 72
2.578810e+000 1.778483e+000 -9.620534e+000 148 134 99
2.871192e+000 1.937665e+000 -9.858198e+000 152 137 104
-1.719918e+000 3.363482e+000 -1.191215e+001 161 127 80
-1.019897e+000 2.684255e+000 -1.091768e+001 170 125 97
-6.112605e-001 2.394420e+000 -1.025153e+001 80 62 70
3.177134e+000 1.537775e+000 -1.006422e+001 56 39 19
4.553417e+000 4.379664e-001 -8.271528e+000 190 150 63
-1.106475e+000 2.528967e+000 -1.100031e+001 112 77 58
-1.597712e+000 2.636369e+000 -1.160425e+001 83 65 79
-9.155544e-001 1.063452e+000 -1.040549e+001 102 88 103
-8.114173e-001 1.050479e+000 -1.022610e+001 211 226 219
1.932190e+000 -2.702671e-001 -7.663029e+000 99 84 49
1.431361e+000 -1.312823e+000 -6.538406e+000 59 47 49
-2.122689e-001 -8.191480e-001 -8.778848e+000 215 231 221
-6.038276e-001 -8.841203e-001 -9.399961e+000 209 218 213
1.308277e+000 -1.694807e+000 -6.638239e+000 63 51 84
-1.272056e+000 4.358175e+000 -1.148504e+001 188 174 147
-1.272056e+000 4.358175e+000 -1.148504e+001 188 174 147
-3.960481e-001 3.532588e+000 -1.010894e+001 198 177 123
-3.579732e-001 3.313333e+000 -1.002073e+001 188 153 112
1.613862e+000 2.454481e+000 -9.131999e+000 156 140 106
-2.146693e+000 4.902633e+000 -1.259120e+001 72 70 81
2.936551e+000 3.029864e+000 -1.063586e+001 129 123 100
2.361403e+000 2.161432e+000 -9.540673e+000 159 146 108
3.783874e+000 1.921621e+000 -9.870702e+000 161 114 56
-1.314439e+000 2.441323e+000 -1.122284e+001 119 85 57
-3.454450e-001 7.803848e-001 -9.487398e+000 94 74 73
-1.056096e+000 2.936075e-001 -1.028171e+001 79 65 83
4.198081e-001 -9.488064e-001 -7.812014e+000 70 66 87
-7.815057e-001 -1.179124e+000 -9.529999e+000 215 231 220
-1.155767e+000 4.373353e+000 -1.125604e+001 191 178 146
-6.239067e-001 3.817027e+000 -1.055089e+001 193 160 107
2.858458e+000 1.877479e+000 -9.817627e+000 142 127 96
-1.148119e+000 2.954597e+000 -1.112316e+001 88 60 56
-1.898916e+000 3.439691e+000 -1.204662e+001 170 164 160
-3.805296e-001 1.978077e+000 -9.813915e+000 207 231 209
2.930821e+000 3.399308e-001 -9.017101e+000 144 128 95
-6.086151e-001 6.211202e-001 -9.860233e+000 97 74 100
-1.059882e+000 6.733428e-001 -1.044714e+001 211 218 215
-1.747185e-001 -5.452981e-001 -8.842405e+000 88 70 82
1.074315e+000 -1.491333e+000 -6.761649e+000 56 44 92
-2.397398e-001 -1.047874e+000 -8.739802e+000 97 57 78
3.623205e-001 2.333636e+000 -8.456215e+000 139 67 91
-1.762878e-001 2.106277e-001 -9.166677e+000 87 71 82
4.618235e-001 -7.010192e-001 -7.687416e+000 86 64 102
1.457987e-001 2.712340e+000 -8.970054e+000 213 226 209
1.528719e+000 1.356586e+000 -8.274914e+000 124 106 73
-9.421249e-001 3.346201e-001 -1.024174e+001 82 73 105
-1.107211e+000 4.063272e+000 -1.130742e+001 193 182 150
-2.463817e-001 2.200982e+000 -9.579710e+000 113 115 104
-2.463817e-001 2.200982e+000 -9.579710e+000 113 115 104
-4.155908e-001 2.062509e+000 -9.879241e+000 216 226 215
-1.552017e-001 1.931011e+000 -9.430896e+000 89 72 82
-1.028549e+000 2.014825e+000 -1.075642e+001 82 59 74
-1.207349e+000 1.886870e+000 -1.094873e+001 96 74 94
6.715755e-001 -2.177508e+000 -7.292319e+000 62 45 77
-9.886247e-001 7.255199e-001 -1.036911e+001 206 206 204
7.976088e-001 -1.394231e+000 -6.879498e+000 54 40 78
-1.136087e+000 1.168353e+000 -1.061619e+001 71 55 66
4.078566e-001 5.941365e-001 -8.116142e+000 88 70 89
-1.680070e+000 4.448012e+000 -1.210788e+001 176 164 139
-5.778933e-001 3.311730e+000 -1.027698e+001 193 173 118
-2.275777e-001 2.816856e+000 -9.722941e+000 135 86 49
-3.052912e-001 2.157715e+000 -9.743835e+000 99 82 82
1.549430e-001 1.345270e+000 -8.720866e+000 81 70 72
-6.002475e-001 1.056349e+000 -9.947617e+000 210 210 210
-1.082965e+000 8.264961e-001 -1.052255e+001 106 95 99
-7.314270e-001 6.039486e-001 -9.986520e+000 201 213 211
-6.701615e-001 6.361407e-001 -9.903045e+000 207 214 213
-1.098596e+000 4.200613e-001 -1.040228e+001 90 78 86
7.083256e-001 -6.723406e-001 -7.379224e+000 195 209 217
4.935488e-001 -7.325411e-001 -7.687408e+000 71 53 80
6.246731e-001 -8.001971e-001 -7.492961e+000 172 171 189
6.246731e-001 -8.001971e-001 -7.492961e+000 172 171 189
6.645763e-001 -8.302265e-001 -7.442269e+000 76 59 93
2.843210e-002 -8.839568e-001 -8.402122e+000 63 50 63
-1.451423e+000 4.238402e+000 -1.182880e+001 128 116 90
2.061340e+000 2.083510e+000 -9.303269e+000 156 143 108
2.235287e+000 2.110428e+000 -9.445788e+000 105 91 54
-5.198488e-001 2.543406e+000 -1.010554e+001 198 179 137
-9.438267e-001 2.538690e+000 -1.078127e+001 176 132 106
-6.806203e-001 2.070394e+000 -1.028080e+001 96 77 70
-1.104329e+000 1.554666e+000 -1.075334e+001 209 222 208
-2.178492e-001 9.994642e-001 -9.277217e+000 212 230 219
4.783606e-001 -8.904827e-002 -7.956224e+000 81 60 82
-2.799323e-001 1.914509e-001 -9.216353e+000 192 228 214
7.250677e-001 -5.637113e-001 -7.364814e+000 183 187 197
-2.521116e-001 2.986765e+000 -9.712804e+000 134 97 50
2.467443e+000 1.748311e+000 -9.517474e+000 86 75 43
-1.709483e+000 3.190437e+000 -1.186518e+001 152 121 74
-1.709483e+000 3.190437e+000 -1.186518e+001 152 121 74
3.624631e+000 1.240088e+000 -9.949183e+000 102 66 32
-7.285066e-001 1.479548e+000 -1.018326e+001 205 230 216
-7.285066e-001 1.479548e+000 -1.018326e+001 205 230 216
5.252407e-001 -8.463361e-001 -7.646819e+000 71 55 81
-1.356976e-001 2.355655e+000 -9.425983e+000 88 71 64
1.853581e-001 1.872801e+000 -8.748779e+000 89 79 82
-6.603472e-001 3.281019e+000 -1.050808e+001 200 179 130
1.898923e-001 4.994093e-002 -8.416169e+000 88 71 94
-7.139605e-001 2.730986e+000 -1.044700e+001 107 63 50
-3.987439e+001 2.601623e+001 -9.275757e+001 60 47 35
-2.585501e+001 3.165152e+001 -8.282619e+001 159 109 116
-2.903889e+001 2.852717e+001 -8.200712e+001 203 49 62
-3.087205e+001 2.642882e+001 -8.291553e+001 207 60 68
-2.511146e+001 3.200646e+001 -8.352327e+001 175 40 47
-2.236933e+001 2.836566e+001 -8.236512e+001 198 50 63
-2.236933e+001 2.836566e+001 -8.236512e+001 198 50 63
-2.042328e+001 2.405628e+001 -8.262115e+001 199 57 66
-2.401909e+001 3.169961e+001 -8.317581e+001 191 87 94
-2.531907e+001 3.127894e+001 -8.409894e+001 213 114 118
-2.426214e+001 3.123178e+001 -8.439366e+001 170 35 48
-2.858596e+001 2.829549e+001 -8.267832e+001 193 107 119
-2.224087e+001 2.516735e+001 -8.188588e+001 205 56 67
-1.902733e+001 2.282183e+001 -8.035261e+001 192 144 152
-2.621629e+001 2.586108e+001 -8.078485e+001 62 54 108
-2.023324e+001 2.506508e+001 -8.283296e+001 185 137 145
-2.406823e+001 3.009426e+001 -8.475129e+001 211 131 127
-2.161666e+001 2.814554e+001 -8.372235e+001 196 125 124
-3.162149e+001 2.606050e+001 -8.273258e+001 153 173 178
-2.421617e+001 2.432945e+001 -8.137052e+001 69 60 104
-2.448816e+001 2.754702e+001 -8.064191e+001 67 49 79
-3.040581e+001 2.865576e+001 -8.309063e+001 203 121 116
-3.236232e+001 2.828239e+001 -8.255070e+001 57 37 39
-2.478570e+001 2.583455e+001 -8.106124e+001 223 186 97
-2.474523e+001 2.579379e+001 -8.093895e+001 223 186 97
-1.347057e-001 2.114289e+000 -9.457552e+000 74 62 66
1.136225e-001 1.816557e+000 -8.879020e+000 74 63 68
-2.154959e-001 -2.041599e-002 -9.108588e+000 222 232 226
-2.154959e-001 -2.041599e-002 -9.108588e+000 222 232 226
7.267142e-001 -5.608190e-001 -7.375236e+000 213 214 226
7.184315e-001 -5.926504e-001 -7.361363e+000 60 43 75
-3.241179e-001 2.220342e+000 -9.777049e+000 85 67 73
3.044569e+000 1.658601e+000 -9.977018e+000 97 83 56
5.155614e-001 2.973527e-001 -7.900890e+000 105 66 71
-5.729667e-001 7.222318e-001 -9.817179e+000 78 63 72
4.231730e+000 -3.435149e-002 -8.745217e+000 165 118 48
-2.175947e-001 3.482474e+000 -9.740701e+000 203 184 133
-1.234892e-001 3.129821e+000 -9.541613e+000 136 102 57
-9.345394e-001 3.037236e+000 -1.089733e+001 117 76 57
4.697846e-001 6.732203e-001 -8.067786e+000 209 226 220
-6.863739e-001 1.511946e+000 -1.021031e+001 64 51 78
-4.263055e-001 1.118156e+000 -9.670289e+000 106 77 82
5.626261e-001 -8.485428e-003 -7.800618e+000 69 60 71
-4.708980e-001 8.301348e-001 -9.659303e+000 102 76 90
-2.162707e-001 3.190209e-001 -9.226762e+000 216 221 219
7.586655e-001 -6.896730e-001 -7.327594e+000 155 157 156
3.650769e-001 -6.453468e-001 -7.892505e+000 65 50 74
-8.602172e-001 2.469622e-001 -1.010010e+001 93 80 93
5.562371e-001 -9.136585e-001 -7.596280e+000 175 176 193
3.734200e-001 -8.840698e-001 -7.858697e+000 172 186 192
3.959007e-001 -1.010908e+000 -7.813776e+000 70 60 88
-2.492179e-001 -8.178424e-001 -8.854195e+000 213 230 222
-1.236813e+000 5.035751e+000 -1.166740e+001 119 105 84
-4.874718e-001 3.510687e+000 -1.025259e+001 202 180 130
-4.387937e-001 3.303764e+000 -1.018194e+001 125 87 53
-6.514471e-001 3.184244e+000 -1.053550e+001 143 111 55
-3.357001e-001 2.576033e+000 -9.877135e+000 76 57 80
3.141599e+000 1.848602e+000 -1.008720e+001 140 126 97
3.141599e+000 1.848602e+000 -1.008720e+001 140 126 97
-7.936938e-001 3.060547e+000 -1.066107e+001 152 109 62
-4.402798e-002 1.189738e+000 -9.029708e+000 96 67 81
5.701287e-001 1.550966e-002 -7.785798e+000 205 228 211
7.491772e-001 -5.916234e-001 -7.348421e+000 68 55 98
6.712948e-001 -6.486210e-001 -7.443713e+000 180 183 196
7.291128e-001 -7.263360e-001 -7.346589e+000 172 172 188
6.077041e-001 -6.450346e-001 -7.535249e+000 183 183 195
6.284327e-001 -6.597686e-001 -7.503143e+000 64 55 84
-9.006395e-001 5.076198e-001 -1.009594e+001 84 63 78
-5.701986e-001 1.723540e-001 -9.689925e+000 86 70 73
-5.701986e-001 1.723540e-001 -9.689925e+000 86 70 73
5.116548e-001 -7.284796e-001 -7.656479e+000 183 186 195
4.952871e-001 -7.232827e-001 -7.707360e+000 68 54 83
6.179643e-001 -8.699480e-001 -7.496844e+000 164 182 187
-8.731230e-001 2.955741e-001 -1.006072e+001 90 76 96
-9.657249e-001 2.602528e-001 -1.029248e+001 75 78 106
3.462038e-001 -8.984355e-001 -7.876212e+000 200 206 218
3.946708e-001 -8.950150e-001 -7.815933e+000 61 57 80
-5.594941e-001 -1.120052e+000 -9.190507e+000 207 209 208
-1.219633e+000 5.126562e+000 -1.165265e+001 195 207 192
-1.259156e-001 3.252731e+000 -9.540479e+000 137 92 60
-4.787523e-001 3.901771e+000 -1.035242e+001 154 111 64
-1.412364e+000 4.643299e+000 -1.190324e+001 130 116 89
3.625923e-002 1.688530e+000 -9.040831e+000 216 227 221
1.962665e-001 6.232704e-001 -8.488457e+000 77 60 79
-7.563918e-001 1.601814e+000 -1.024930e+001 70 56 71
-1.202697e+000 1.645265e+000 -1.089812e+001 210 229 225
1.323467e-001 -1.341170e-001 -8.486688e+000 206 231 215
1.323467e-001 -1.341170e-001 -8.486688e+000 206 231 215
5.650962e-001 -7.777811e-001 -7.574492e+000 187 204 204
6.734203e-001 -8.698243e-001 -7.426833e+000 195 202 209
1.345902e-001 -5.281895e-001 -8.331132e+000 209 231 211
5.166731e-001 -9.493224e-001 -7.645240e+000 58 49 80
4.297740e+000 7.218637e-001 -8.891504e+000 197 153 66
3.815058e-001 1.207314e+000 -8.366427e+000 72 56 63
3.815058e-001 1.207314e+000 -8.366427e+000 72 56 63
-4.036335e-001 1.409833e+000 -9.767562e+000 81 63 78
5.482536e-001 -8.088274e-001 -7.590488e+000 77 62 98
4.374843e-001 -1.018729e+000 -7.726803e+000 65 55 88
3.712880e-001 -1.063580e+000 -7.850763e+000 79 62 89
-1.817355e-001 -1.016283e+000 -8.674761e+000 76 56 78
-6.683421e-001 -9.715689e-001 -9.438691e+000 204 224 217
-6.694887e-001 -9.707643e-001 -9.439213e+000 204 224 217
7.733993e-001 -2.302017e+000 -7.274713e+000 26 13 30
-2.233289e+000 5.120608e+000 -1.284936e+001 81 85 97
-1.920963e-001 2.139142e+000 -9.509090e+000 208 230 217
1.909511e-001 1.127179e+000 -8.627151e+000 212 234 215
1.919571e-001 1.135498e+000 -8.641021e+000 212 234 215
-5.857942e-002 1.075470e+000 -9.063353e+000 97 75 84
-1.534412e+000 2.531192e+000 -1.152462e+001 74 63 78
-1.602712e-001 9.975565e-001 -9.221420e+000 103 61 75
-5.761121e-001 9.289164e-001 -9.870383e+000 107 72 96
-2.742782e-001 2.064131e-001 -9.192668e+000 214 235 221
-8.720142e-001 4.498654e-001 -1.013374e+001 95 73 94
-8.780555e-001 4.630505e-001 -1.016049e+001 95 73 94
-1.102801e+000 4.818199e+000 -1.145718e+001 209 224 203
3.159218e-001 1.703588e+000 -8.542358e+000 72 60 64
1.900170e-002 1.464031e+000 -9.045612e+000 86 72 95
1.342765e-001 1.227627e+000 -8.744164e+000 88 72 87
6.663887e-001 -5.451389e-001 -7.446405e+000 79 60 93
3.987876e-001 -1.031487e+000 -7.840488e+000 171 180 186
-3.075608e-001 2.470194e+000 -9.780955e+000 78 61 79
-3.075608e-001 2.470194e+000 -9.780955e+000 78 61 79
-1.375869e+000 3.456741e+000 -1.155742e+001 98 67 49
1.949899e-001 1.077763e+000 -8.655563e+000 208 230 218
-2.005059e-001 7.603848e-001 -9.275338e+000 210 229 216
-1.071134e+000 1.565835e+000 -1.071009e+001 213 231 218
1.811528e-001 4.362013e-002 -8.370478e+000 81 65 93
-7.788720e-001 -9.821231e-001 -9.564391e+000 60 48 54
-1.285080e+000 4.029774e+000 -1.160507e+001 191 182 153
-5.217958e-001 2.005953e+000 -1.008291e+001 147 140 140
-1.290627e+000 4.825166e+000 -1.169729e+001 192 181 150
-5.916855e-001 3.530258e+000 -1.037365e+001 179 160 104
-1.557925e+000 4.626231e+000 -1.199021e+001 182 177 148
-2.939409e+001 3.583548e+001 -8.328911e+001 140 112 142
-2.807991e+001 3.555445e+001 -8.312115e+001 216 106 123
-2.636614e+001 3.367727e+001 -8.459343e+001 204 123 122
-2.636614e+001 3.367727e+001 -8.459343e+001 204 123 122
-2.500970e+001 3.316580e+001 -8.102732e+001 177 15 35
-2.401062e-001 3.242230e-001 -9.197033e+000 80 73 78
-1.235299e+000 2.178381e+000 -1.106063e+001 126 93 60
-2.093321e-001 3.099945e+000 -9.683415e+000 113 81 34
7.969493e-001 -1.252459e+000 -6.836983e+000 59 46 91
1.243751e-001 3.400345e+000 -9.245820e+000 61 47 35
-1.876261e-001 3.417983e+000 -9.680993e+000 146 118 73
-3.585261e-001 3.142702e+000 -9.997650e+000 133 96 54
7.540661e-001 -7.034040e-001 -7.304639e+000 175 166 183
6.640237e-001 -8.334766e-001 -7.437938e+000 96 75 127
-1.056628e+000 1.630099e+000 -1.070626e+001 101 95 95
5.397839e-001 -7.601910e-001 -7.607077e+000 187 200 209
1.858892e-001 -4.686655e-001 -8.284680e+000 200 214 213
4.622809e-001 -8.579843e-001 -7.725394e+000 189 198 217
5.377323e-001 -9.286850e-001 -7.626770e+000 201 204 225
5.377323e-001 -9.286850e-001 -7.626770e+000 201 204 225
-1.907400e-003 -9.085474e-001 -8.400715e+000 67 57 75
-8.215298e-002 -9.445783e-001 -8.513368e+000 221 220 228
-4.516515e-001 -1.018767e+000 -9.076979e+000 79 59 70
-6.891927e-001 -9.891706e-001 -9.474205e+000 88 54 66
-6.962495e-001 -1.170132e+000 -9.391836e+000 219 212 215
-7.803409e-001 5.280007e+000 -1.105360e+001 154 162 145
-8.190243e-001 5.229424e+000 -1.108351e+001 169 173 158
-6.365676e-001 4.560290e+000 -1.073356e+001 101 65 39
-6.294890e-001 4.410951e+000 -1.058604e+001 101 65 39
-5.191754e-001 3.835185e+000 -1.041833e+001 158 115 69
-1.544344e-001 3.132805e+000 -9.600809e+000 123 89 44
-2.102981e-001 3.131416e+000 -9.712769e+000 116 84 36
-7.982756e-001 4.369774e+000 -1.094350e+001 102 67 47
-8.199998e-001 4.176990e+000 -1.095405e+001 139 107 82
-2.545074e-001 2.978960e+000 -9.710994e+000 132 98 51
3.204222e-001 1.597695e+000 -8.505377e+000 201 221 215
3.510344e-001 1.573843e+000 -8.468007e+000 59 48 46
-5.062887e-001 3.184220e+000 -1.029757e+001 198 178 127
-5.597935e-002 2.503043e+000 -9.416946e+000 76 58 71
-1.319589e-001 2.380404e+000 -9.438333e+000 80 57 58
-1.376658e+000 4.291825e+000 -1.176251e+001 136 120 95
-1.461266e+000 4.297711e+000 -1.189931e+001 146 130 105
-2.385472e-001 2.142125e+000 -9.605171e+000 72 56 67
-1.346327e+000 3.683610e+000 -1.155317e+001 144 104 68
-7.825030e-001 2.972832e+000 -1.063903e+001 168 123 84
6.309830e-001 2.003720e-002 -7.659241e+000 74 51 96
-1.116645e+000 2.876491e+000 -1.110956e+001 181 143 116
2.285015e-001 4.872638e-001 -8.451007e+000 78 58 67
-5.072716e-001 1.304810e+000 -9.865499e+000 84 60 77
7.273908e-001 -7.339811e-001 -7.333797e+000 197 196 216
7.458318e-001 -7.706295e-001 -7.334152e+000 64 49 88
7.178628e-001 -8.337358e-001 -7.347111e+000 197 197 207
7.178628e-001 -8.337358e-001 -7.347111e+000 197 197 207
1.706426e+000 -1.588696e+000 -6.621602e+000 24 16 31
-6.749395e-001 1.159294e+000 -1.010293e+001 198 219 211
4.900078e-001 -7.550155e-001 -7.649512e+000 84 64 92
5.110492e-001 -7.298474e-001 -7.654442e+000 199 213 218
5.795854e-001 -7.410363e-001 -7.562921e+000 63 52 83
-6.059125e-001 6.918952e-001 -9.845658e+000 203 219 219
5.232715e-001 -8.372673e-001 -7.641763e+000 70 51 83
4.638814e-001 -8.445112e-001 -7.697143e+000 72 54 94
-9.983736e-001 9.488484e-001 -1.049437e+001 206 220 213
-6.761595e-001 6.488948e-001 -9.928903e+000 202 219 215
3.443636e-001 -8.881852e-001 -7.895443e+000 197 207 218
-7.996596e-001 5.549739e-001 -1.005382e+001 194 217 209
-1.065684e+000 4.054458e-001 -1.037582e+001 202 201 214
-1.067769e+000 4.033444e-001 -1.036678e+001 202 201 214
-2.931225e-001 -9.829001e-001 -8.833995e+000 205 224 219
-2.931225e-001 -9.829001e-001 -8.833995e+000 205 224 219
-5.430978e-001 -1.149863e+000 -9.196755e+000 83 60 68
-4.828753e-001 -1.232022e+000 -9.110104e+000 77 60 78
-8.496910e-001 -1.019306e+000 -9.637487e+000 83 54 65
7.858932e-001 -2.336420e+000 -7.283838e+000 32 19 38
-5.454061e-001 3.715675e+000 -1.040162e+001 138 101 56
2.797907e-001 1.803546e+000 -8.579206e+000 206 215 214
-1.209031e+000 4.419479e+000 -1.157971e+001 142 124 98
-2.235720e-001 2.288539e+000 -9.564378e+000 208 225 212
1.189665e-001 1.758214e+000 -8.951849e+000 77 71 75
4.838447e-002 1.737548e+000 -9.022290e+000 74 69 73
1.802278e-001 1.384514e+000 -8.669353e+000 215 224 221
1.802278e-001 1.384514e+000 -8.669353e+000 215 224 221
-3.216305e-001 2.202353e+000 -9.754711e+000 71 59 68
-5.539081e-002 1.655350e+000 -9.169241e+000 83 71 79
3.710945e-001 7.915831e-001 -8.197831e+000 75 63 75
-1.640119e+000 4.196855e+000 -1.209799e+001 151 139 115
-6.738778e-002 1.608630e+000 -9.195500e+000 209 227 216
1.574286e-001 1.026715e+000 -8.707086e+000 86 60 77
-1.082048e+000 3.036438e+000 -1.111972e+001 107 70 51
-2.788495e-001 1.451010e+000 -9.510307e+000 77 63 69
-2.949155e-001 1.408577e+000 -9.554534e+000 214 217 212
6.824386e-001 -2.539667e-001 -7.531944e+000 76 55 99
-1.162359e+000 2.475178e+000 -1.104946e+001 141 104 48
7.547391e-001 -6.711977e-001 -7.295907e+000 63 47 93
1.441029e+000 -1.275773e+000 -6.653796e+000 53 39 54
-1.181403e+000 2.361464e+000 -1.102079e+001 168 132 70
-3.434829e-001 9.320500e-001 -9.423223e+000 88 60 72
7.067938e-001 -6.925610e-001 -7.401156e+000 65 52 82
1.761205e+000 -1.612038e+000 -6.540898e+000 88 80 108
-1.372780e+000 2.169261e+000 -1.125837e+001 77 59 85
-6.608691e-001 1.232023e+000 -1.009406e+001 92 72 88
-2.324005e-001 6.975873e-001 -9.296544e+000 88 71 77
-2.324005e-001 6.975873e-001 -9.296544e+000 88 71 77
6.357224e-001 -7.914524e-001 -7.458666e+000 72 56 92
1.694703e+000 -1.583208e+000 -6.588574e+000 89 79 106
-8.058631e-001 1.050262e+000 -1.023078e+001 210 227 221
-7.054887e-001 8.833790e-001 -1.001925e+001 211 226 222
-9.069266e-001 1.040251e+000 -1.035735e+001 97 83 102
1.168062e-001 -4.068868e-001 -8.427840e+000 207 228 221
1.052213e-001 -4.602553e-001 -8.411246e+000 77 52 69
-8.642452e-001 5.266405e-001 -1.013116e+001 195 227 218
-8.642452e-001 5.266405e-001 -1.013116e+001 195 227 218
2.815461e-002 -4.594887e-001 -8.544847e+000 203 224 213
2.815461e-002 -4.594887e-001 -8.544847e+000 203 224 213
-6.040481e-002 -4.713411e-001 -8.659957e+000 84 56 82
-5.811125e-002 -5.186319e-001 -8.662524e+000 204 223 221
-2.091721e-001 -6.316118e-001 -8.860064e+000 204 225 216
-8.048330e-001 -8.686646e-001 -9.610796e+000 76 55 62
-5.792425e-001 -1.145112e+000 -9.239241e+000 214 213 211
8.181831e-001 -2.269202e+000 -7.355863e+000 60 47 65
-7.926617e-001 5.423093e+000 -1.103959e+001 195 208 191
-7.133292e-001 5.142277e+000 -1.094791e+001 190 204 187
1.707665e-003 3.343256e+000 -9.304309e+000 112 68 45
3.186460e-001 1.949569e+000 -8.560051e+000 209 220 212
-1.289852e+000 4.963851e+000 -1.168006e+001 182 175 149
3.733211e-001 1.555926e+000 -8.347945e+000 212 223 215
3.733211e-001 1.555926e+000 -8.347945e+000 212 223 215
2.790150e-001 1.598587e+000 -8.473732e+000 66 58 60
4.172338e-001 1.327128e+000 -8.282792e+000 198 229 213
-3.501635e-001 2.142004e+000 -9.777156e+000 217 227 218
7.315571e-002 1.036108e+000 -8.828206e+000 214 231 220
7.315571e-002 1.036108e+000 -8.828206e+000 214 231 220
4.648081e-001 2.486652e-001 -7.935846e+000 102 68 98
-6.992362e-001 2.003397e+000 -1.032550e+001 211 229 217
1.730462e-001 5.249013e-001 -8.550014e+000 206 230 216
1.730462e-001 5.249013e-001 -8.550014e+000 206 230 216
-3.213470e-001 8.678616e-001 -9.497035e+000 73 63 63
-3.467201e-001 7.640273e-001 -9.471896e+000 63 63 61
2.419534e-001 6.480103e-003 -8.390858e+000 203 232 220
6.530663e-001 -7.515025e-001 -7.469931e+000 73 61 91
5.847642e-001 -8.416960e-001 -7.523237e+000 69 59 92
-1.123548e+000 1.518263e+000 -1.077658e+001 83 67 71
-3.331198e-001 -6.685736e-001 -9.053296e+000 84 53 67
-1.746688e-001 -9.774770e-001 -8.685951e+000 78 60 84
-2.342516e-001 -1.045088e+000 -8.720924e+000 90 55 66
-6.326200e-001 -7.355069e-001 -9.412043e+000 79 60 66
-5.859967e-001 -8.364582e-001 -9.378763e+000 78 61 69
-5.856032e-001 -9.060947e-001 -9.350399e+000 219 225 224
-5.846557e-001 -9.065785e-001 -9.350292e+000 219 225 224
9.177795e-001 -2.486272e+000 -7.630306e+000 60 31 43
5.320193e-002 -2.419318e+000 -7.864600e+000 50 39 82
-2.023603e-002 3.100626e+000 -9.316188e+000 191 162 106
-7.301712e-001 3.990653e+000 -1.075469e+001 100 68 54
-5.061737e-001 3.431796e+000 -1.025447e+001 195 174 118
3.407658e-001 1.445649e+000 -8.471343e+000 67 56 58
-2.712156e-002 1.849550e+000 -9.135855e+000 210 228 212
-2.958819e-001 2.279274e+000 -9.727268e+000 218 226 213
-2.303210e+000 5.172384e+000 -1.311923e+001 150 167 175
2.257162e-002 1.365663e+000 -8.920440e+000 90 71 90
3.952886e-002 1.190265e+000 -8.939517e+000 93 71 97
-1.648822e-001 1.034637e+000 -9.269777e+000 110 68 75
-1.680816e+000 2.915436e+000 -1.174416e+001 71 64 80
-1.258261e+000 2.534503e+000 -1.116073e+001 187 158 100
-7.986701e-001 1.838654e+000 -1.039624e+001 212 231 223
-6.117669e-001 6.148000e-001 -9.848939e+000 86 72 97
-7.520864e-001 5.570354e-001 -1.003518e+001 102 62 88
-6.097960e-001 2.834243e-001 -9.678407e+000 108 74 88
-8.595047e-001 -8.515041e-001 -9.670362e+000 218 233 225
-8.595047e-001 -8.515041e-001 -9.670362e+000 218 233 225
-5.242826e-001 -1.292116e+000 -9.036869e+000 70 62 74
-1.179384e-001 3.380646e+000 -9.589871e+000 121 83 63
-2.070218e+000 4.491154e+000 -1.273895e+001 167 169 158
5.605803e-001 -9.462955e-002 -7.771149e+000 81 66 93
-6.359584e-001 1.497689e+000 -9.995461e+000 77 65 90
-6.417132e-001 1.566964e+000 -1.009430e+001 77 65 90
-4.560915e-001 1.008107e+000 -9.711286e+000 112 72 94
6.167197e-001 -6.938089e-001 -7.502707e+000 145 142 161
3.934674e-001 -5.080229e-001 -7.934603e+000 74 60 95
-7.939803e-001 4.397774e-001 -1.004031e+001 116 76 98
3.996529e-001 -1.037679e+000 -7.829960e+000 198 210 217
1.637333e+000 -2.371051e+000 -7.538660e+000 60 19 59
4.310244e-001 -2.613819e+000 -7.954849e+000 31 11 20
4.310244e-001 -2.613819e+000 -7.954849e+000 31 11 20
-5.556229e-001 4.518626e+000 -1.056559e+001 184 154 94
1.508917e-001 2.691857e+000 -8.952890e+000 208 225 209
-2.657318e-001 3.276552e+000 -9.866793e+000 185 153 110
3.468194e-001 7.313244e-001 -8.227836e+000 205 225 213
2.989230e-001 6.981759e-001 -8.341095e+000 80 68 79
3.894118e-001 5.400995e-001 -8.213908e+000 214 231 221
3.894118e-001 5.400995e-001 -8.213908e+000 214 231 221
-7.886175e-001 2.432707e+000 -1.054789e+001 182 152 100
6.507130e-004 8.792113e-001 -8.938278e+000 206 230 217
3.637757e-001 -1.050155e-001 -8.166932e+000 82 61 99
-1.375652e+000 2.266298e+000 -1.125861e+001 171 140 89
-1.375652e+000 2.266298e+000 -1.125861e+001 171 140 89
-1.066316e+000 1.536236e+000 -1.068060e+001 216 228 219
4.863180e-001 -9.879568e-001 -7.717923e+000 67 54 81
8.477448e-001 -2.279728e+000 -7.387989e+000 55 41 66
-9.045126e-001 5.035933e+000 -1.112232e+001 194 202 188
-1.112715e+000 4.947119e+000 -1.146878e+001 195 206 190
2.533431e-001 5.060182e-001 -8.378330e+000 210 230 221
4.161355e-001 -4.474141e-001 -7.855973e+000 206 226 215
1.577413e+000 -1.636601e+000 -6.844954e+000 51 43 56
8.259489e-001 -1.878319e+000 -7.280322e+000 79 77 116
8.148545e-001 -1.895711e+000 -7.243206e+000 79 77 116
6.772151e-001 -2.152724e+000 -7.276695e+000 50 33 75
1.648667e+000 -2.466017e+000 -7.782069e+000 79 26 103
1.184374e-001 7.498948e-001 -8.632247e+000 80 64 92
-1.142794e+000 2.464798e+000 -1.106115e+001 186 152 97
-1.125043e+000 2.377107e+000 -1.094804e+001 186 152 97
1.406004e+000 -1.258836e+000 -6.689128e+000 110 98 134
6.258879e-001 -4.828613e-001 -7.583282e+000 66 51 82
-8.773293e-001 1.462475e+000 -1.055088e+001 72 58 75
2.766654e-001 -8.792642e-001 -8.025192e+000 76 55 97
2.766654e-001 -8.792642e-001 -8.025192e+000 76 55 97
-1.731837e-002 -7.618928e-001 -8.512376e+000 123 111 127
1.689502e+000 -2.429132e+000 -7.657118e+000 157 127 191
1.689502e+000 -2.429132e+000 -7.657118e+000 157 127 191
1.959830e-001 2.596631e-001 -8.428759e+000 71 60 90
-8.319858e-001 -3.622508e-001 -9.742756e+000 214 233 224
-4.193330e-002 -1.095332e+000 -8.542015e+000 77 64 108
1.497861e+000 -2.494686e+000 -7.662978e+000 60 27 51
-3.769858e+001 -1.842068e+001 -6.833771e+001 86 79 72
-4.279674e+001 -2.165281e+001 -7.367729e+001 168 151 143
-4.058686e+001 -2.132589e+001 -7.175468e+001 162 156 144
-3.982859e+001 -2.087302e+001 -7.049877e+001 162 156 144
-3.511092e+001 -2.871868e+001 -7.120743e+001 116 121 115
-2.913841e+001 -2.838843e+001 -7.100778e+001 122 134 124
-2.550845e+001 -2.902973e+001 -7.436530e+001 123 129 115
-2.581791e+001 -2.986907e+001 -7.003869e+001 178 182 165
-2.972538e+001 -2.780660e+001 -7.439850e+001 121 130 117
-2.728109e+001 -3.225805e+001 -6.816785e+001 107 115 100
-3.153565e+001 -2.843860e+001 -6.988803e+001 170 180 169
-3.037210e+001 -2.898015e+001 -6.906690e+001 96 78 65
-2.514805e+001 -2.977825e+001 -7.125352e+001 95 72 64
-2.355881e+001 -2.921056e+001 -7.227181e+001 155 165 156
-3.007951e+001 -3.152715e+001 -6.751493e+001 154 152 139
-2.848346e+001 -3.139391e+001 -6.754775e+001 193 197 182
-2.848346e+001 -3.139391e+001 -6.754775e+001 193 197 182
-2.903106e+001 -1.331889e+001 -5.806020e+001 45 39 35
-2.780146e+001 -2.848826e+001 -7.099988e+001 177 187 176
-3.460420e+001 -2.931991e+001 -6.567425e+001 130 132 121
-2.495106e+001 -3.269384e+001 -7.030522e+001 44 39 39
-3.013821e+001 -3.028317e+001 -6.841167e+001 207 219 208
-3.273606e+001 -2.868050e+001 -6.830703e+001 89 80 74
-3.290452e+001 -3.098435e+001 -6.793813e+001 188 188 178
-2.604685e+001 -3.131807e+001 -6.984578e+001 197 206 187
-1.027135e+000 2.614059e+000 -1.090017e+001 105 58 48
-1.327594e+000 2.410764e+000 -1.124682e+001 105 69 37
9.491786e-002 2.220236e+000 -9.014730e+000 94 64 81
3.106057e+000 1.495862e+000 -9.932982e+000 45 29 12
-5.293997e-001 2.985952e+000 -1.026973e+001 183 146 87
2.048035e+000 2.664636e+000 -9.606174e+000 125 104 73
-1.140150e+000 1.593596e+000 -1.074071e+001 80 67 68
1.948880e+000 8.039126e-001 -8.232516e+000 128 108 71
2.491367e+000 2.960611e+000 -1.015966e+001 79 71 52
1.298586e+000 2.472776e+000 -8.807662e+000 80 60 36
1.632208e+000 2.534689e+000 -9.206772e+000 120 103 66
-5.653405e-001 3.264780e+000 -1.028302e+001 94 59 38
-8.970987e-001 2.975314e+000 -1.085316e+001 174 119 92
-1.169421e+000 2.805110e+000 -1.121758e+001 199 155 126
-1.289800e+000 2.210857e+000 -1.112774e+001 152 112 64
-9.756099e-001 2.381108e+000 -1.080734e+001 125 70 47
-5.716982e-001 1.862923e+000 -1.006811e+001 113 90 102
-1.159060e+000 2.771644e+000 -1.109676e+001 120 68 48
-5.835465e-001 2.459513e+000 -1.019518e+001 192 164 128
-8.289284e-002 2.543271e+000 -9.262485e+000 77 55 56
-6.499117e-001 2.084317e+000 -1.017556e+001 92 63 67
-7.717579e-001 1.988047e+000 -1.034083e+001 79 57 56
-1.155919e+000 1.694765e+000 -1.082768e+001 73 57 62
-6.102274e-002 1.803742e+000 -9.205151e+000 65 51 58
-8.113076e-001 -9.324621e-001 -9.502558e+000 175 165 173
-4.875733e-001 -1.096579e+000 -8.950645e+000 191 178 188
-1.037652e+000 3.077424e+000 -1.106057e+001 143 95 57
3.542258e-002 3.202246e+000 -9.220035e+000 181 136 71
-7.962004e-001 2.733323e+000 -1.060089e+001 99 56 43
-5.746214e-001 2.792749e+000 -1.032717e+001 189 149 82
-3.430996e-001 2.791354e+000 -9.860135e+000 181 143 81
-2.178570e-001 2.828407e+000 -9.697478e+000 201 166 110
-1.045141e+000 1.767257e+000 -1.064573e+001 81 66 73
-1.084027e+000 1.488972e+000 -1.067282e+001 74 61 69
-5.321344e-001 1.368295e+000 -9.825410e+000 205 221 210
-1.872560e-001 1.543298e+000 -9.179758e+000 88 72 83
-3.773679e-001 8.979579e-001 -9.468980e+000 213 221 221
-2.637427e-001 9.809354e-001 -9.440608e+000 88 58 67
1.736965e-001 6.426758e-001 -8.361109e+000 214 227 215
-6.514153e-001 -9.291835e-001 -9.278772e+000 194 192 195
-6.514153e-001 -9.291835e-001 -9.278772e+000 194 192 195
-4.097286e-002 -4.322799e-001 -8.463823e+000 204 205 207
-5.502016e-001 3.126763e+000 -1.033116e+001 205 173 119
-5.187692e-001 3.072009e+000 -1.026370e+001 160 96 55
1.166817e+000 3.269177e+000 -9.167466e+000 129 106 73
-6.163199e-001 2.411044e+000 -1.025156e+001 78 59 60
-3.287700e-001 2.248922e+000 -9.698508e+000 87 76 84
-3.287700e-001 2.248922e+000 -9.698508e+000 87 76 84
-1.069904e+000 1.530685e+000 -1.054542e+001 72 58 68
-8.713415e-001 1.604096e+000 -1.033409e+001 215 225 211
2.937436e-001 1.977978e+000 -8.496780e+000 206 226 214
-6.921201e-001 5.225752e-001 -9.777923e+000 212 228 212
-6.027211e-001 3.133845e-001 -9.786636e+000 98 74 84
1.359518e+000 1.499572e+000 -8.150946e+000 128 109 73
1.948340e+000 1.185693e+000 -8.525757e+000 130 111 74
-2.093824e-001 -5.199864e-001 -8.730386e+000 211 220 218
2.884644e+000 8.942566e-002 -8.811778e+000 108 88 53
2.884644e+000 8.942566e-002 -8.811778e+000 108 88 53
-4.697331e-001 -9.489148e-001 -8.975987e+000 204 203 209
8.846062e-002 -4.696763e-001 -8.350877e+000 108 61 97
2.263908e-003 3.379859e+000 -9.234226e+000 114 65 48
1.911692e+000 3.567934e+000 -1.003267e+001 94 73 41
1.943504e+000 3.555505e+000 -1.017716e+001 94 73 41
2.134369e-002 3.152815e+000 -9.145495e+000 185 138 72
1.716383e+000 3.331423e+000 -9.853480e+000 121 100 63
1.747802e+000 3.277629e+000 -9.823675e+000 65 58 41
1.624796e+000 3.161215e+000 -9.559901e+000 127 107 73
-7.282704e-001 2.483503e+000 -1.044719e+001 177 110 70
1.910688e+000 3.117853e+000 -9.750480e+000 114 94 62
2.451462e+000 3.054853e+000 -1.030019e+001 111 88 67
2.420254e+000 2.921403e+000 -1.009880e+001 123 98 57
2.635679e+000 2.922281e+000 -1.028658e+001 64 55 42
-3.185470e-001 2.320736e+000 -9.726217e+000 220 223 216
2.768456e+000 2.761116e+000 -1.047865e+001 56 38 14
-8.464407e-001 1.924982e+000 -1.045221e+001 211 226 215
-3.868461e-001 2.194707e+000 -9.786222e+000 216 221 212
1.560785e+000 2.710422e+000 -9.230347e+000 80 63 35
2.374200e+000 2.672938e+000 -9.956154e+000 68 45 19
-1.626904e-001 2.135325e+000 -9.376782e+000 213 220 213
-1.626904e-001 2.135325e+000 -9.376782e+000 213 220 213
2.962776e+000 2.530742e+000 -1.046690e+001 81 57 36
-3.505105e-001 1.980733e+000 -9.664651e+000 212 224 216
-3.531343e-001 1.961089e+000 -9.730691e+000 212 224 216
1.553153e+000 2.453798e+000 -9.094539e+000 125 105 66
2.062196e+000 2.424118e+000 -9.493305e+000 79 57 28
2.415999e+000 2.484982e+000 -9.772436e+000 85 65 39
2.975275e+000 2.350070e+000 -1.033617e+001 69 44 22
1.016817e-001 1.918681e+000 -8.848061e+000 212 224 214
1.415929e+000 2.198170e+000 -8.764862e+000 131 112 72
2.273816e+000 2.232882e+000 -9.608863e+000 123 101 62
2.771061e+000 2.227081e+000 -9.923982e+000 82 58 35
1.996080e+000 2.031607e+000 -9.222188e+000 81 61 35
3.035254e+000 2.056269e+000 -1.013643e+001 81 57 29
1.808629e+000 1.924273e+000 -9.101174e+000 82 60 33
2.934878e+000 1.693038e+000 -9.920060e+000 108 83 53
3.931748e+000 1.826761e+000 -9.900672e+000 150 116 52
3.162008e+000 1.217928e+000 -9.924597e+000 70 47 30
2.206139e+000 1.340542e+000 -8.978740e+000 79 62 35
2.967878e+000 1.220743e+000 -9.681260e+000 112 87 57
2.219604e+000 1.197832e+000 -8.880599e+000 126 104 67
1.871992e+000 1.247332e+000 -8.494672e+000 60 43 17
2.075246e+000 1.023816e+000 -8.517396e+000 75 63 47
2.827858e+000 6.943362e-001 -9.119705e+000 114 96 58
2.827858e+000 6.943362e-001 -9.119705e+000 114 96 58
2.846383e+000 6.329983e-001 -9.109836e+000 60 40 15
-6.883395e-001 -6.397779e-001 -9.463288e+000 211 221 213
-3.103998e-001 -3.796886e-001 -8.993768e+000 209 222 213
1.507187e-001 -4.907550e-002 -8.384998e+000 216 224 214
5.033374e-001 2.971928e-001 -7.955075e+000 92 59 86
2.173864e+000 4.622215e-001 -8.276184e+000 130 107 67
3.003985e+000 2.040205e-001 -9.017047e+000 70 48 24
-3.184446e-001 -7.597737e-001 -8.893721e+000 187 176 184
2.436057e+000 1.417420e-001 -8.384233e+000 91 65 41
2.436057e+000 1.417420e-001 -8.384233e+000 91 65 41
-2.002114e-001 -8.172438e-001 -8.567787e+000 206 211 214
-2.002114e-001 -8.172438e-001 -8.567787e+000 206 211 214
2.515645e+000 8.678178e-002 -8.404321e+000 123 97 60
1.464664e+000 3.481806e+000 -9.680725e+000 127 105 67
1.384168e+000 3.452546e+000 -9.569980e+000 110 90 58
1.240719e+000 3.290931e+000 -9.317804e+000 78 69 45
-8.184533e-001 2.563141e+000 -1.058305e+001 199 167 122
-8.227211e-001 2.556542e+000 -1.061589e+001 199 167 122
1.638910e+000 2.785215e+000 -9.393602e+000 94 75 46
1.270766e+000 2.570086e+000 -8.856189e+000 79 61 37
1.408481e+000 2.542681e+000 -8.975800e+000 76 59 42
1.408481e+000 2.542681e+000 -8.975800e+000 76 59 42
-7.623672e-001 1.619399e+000 -1.019172e+001 78 63 82
1.320936e+000 2.264731e+000 -8.690074e+000 84 70 42
1.880513e+000 2.246340e+000 -9.241224e+000 74 57 30
2.384861e+000 2.204489e+000 -9.652761e+000 117 97 60
3.822634e+000 1.960811e+000 -1.006816e+001 155 120 62
1.938206e+000 1.808501e+000 -9.127230e+000 71 54 28
1.456205e+000 1.522914e+000 -8.285358e+000 79 59 32
2.016979e+000 1.005441e+000 -8.408910e+000 126 110 70
3.042767e+000 6.921203e-001 -9.345419e+000 57 53 42
1.661543e+000 1.037094e+000 -8.048436e+000 78 66 50
1.661543e+000 1.037094e+000 -8.048436e+000 78 66 50
1.810615e+000 8.082684e-001 -8.037918e+000 88 64 38
-4.444355e-001 -6.433840e-001 -9.090576e+000 75 61 72
1.712033e+000 4.039562e-001 -7.699509e+000 111 87 53
-4.369065e-001 3.159685e+000 -1.011461e+001 201 177 133
2.906789e+000 3.451498e+000 -1.083587e+001 83 56 32
-3.557424e-001 2.609111e+000 -9.891836e+000 197 172 130
-6.204534e-001 1.706385e+000 -9.955765e+000 84 67 99
5.554156e-002 1.944098e+000 -8.997470e+000 71 58 75
-1.010353e+000 5.038733e-001 -1.025624e+001 178 182 185
1.959854e+000 1.625802e+000 -8.994092e+000 84 68 42
-2.549717e-001 8.034135e-001 -9.253122e+000 215 224 217
1.611939e+000 1.010331e+000 -7.938981e+000 125 103 66
-1.090022e-001 -2.028210e-001 -8.709513e+000 211 222 214
-2.711725e-001 -5.543343e-001 -8.886488e+000 84 63 78
4.118593e-001 1.374189e-001 -7.990076e+000 85 62 94
1.510537e+000 5.918718e-001 -7.599618e+000 75 51 27
1.729422e-001 -1.595467e-001 -8.201568e+000 110 62 96
8.066608e-002 2.748893e+000 -9.070041e+000 215 221 209
-9.089375e-001 4.107251e-001 -1.016106e+001 90 76 101
-8.922347e-001 4.717251e-001 -1.003577e+001 90 76 101
1.078054e-001 1.033673e+000 -8.551280e+000 83 66 100
2.376562e-001 9.754451e-002 -8.374579e+000 83 62 95
3.067530e-001 1.083187e-001 -8.148802e+000 210 221 214
5.292751e-001 3.056006e-001 -7.789849e+000 207 219 208
-6.900721e-001 -1.119199e+000 -9.165444e+000 66 52 60
-5.258233e-001 -1.007706e+000 -9.054687e+000 193 193 194
1.217456e+000 3.395416e+000 -9.261850e+000 127 102 59
-7.329643e-001 2.713733e+000 -1.054480e+001 103 63 51
2.034540e+000 2.948362e+000 -9.735693e+000 128 104 66
2.034540e+000 2.948362e+000 -9.735693e+000 128 104 66
-6.085005e-001 6.037716e-001 -9.821823e+000 80 61 88
3.685787e-001 1.297425e+000 -8.295041e+000 206 222 209
-2.195360e+001 -3.223480e+001 -7.274598e+001 127 124 107
-2.632108e+001 -2.897993e+001 -7.924927e+001 118 121 103
-2.632108e+001 -2.897993e+001 -7.924927e+001 118 121 103
9.524554e-001 3.094473e+000 -8.762754e+000 126 104 67
-1.075446e+000 2.127097e+000 -1.082349e+001 87 65 84
1.459761e+000 3.167945e+000 -9.407138e+000 84 77 56
1.757734e+000 2.926936e+000 -9.525679e+000 117 97 64
-3.630963e+001 -2.883399e+001 -6.577232e+001 161 161 151
-2.350928e+001 -2.874645e+001 -7.350350e+001 105 108 93
-2.234274e+001 -4.249193e+001 -7.212098e+001 125 116 98
-1.911635e+001 -4.350660e+001 -7.491884e+001 133 127 110
-3.487629e+001 -2.854391e+001 -6.855052e+001 157 160 151
-2.219892e+001 -3.045663e+001 -7.372186e+001 122 121 106
-2.372201e+001 -4.443690e+001 -7.342092e+001 63 48 32
-2.746059e+001 -3.295729e+001 -6.739873e+001 182 192 181
-3.798614e+001 -2.931483e+001 -6.808416e+001 179 184 177
-2.734716e+001 -3.414198e+001 -6.667321e+001 37 33 30
-3.239717e+001 -3.274567e+001 -6.508411e+001 79 52 48
-2.932041e+001 -3.171020e+001 -6.875115e+001 192 199 183
-2.498447e+001 4.849810e+001 -9.286556e+001 165 38 61
-2.666623e+001 4.622972e+001 -9.190930e+001 194 43 60
-3.699201e+001 5.099470e+001 -9.524678e+001 204 52 71
-3.435511e+001 4.714115e+001 -9.068939e+001 206 60 77
-2.811409e+001 5.022890e+001 -9.356639e+001 197 37 55
-2.721015e+001 5.300917e+001 -9.728273e+001 185 48 61
-2.442455e+001 4.599916e+001 -9.373850e+001 191 39 58
-4.282490e+001 6.372652e+001 -9.751796e+001 99 89 88
-2.501734e+001 5.192516e+001 -9.335365e+001 62 48 47
-3.465012e+001 5.726147e+001 -9.653412e+001 132 96 82
-9.750406e-001 1.576090e+000 -1.060162e+001 89 72 82
2.331129e+000 3.470745e+000 -1.035879e+001 73 48 18
2.332473e+000 3.471648e+000 -1.035799e+001 73 48 18
2.413304e+000 3.460702e+000 -1.042355e+001 85 59 32
2.413304e+000 3.460702e+000 -1.042355e+001 85 59 32
2.294930e+000 3.322436e+000 -1.023415e+001 114 90 58
1.880277e+000 3.162878e+000 -9.764485e+000 71 65 46
2.240643e+000 2.657996e+000 -9.735535e+000 130 110 75
2.205942e+000 2.414663e+000 -9.571643e+000 84 68 42
2.286649e+000 2.191182e+000 -9.524706e+000 98 78 45
2.364215e+000 1.392955e+000 -9.200126e+000 62 41 14
