ply
format ascii 1.0
element face 0
property list uchar int vertex_indices
element vertex 881
property float x
property float y
property float z
property uchar diffuse_red
property uchar diffuse_green
property uchar diffuse_blue
end_header
3.044030e+000 2.638032e+000 -1.051598e+001 75 50 30
2.548683e+000 2.368850e+000 -9.807654e+000 91 68 37
2.548683e+000 2.368850e+000 -9.807654e+000 91 68 37
-1.053885e+000 6.512732e-001 -1.048658e+001 217 222 221
-4.513604e-001 1.068700e+000 -9.650062e+000 105 65 92
2.392970e+000 1.954092e+000 -9.526727e+000 71 46 17
2.918333e+000 1.773815e+000 -9.859729e+000 54 32 8
1.628063e+000 1.836854e+000 -8.791723e+000 122 104 66
2.508581e+000 1.557337e+000 -9.486434e+000 112 87 57
2.798339e+000 1.505751e+000 -9.721986e+000 115 91 60
2.835377e+000 1.555650e+000 -9.753184e+000 96 71 51
2.910332e+000 1.489346e+000 -9.807192e+000 109 83 56
2.910332e+000 1.489346e+000 -9.807192e+000 109 83 56
3.263013e+000 1.552688e+000 -1.005539e+001 102 75 58
3.246542e+000 1.494652e+000 -1.007221e+001 49 30 15
1.327250e+000 1.735663e+000 -8.331154e+000 141 119 82
2.182089e+000 1.528851e+000 -9.134547e+000 132 108 69
-5.757531e-001 8.992248e-002 -9.769359e+000 66 54 66
2.899058e+000 1.156403e+000 -9.503257e+000 130 99 71
-8.669738e-001 -9.051954e-001 -9.845064e+000 222 226 226
-6.065535e-001 3.224964e+000 -1.039668e+001 206 187 121
2.577873e+000 3.455062e+000 -1.052506e+001 89 59 33
1.736400e+000 3.309426e+000 -9.691358e+000 84 76 55
1.809864e+000 3.031291e+000 -9.623032e+000 131 107 70
2.106743e+000 3.051165e+000 -9.838368e+000 74 68 47
2.559740e+000 3.010513e+000 -1.022935e+001 118 94 61
-1.926626e-001 2.321193e+000 -9.605477e+000 215 224 216
1.684314e+000 2.843006e+000 -9.440876e+000 126 105 73
1.741283e+000 2.834361e+000 -9.462916e+000 120 99 68
2.808118e+000 2.888227e+000 -1.043566e+001 66 54 40
3.065544e+000 2.779409e+000 -1.063804e+001 95 70 55
-1.024762e+000 1.466196e+000 -1.068733e+001 211 225 225
1.377362e+000 2.702918e+000 -9.049759e+000 126 102 64
1.893531e+000 2.616728e+000 -9.442310e+000 133 109 71
2.556060e+000 2.480656e+000 -9.852209e+000 89 64 34
2.971564e+000 2.426639e+000 -1.028442e+001 114 87 58
-4.642071e-001 1.355083e+000 -9.846561e+000 79 61 87
2.205523e+000 2.310584e+000 -9.510205e+000 98 73 44
2.307212e+000 2.308020e+000 -9.565464e+000 79 53 30
1.859689e+000 2.135557e+000 -9.195137e+000 83 59 31
2.718449e+000 2.157371e+000 -9.858442e+000 127 101 66
-5.686200e-001 8.913591e-001 -9.916676e+000 102 68 100
2.096134e+000 1.841142e+000 -9.253867e+000 125 102 68
2.756564e+000 1.851052e+000 -9.747668e+000 116 85 56
2.524002e+000 1.607421e+000 -9.518548e+000 100 76 50
1.593457e+000 1.662064e+000 -8.608805e+000 133 109 72
2.192952e+000 1.418480e+000 -9.052026e+000 75 54 25
2.979698e+000 1.227562e+000 -9.654803e+000 113 86 59
-9.323123e-001 3.023780e+000 -1.086249e+001 107 61 48
1.374878e+000 3.382968e+000 -9.385629e+000 80 74 52
-1.537567e-001 2.760346e+000 -9.556969e+000 200 178 127
2.010323e+000 3.213556e+000 -9.840200e+000 121 98 66
-2.278558e-001 2.392594e+000 -9.614875e+000 78 56 62
1.926526e+000 2.875868e+000 -9.594312e+000 76 55 26
2.164733e+000 2.383598e+000 -9.517547e+000 126 99 64
-7.633006e-001 1.140487e+000 -1.021025e+001 70 61 85
1.695204e+000 2.127445e+000 -9.030582e+000 130 103 74
1.695204e+000 2.127445e+000 -9.030582e+000 130 103 74
2.192283e+000 2.142816e+000 -9.419490e+000 127 103 65
2.193890e+000 2.057784e+000 -9.392503e+000 125 100 59
1.507829e+000 1.726294e+000 -8.551360e+000 87 66 42
2.077499e+000 1.591888e+000 -9.079075e+000 81 59 35
2.664190e+000 1.121033e+000 -9.225993e+000 133 102 66
-7.037579e-001 2.329345e+000 -1.038228e+001 201 174 125
3.190385e+000 2.171102e+000 -1.020624e+001 55 28 11
1.344268e-001 2.281261e+000 -9.045671e+000 72 54 77
-3.291609e-001 7.569767e-001 -9.511361e+000 67 55 66
-5.851955e-001 1.900561e-001 -9.787842e+000 213 232 220
1.229112e+000 3.415691e+000 -9.231651e+000 136 107 68
2.963255e+000 2.490197e+000 -1.026219e+001 91 64 41
-2.208065e-001 4.333665e-002 -9.189837e+000 69 58 74
-1.073669e+000 2.316620e+000 -1.089386e+001 199 176 134
-8.887017e-001 7.562925e-001 -1.033246e+001 197 204 204
-1.283845e+000 5.887781e-002 -1.059423e+001 65 52 78
-3.185510e+001 -2.775118e+001 -7.083055e+001 136 146 135
-1.022148e+000 1.315656e+000 -1.061721e+001 72 59 74
-3.081513e+001 -2.756430e+001 -7.170602e+001 129 135 125
-3.148588e+001 -4.146356e+001 -6.411280e+001 77 49 42
-3.400687e+001 -4.494185e+001 -6.619033e+001 146 143 124
-3.277950e+001 -2.777293e+001 -7.301685e+001 168 174 164
-1.884135e+001 -3.211030e+001 -7.533804e+001 126 122 110
-2.374377e+001 -5.034212e+001 -7.725346e+001 96 69 50
-3.965252e+001 -2.870283e+001 -6.490299e+001 202 207 203
-3.595849e+001 -2.860312e+001 -6.278773e+001 86 55 50
-3.394976e+001 -4.214467e+001 -6.573454e+001 86 49 40
-2.561419e+001 -3.767051e+001 -6.855574e+001 36 31 33
-1.872758e-001 3.303648e+000 -9.536149e+000 175 160 108
-2.344870e-001 3.424178e+000 -9.868756e+000 138 111 63
-1.273379e+000 3.528745e+000 -1.143857e+001 141 104 72
7.685264e-001 -7.460768e-001 -7.320256e+000 86 72 106
-3.104965e-002 1.913012e+001 -3.244477e+001 88 64 75
6.571909e-001 -9.058372e-001 -7.485067e+000 68 60 96
-4.115756e-001 -7.916079e-001 -9.154407e+000 211 212 212
-6.524677e-001 2.892207e+000 -1.044107e+001 149 102 60
7.569512e-001 -7.141732e-001 -7.338618e+000 54 43 75
4.762371e-001 -9.022195e-001 -7.740244e+000 56 51 84
5.394819e-001 -1.029849e+000 -7.680202e+000 72 59 103
-7.154489e-001 1.290665e+000 -1.277810e+001 218 226 219
1.553886e+000 1.869779e+001 -2.929626e+001 58 51 58
-1.046733e+000 3.369544e+000 -1.111850e+001 147 118 77
1.286109e-001 -1.739888e-001 -8.537414e+000 93 64 85
-3.877649e-001 1.043349e+000 -9.626423e+000 214 227 220
1.919144e+000 3.027084e+000 -9.698088e+000 133 107 78
1.454126e+000 3.673775e+000 -9.639983e+000 94 69 39
-3.126017e+001 -4.222337e+001 -6.611175e+001 95 87 74
-3.016158e+001 -3.281682e+001 -6.543880e+001 136 124 121
-3.181278e+001 -2.859260e+001 -6.775329e+001 85 58 47
-8.036366e-002 3.434566e+000 -9.536526e+000 170 144 90
-4.156308e-001 4.361435e+000 -1.033781e+001 153 111 72
-2.379634e-001 3.186344e+000 -9.754961e+000 178 147 100
1.647527e-001 1.909950e+000 -8.863661e+000 94 89 93
8.010732e-001 -1.283434e+000 -6.873411e+000 101 91 121
8.010732e-001 -1.283434e+000 -6.873411e+000 101 91 121
-2.785799e-001 3.008849e+000 -9.738481e+000 170 139 88
-7.223477e-001 4.435892e+000 -1.097320e+001 137 107 83
-4.455572e-001 3.366945e+000 -1.036436e+001 198 175 122
-2.967426e-001 2.822316e+000 -9.766210e+000 162 128 67
5.369602e-001 -8.431910e-001 -7.718757e+000 76 62 88
-9.037928e-001 2.553601e+000 -1.083824e+001 131 86 57
-1.758263e+000 3.882516e+000 -1.207485e+001 145 130 107
-1.758263e+000 3.882516e+000 -1.207485e+001 145 130 107
-2.218027e-001 4.051807e-001 -9.304718e+000 62 59 58
-1.712801e+000 3.451165e+000 -1.194422e+001 142 109 64
-1.072127e+000 7.607013e-001 -1.051416e+001 114 111 106
-2.879999e-002 3.353631e+000 -9.421477e+000 113 83 41
-1.997907e-001 3.082271e+000 -9.675892e+000 126 88 43
-1.994808e-001 3.077164e+000 -9.673176e+000 126 88 43
-6.792377e-001 4.661678e+000 -1.081969e+001 164 130 93
-9.076950e-001 4.439584e+000 -1.116901e+001 139 111 78
6.614630e-001 -8.365202e-001 -7.478243e+000 176 175 184
-7.421547e-001 3.125781e+000 -1.059560e+001 188 155 94
-1.310396e+000 4.632663e+000 -1.171885e+001 143 125 92
-1.310396e+000 4.632663e+000 -1.171885e+001 143 125 92
-1.266099e+000 4.327949e+000 -1.164960e+001 152 135 105
-1.443748e+000 4.249378e+000 -1.186600e+001 152 135 107
-4.995594e-001 1.286154e+000 -9.871389e+000 70 53 64
-5.607122e-001 1.288848e+000 -9.977077e+000 72 60 66
-1.604324e+000 3.464644e+000 -1.179493e+001 150 115 62
-5.318588e-001 -1.049076e+000 -9.266210e+000 65 53 55
-8.018239e-001 -1.213376e+000 -9.539230e+000 215 222 211
-3.044245e-001 5.723474e+000 -1.033951e+001 117 92 61
3.279716e-001 1.909192e+000 -8.600792e+000 58 49 52
-7.175124e-002 3.286429e+000 -9.471486e+000 110 76 43
-7.062083e-001 5.126243e+000 -1.094208e+001 186 195 171
2.012475e-001 1.861788e+000 -8.845270e+000 209 215 209
2.012475e-001 1.861788e+000 -8.845270e+000 209 215 209
1.552537e-001 1.822181e+000 -8.861015e+000 62 60 61
1.537889e-001 1.739157e+000 -8.869359e+000 208 213 208
8.602725e-001 -1.261870e+000 -6.918023e+000 78 74 99
-5.839091e-001 4.163225e+000 -1.047149e+001 141 102 72
-5.676543e-001 4.121486e+000 -1.053548e+001 98 59 40
1.935063e-002 1.948566e+000 -9.133410e+000 77 67 68
5.913956e-002 1.670609e+000 -8.980239e+000 76 67 70
3.412247e-001 8.005067e-001 -8.357030e+000 208 217 202
-4.320778e-001 3.407935e+000 -1.018645e+001 125 89 45
-1.268680e-001 2.302016e+000 -9.410259e+000 63 57 51
2.995315e-002 1.578765e+000 -9.042358e+000 67 55 64
-5.881539e-001 3.360485e+000 -1.042098e+001 184 157 103
-6.506815e-002 1.495937e+000 -9.199370e+000 72 57 58
8.815883e-002 1.057866e+000 -8.867209e+000 205 223 201
8.815883e-002 1.057866e+000 -8.867209e+000 205 223 201
-9.613430e-002 1.540426e+000 -9.289848e+000 198 204 193
-1.013561e-001 1.146671e+000 -9.196056e+000 206 213 203
8.045418e-001 -1.772532e+000 -7.137051e+000 144 148 160
-2.069145e+000 4.742058e+000 -1.231203e+001 104 100 104
-8.789716e-001 2.630357e+000 -1.072186e+001 113 67 46
-7.577333e-001 1.588466e+000 -1.027819e+001 86 75 76
-3.388612e-001 7.118029e-001 -9.439462e+000 65 53 48
-2.036340e-001 2.801199e-001 -9.196381e+000 209 217 212
-1.160936e+000 2.469613e+000 -1.107326e+001 143 104 49
-6.472397e-001 1.168643e+000 -1.004959e+001 88 76 81
-1.893910e+000 3.511639e+000 -1.231966e+001 91 78 72
-1.319364e+000 2.494979e+000 -1.130517e+001 111 81 47
-1.376082e+000 2.440788e+000 -1.127192e+001 150 117 76
-7.949238e-001 9.804594e-001 -1.018902e+001 211 212 206
-6.870707e-001 9.745640e-001 -1.005661e+001 93 79 85
-6.040356e-001 7.179613e-001 -9.906336e+000 205 211 207
-1.490006e+000 2.336743e+000 -1.133407e+001 75 56 59
-1.490006e+000 2.336743e+000 -1.133407e+001 75 56 59
-1.063647e+000 1.361788e+000 -1.068505e+001 212 212 206
-7.325602e-001 6.306823e-001 -1.004871e+001 201 211 203
-2.109889e-001 -1.016608e+000 -8.707632e+000 195 200 190
2.615777e-001 -2.550007e+000 -7.807074e+000 88 81 112
-3.998550e-001 5.056855e+000 -1.041485e+001 103 70 39
1.993701e-002 3.391107e+000 -9.335680e+000 102 65 38
3.564957e-001 2.009368e+000 -8.608012e+000 206 213 200
3.042032e-001 1.684454e+000 -8.583914e+000 68 58 61
2.375729e-001 1.802493e+000 -8.758422e+000 73 63 73
3.102598e-001 1.525258e+000 -8.581023e+000 217 214 209
1.281145e+000 -1.601129e+000 -6.752982e+000 73 71 95
1.009429e-001 1.897536e+000 -9.018912e+000 168 167 164
1.369563e-001 1.691733e+000 -8.907802e+000 75 59 74
1.588194e-001 1.447042e+000 -8.786035e+000 65 56 59
-4.974315e-001 3.473189e+000 -1.030674e+001 194 168 115
-2.985448e-001 2.782426e+000 -9.815272e+000 194 163 108
-7.527776e-001 3.316336e+000 -1.066328e+001 100 68 42
2.586636e-001 4.992169e-003 -8.402403e+000 219 230 219
-2.896015e-001 1.010756e+000 -9.505219e+000 211 217 205
-3.412161e-001 1.061436e+000 -9.584432e+000 69 43 56
-1.183847e+000 2.588960e+000 -1.109154e+001 190 158 115
-1.009383e+000 1.753276e+000 -1.069552e+001 198 201 194
-5.476790e-001 7.435230e-001 -9.907076e+000 80 66 82
-5.476790e-001 7.435230e-001 -9.907076e+000 80 66 82
-1.359946e+000 2.160006e+000 -1.128608e+001 76 58 69
-1.543443e-001 -9.234889e-001 -8.780100e+000 73 49 71
-4.841510e-001 -9.027272e-001 -9.203022e+000 211 213 207
-4.729361e-001 -1.059402e+000 -9.111406e+000 188 191 184
-6.509193e-001 -1.015773e+000 -9.441975e+000 210 216 206
2.257022e-001 -2.542360e+000 -7.902291e+000 70 63 94
-3.754506e-001 -2.871521e+000 -8.402053e+000 68 57 87
-3.117487e-001 5.146815e+000 -1.028731e+001 131 100 56
1.046000e-001 3.410222e+000 -9.232568e+000 191 169 119
-1.124443e-001 3.380935e+000 -9.604749e+000 110 73 36
3.512206e-001 1.746748e+000 -8.544943e+000 65 55 63
3.068309e-001 1.445955e+000 -8.603674e+000 62 59 58
8.909583e-001 -1.211788e+000 -6.921811e+000 128 125 147
-9.106371e-002 2.381350e+000 -9.386981e+000 216 223 208
-2.357127e-002 1.925600e+000 -9.202758e+000 212 221 210
7.400527e-001 -1.387707e+000 -7.021202e+000 101 90 120
-1.379213e+000 5.114557e+000 -1.142745e+001 118 99 85
-2.752777e-001 2.205297e+000 -9.690045e+000 213 225 205
-2.755351e-001 2.205168e+000 -9.689630e+000 213 225 205
-9.698345e-001 4.092251e+000 -1.114790e+001 159 124 73
5.008276e-001 -6.823788e-001 -7.726400e+000 69 54 83
-9.541898e-001 3.402317e+000 -1.100732e+001 150 117 72
-7.435998e-001 3.072155e+000 -1.062805e+001 169 137 81
-3.826857e-001 2.048892e+000 -9.892796e+000 214 224 215
-1.711163e-001 1.358648e+000 -9.366441e+000 87 62 66
4.347601e-001 -7.408793e-001 -7.808887e+000 67 50 82
6.254056e-001 -1.666614e+000 -7.168452e+000 88 81 117
-2.175921e-001 1.065854e+000 -9.362023e+000 214 219 205
-2.189158e-001 1.045130e+000 -9.344316e+000 214 219 205
-9.042242e-001 2.522941e+000 -1.071254e+001 123 80 55
1.676807e-001 -6.559113e-001 -8.284309e+000 207 221 202
1.676807e-001 -6.559113e-001 -8.284309e+000 207 221 202
-6.174579e-001 1.703346e+000 -1.021029e+001 67 57 76
-2.259803e+000 4.910842e+000 -1.291937e+001 169 177 179
-1.773471e+000 3.209633e+000 -1.187142e+001 96 65 47
-5.018988e-001 5.424596e-001 -9.668743e+000 77 61 74
-5.344528e-001 4.807008e-001 -9.760855e+000 211 225 211
-5.344528e-001 4.807008e-001 -9.760855e+000 211 225 211
8.742706e-001 -2.287834e+000 -7.408229e+000 69 57 74
-1.441001e+000 2.326775e+000 -1.139831e+001 170 136 93
-6.056703e-001 6.207035e-001 -9.910923e+000 83 65 79
-5.710440e-001 7.167857e-002 -9.687873e+000 71 52 56
-5.710440e-001 7.167857e-002 -9.687873e+000 71 52 56
-1.013058e+000 3.847760e-001 -1.035768e+001 73 70 89
5.955676e-001 1.503736e-001 -7.827879e+000 82 64 82
1.288327e+000 -1.635508e+000 -6.777744e+000 107 106 124
-2.626105e-001 2.999259e+000 -9.869705e+000 169 134 76
5.421529e-001 -6.679853e-001 -7.662419e+000 67 47 82
-1.069455e+000 4.634178e+000 -1.153832e+001 103 70 39
3.048431e-002 1.019085e+000 -8.907224e+000 72 55 70
3.084961e-001 -1.342897e-001 -8.270006e+000 63 50 70
-2.183642e-001 9.478955e-001 -9.366326e+000 76 60 61
4.136162e-001 -1.085989e+000 -7.805863e+000 171 166 182
4.205104e-001 -1.070416e+000 -7.823350e+000 171 166 182
-7.959771e-001 2.439130e+000 -1.059079e+001 181 154 96
-3.073328e-001 5.835908e-001 -9.425948e+000 218 229 212
-3.073328e-001 5.835908e-001 -9.425948e+000 218 229 212
-4.166336e-001 5.111223e-001 -9.592586e+000 212 225 207
3.973214e-001 -2.038270e+000 -7.404224e+000 111 113 136
-6.930582e-001 3.643310e-001 -9.946675e+000 219 231 217
-4.779160e-001 -8.068303e-001 -9.198103e+000 71 59 65
-7.720075e-001 -3.032436e+000 -8.858935e+000 95 81 114
3.908062e-001 2.408129e+000 -8.556541e+000 120 57 78
1.784191e-001 2.591123e+000 -8.901463e+000 209 221 204
3.996827e-001 1.005577e+000 -8.297865e+000 64 56 69
3.962096e-001 9.886572e-001 -8.286622e+000 64 56 69
-5.974428e-001 3.746943e+000 -1.059233e+001 181 147 101
1.747530e-001 8.047678e-001 -8.637477e+000 66 52 77
5.070597e-001 -2.639655e-001 -7.913054e+000 63 46 74
5.070597e-001 -2.639655e-001 -7.913054e+000 63 46 74
3.804316e-001 -1.568515e-001 -8.120165e+000 66 53 81
3.806262e-001 -1.547644e-001 -8.122101e+000 66 53 81
-1.448048e-001 1.188704e+000 -9.330436e+000 108 59 67
5.132749e-001 -9.696772e-001 -7.752381e+000 65 57 80
-1.697067e-001 6.695205e-001 -9.213692e+000 211 227 205
-6.634284e-002 -7.472388e-002 -8.866782e+000 212 227 208
-6.395472e-002 -6.640541e-002 -8.876370e+000 212 227 208
1.154066e-001 -6.313089e-001 -8.391138e+000 104 51 86
-2.711304e-001 3.146441e-001 -9.291186e+000 217 225 210
-2.877611e-001 1.216700e-001 -9.312052e+000 72 62 70
-5.370210e-001 1.633303e-001 -9.610356e+000 214 225 210
-3.261684e-001 -3.564429e-001 -9.171844e+000 211 224 204
-1.051861e+000 6.248206e-001 -1.043597e+001 200 207 199
-9.717489e-001 6.458717e-002 -1.019184e+001 217 230 212
-8.735558e-001 -8.024408e-001 -9.789481e+000 226 227 215
-8.735558e-001 -8.024408e-001 -9.789481e+000 226 227 215
4.312409e-001 -2.639059e+000 -7.982458e+000 23 13 21
4.466377e-001 1.287159e+000 -8.310196e+000 214 222 207
-7.157841e-001 5.293024e+000 -1.095126e+001 192 195 174
4.864540e-001 5.253684e-001 -8.090206e+000 97 66 92
5.708452e-001 4.121058e-001 -7.918288e+000 219 230 213
-3.691034e-001 3.811663e+000 -1.022671e+001 187 161 104
5.636212e-001 1.502006e-002 -7.871056e+000 76 62 83
5.521739e-001 7.867747e-003 -7.855644e+000 76 62 83
3.166462e-001 6.807366e-001 -8.355691e+000 66 60 67
3.166462e-001 6.807366e-001 -8.355691e+000 66 60 67
4.566673e-001 3.356869e-001 -8.129803e+000 221 232 217
5.639799e-001 -2.035898e-001 -7.835654e+000 217 232 212
-1.674992e-001 1.980814e+000 -9.573140e+000 65 53 61
-1.674992e-001 1.980814e+000 -9.573140e+000 65 53 61
3.525961e-001 1.557960e-001 -8.248415e+000 215 228 211
3.488209e-001 1.698977e-001 -8.252262e+000 215 228 211
2.499716e-001 2.200074e-001 -8.368337e+000 72 58 84
1.452696e-001 -7.707888e-003 -8.546634e+000 214 230 211
1.452696e-001 -7.707888e-003 -8.546634e+000 214 230 211
3.129535e-001 -9.217096e-001 -7.983980e+000 73 55 96
-7.758261e-001 1.416242e+000 -1.033388e+001 72 59 71
-8.958050e-001 1.477545e+000 -1.060497e+001 71 56 69
-1.880989e-001 -1.715579e-001 -9.089811e+000 212 225 208
-5.278191e-001 -4.767844e-001 -9.412274e+000 211 226 207
-5.291859e-001 -4.855845e-001 -9.403787e+000 211 226 207
-9.159339e-001 2.282729e-001 -1.015067e+001 90 85 107
-7.326430e-001 -5.770513e-001 -9.674570e+000 218 229 213
-4.024941e-001 -2.811916e+000 -8.390135e+000 149 151 166
-4.024941e-001 -2.811916e+000 -8.390135e+000 149 151 166
6.627411e-001 -1.495907e-001 -7.682995e+000 214 227 211
4.722989e-001 -9.745835e-001 -7.695248e+000 179 172 189
-1.463213e-001 -6.973923e-001 -8.689943e+000 72 57 78
3.723706e-002 -2.268520e+000 -8.032979e+000 132 137 156
-1.155819e+000 -6.026445e-001 -1.016100e+001 151 68 88
-5.445563e-001 -2.931883e+000 -8.690493e+000 92 83 110
-6.258486e-001 4.383719e+000 -1.074011e+001 116 79 60
-8.176142e-001 4.199656e+000 -1.093482e+001 99 74 44
1.355249e-001 7.990280e-001 -8.733876e+000 70 54 83
1.868174e+000 -1.937539e+000 -7.106899e+000 66 57 78
2.005817e-001 2.694173e-001 -8.478291e+000 68 54 80
2.005817e-001 2.694173e-001 -8.478291e+000 68 54 80
-2.843376e-002 4.712237e-001 -8.938505e+000 85 56 76
-2.843376e-002 4.712237e-001 -8.938505e+000 85 56 76
1.907701e-001 3.310593e+000 -9.055997e+000 66 51 46
1.829852e-001 -8.516790e-001 -8.372442e+000 72 54 97
-5.010716e-001 3.198817e+000 -1.039716e+001 194 169 113
8.922839e-001 -1.765190e+000 -7.118147e+000 163 163 173
8.922839e-001 -1.765190e+000 -7.118147e+000 163 163 173
4.733632e-002 -2.319992e+000 -8.275360e+000 138 139 159
1.680469e-001 -2.958764e+000 -8.703382e+000 32 17 25
-8.541185e-001 4.211732e+000 -1.099455e+001 148 107 85
-1.794996e+000 3.410827e+000 -1.189192e+001 120 90 81
-1.666112e+000 3.187651e+000 -1.179642e+001 173 137 92
-1.858757e-001 4.298399e+000 -9.847589e+000 154 109 80
-6.896991e-001 3.044846e+000 -1.049745e+001 191 158 105
-1.007215e+000 2.664417e+000 -1.089117e+001 193 138 116
7.681483e-001 4.069764e+000 -9.106886e+000 61 43 28
-6.160242e-001 2.920054e+000 -1.041305e+001 206 157 98
-1.183280e+000 2.170961e+000 -1.097259e+001 155 109 88
-3.778203e-001 2.897295e+000 -9.983777e+000 186 168 127
-3.382781e-002 3.382570e+000 -9.403434e+000 147 100 72
-8.870906e-001 2.260834e+000 -1.066268e+001 151 123 97
-6.979598e-001 2.422587e+000 -1.039496e+001 188 152 98
-1.045567e-002 3.173722e+000 -9.286969e+000 176 144 97
-1.030201e+000 1.615239e+000 -1.068596e+001 91 68 81
-1.034110e+000 1.398448e+000 -1.065005e+001 85 82 95
-1.034220e+000 1.402501e+000 -1.064439e+001 85 82 95
-9.165447e-001 9.787926e-001 -1.039032e+001 225 215 240
3.179962e+000 2.311827e+000 -1.036664e+001 56 30 17
-1.066767e+000 3.587652e-001 -1.042246e+001 209 205 220
-5.664046e-001 8.435570e-001 -9.893299e+000 217 216 229
-3.845997e-001 8.336638e-001 -9.649562e+000 74 66 74
-3.845997e-001 8.336638e-001 -9.649562e+000 74 66 74
-4.411250e-001 4.406209e+000 -1.030303e+001 149 80 47
-3.394393e-001 4.330899e+000 -1.013580e+001 145 91 55
-3.394393e-001 4.330899e+000 -1.013580e+001 145 91 55
-1.500036e+000 3.070806e+000 -1.158077e+001 164 124 83
-2.154039e-001 4.072712e+000 -9.884228e+000 209 173 115
-1.595810e+000 2.887268e+000 -1.166824e+001 154 116 80
-1.078330e+000 3.300833e+000 -1.111955e+001 204 171 121
-1.046870e+000 3.305867e+000 -1.110147e+001 114 75 43
-7.010910e-001 3.494033e+000 -1.060060e+001 212 182 145
-4.586617e-001 3.770994e+000 -1.027051e+001 199 154 99
-1.019149e+000 3.097327e+000 -1.098769e+001 139 92 49
-6.389684e-001 3.510116e+000 -1.050828e+001 210 178 135
-9.932635e-001 3.055521e+000 -1.095741e+001 187 148 91
-5.391110e-001 3.436983e+000 -1.032755e+001 183 155 108
-1.120529e+000 2.702907e+000 -1.105995e+001 124 69 52
-7.630115e-001 3.068194e+000 -1.061747e+001 128 82 48
-5.599226e-001 3.264900e+000 -1.034906e+001 93 64 38
1.286508e+000 4.047366e+000 -9.634666e+000 75 53 32
-9.418522e-001 2.500324e+000 -1.075844e+001 113 65 50
-9.334782e-001 2.541054e+000 -1.077737e+001 191 158 126
6.978351e-002 3.668429e+000 -9.217095e+000 145 99 85
-6.872893e-001 2.635858e+000 -1.043827e+001 204 166 130
-9.369502e-001 2.249746e+000 -1.071683e+001 142 112 86
-1.146093e+000 1.697356e+000 -1.083458e+001 75 65 69
-9.621313e-001 1.833549e+000 -1.061922e+001 79 60 78
-9.621313e-001 1.833549e+000 -1.061922e+001 79 60 78
-1.042023e+000 1.701576e+000 -1.071543e+001 204 216 218
2.599272e+000 3.172791e+000 -1.040735e+001 117 98 74
-5.620311e-001 1.853149e+000 -1.008743e+001 106 71 95
-8.189259e-002 2.169087e+000 -9.386354e+000 206 203 214
-4.501283e-001 1.650344e+000 -9.848176e+000 64 54 80
3.693904e+000 2.929096e+000 -1.036982e+001 131 93 44
2.811771e-001 2.068989e+000 -8.716521e+000 158 117 136
-7.666294e-001 4.117194e+000 -1.082765e+001 105 61 53
2.289392e+000 4.948501e+000 -1.097629e+001 108 84 59
2.349222e+000 4.951849e+000 -1.107032e+001 49 23 8
-1.753298e-001 4.330196e+000 -9.861070e+000 166 118 92
-1.583059e+000 3.179823e+000 -1.169150e+001 146 107 86
-5.715783e-001 3.984201e+000 -1.044972e+001 103 61 46
2.651611e+000 4.774956e+000 -1.124600e+001 50 22 17
-5.144496e-001 3.689427e+000 -1.035836e+001 122 71 48
-4.371853e-001 3.465054e+000 -1.017199e+001 119 75 58
-6.987229e-001 3.098594e+000 -1.053350e+001 141 83 57
-8.224521e-001 2.774651e+000 -1.063974e+001 186 148 127
-5.347949e-001 2.930495e+000 -1.025812e+001 216 193 146
-9.230974e-001 2.366495e+000 -1.070837e+001 136 74 57
-5.613063e-001 2.801850e+000 -1.029285e+001 194 158 85
1.422274e+000 3.710118e+000 -9.648675e+000 127 106 77
2.856999e+000 3.436577e+000 -1.076590e+001 113 89 63
-1.147362e+000 1.692298e+000 -1.084371e+001 75 65 69
-4.653942e-001 2.197594e+000 -9.996088e+000 210 230 222
1.215982e+000 3.294469e+000 -9.195348e+000 85 78 62
3.560108e+000 3.389634e+000 -1.063367e+001 166 131 77
-8.485415e-001 1.608290e+000 -1.047558e+001 73 60 78
-6.489185e-001 1.776115e+000 -1.022595e+001 75 57 83
-6.506583e-001 1.780912e+000 -1.021855e+001 75 57 83
1.532704e+000 3.069581e+000 -9.444595e+000 141 116 86
2.566512e+000 2.715616e+000 -1.013491e+001 82 56 32
-5.308067e-001 1.308377e+000 -9.952853e+000 211 225 222
-4.606572e-001 1.433806e+000 -9.899536e+000 67 49 73
-4.891577e-001 1.373899e+000 -9.873262e+000 78 59 89
1.921575e+000 2.555235e+000 -9.435737e+000 126 100 71
1.823549e+000 2.506953e+000 -9.365372e+000 129 104 74
1.823549e+000 2.506953e+000 -9.365372e+000 129 104 74
1.911628e+000 2.488158e+000 -9.424558e+000 127 103 75
2.362244e+000 2.442180e+000 -9.705458e+000 128 100 70
-6.963073e-001 8.824990e-001 -1.005048e+001 215 225 225
-6.426585e-001 8.921973e-001 -1.002068e+001 207 223 227
-3.269747e-001 9.041175e-001 -9.541847e+000 77 67 76
-1.683746e+000 3.101838e+000 -1.179175e+001 168 131 90
-1.682999e+000 3.116216e+000 -1.177493e+001 168 131 90
-1.173924e+000 3.554940e+000 -1.126693e+001 104 71 62
-1.025979e-001 4.301834e+000 -9.736583e+000 193 141 83
-8.003802e-001 3.454311e+000 -1.072715e+001 157 116 70
-3.962357e-001 3.693375e+000 -1.018348e+001 209 182 127
-1.474824e+000 2.541336e+000 -1.141069e+001 76 69 95
-1.034550e+000 2.796139e+000 -1.091750e+001 116 62 49
-7.386161e-001 3.041328e+000 -1.057849e+001 210 182 136
-3.351954e-001 3.491102e+000 -1.002118e+001 208 182 151
-1.308556e+000 2.458146e+000 -1.121456e+001 107 75 56
1.249546e+000 3.965550e+000 -9.579531e+000 130 106 78
1.249546e+000 3.965550e+000 -9.579531e+000 130 106 78
1.286687e+000 4.004229e+000 -9.635739e+000 134 114 84
-1.399889e+000 2.237399e+000 -1.120849e+001 73 63 89
-1.629636e-001 3.155035e+000 -9.619160e+000 203 180 140
-1.665411e-001 3.081837e+000 -9.585633e+000 97 58 45
4.046635e-002 3.258042e+000 -9.248708e+000 121 66 43
1.103953e-001 3.364423e+000 -9.144158e+000 74 60 73
-4.626859e-001 2.580277e+000 -1.006828e+001 116 70 57
-4.646887e-001 2.579506e+000 -1.006940e+001 116 70 57
2.044259e+000 3.485188e+000 -1.011477e+001 127 104 73
2.842588e+000 3.394774e+000 -1.073233e+001 76 55 34
-1.600182e-002 2.908924e+000 -9.289510e+000 69 51 63
1.925309e+000 3.309603e+000 -9.896808e+000 128 109 79
2.224679e+000 3.356218e+000 -1.019635e+001 136 111 81
2.882278e+000 3.334183e+000 -1.073804e+001 112 91 70
2.933175e+000 3.281432e+000 -1.073899e+001 86 64 46
-1.159702e+000 1.583407e+000 -1.080985e+001 77 69 83
-7.008109e-001 2.016206e+000 -1.032819e+001 218 229 230
-7.294653e-001 1.905781e+000 -1.035092e+001 82 72 97
2.157222e+000 3.265175e+000 -1.006532e+001 139 116 85
2.266903e+000 3.249485e+000 -1.014195e+001 124 100 72
2.430269e+000 3.165094e+000 -1.023897e+001 76 63 54
-8.480296e-001 1.618223e+000 -1.046627e+001 77 62 82
2.651837e+000 3.029304e+000 -1.035653e+001 94 80 64
2.935083e+000 3.056271e+000 -1.065294e+001 57 48 41
2.779379e+000 2.938557e+000 -1.044032e+001 107 91 68
1.023594e+000 3.055241e+000 -8.808688e+000 89 68 44
1.500422e+000 2.860756e+000 -9.301746e+000 128 105 74
1.501767e+000 2.858915e+000 -9.304666e+000 128 105 74
1.798478e+000 2.611527e+000 -9.409041e+000 127 102 76
1.954643e+000 2.630775e+000 -9.536806e+000 80 59 37
-1.672330e-001 1.531698e+000 -9.369441e+000 215 224 225
2.651733e+000 2.347133e+000 -9.887939e+000 106 80 56
-1.017770e+000 2.467314e-001 -1.028766e+001 212 228 225
-1.017770e+000 2.467314e-001 -1.028766e+001 212 228 225
-4.006001e-001 1.061575e+000 -9.688860e+000 215 227 227
2.710344e+000 2.221442e+000 -9.882651e+000 93 68 46
-1.308082e+000 3.893833e+000 -1.151643e+001 115 102 87
-1.102267e+000 4.008015e+000 -1.130816e+001 97 84 68
-1.353946e+000 3.733172e+000 -1.149327e+001 156 120 73
-1.737118e+000 3.295513e+000 -1.188663e+001 100 66 57
-1.111569e+000 2.864363e+000 -1.107723e+001 215 184 163
-7.167979e-001 3.283416e+000 -1.057044e+001 118 71 61
-1.216286e+000 2.717008e+000 -1.116797e+001 204 188 153
-6.043502e-001 3.150440e+000 -1.039906e+001 100 62 55
-1.048615e+000 2.436182e+000 -1.086855e+001 210 187 153
-8.651521e-001 2.619101e+000 -1.069499e+001 101 60 53
-2.776572e-001 3.034056e+000 -9.823149e+000 197 166 119
1.941108e+000 3.568498e+000 -1.005674e+001 124 103 74
3.596309e+000 3.620212e+000 -1.119411e+001 133 98 58
8.748597e-002 3.313106e+000 -9.124766e+000 212 184 145
1.511597e+000 3.535920e+000 -9.659690e+000 85 62 44
2.038491e+000 3.435211e+000 -1.008199e+001 95 73 44
2.310011e+000 3.434637e+000 -1.031805e+001 134 107 78
2.588484e+000 3.442003e+000 -1.054154e+001 82 60 35
1.325407e+000 3.437691e+000 -9.404293e+000 143 117 90
1.814050e+000 3.364080e+000 -9.861052e+000 93 77 52
1.814050e+000 3.364080e+000 -9.861052e+000 93 77 52
2.259282e+000 3.304393e+000 -1.017075e+001 93 71 48
2.614386e+000 3.328502e+000 -1.051829e+001 82 61 37
2.614386e+000 3.328502e+000 -1.051829e+001 82 61 37
-7.889471e-001 1.917554e+000 -1.039637e+001 218 232 232
-7.889471e-001 1.917554e+000 -1.039637e+001 218 232 232
1.753937e+000 3.235757e+000 -9.713223e+000 124 106 84
2.596522e+000 3.124377e+000 -1.038724e+001 85 75 63
-1.027152e+000 1.479192e+000 -1.066416e+001 214 230 229
1.779144e+000 3.178189e+000 -9.705013e+000 76 72 66
1.779144e+000 3.178189e+000 -9.705013e+000 76 72 66
1.906853e+000 3.164734e+000 -9.781769e+000 90 89 77
2.125859e+000 3.136758e+000 -9.927821e+000 96 86 74
2.125859e+000 3.136758e+000 -9.927821e+000 96 86 74
2.156306e+000 3.073302e+000 -9.925205e+000 129 108 79
2.681878e+000 3.063306e+000 -1.042258e+001 118 98 73
-7.053683e-001 1.675698e+000 -1.026929e+001 211 230 229
-5.955752e-001 1.766483e+000 -1.011552e+001 217 225 227
-7.879271e-002 2.452902e+000 -9.352382e+000 216 227 225
2.116206e+000 3.034675e+000 -9.860616e+000 84 82 67
1.623789e+000 2.891916e+000 -9.429023e+000 104 82 59
2.508459e+000 2.835873e+000 -1.014837e+001 100 78 57
3.114762e+000 2.659792e+000 -1.063838e+001 102 79 64
1.959527e+000 2.692385e+000 -9.563514e+000 125 104 75
2.358390e+000 2.699044e+000 -9.849129e+000 89 69 45
2.530513e+000 2.687993e+000 -1.007290e+001 124 100 72
-6.002112e-001 1.253891e+000 -1.002148e+001 72 54 80
2.945249e+000 2.491942e+000 -1.034454e+001 103 81 57
2.874542e+000 2.469304e+000 -1.024076e+001 93 69 55
-4.744446e-001 1.249749e+000 -9.767715e+000 100 64 92
-4.745655e-001 1.265978e+000 -9.751911e+000 100 64 92
1.434703e+000 2.623095e+000 -9.103446e+000 85 61 33
1.830820e+000 2.554061e+000 -9.405561e+000 97 74 50
1.945226e+000 2.491563e+000 -9.455252e+000 130 107 76
2.471354e+000 2.522773e+000 -9.841634e+000 129 103 74
2.677292e+000 2.402353e+000 -9.941479e+000 118 93 62
-5.821033e-001 9.842741e-001 -9.943878e+000 133 86 122
-4.537973e-001 1.074472e+000 -9.752264e+000 100 61 94
-4.538868e-001 1.080347e+000 -9.746833e+000 100 61 94
1.174874e+000 2.598228e+000 -8.756346e+000 73 52 33
1.674463e+000 2.370624e+000 -9.182644e+000 69 48 28
2.794945e+000 2.269904e+000 -9.982518e+000 129 103 70
7.174463e-002 1.753515e+000 -8.995832e+000 63 54 79
2.323639e+000 2.171539e+000 -9.563840e+000 120 99 65
2.820718e+000 2.096363e+000 -9.922465e+000 94 70 46
-1.505395e+000 3.772590e+000 -1.171872e+001 127 113 98
-1.301124e-001 4.339210e+000 -9.785539e+000 99 62 53
1.553668e+000 4.888554e+000 -9.876187e+000 109 89 65
-1.394590e+000 2.276063e+000 -1.131097e+001 180 146 110
-8.190573e-001 2.554443e+000 -1.062934e+001 198 174 140
-8.965046e-001 2.331677e+000 -1.066752e+001 207 188 156
1.546783e+000 3.588546e+000 -9.714436e+000 133 109 75
3.440395e+000 3.810740e+000 -1.079979e+001 123 83 47
-2.808237e-001 2.762284e+000 -9.788034e+000 197 180 140
1.448710e+000 3.501161e+000 -9.568377e+000 139 119 87
2.102910e+000 3.322443e+000 -1.005594e+001 93 72 45
-1.121280e+000 1.640188e+000 -1.081598e+001 216 233 227
1.960106e+000 3.250433e+000 -9.886513e+000 96 91 73
1.206779e+000 3.197783e+000 -9.140473e+000 81 76 64
-7.127184e-001 1.506605e+000 -1.020761e+001 218 232 234
1.333348e+000 2.954683e+000 -9.167955e+000 85 67 40
-5.254304e-001 1.393459e+000 -9.936142e+000 211 226 226
-5.271001e-001 1.393668e+000 -9.935378e+000 211 226 226
1.576160e+000 2.698337e+000 -9.276036e+000 100 76 49
1.576160e+000 2.698337e+000 -9.276036e+000 100 76 49
2.653280e+000 2.478207e+000 -9.989826e+000 133 99 73
-1.162326e-001 1.645102e+000 -9.284775e+000 70 57 75
-2.250050e-002 1.701096e+000 -9.149374e+000 72 63 94
1.599966e+000 2.381760e+000 -9.119070e+000 98 78 54
-7.052920e-001 5.997253e-001 -1.004610e+001 85 70 93
1.480885e-001 1.830965e+000 -8.913967e+000 69 62 93
-7.193144e-001 4.247285e+000 -1.074673e+001 191 146 123
-3.985743e-001 4.319880e+000 -1.021592e+001 180 131 82
-1.278537e+000 3.566057e+000 -1.140844e+001 159 116 74
-1.077658e+000 3.184431e+000 -1.106706e+001 187 154 101
-1.074441e+000 2.769105e+000 -1.099678e+001 122 66 50
-1.128762e+000 2.101632e+000 -1.091719e+001 79 65 94
3.514243e+000 3.656477e+000 -1.069113e+001 169 135 78
3.053104e+000 3.268104e+000 -1.078060e+001 60 39 22
-7.837171e-001 1.570832e+000 -1.030617e+001 78 63 94
9.890740e-001 3.001716e+000 -8.778574e+000 131 104 74
-1.044033e+000 3.862031e-001 -1.045699e+001 78 72 87
-4.629777e-001 6.713917e-001 -9.710810e+000 79 63 89
5.345474e-002 4.443893e+000 -9.503581e+000 94 68 83
-1.070715e+000 2.547717e+000 -1.097057e+001 96 63 56
-1.072541e+000 2.544822e+000 -1.096737e+001 96 63 56
-6.084663e-001 1.685290e+000 -1.006485e+001 75 65 106
-6.504312e-001 1.390547e+000 -1.013851e+001 65 51 82
2.677308e+000 4.580296e+000 -1.112001e+001 49 28 27
-1.259157e+000 2.896658e+000 -1.123608e+001 94 68 66
-1.258078e+000 2.896139e+000 -1.123609e+001 94 68 66
9.369673e-001 3.879715e+000 -9.202662e+000 131 107 79
-8.387848e-001 1.309189e+000 -1.037048e+001 68 54 80
-5.047883e-001 2.618181e+000 -1.027863e+001 203 188 149
1.851335e-001 3.576976e+000 -9.044048e+000 72 60 78
-2.668455e+001 -2.706081e+001 -7.378589e+001 116 117 109
-2.151554e+001 -4.709418e+001 -7.256279e+001 127 113 85
-2.751196e+001 -4.796077e+001 -7.120067e+001 151 97 59
-3.186242e+001 -2.714415e+001 -7.774728e+001 133 137 120
-1.753160e+001 -4.180352e+001 -7.237634e+001 153 146 130
-3.143397e+001 -2.695800e+001 -7.500342e+001 118 120 105
-3.338644e+001 -2.870697e+001 -7.080785e+001 111 116 110
-2.227670e+001 -3.043259e+001 -7.351013e+001 117 112 96
-2.193081e+001 -4.342387e+001 -7.203135e+001 106 98 77
-2.929762e+001 -2.816247e+001 -7.253427e+001 160 165 158
-1.792480e+001 -3.326391e+001 -7.518277e+001 72 64 53
-1.819984e+001 -4.083404e+001 -7.393166e+001 150 146 132
-1.714363e+001 -4.086944e+001 -7.416482e+001 75 56 49
-1.714363e+001 -4.086944e+001 -7.416482e+001 75 56 49
-3.357662e+001 -2.900422e+001 -6.792317e+001 87 70 63
-1.886087e+001 -3.425571e+001 -7.487694e+001 135 129 115
-3.163187e+001 -4.395842e+001 -6.700186e+001 142 136 121
-1.956747e+001 -4.768421e+001 -7.795691e+001 175 176 158
-2.641047e+001 -8.368629e+001 -9.991358e+001 136 98 66
-2.641047e+001 -8.368629e+001 -9.991358e+001 136 98 66
-3.010463e+001 -4.295202e+001 -6.993962e+001 27 22 22
-3.858296e-001 3.432685e+000 -1.009249e+001 186 138 118
-1.110460e+000 2.666523e+000 -1.102265e+001 140 89 72
2.326347e+000 3.252797e+000 -1.019633e+001 93 71 49
-3.919805e-001 4.253134e+000 -1.021647e+001 162 114 79
-1.086677e+000 3.357766e+000 -1.113176e+001 198 160 114
-7.126378e-002 4.136496e+000 -9.615136e+000 185 158 113
-1.181278e+000 2.825216e+000 -1.112717e+001 103 70 63
7.897722e-001 4.081948e+000 -9.153217e+000 141 121 97
-1.747863e-001 2.283357e+000 -9.515026e+000 53 40 52
-1.128595e+000 2.579860e+000 -1.102524e+001 194 170 136
1.829718e+000 3.320846e+000 -9.839366e+000 124 111 77
-1.127491e+000 3.799933e+000 -1.129140e+001 184 144 94
2.279907e+000 3.534733e+000 -1.033750e+001 131 105 71
2.477048e+000 3.408815e+000 -1.044099e+001 135 110 79
2.477048e+000 3.408815e+000 -1.044099e+001 135 110 79
-5.617852e-001 1.734115e+000 -1.005249e+001 83 75 99
2.098059e+000 2.783603e+000 -9.700451e+000 130 111 82
-2.546641e-001 9.537541e-001 -9.454048e+000 75 60 64
2.692839e+000 4.985858e+000 -1.152645e+001 85 50 43
1.959094e+000 3.058146e+000 -9.751877e+000 69 64 64
2.049706e+000 2.678597e+000 -9.611921e+000 133 110 76
1.776861e+000 2.869346e+000 -9.536482e+000 86 66 42
-8.069268e-001 5.448241e+000 -1.097712e+001 100 78 79
-5.785024e-001 5.620622e+000 -1.071571e+001 192 161 98
-9.285794e-001 5.264659e+000 -1.116885e+001 218 224 220
-7.435528e-002 5.943683e+000 -9.905240e+000 151 129 106
-1.716823e+000 4.441419e+000 -1.220212e+001 81 65 50
-1.350376e+000 4.684615e+000 -1.177064e+001 202 188 171
-1.065828e+000 4.965749e+000 -1.136691e+001 219 225 223
-7.870260e-001 5.183300e+000 -1.097073e+001 145 150 144
-1.121100e+000 4.815629e+000 -1.142905e+001 214 229 227
-9.783027e-001 4.914962e+000 -1.124480e+001 218 229 225
-8.980736e-001 4.970713e+000 -1.114081e+001 218 228 227
-7.897782e-001 4.960327e+000 -1.097471e+001 220 229 224
-1.652775e+000 4.095076e+000 -1.202910e+001 201 188 172
-1.150088e+000 4.625203e+000 -1.150057e+001 209 189 155
-1.001857e+000 4.676109e+000 -1.126102e+001 189 161 110
-5.011366e-001 5.128360e+000 -1.053213e+001 198 180 142
-1.634754e+000 4.070670e+000 -1.194384e+001 199 186 170
-1.634754e+000 4.070670e+000 -1.194384e+001 199 186 170
-1.504104e+000 4.183014e+000 -1.183827e+001 200 186 173
-3.410221e-001 5.219471e+000 -1.028089e+001 204 175 133
-7.708620e-001 4.575349e+000 -1.089084e+001 169 127 85
-2.890068e-001 5.032457e+000 -1.013322e+001 189 138 107
-2.372343e-001 5.164815e+000 -1.004441e+001 166 120 90
-1.773433e+000 3.513374e+000 -1.195861e+001 106 84 59
-7.046694e-001 4.578471e+000 -1.076393e+001 144 106 57
-7.046694e-001 4.578471e+000 -1.076393e+001 144 106 57
-1.131729e+000 3.893846e+000 -1.129925e+001 174 134 76
-8.753830e-001 4.197250e+000 -1.099958e+001 119 82 57
-1.003122e+000 3.883546e+000 -1.121769e+001 125 80 57
-2.156752e-001 4.708015e+000 -9.972837e+000 180 150 90
-1.738165e+000 3.126217e+000 -1.186395e+001 165 133 86
-1.649088e+000 3.158966e+000 -1.177563e+001 99 65 41
-1.649088e+000 3.158966e+000 -1.177563e+001 99 65 41
-6.005084e-001 4.169459e+000 -1.055835e+001 160 113 88
-5.499216e-001 4.226556e+000 -1.048067e+001 183 133 91
-4.716409e-001 4.357223e+000 -1.034017e+001 189 145 96
-4.283525e-001 4.338926e+000 -1.030032e+001 153 101 59
1.563859e+000 5.140794e+000 -1.032746e+001 59 34 10
1.563859e+000 5.140794e+000 -1.032746e+001 59 34 10
1.595660e+000 5.087191e+000 -1.031874e+001 67 44 20
1.592021e+000 5.092042e+000 -1.030672e+001 67 44 20
1.634127e+000 5.073942e+000 -1.034849e+001 133 110 77
1.742141e+000 5.011430e+000 -1.041508e+001 59 37 15
1.897427e+000 4.968183e+000 -1.056209e+001 63 42 13
2.646614e+000 4.908598e+000 -1.128390e+001 35 17 13
-1.057432e+000 3.337071e+000 -1.112394e+001 131 93 48
-5.350214e-001 4.011974e+000 -1.036379e+001 140 90 57
2.597042e+000 4.767578e+000 -1.122773e+001 46 23 16
-8.165993e-001 3.370537e+000 -1.075964e+001 191 164 128
-5.895838e-001 3.514173e+000 -1.042725e+001 202 178 132
-1.482833e+000 2.395190e+000 -1.140469e+001 87 63 85
-1.195464e+000 2.584890e+000 -1.110635e+001 134 96 47
-9.940641e-001 2.865721e+000 -1.093592e+001 109 58 49
-1.026673e+000 2.782786e+000 -1.094658e+001 109 53 40
-1.028864e+000 2.750710e+000 -1.093448e+001 129 71 55
-9.499640e-001 2.849778e+000 -1.085907e+001 116 63 49
-9.509190e-001 2.849518e+000 -1.085941e+001 116 63 49
-8.761613e-001 2.988223e+000 -1.078416e+001 190 145 111
-7.147179e-001 3.128424e+000 -1.055143e+001 199 162 103
-5.606003e-001 3.373830e+000 -1.037140e+001 209 193 150
-4.971107e-001 3.418227e+000 -1.027756e+001 128 98 63
-4.282446e-001 3.479004e+000 -1.023526e+001 150 84 46
-8.989339e-001 2.782607e+000 -1.078802e+001 114 58 45
-4.015226e-001 3.457258e+000 -1.014305e+001 205 196 165
1.516045e+000 4.421268e+000 -1.000531e+001 125 109 86
-9.669080e-001 2.547003e+000 -1.080511e+001 97 57 55
-5.843386e-001 2.925836e+000 -1.042561e+001 189 149 89
-2.885330e-001 3.437902e+000 -9.931425e+000 209 188 159
-9.651531e-001 2.215333e+000 -1.073106e+001 181 147 114
-3.675480e-001 3.055168e+000 -9.973282e+000 200 180 147
-3.572593e-001 2.942833e+000 -9.953676e+000 209 187 145
-3.170340e-001 3.094494e+000 -9.902975e+000 213 159 113
-2.901574e-001 3.174424e+000 -9.868602e+000 204 156 134
-1.261296e-001 3.393499e+000 -9.624017e+000 126 74 45
4.223886e-002 3.701565e+000 -9.341741e+000 155 117 95
1.297983e+000 4.028437e+000 -9.667025e+000 62 37 15
2.798203e+000 3.843311e+000 -1.089258e+001 60 37 21
-2.299882e-001 3.102137e+000 -9.737531e+000 128 91 40
-2.684244e-001 2.976164e+000 -9.775734e+000 199 170 120
-2.322484e-001 3.071388e+000 -9.722858e+000 165 128 84
-1.125746e-001 3.288320e+000 -9.555592e+000 128 75 53
8.114802e-001 4.086404e+000 -9.162824e+000 77 52 29
-3.862454e-001 2.563445e+000 -9.992606e+000 205 185 153
-7.757583e-003 3.383896e+000 -9.355597e+000 125 87 59
8.280722e-001 3.872822e+000 -9.062222e+000 124 99 73
8.487318e-001 3.896626e+000 -9.074126e+000 99 76 45
1.709187e+000 3.687128e+000 -9.930015e+000 132 105 69
-1.722920e-001 2.910016e+000 -9.600532e+000 180 141 84
-1.722920e-001 2.910016e+000 -9.600532e+000 180 141 84
1.528196e+000 3.661790e+000 -9.706565e+000 128 105 73
1.842502e+000 3.359388e+000 -9.844036e+000 76 54 30
2.161467e+000 3.400784e+000 -1.016803e+001 71 45 21
-9.980178e-001 9.492900e-001 -1.045533e+001 190 191 213
-9.179698e-001 1.029142e+000 -1.033877e+001 201 200 223
-5.839432e-001 1.247010e+000 -1.013732e+001 68 63 80
1.692323e+000 3.062887e+000 -9.575511e+000 62 56 48
1.861508e+000 3.010067e+000 -9.692591e+000 126 111 82
-5.932808e-001 1.027939e+000 -9.976515e+000 196 201 220
-2.358962e-001 1.480273e+000 -9.483640e+000 202 200 214
-2.358962e-001 1.480273e+000 -9.483640e+000 202 200 214
-2.557679e-001 1.413874e+000 -9.471119e+000 70 56 72
2.108002e+000 2.504765e+000 -9.599656e+000 78 54 26
2.009160e+000 2.456176e+000 -9.488339e+000 138 107 79
9.194592e-003 1.496354e+000 -9.085678e+000 205 205 220
-3.135707e-003 1.425612e+000 -9.119256e+000 66 62 84
-1.262696e+000 5.085234e+000 -1.161194e+001 185 174 173
4.484800e-001 6.236131e+000 -9.869100e+000 146 138 153
4.557098e-001 6.235285e+000 -9.830502e+000 43 27 28
-1.683149e-002 5.967579e+000 -9.842549e+000 155 136 119
-1.782084e+000 4.342949e+000 -1.225134e+001 80 64 49
-1.384938e+000 4.671623e+000 -1.179099e+001 76 63 46
-1.128229e+000 4.863241e+000 -1.143836e+001 214 230 221
-1.015002e+000 5.061248e+000 -1.129252e+001 213 228 225
-9.822938e-001 5.087706e+000 -1.124826e+001 218 227 226
-6.510860e-001 5.330779e+000 -1.079549e+001 218 222 222
-4.009833e-001 5.563473e+000 -1.038967e+001 176 133 79
-2.613098e-001 5.600670e+000 -1.022176e+001 166 119 67
-2.370983e-001 5.673437e+000 -1.018858e+001 172 128 77
-5.660144e-002 5.750579e+000 -9.882897e+000 189 157 99
2.704738e-001 5.982011e+000 -9.571438e+000 78 58 49
-1.777129e+000 4.303383e+000 -1.223130e+001 69 51 37
-1.599990e+000 4.415118e+000 -1.203671e+001 75 59 43
-1.600813e+000 4.413387e+000 -1.204100e+001 75 59 43
-1.527950e+000 4.491318e+000 -1.195012e+001 82 69 52
-1.376405e+000 4.612537e+000 -1.178237e+001 86 70 55
-1.372833e+000 4.557382e+000 -1.180633e+001 72 57 38
-1.369759e+000 4.572292e+000 -1.177013e+001 72 57 38
-9.407230e-001 4.939359e+000 -1.119297e+001 221 230 227
-8.462856e-001 5.015713e+000 -1.104286e+001 226 235 234
-7.917493e-001 5.052154e+000 -1.098062e+001 214 225 221
-6.247670e-001 5.177433e+000 -1.074391e+001 213 222 220
-5.949060e-001 5.201992e+000 -1.070234e+001 214 223 220
-5.687167e-001 5.221915e+000 -1.066326e+001 217 226 224
1.673835e-001 5.919507e+000 -9.535900e+000 118 95 80
-1.603488e+000 4.182934e+000 -1.195074e+001 79 63 48
-4.743681e-001 5.121797e+000 -1.047555e+001 202 180 142
-1.745471e+000 3.971273e+000 -1.212092e+001 87 74 60
-1.664967e+000 4.068539e+000 -1.198374e+001 68 55 39
-1.595710e+000 4.080604e+000 -1.192216e+001 71 55 40
-1.413741e+000 4.227782e+000 -1.171458e+001 75 61 50
-1.413089e+000 4.223471e+000 -1.172272e+001 75 61 50
-1.325983e+000 4.309697e+000 -1.165699e+001 196 184 172
-1.237455e+000 4.321054e+000 -1.155526e+001 74 57 49
-1.167369e+000 4.359015e+000 -1.145073e+001 82 66 51
-3.241055e-001 5.111331e+000 -1.021027e+001 207 162 138
-2.993817e-001 4.933611e+000 -1.012363e+001 170 126 96
-2.993817e-001 4.933611e+000 -1.012363e+001 170 126 96
-1.030830e-001 5.096133e+000 -9.809424e+000 111 68 60
-1.759654e+000 3.427030e+000 -1.190756e+001 96 66 63
-1.734086e+000 3.443006e+000 -1.194646e+001 179 147 104
-1.305114e+000 3.774115e+000 -1.150623e+001 170 133 85
-1.242973e+000 3.916637e+000 -1.145240e+001 200 193 175
-9.917594e-001 3.998343e+000 -1.115603e+001 135 89 53
-6.839237e-001 4.418871e+000 -1.071932e+001 154 118 102
-6.839237e-001 4.418871e+000 -1.071932e+001 154 118 102
-6.007318e-001 4.551611e+000 -1.058502e+001 152 109 75
-1.025936e-001 5.059326e+000 -9.807976e+000 143 92 72
-1.276592e+000 3.706078e+000 -1.144697e+001 172 135 91
-1.199104e+000 3.756018e+000 -1.137867e+001 168 135 83
-9.039333e-001 3.987317e+000 -1.102306e+001 126 83 67
-5.933841e-001 4.278730e+000 -1.055301e+001 131 80 59
-3.775329e-001 4.443289e+000 -1.024481e+001 163 99 64
-1.636622e+000 2.863726e+000 -1.168073e+001 80 72 100
-1.072446e+000 3.415042e+000 -1.115230e+001 123 76 59
-1.072519e+000 3.411942e+000 -1.115170e+001 123 76 59
-4.954123e-001 4.039046e+000 -1.039940e+001 88 55 46
1.950683e+000 5.066632e+000 -1.066296e+001 135 101 75
1.974233e+000 5.016658e+000 -1.064964e+001 118 93 63
-1.052932e+000 3.251657e+000 -1.109095e+001 182 149 102
-5.126724e-001 4.010256e+000 -1.039557e+001 186 140 106
-1.651279e-001 4.379165e+000 -9.861268e+000 146 94 55
-5.359001e-001 3.766410e+000 -1.039847e+001 127 84 42
-8.278939e-002 4.362031e+000 -9.773633e+000 131 84 68
-5.503783e-001 3.340434e+000 -1.036640e+001 153 117 64
-1.239589e-002 4.154786e+000 -9.515997e+000 191 171 116
-7.974970e-001 2.981392e+000 -1.065478e+001 134 67 50
-8.717658e-001 2.791224e+000 -1.073686e+001 199 142 123
-4.722171e-001 3.414160e+000 -1.024725e+001 208 193 154
-4.385653e-001 3.381830e+000 -1.017762e+001 193 163 125
-4.111597e-001 3.396632e+000 -1.018395e+001 106 69 47
1.560761e+000 4.430183e+000 -1.002318e+001 132 112 87
2.214035e+000 4.316974e+000 -1.060549e+001 119 95 70
-1.062433e+000 2.492439e+000 -1.093777e+001 99 65 59
-6.723238e-001 2.934205e+000 -1.045217e+001 147 84 62
-5.146810e-001 3.085296e+000 -1.026013e+001 137 66 42
2.271747e-001 4.290710e+000 -9.085218e+000 105 110 130
-9.600265e-001 2.399776e+000 -1.076139e+001 115 61 49
-8.754963e-001 2.516761e+000 -1.067949e+001 107 48 40
-6.318375e-001 2.752478e+000 -1.038895e+001 201 157 121
-1.610297e-001 3.457375e+000 -9.696854e+000 140 97 53
-8.858053e-001 2.217997e+000 -1.062709e+001 193 166 148
-8.025635e-001 2.407297e+000 -1.056229e+001 185 145 85
-6.965402e-001 2.468853e+000 -1.043484e+001 163 85 51
8.963161e-001 4.124000e+000 -9.279878e+000 137 113 86
9.614725e-001 4.134934e+000 -9.378806e+000 129 109 79
9.782815e-001 4.104008e+000 -9.377960e+000 60 40 16
1.183471e+000 4.046465e+000 -9.575196e+000 69 47 23
1.355654e+000 4.023869e+000 -9.703820e+000 53 27 3
1.355654e+000 4.023869e+000 -9.703820e+000 53 27 3
-8.371075e-001 2.227569e+000 -1.054393e+001 67 53 44
-1.285488e-001 3.320874e+000 -9.565852e+000 202 179 143
-1.026110e-001 3.353166e+000 -9.533273e+000 119 57 44
-9.598626e-002 3.290103e+000 -9.515544e+000 176 125 104
1.086979e+000 3.968030e+000 -9.456367e+000 65 43 19
1.096581e+000 3.900882e+000 -9.433315e+000 65 44 25
1.096581e+000 3.900882e+000 -9.433315e+000 65 44 25
1.328300e+000 3.895156e+000 -9.631098e+000 130 107 75
2.885742e+000 3.684215e+000 -1.090178e+001 53 32 12
-4.412952e-001 2.475027e+000 -1.003791e+001 170 141 127
-4.584783e-002 3.166779e+000 -9.405491e+000 128 85 46
7.093721e-002 3.509613e+000 -9.228132e+000 168 130 111
2.573864e+000 3.507659e+000 -1.053667e+001 123 93 67
2.635337e+000 3.488620e+000 -1.059129e+001 119 89 61
-1.265173e-001 3.020394e+000 -9.484386e+000 198 163 109
-4.447749e-002 3.057209e+000 -9.347257e+000 182 148 87
9.056825e-002 3.361526e+000 -9.153576e+000 82 67 67
8.587369e-002 3.396899e+000 -9.163237e+000 193 163 144
1.343305e+000 3.449398e+000 -9.481306e+000 125 102 71
2.172113e+000 3.347784e+000 -1.014700e+001 132 107 79
2.415785e+000 3.322932e+000 -1.031903e+001 124 98 75
-6.531240e-001 1.723736e+000 -1.017292e+001 85 77 112
-5.402118e-001 1.822679e+000 -1.001718e+001 92 77 109
-2.414557e-001 2.335309e+000 -9.676029e+000 60 45 58
-2.285912e-001 2.272432e+000 -9.618549e+000 83 71 91
-2.290427e-001 2.276650e+000 -9.614413e+000 83 71 91
-1.126081e+000 8.539725e-001 -1.060659e+001 206 209 226
-1.126082e+000 8.578962e-001 -1.060542e+001 206 209 226
1.111922e+000 3.352684e+000 -9.102446e+000 76 69 63
-6.748478e-001 9.165507e-001 -1.005992e+001 77 69 92
-5.688146e-001 1.252947e+000 -9.986831e+000 69 54 79
-9.377290e-001 4.732591e-001 -1.025233e+001 195 197 218
-4.462848e-001 1.262471e+000 -9.776222e+000 86 70 98
-6.013703e-001 6.460251e-001 -9.908904e+000 207 206 228
2.097005e+000 2.606304e+000 -9.659762e+000 135 106 77
2.110527e+000 2.544646e+000 -9.603206e+000 140 110 82
-3.143830e-001 6.939085e-001 -9.479465e+000 64 58 68
-2.051579e-001 9.442656e-001 -9.354794e+000 208 212 220
-9.783345e-001 5.286968e+000 -1.123787e+001 216 227 219
-8.683963e-001 5.368036e+000 -1.108906e+001 211 223 219
-7.709757e-001 5.436931e+000 -1.095847e+001 218 230 225
-7.139142e-001 5.483529e+000 -1.087102e+001 216 226 221
-5.651777e-001 5.589880e+000 -1.066714e+001 215 224 221
-6.606391e-001 5.355323e+000 -1.081017e+001 120 75 66
