ply
format ascii 1.0
element face 0
property list uchar int vertex_indices
element vertex 883
property float x
property float y
property float z
property uchar diffuse_red
property uchar diffuse_green
property uchar diffuse_blue
end_header
-3.658062e+000 -3.756169e+000 -9.955316e+000 210 223 218
-3.928630e+000 4.355432e+000 -1.277403e+001 128 90 70
-2.599085e+000 3.158846e-001 -9.596628e+000 210 227 211
-4.056380e+000 -6.073698e-001 -1.154150e+001 201 230 214
-1.097247e+000 1.653871e+000 -7.251275e+000 204 226 209
-1.275678e+000 2.846560e-001 -7.080692e+000 92 74 87
-1.642070e+000 -1.435915e+000 -7.477608e+000 205 223 210
-1.643166e+000 -1.441012e+000 -7.536313e+000 205 223 210
3.946603e+000 2.668809e+000 -9.749744e+000 118 103 65
-3.727534e+000 -3.426906e+000 -1.014127e+001 201 204 205
-4.100839e+000 4.352499e+000 -1.295667e+001 106 70 57
-1.218892e+000 -3.483008e+000 -6.186278e+000 191 196 201
-2.810227e+000 1.741860e+000 -1.033750e+001 213 226 213
-2.503465e+000 9.201097e-001 -9.550373e+000 212 225 212
-3.090141e+000 1.519501e+000 -1.074538e+001 204 227 213
-2.444510e+000 -2.587713e+000 -8.491758e+000 211 231 219
-1.055935e+000 -3.527170e+000 -6.041867e+000 62 50 75
-3.196049e+000 -4.440784e-001 -1.033690e+001 103 75 84
-3.419920e+000 -2.076794e-001 -1.085462e+001 198 228 206
-1.791276e+000 -2.511244e+000 -7.422460e+000 121 73 96
-3.045586e+000 -2.442625e+000 -9.366590e+000 204 229 211
4.977237e+000 2.608957e+000 -1.042441e+001 59 46 22
-3.257261e+000 2.767402e+000 -1.128021e+001 93 67 78
-3.257261e+000 2.767402e+000 -1.128021e+001 93 67 78
-2.438020e+000 1.903827e+000 -9.629274e+000 86 58 55
-2.880042e+000 1.706616e+000 -1.049258e+001 214 223 214
-2.744222e+000 6.997807e-001 -1.005586e+001 204 225 216
-1.586358e+000 -2.250470e+000 -7.205542e+000 193 225 208
-2.164410e+000 -3.293479e+000 -7.650360e+000 212 215 220
3.562245e+000 2.614525e+000 -9.459272e+000 76 59 29
1.495538e+000 9.797144e-002 -5.829113e+000 123 108 69
4.860614e+000 2.016149e+000 -1.027055e+001 102 86 60
-3.893900e+000 4.840249e+000 -1.266269e+001 188 141 114
-4.155919e-001 -2.803496e+000 -4.982283e+000 50 37 64
3.785880e+000 2.674932e+000 -9.646019e+000 128 111 69
4.130836e+000 2.644070e+000 -9.835147e+000 116 100 66
-3.242256e+000 4.137684e+000 -1.152413e+001 195 177 132
-2.498409e+000 3.315504e+000 -1.016141e+001 213 207 206
-2.895382e+000 1.832197e+000 -1.047365e+001 79 66 80
-4.141855e+000 2.515102e+000 -1.242813e+001 208 219 205
-9.938293e-001 -3.245603e+000 -5.932329e+000 57 44 65
-2.444510e+000 -2.587713e+000 -8.491758e+000 211 231 219
6.444682e+000 2.703750e+000 -9.942102e+000 126 90 32
-2.555906e+000 3.734504e+000 -1.046950e+001 89 72 75
4.972300e+000 2.182198e+000 -1.041019e+001 100 83 55
-3.309959e+000 3.239594e+000 -1.150348e+001 209 223 209
-4.079950e+000 1.821330e+000 -1.222920e+001 206 225 217
-4.079950e+000 1.821330e+000 -1.222920e+001 206 225 217
-3.171599e+000 -8.200285e-001 -1.035163e+001 71 67 68
-3.219365e+001 1.273493e+001 -8.151617e+001 132 95 157
-5.109687e+000 5.555515e+000 -1.452264e+001 92 59 49
-3.584885e+000 3.032144e+000 -1.187392e+001 208 225 213
-3.189064e+000 2.553123e+000 -1.116929e+001 88 69 91
-3.008038e+000 1.982192e+000 -1.066817e+001 207 227 214
-3.051406e+001 8.999491e+000 -7.833927e+001 112 71 128
-1.900836e+000 2.845036e+000 -8.898738e+000 205 223 210
-4.889445e+000 4.495509e+000 -1.382972e+001 160 127 83
-2.435664e+000 1.825593e+000 -9.727146e+000 213 223 210
-2.593071e+001 1.167290e+001 -7.705527e+001 141 142 128
-2.180635e+001 7.312400e+000 -7.847211e+001 123 51 55
-2.341267e+001 6.330712e+000 -7.687114e+001 111 103 128
-1.467419e+000 1.553124e+000 -7.880343e+000 87 70 82
-1.275678e+000 2.846560e-001 -7.080692e+000 92 74 87
-2.006923e+000 8.410230e-001 -8.721162e+000 202 227 208
-6.604128e-001 -2.549618e+000 -5.545511e+000 79 58 97
-3.686045e+000 -1.474346e-001 -1.110480e+001 108 78 95
-2.964038e+001 1.154858e+001 -7.648365e+001 92 63 107
-2.856615e+001 9.144117e+000 -7.788514e+001 102 41 54
-2.575402e+001 7.218802e+000 -7.746025e+001 170 39 54
-3.329607e+000 3.630233e-002 -1.080471e+001 100 66 90
-3.131298e+001 7.963443e+000 -8.005051e+001 54 30 59
-3.526884e+000 1.842394e+000 -1.144284e+001 77 61 79
-2.507006e+001 1.048328e+001 -7.830229e+001 201 199 184
-3.063193e+001 9.644173e+000 -7.957100e+001 88 51 104
-2.595804e+000 5.219966e+000 -1.090336e+001 202 180 123
3.508883e+000 3.800310e+000 -9.856157e+000 94 76 40
-2.471494e+000 4.752142e+000 -1.045766e+001 131 95 60
-3.805805e+000 5.430659e+000 -1.281353e+001 113 69 44
-3.722424e+000 3.701393e+000 -1.222415e+001 181 160 132
7.488327e+000 3.135359e+000 -8.546104e+000 171 125 48
-2.219397e+000 3.639195e+000 -9.723741e+000 97 72 77
3.057587e+000 2.701731e+000 -9.219078e+000 82 68 35
3.354724e+000 2.644088e+000 -9.350106e+000 76 59 30
3.354724e+000 2.644088e+000 -9.350106e+000 76 59 30
4.977237e+000 2.608957e+000 -1.042441e+001 59 46 22
-1.918388e+000 2.696270e+000 -8.940014e+000 82 68 76
-4.196730e+000 4.728801e+000 -1.318797e+001 130 82 59
-3.320148e+000 9.163219e-001 -1.088249e+001 89 82 87
2.153174e+000 -2.285044e+000 -5.188495e+000 59 43 20
-1.707155e+000 -2.372124e+000 -7.280520e+000 206 222 212
1.429119e+000 3.941945e+000 -8.465716e+000 129 113 74
-1.249222e+000 3.169302e+000 -7.756357e+000 215 223 213
2.586174e+000 3.028452e+000 -8.945742e+000 69 54 22
3.210317e+000 2.661878e+000 -9.278625e+000 62 47 18
-1.826051e+000 3.050927e+000 -8.983603e+000 78 67 74
4.653012e+000 2.659944e+000 -1.019064e+001 62 51 23
-3.846662e+000 4.062023e+000 -1.247672e+001 129 74 56
-2.511039e+000 2.130918e+000 -9.948321e+000 81 64 67
-2.311512e+000 2.078118e+000 -9.669499e+000 92 79 79
-2.754609e+000 1.217325e+000 -1.013924e+001 210 230 218
-2.239335e+000 3.506285e+000 -9.708117e+000 210 223 207
-4.333701e+000 2.424551e+000 -1.270518e+001 204 225 208
-1.371180e+000 -1.588093e+000 -7.118472e+000 78 68 89
-3.803490e+000 -2.988368e+000 -1.042569e+001 210 224 215
-3.014989e+001 2.615110e-001 -7.893480e+001 197 38 53
-2.032141e+001 -3.019188e-001 -7.548631e+001 158 70 74
3.193144e+000 2.450890e+000 -9.197292e+000 133 118 72
-2.505533e+000 3.913437e+000 -1.034995e+001 211 225 211
1.423408e+000 -2.083484e-002 -5.711922e+000 67 54 25
-1.021056e+000 2.655837e-001 -6.753831e+000 88 71 87
-2.434998e+000 -1.289093e+000 -8.977335e+000 208 228 216
6.110514e+000 -3.338872e+000 -8.430575e+000 42 28 18
-3.530240e+001 6.076356e+000 -8.454801e+001 142 104 83
-2.110943e+001 1.300419e+000 -7.644143e+001 190 86 95
-2.141102e+001 4.961720e-001 -7.581057e+001 195 61 67
-3.585583e+001 2.643019e+000 -8.370278e+001 148 120 109
-2.491379e+001 1.168931e+000 -6.284749e+001 197 35 54
-2.083700e+001 -9.171020e-001 -7.495676e+001 186 116 116
-4.218785e+001 1.147243e+000 -8.410780e+001 161 125 91
-1.898693e+001 -3.067561e+000 -7.507257e+001 158 47 50
-1.090336e+000 6.113613e-001 -6.833141e+000 84 76 83
-2.372508e+000 -3.976661e-001 -9.079938e+000 80 64 68
-2.372508e+000 -3.976661e-001 -9.079938e+000 80 64 68
-4.016432e+000 -7.193864e-002 -1.143871e+001 204 227 214
-1.095526e+000 -2.484426e+000 -6.168620e+000 77 63 96
-3.746883e+001 9.192864e+000 -8.546656e+001 164 130 95
-3.490950e+001 7.284150e+000 -8.475008e+001 155 126 109
-3.375633e+001 7.046626e+000 -8.381364e+001 134 54 63
-5.164404e+001 9.470321e+000 -9.510377e+001 202 56 75
-3.675420e+001 5.596985e+000 -7.916848e+001 161 126 89
-3.720716e+001 5.157209e+000 -8.416700e+001 156 124 84
-3.836400e+001 4.859336e+000 -8.418260e+001 185 153 115
-2.267946e+001 8.349499e-001 -7.548894e+001 196 106 110
-2.865939e+001 -1.384779e+000 -7.439180e+001 176 30 37
-3.127736e+000 4.424733e+000 -1.148751e+001 198 181 134
-4.717424e+000 4.854964e+000 -1.405299e+001 77 49 37
-1.469069e+000 1.161478e-002 -7.565681e+000 205 228 212
-3.329607e+000 3.630233e-002 -1.080471e+001 100 66 90
-3.686045e+000 -1.474346e-001 -1.110480e+001 108 78 95
-2.078133e+001 3.905088e+000 -7.651724e+001 165 41 52
-3.669311e+001 5.420613e+000 -8.569378e+001 182 146 112
-2.145623e+001 2.781227e+000 -7.619024e+001 197 126 124
-4.075855e+001 4.635950e+000 -8.598957e+001 157 123 88
-3.775885e+001 3.618076e+000 -8.426829e+001 154 124 88
-3.018863e+001 2.084872e+000 -7.734599e+001 198 120 121
-3.161638e+001 2.801109e+000 -8.870949e+001 183 39 52
-2.251423e+001 -4.401746e-001 -7.747633e+001 186 127 125
-5.336438e+001 4.128275e+000 -9.432254e+001 188 35 52
-3.768524e+001 1.304529e+000 -8.490404e+001 136 121 100
-2.022850e+001 -1.543382e+000 -7.439166e+001 175 40 48
-2.249708e+000 3.226958e+000 -9.807077e+000 91 71 80
-1.625884e+000 1.979874e-001 -7.704484e+000 91 75 94
-2.890608e+001 7.618692e+000 -7.774506e+001 203 200 191
-2.890608e+001 7.618692e+000 -7.774506e+001 203 200 191
-3.105511e+001 7.890966e+000 -7.922705e+001 54 30 59
-2.360128e+001 5.152100e+000 -7.672303e+001 44 32 53
-5.149861e+001 1.100196e+001 -9.589025e+001 61 35 46
-5.089122e+001 1.115785e+001 -9.848937e+001 164 141 97
-4.453111e+001 8.400251e+000 -9.243225e+001 164 90 71
-2.884688e+001 4.298216e+000 -7.605646e+001 199 47 60
-2.018148e+001 2.988111e-001 -7.555585e+001 180 126 121
-4.937645e+001 4.242461e+000 -9.237897e+001 207 53 65
-4.937645e+001 4.242461e+000 -9.237897e+001 207 53 65
-2.965149e+001 1.937948e-002 -7.550698e+001 203 122 120
-2.443933e+000 -9.756535e-001 -9.138741e+000 75 62 72
-3.557906e+001 1.460161e+000 -8.355763e+001 184 146 122
-2.251789e+001 3.417688e+000 -7.673993e+001 168 89 87
7.488327e+000 3.135359e+000 -8.546104e+000 171 125 48
1.164013e+000 3.170418e+000 -7.609914e+000 82 68 23
1.630881e+000 3.565665e+000 -8.509964e+000 129 114 74
2.447139e+000 3.760633e+000 -9.103911e+000 74 59 27
-3.067464e+000 5.212369e+000 -1.158415e+001 160 116 58
-4.118069e+000 5.075438e+000 -1.311553e+001 198 165 134
4.820938e+000 1.924075e+000 -1.032263e+001 76 62 35
-2.744222e+000 6.997807e-001 -1.005586e+001 204 225 216
-1.641722e+000 -2.246160e+000 -7.332113e+000 86 56 76
-1.585468e+000 -2.244439e+000 -7.161429e+000 193 225 208
-4.358160e-001 -2.871776e+000 -4.996812e+000 176 171 191
3.503613e+000 3.797199e+000 -9.840377e+000 94 76 40
-3.207258e+000 5.205756e+000 -1.218220e+001 193 153 99
2.381048e+000 2.429683e+000 -8.400471e+000 82 67 33
-1.382322e+000 2.358448e+000 -7.835995e+000 76 53 68
5.060392e+000 2.196195e+000 -1.041253e+001 102 84 60
-3.254467e+000 8.538108e-001 -1.082825e+001 207 233 216
2.784523e+000 3.803009e+000 -9.347971e+000 123 109 70
3.542028e+000 3.005614e+000 -9.692776e+000 125 112 70
-3.608624e+000 1.167296e+000 -1.141162e+001 203 227 213
4.498061e+000 -2.804254e+000 -6.813835e+000 126 107 61
5.447765e+000 -3.102818e+000 -7.811909e+000 99 81 45
6.568674e+000 3.555962e+000 -9.691177e+000 159 126 52
-1.616686e+000 2.894394e+000 -8.450740e+000 78 65 82
-2.637125e+000 3.147279e+000 -1.036272e+001 210 228 209
-2.432733e+000 -1.287672e+000 -8.957238e+000 208 228 216
-2.471119e+000 -3.018939e+000 -8.354368e+000 202 219 208
-3.543062e+001 5.328742e+000 -8.802239e+001 147 66 72
-3.606315e+001 -1.446204e+000 -8.227753e+001 149 122 88
-3.607469e+001 1.158841e+001 -8.768981e+001 167 126 102
-2.100259e+001 9.647855e+000 -7.987661e+001 160 45 53
-3.234855e+001 7.480909e+000 -8.137999e+001 147 52 66
-3.352661e+001 4.169392e+000 -8.081706e+001 141 102 87
-2.206023e+001 1.685978e+000 -7.588101e+001 180 45 51
-1.964333e+001 8.776330e-001 -7.642829e+001 181 42 55
-2.808061e+001 -1.887394e+000 -7.442908e+001 157 89 94
-4.115081e+001 -1.741199e+000 -8.469909e+001 151 117 85
-4.998948e+001 -2.220730e+000 -9.138421e+001 171 45 65
-4.089374e+001 -4.064783e+000 -8.589640e+001 102 81 59
-4.681930e+001 -5.133288e+000 -8.785236e+001 161 136 72
-4.681930e+001 -5.133288e+000 -8.785236e+001 161 136 72
-7.051009e-001 -2.198426e+000 -5.694114e+000 82 65 92
-2.382908e+001 3.916284e+000 -7.657797e+001 115 116 135
-5.205695e+001 7.836288e+000 -9.375831e+001 207 41 63
-2.351582e+001 1.383596e+000 -7.560879e+001 75 47 73
-4.016132e+001 -4.388086e-001 -8.094657e+001 152 119 84
-3.643376e+001 -1.423513e+000 -8.106423e+001 177 137 111
-2.670801e+001 -1.799724e+000 -7.269643e+001 44 31 52
-2.302070e+001 -2.741209e+000 -7.451633e+001 103 40 45
-3.748971e+001 -3.079542e+000 -8.347407e+001 139 103 77
-3.546632e+001 -2.497669e+000 -8.521853e+001 85 42 43
-2.973486e+001 -3.312409e+000 -7.289503e+001 90 56 81
-5.028979e+001 -2.740861e+000 -9.029410e+001 70 33 56
-3.906305e+001 -3.709339e+000 -8.367642e+001 126 103 78
-3.043673e+001 -5.974014e+000 -7.263160e+001 62 50 52
-5.126138e+001 7.407491e-001 -9.078536e+001 49 27 62
-4.727772e+001 -3.447072e+000 -8.969628e+001 142 113 87
-2.091994e+001 -5.890470e+000 -7.446990e+001 179 38 47
-1.568062e+000 -3.084206e-001 -7.698341e+000 84 68 88
-1.455411e+000 -9.603356e-001 -7.264348e+000 81 65 92
-4.018024e+001 7.142278e+000 -8.552883e+001 195 151 114
-5.049414e+001 7.130081e-002 -9.257335e+001 195 42 54
-4.053265e+001 -3.036485e-001 -8.423585e+001 184 150 111
-4.987826e+001 -1.323445e+000 -8.912303e+001 80 41 61
-3.521027e+001 -2.233934e+000 -8.150618e+001 173 147 110
-3.521027e+001 -2.233934e+000 -8.150618e+001 173 147 110
-1.908929e+001 -5.702901e+000 -7.337112e+001 204 129 128
1.223236e+000 2.072667e-001 -5.804000e+000 124 107 63
-5.243113e+001 7.137137e+000 -9.161903e+001 229 221 219
-5.243113e+001 7.137137e+000 -9.161903e+001 229 221 219
-1.882505e+001 -2.111791e+000 -7.425845e+001 162 117 108
-2.181292e+001 -3.540911e+000 -7.410095e+001 175 39 48
-4.915433e+001 -3.749253e+000 -9.059037e+001 49 34 60
-2.880398e+001 -2.759806e+000 -7.475807e+001 172 80 77
-2.525338e+001 -3.518038e+000 -7.406974e+001 36 28 49
-3.259678e+001 -4.672712e+000 -7.854896e+001 148 119 107
-2.334993e+001 -4.961688e+000 -7.403697e+001 201 158 53
-2.090638e+001 -7.595103e+000 -7.553947e+001 36 27 24
-4.138859e+001 2.239453e+000 -8.498563e+001 193 159 121
-2.546181e+001 5.113889e-001 -7.500394e+001 36 26 50
-3.976748e+000 5.555408e+000 -1.303122e+001 138 101 57
-2.794945e+000 4.331769e+000 -1.086328e+001 170 139 132
-4.189649e+000 5.079541e+000 -1.307102e+001 100 71 55
-4.260795e+000 4.273450e+000 -1.309472e+001 118 91 40
2.166452e+000 2.140290e+000 -7.991530e+000 84 69 30
-4.565182e+000 3.521734e+000 -1.330238e+001 189 160 117
-4.472676e+000 3.395572e+000 -1.316343e+001 166 149 123
-2.524778e+000 2.008970e+000 -9.962948e+000 217 219 212
-2.131475e+000 1.216475e+000 -8.969773e+000 219 230 226
-2.131475e+000 1.216475e+000 -8.969773e+000 219 230 226
-3.983278e+000 -1.825772e-001 -1.140095e+001 197 212 208
-2.398980e+000 -5.171292e-001 -9.102976e+000 199 229 215
2.285327e+000 -1.873121e+000 -5.571906e+000 52 44 23
-2.151176e+000 -2.393431e+000 -8.021235e+000 73 50 59
-2.479003e+000 -2.668687e+000 -8.461469e+000 71 58 59
-3.304738e+000 -3.765987e+000 -9.339684e+000 206 204 200
4.060480e+000 3.759999e+000 -1.031451e+001 90 76 41
2.038719e+000 3.004749e+000 -8.473723e+000 127 112 73
2.033953e+000 3.007007e+000 -8.488668e+000 127 112 73
-3.782357e+000 4.382100e+000 -1.242701e+001 188 147 126
-1.649508e+000 2.673693e+000 -8.388863e+000 71 61 65
1.317676e+000 1.628780e+000 -6.668434e+000 122 108 69
-4.295873e+000 3.495638e+000 -1.293647e+001 152 126 106
3.132702e+000 2.244564e+000 -8.976197e+000 72 58 20
4.437244e+000 2.100392e+000 -1.005028e+001 118 104 70
5.290578e+000 1.888828e+000 -1.044201e+001 85 70 49
-4.278803e+000 2.525666e+000 -1.265760e+001 88 74 73
-4.274454e+000 2.316483e+000 -1.264221e+001 74 69 69
1.941247e+000 -4.962034e-002 -6.140646e+000 126 111 68
4.627318e+000 -8.822144e-001 -8.305205e+000 113 97 64
-5.682653e-001 -2.709227e+000 -5.223523e+000 184 187 199
-8.411531e-001 -2.867691e+000 -5.786376e+000 62 50 72
-2.586899e+000 -3.008890e+000 -8.501408e+000 197 218 213
-2.983668e+000 -3.474120e+000 -8.908905e+000 210 221 217
-2.164410e+000 -3.293479e+000 -7.650360e+000 212 215 220
-3.465478e+000 -3.725820e+000 -9.685181e+000 201 203 200
2.082570e+000 3.704858e+000 -8.808437e+000 130 116 78
4.228059e+000 3.454535e+000 -1.017341e+001 77 62 26
1.048049e+000 2.219261e+000 -6.856906e+000 69 53 19
1.051482e+000 2.225782e+000 -6.906813e+000 69 53 19
2.931095e+000 2.855593e+000 -9.194096e+000 118 103 64
3.904402e+000 2.937981e+000 -9.854184e+000 121 108 66
4.052695e+000 3.011372e+000 -9.856417e+000 77 62 29
4.790381e+000 3.034486e+000 -1.050821e+001 110 97 62
4.790381e+000 3.034486e+000 -1.050821e+001 110 97 62
-1.443780e+000 2.421975e+000 -7.949693e+000 202 223 207
4.801224e+000 2.871666e+000 -1.032467e+001 79 66 34
4.783478e+000 2.133380e+000 -1.023680e+001 64 47 21
1.706455e+000 2.978869e-001 -6.075770e+000 128 109 71
-2.014386e+000 6.943133e-001 -8.701789e+000 89 58 74
5.113502e+000 -1.803519e-001 -9.119134e+000 76 58 34
5.460895e+000 -9.110474e-001 -9.028398e+000 69 52 27
-1.684229e+000 -2.305684e+000 -7.225887e+000 200 220 216
-8.865169e-001 -3.388751e+000 -5.764503e+000 62 46 72
2.828181e+000 3.096648e+000 -9.124704e+000 119 105 68
-3.090350e+000 3.421490e+000 -1.123606e+001 213 225 215
2.048460e+000 -1.405085e-001 -6.186616e+000 62 45 13
-4.100115e+000 9.567765e-001 -1.198788e+001 86 73 90
1.856088e+000 -4.426314e-001 -5.902603e+000 125 111 70
1.950462e+000 -1.407958e+000 -5.541769e+000 122 106 63
-4.056380e+000 -6.073698e-001 -1.154150e+001 201 230 214
4.303769e+000 -1.572536e+000 -7.595071e+000 63 48 16
4.205400e+000 -1.670354e+000 -7.477541e+000 124 106 62
-6.069893e-001 -2.035778e+000 -5.511671e+000 211 228 212
-6.069893e-001 -2.035778e+000 -5.511671e+000 211 228 212
-3.389733e+001 5.048578e+000 -8.045050e+001 138 102 80
-2.464496e+001 3.294355e+000 -7.745086e+001 51 42 71
-2.376265e+001 2.937698e+000 -7.683463e+001 120 115 130
-2.266125e+001 3.636164e+000 -7.739355e+001 167 77 74
5.899179e+000 -3.168124e+000 -8.373225e+000 43 30 11
-1.101666e+000 -3.370840e+000 -6.129722e+000 76 63 91
-3.060833e+001 -4.746072e+000 -7.597866e+001 86 40 56
-4.398045e+000 4.302995e+000 -1.322544e+001 186 161 100
-1.139276e+000 1.404547e+000 -7.112705e+000 78 67 75
2.566649e+000 -3.849757e-001 -6.570892e+000 133 116 70
-3.083766e+001 1.446871e+001 -7.991405e+001 127 113 130
-2.874354e+001 1.427676e+001 -7.897487e+001 163 171 156
4.553808e+000 -4.202950e-001 -8.434363e+000 124 106 63
-3.375927e+001 3.942080e+000 -8.301374e+001 108 52 62
-2.306841e+001 2.099871e+000 -7.570173e+001 172 114 115
-5.995336e-001 -2.978320e+000 -5.314541e+000 84 66 88
-2.973486e+001 -3.312409e+000 -7.289503e+001 90 56 81
-3.109730e+000 -3.971599e+000 -8.828367e+000 60 51 64
-4.299037e+000 4.588895e+000 -1.312563e+001 186 167 110
4.106858e+000 -7.681869e-001 -7.950966e+000 122 105 59
-2.460480e+000 -6.227286e-001 -9.039855e+000 200 227 210
-3.357581e+001 1.064981e+001 -8.276388e+001 169 130 123
-3.619627e+001 2.269021e+000 -8.290389e+001 178 148 124
-3.619627e+001 2.269021e+000 -8.290389e+001 178 148 124
-1.954877e+001 1.687972e+000 -7.632556e+001 196 81 89
-1.954877e+001 1.687972e+000 -7.632556e+001 196 81 89
-4.660783e+001 -1.854246e+000 -8.923334e+001 177 132 106
-3.261093e+001 -3.220715e+000 -7.851330e+001 166 133 128
-3.261093e+001 -3.220715e+000 -7.851330e+001 166 133 128
-3.858061e+001 7.264806e+000 -8.569832e+001 161 122 88
-2.678791e+001 3.688138e+000 -7.519501e+001 176 38 57
-1.788382e+000 -2.963666e+000 -7.109764e+000 100 69 100
-7.751969e-001 -3.484551e+000 -5.628936e+000 73 57 93
-2.946585e+001 -3.707348e+000 -7.445216e+001 181 135 124
2.948791e+000 -2.212030e+000 -5.969353e+000 127 111 67
-3.656404e+001 -6.580285e+000 -7.174592e+001 75 67 65
-2.443933e+000 -9.756535e-001 -9.138741e+000 75 62 72
-2.769669e+000 -3.506945e+000 -8.351509e+000 108 66 78
-3.534101e+000 -4.042395e+000 -9.466503e+000 69 56 57
-2.353727e+001 -3.583322e-001 -7.344123e+001 35 20 47
1.991778e+000 4.819785e+000 -9.338577e+000 122 108 71
3.040343e+000 5.166576e+000 -1.035731e+001 128 112 76
-3.900513e+000 5.477557e+000 -1.289649e+001 165 126 88
-3.574499e+000 5.255517e+000 -1.234149e+001 175 123 93
1.057426e+000 4.182159e+000 -8.260225e+000 120 106 69
-4.081065e+000 5.480838e+000 -1.340285e+001 111 73 57
-4.058631e+000 5.166854e+000 -1.299103e+001 110 75 55
-2.631563e+000 4.451393e+000 -1.059854e+001 185 167 141
2.675613e+000 4.312556e+000 -9.645522e+000 130 116 78
-3.693547e+000 4.804924e+000 -1.255576e+001 125 78 56
-2.345532e+000 4.115170e+000 -1.011518e+001 87 69 69
-2.222476e+000 4.082407e+000 -9.793852e+000 73 55 51
1.970163e+000 3.702646e+000 -8.749085e+000 132 118 82
2.780144e+000 3.719389e+000 -9.383029e+000 127 114 70
1.535747e+000 3.168872e+000 -8.125483e+000 128 113 73
2.240528e+000 3.299848e+000 -8.884239e+000 126 112 73
4.345192e+000 3.914976e+000 -1.062229e+001 76 61 30
-3.965329e+000 3.914973e+000 -1.249575e+001 179 161 110
-3.877552e+000 3.973973e+000 -1.247440e+001 187 160 116
-3.684089e+000 3.804503e+000 -1.216024e+001 149 123 88
-4.457871e+000 3.495168e+000 -1.315657e+001 138 106 73
-3.132584e+000 3.318278e+000 -1.127672e+001 87 72 72
-1.221594e+000 2.380833e+000 -7.622502e+000 218 224 218
2.834702e+000 2.228365e+000 -8.748323e+000 134 119 79
3.949359e+000 2.413034e+000 -9.809880e+000 113 100 66
3.949359e+000 2.413034e+000 -9.809880e+000 113 100 66
-4.058180e+000 2.697730e+000 -1.250100e+001 97 90 87
-4.058180e+000 2.697730e+000 -1.250100e+001 97 90 87
-2.330917e+000 2.177015e+000 -9.662047e+000 205 222 207
2.619734e+000 2.136983e+000 -8.444906e+000 129 114 75
3.889341e+000 1.992289e+000 -9.479951e+000 120 108 71
3.863211e+000 1.868589e+000 -9.406465e+000 119 107 69
2.841900e+000 1.379031e+000 -7.934900e+000 125 111 75
3.035607e+000 1.264299e+000 -7.991797e+000 114 105 72
2.160271e+000 8.892760e-001 -6.866567e+000 84 81 48
3.832025e+000 1.100836e+000 -8.628188e+000 120 109 80
7.318954e+000 9.962514e-001 -8.373187e+000 184 145 66
9.590809e-001 5.425879e-001 -5.761590e+000 66 49 28
-4.250330e+000 7.440004e-001 -1.221044e+001 213 215 212
-4.108487e+000 8.393089e-001 -1.204850e+001 208 213 212
-2.686196e+000 6.637104e-001 -9.879597e+000 92 67 76
2.040141e+000 4.182875e-001 -6.440878e+000 127 114 72
1.892715e+000 1.357819e-001 -6.159407e+000 115 100 67
-3.312428e+000 2.604426e-001 -1.068364e+001 211 221 218
-3.444293e+000 1.806956e-001 -1.089738e+001 203 229 215
-4.132237e+000 -2.746754e-001 -1.161165e+001 195 197 204
4.228600e+000 -5.611808e-001 -8.109008e+000 120 102 66
3.321809e+000 -1.280241e+000 -6.832109e+000 128 113 74
5.492520e+000 -1.271434e+000 -8.708167e+000 117 97 72
7.200429e+000 -1.178743e+000 -7.796267e+000 169 139 66
2.865885e+000 -1.413114e+000 -6.369414e+000 129 116 72
-1.391935e+000 -1.676804e+000 -7.030300e+000 215 218 223
-1.393311e+000 -1.684449e+000 -7.103979e+000 215 218 223
7.363003e+000 -2.108033e+000 -7.570270e+000 164 140 68
-1.644155e+000 -2.234632e+000 -7.247200e+000 86 56 76
-1.634404e+000 -2.351203e+000 -7.261863e+000 74 59 73
3.662969e+000 -2.384752e+000 -6.424926e+000 61 44 12
3.714808e+000 -2.370180e+000 -6.436680e+000 126 107 73
-2.479003e+000 -2.668687e+000 -8.461469e+000 71 58 59
3.189593e+000 -2.503557e+000 -5.909333e+000 58 44 10
4.694541e+000 -2.666389e+000 -7.128900e+000 118 105 63
-3.719125e+000 -3.415551e+000 -1.007629e+001 201 204 205
-2.656728e+000 -3.035110e+000 -8.562519e+000 85 60 64
-2.656728e+000 -3.035110e+000 -8.562519e+000 85 60 64
-9.011066e-001 -2.858901e+000 -5.767594e+000 206 201 220
-2.401627e+000 -3.306215e+000 -8.066736e+000 89 58 82
-4.369202e+001 -1.455149e+001 -7.522566e+001 145 143 129
-3.077988e+000 -3.886790e+000 -8.950318e+000 213 208 215
-1.223066e+000 -3.301484e+000 -6.203581e+000 71 61 83
-3.699986e+000 -4.570146e+000 -9.805444e+000 177 165 170
1.898046e+000 4.885186e+000 -9.420237e+000 134 120 81
1.132444e+000 4.426009e+000 -8.607746e+000 122 110 69
1.238174e+000 4.485719e+000 -8.727257e+000 73 59 24
1.226141e+000 4.380058e+000 -8.665763e+000 126 114 73
1.226141e+000 4.380058e+000 -8.665763e+000 126 114 73
9.783991e-001 4.238751e+000 -8.270193e+000 130 115 76
1.544742e+000 4.243922e+000 -8.727420e+000 125 111 73
1.990949e+000 4.430437e+000 -9.292039e+000 130 118 79
2.127199e+000 4.362344e+000 -9.206834e+000 134 120 82
4.210515e+000 5.274943e+000 -1.144303e+001 102 92 61
4.557785e+000 5.169804e+000 -1.179131e+001 107 91 65
-2.166551e+000 4.164100e+000 -9.697299e+000 82 67 63
1.241780e+000 3.787645e+000 -8.191625e+000 78 64 29
1.366356e+000 3.884335e+000 -8.496084e+000 128 114 77
1.978337e+000 4.208424e+000 -9.177887e+000 124 110 73
2.189358e+000 4.298163e+000 -9.199561e+000 89 75 40
2.189358e+000 4.298163e+000 -9.199561e+000 89 75 40
2.277541e+000 4.155234e+000 -9.324636e+000 131 119 79
2.455309e+000 4.195344e+000 -9.331593e+000 91 75 41
3.357112e+000 4.450976e+000 -1.012744e+001 123 109 71
3.416138e+000 4.209239e+000 -1.004795e+001 128 116 74
3.416138e+000 4.209239e+000 -1.004795e+001 128 116 74
4.272402e+000 4.683474e+000 -1.128518e+001 90 72 42
4.272402e+000 4.683474e+000 -1.128518e+001 90 72 42
4.530965e+000 4.833018e+000 -1.161337e+001 66 53 21
-4.091626e+000 4.732300e+000 -1.307930e+001 166 116 90
-2.248123e+000 3.881985e+000 -9.888781e+000 88 69 70
1.336748e+000 3.771622e+000 -8.340895e+000 71 56 25
1.336748e+000 3.771622e+000 -8.340895e+000 71 56 25
1.647737e+000 3.745879e+000 -8.546644e+000 127 114 72
2.239945e+000 3.790700e+000 -8.979509e+000 60 45 11
2.212708e+000 3.676437e+000 -8.878128e+000 124 110 74
3.027080e+000 4.009009e+000 -9.595916e+000 125 112 70
2.735332e+000 3.842384e+000 -9.335393e+000 126 109 66
-3.689225e+000 4.354557e+000 -1.237405e+001 119 68 48
-2.551670e+000 3.805044e+000 -1.038958e+001 72 70 66
3.711065e+000 3.667611e+000 -9.963779e+000 127 112 75
3.513806e+000 3.490613e+000 -9.767462e+000 129 111 71
3.513806e+000 3.490613e+000 -9.767462e+000 129 111 71
4.321769e+000 3.812719e+000 -1.051583e+001 120 105 71
1.745711e+000 3.100651e+000 -8.294066e+000 121 107 69
2.346348e+000 3.069580e+000 -8.897243e+000 75 61 26
4.464095e+000 3.319328e+000 -1.035522e+001 126 112 75
4.842012e+000 3.341816e+000 -1.058988e+001 79 64 35
1.166123e+000 2.104202e+000 -6.947608e+000 126 111 69
2.332347e+000 2.333230e+000 -8.314925e+000 124 111 68
3.820579e+000 2.571484e+000 -9.786680e+000 124 107 69
3.820579e+000 2.571484e+000 -9.786680e+000 124 107 69
4.690022e+000 2.531033e+000 -1.021580e+001 101 88 54
1.698527e+000 1.943140e+000 -7.364575e+000 127 111 72
2.390304e+000 1.993297e+000 -8.058695e+000 122 110 71
2.919955e+000 1.978834e+000 -8.563600e+000 72 58 21
2.919955e+000 1.978834e+000 -8.563600e+000 72 58 21
2.823952e+000 1.899833e+000 -8.392046e+000 124 110 71
3.409576e+000 2.100261e+000 -9.152577e+000 125 108 72
3.810810e+000 2.036393e+000 -9.532871e+000 130 111 78
5.252394e+000 2.144907e+000 -1.053397e+001 89 72 52
6.986406e+000 2.058848e+000 -8.964936e+000 188 156 71
1.295883e+000 1.427506e+000 -6.500496e+000 123 113 78
2.202558e+000 1.445685e+000 -7.361723e+000 125 113 71
2.474884e+000 1.781252e+000 -7.964989e+000 126 112 71
3.154891e+000 1.733796e+000 -8.559699e+000 89 75 38
3.154891e+000 1.733796e+000 -8.559699e+000 89 75 38
5.288839e+000 2.034833e+000 -1.051408e+001 90 75 54
5.288839e+000 2.034833e+000 -1.051408e+001 90 75 54
2.918815e+000 1.280250e+000 -7.911515e+000 122 112 78
4.039946e+000 1.373484e+000 -9.034404e+000 69 55 20
3.898235e+000 1.296900e+000 -8.725306e+000 119 105 66
-1.927524e+000 1.032409e+000 -8.616871e+000 210 229 210
-1.927524e+000 1.032409e+000 -8.616871e+000 210 229 210
3.116725e+000 1.069521e+000 -7.932057e+000 119 109 72
-3.315275e+000 9.147126e-001 -1.084599e+001 89 82 87
1.956363e+000 4.371539e-001 -6.405107e+000 125 107 67
-3.300627e+000 7.399140e-001 -1.086564e+001 94 80 91
2.164241e+000 3.879892e-001 -6.586298e+000 126 115 70
2.982610e+000 4.207472e-001 -7.399620e+000 125 110 67
7.353507e+000 3.138171e-001 -7.943081e+000 209 184 95
1.657840e+000 3.717148e-002 -5.915519e+000 125 108 72
1.657840e+000 3.717148e-002 -5.915519e+000 125 108 72
1.426835e+000 -1.192217e-001 -5.613910e+000 119 105 67
1.835730e+000 -9.341472e-003 -6.054392e+000 116 105 65
-1.958114e+001 -2.665230e+000 -7.264275e+001 158 117 105
-5.988131e-001 -1.123252e+000 -5.905007e+000 87 70 112
7.241768e+000 -1.160343e+000 -8.015706e+000 144 111 44
2.097480e+000 -1.471701e+000 -5.608223e+000 123 108 69
2.644309e+000 -1.403726e+000 -6.179876e+000 90 76 41
2.644309e+000 -1.403726e+000 -6.179876e+000 90 76 41
2.754430e+000 -1.399115e+000 -6.309947e+000 125 112 70
5.163114e+000 -1.438451e+000 -8.463118e+000 111 95 62
2.508041e+000 -1.936469e+000 -5.775821e+000 64 49 20
2.555899e+000 -1.963914e+000 -5.711726e+000 129 115 78
-2.133351e+000 -2.305728e+000 -8.027894e+000 209 225 214
-1.897244e+000 -2.285608e+000 -7.598885e+000 203 226 216
-1.897244e+000 -2.285608e+000 -7.598885e+000 203 226 216
6.113013e+000 -3.060061e+000 -8.650728e+000 73 56 36
-3.435173e+000 -3.256028e+000 -9.736719e+000 201 217 206
-3.435173e+000 -3.256028e+000 -9.736719e+000 201 217 206
-3.461460e+000 -3.361778e+000 -9.799880e+000 68 61 59
-4.603800e-001 -2.593536e+000 -5.177383e+000 68 55 85
-5.123472e-001 -2.684882e+000 -5.109858e+000 74 62 87
-5.798192e-001 -2.797130e+000 -5.248319e+000 70 51 79
-5.798192e-001 -2.797130e+000 -5.248319e+000 70 51 79
-4.488409e-001 -2.694659e+000 -5.028312e+000 71 58 86
-4.488409e-001 -2.694659e+000 -5.028312e+000 71 58 86
-2.599264e+000 -3.371915e+000 -8.370495e+000 208 219 211
-2.431818e+000 -3.253782e+000 -8.077527e+000 197 223 216
-2.171490e+000 -3.382804e+000 -7.696718e+000 64 57 68
-2.101905e+000 -3.301445e+000 -7.470999e+000 65 54 70
-1.984291e+000 -3.158852e+000 -7.395815e+000 210 217 214
-1.986383e+000 -3.174645e+000 -7.479573e+000 210 217 214
-7.089965e-001 -3.005012e+000 -5.376926e+000 62 52 76
-5.912065e-001 -3.031283e+000 -5.304214e+000 68 52 79
-1.165326e+000 -3.383949e+000 -6.179882e+000 63 49 77
-9.936067e-001 -3.363026e+000 -5.841245e+000 68 53 76
-6.931988e-001 -3.270022e+000 -5.379883e+000 66 52 78
2.822064e+000 5.078938e+000 -1.007423e+001 92 81 44
1.776859e+000 4.576659e+000 -9.228701e+000 105 91 56
1.776859e+000 4.576659e+000 -9.228701e+000 105 91 56
2.385571e+000 4.687979e+000 -9.614827e+000 78 65 31
2.499530e+000 4.642281e+000 -9.565027e+000 88 74 39
2.825096e+000 4.516420e+000 -9.708250e+000 124 113 71
7.484979e-001 3.944488e+000 -7.735021e+000 85 69 35
8.789135e-001 3.907054e+000 -7.849864e+000 92 76 42
1.276402e+000 3.966194e+000 -8.303698e+000 92 78 43
1.671114e+000 4.209721e+000 -8.802939e+000 128 115 71
1.771728e+000 4.083683e+000 -8.851376e+000 77 63 34
1.771728e+000 4.083683e+000 -8.851376e+000 77 63 34
1.766527e+000 3.970460e+000 -8.777695e+000 123 112 68
2.035737e+000 4.131358e+000 -9.030241e+000 128 114 77
2.395571e+000 4.097907e+000 -9.236338e+000 119 105 66
2.422387e+000 4.126666e+000 -9.369302e+000 119 105 66
2.575901e+000 4.095703e+000 -9.500181e+000 128 116 74
3.022160e+000 4.168286e+000 -9.787165e+000 71 58 19
3.419074e+000 4.267961e+000 -9.926558e+000 88 74 37
2.101215e+000 3.726916e+000 -8.919161e+000 130 116 78
2.430599e+000 3.660301e+000 -9.059475e+000 128 114 76
2.965857e+000 4.050049e+000 -9.699183e+000 127 114 72
3.339653e+000 3.985794e+000 -9.892846e+000 127 111 70
3.492414e+000 3.922650e+000 -9.835056e+000 125 110 71
3.675078e+000 4.009030e+000 -1.000256e+001 100 86 51
-2.112943e+000 3.677239e+000 -9.521874e+000 211 206 203
1.328451e+000 3.242135e+000 -7.905332e+000 123 106 61
1.328451e+000 3.242135e+000 -7.905332e+000 123 106 61
2.222656e+000 3.437993e+000 -8.778970e+000 127 113 75
2.221518e+000 3.223688e+000 -8.731320e+000 119 103 69
3.605515e+000 3.449339e+000 -9.722755e+000 128 113 74
3.917268e+000 3.649989e+000 -1.007652e+001 125 110 70
4.060480e+000 3.759999e+000 -1.031451e+001 90 76 41
1.571299e+000 3.037477e+000 -8.008747e+000 82 67 33
1.942673e+000 3.094839e+000 -8.439722e+000 128 114 77
2.223990e+000 2.974977e+000 -8.657350e+000 128 114 72
3.035246e+000 3.299854e+000 -9.264300e+000 123 109 65
3.650744e+000 3.348477e+000 -9.824908e+000 79 63 29
3.857118e+000 3.452641e+000 -1.005905e+001 126 111 72
3.857118e+000 3.452641e+000 -1.005905e+001 126 111 72
3.585670e+000 3.233346e+000 -9.718805e+000 130 117 75
3.585670e+000 3.233346e+000 -9.718805e+000 130 117 75
3.734670e+000 3.187571e+000 -9.732207e+000 120 107 69
3.881008e+000 3.164914e+000 -9.825719e+000 123 109 69
4.693718e+000 3.397531e+000 -1.055605e+001 81 63 33
-4.171345e+000 3.483736e+000 -1.279663e+001 78 62 73
1.524677e+000 2.548653e+000 -7.613152e+000 124 111 67
1.731017e+000 2.595636e+000 -7.933847e+000 61 46 15
1.731017e+000 2.595636e+000 -7.933847e+000 61 46 15
1.840383e+000 2.566665e+000 -7.965835e+000 98 83 49
2.037774e+000 2.501651e+000 -8.142997e+000 82 66 36
2.037774e+000 2.501651e+000 -8.142997e+000 82 66 36
2.385698e+000 2.824495e+000 -8.717287e+000 77 61 27
4.965497e+000 3.124291e+000 -1.065018e+001 73 59 31
6.984280e+000 2.707786e+000 -9.128972e+000 197 160 79
-2.062844e+000 2.409753e+000 -9.181587e+000 211 223 211
1.164461e+000 2.193149e+000 -7.004113e+000 95 80 45
1.600441e+000 2.073168e+000 -7.374221e+000 80 66 31
3.000465e+000 2.304621e+000 -8.990556e+000 74 58 22
3.406054e+000 2.404492e+000 -9.337005e+000 55 42 8
3.406054e+000 2.404492e+000 -9.337005e+000 55 42 8
-4.000914e+000 2.789954e+000 -1.239437e+001 207 227 218
1.835935e+000 1.919652e+000 -7.474953e+000 118 101 59
1.909392e+000 1.996837e+000 -7.609453e+000 75 59 25
2.206004e+000 2.032961e+000 -7.900598e+000 125 110 67
2.048185e+000 1.961022e+000 -7.710439e+000 89 76 37
3.549713e+000 2.154780e+000 -9.337679e+000 76 63 31
4.023025e+000 2.298625e+000 -9.837724e+000 62 47 21
3.988785e+000 2.195655e+000 -9.774690e+000 122 105 74
3.988785e+000 2.195655e+000 -9.774690e+000 122 105 74
2.172164e+000 1.745794e+000 -7.646886e+000 79 62 29
2.084042e+000 1.462233e+000 -7.302670e+000 130 117 80
2.226216e+000 1.545238e+000 -7.516686e+000 86 73 38
2.226216e+000 1.545238e+000 -7.516686e+000 86 73 38
2.536630e+000 1.681063e+000 -7.939550e+000 81 67 32
2.536630e+000 1.681063e+000 -7.939550e+000 81 67 32
2.817439e+000 1.724142e+000 -8.208235e+000 128 114 76
2.799713e+000 1.619123e+000 -8.084501e+000 82 67 32
2.799713e+000 1.619123e+000 -8.084501e+000 82 67 32
2.941328e+000 1.496794e+000 -8.051095e+000 124 110 73
1.851437e+000 1.127351e+000 -6.801271e+000 122 113 71
2.050346e+000 1.195312e+000 -6.990526e+000 55 57 28
2.647418e+000 1.361416e+000 -7.694157e+000 125 116 77
3.133047e+000 1.161014e+000 -8.014165e+000 70 73 55
-2.455457e+000 1.056667e+000 -9.481232e+000 99 72 74
2.540432e+000 9.963915e-001 -7.325431e+000 115 107 70
2.540432e+000 9.963915e-001 -7.325431e+000 115 107 70
2.671166e+000 1.052113e+000 -7.464598e+000 88 86 62
2.671166e+000 1.052113e+000 -7.464598e+000 88 86 62
3.313102e+000 9.129923e-001 -7.991379e+000 73 70 49
3.727652e+000 1.025409e+000 -8.443952e+000 65 60 42
4.064786e+000 1.156823e+000 -8.884890e+000 66 50 22
5.286761e+000 1.226781e+000 -1.010850e+001 103 83 64
5.141956e+000 1.153845e+000 -9.980884e+000 56 40 15
-2.014386e+000 6.943133e-001 -8.701789e+000 89 58 74
2.415585e+000 5.771430e-001 -6.938864e+000 132 118 79
2.923504e+000 6.841706e-001 -7.452522e+000 126 112 68
3.801935e+000 7.083204e-001 -8.306091e+000 120 106 64
4.002529e+000 8.694456e-001 -8.578608e+000 121 112 73
4.384943e+000 7.904115e-001 -8.986397e+000 125 114 69
4.499748e+000 7.473925e-001 -9.019575e+000 115 100 61
5.447807e+000 7.652411e-001 -9.766806e+000 52 33 19
-2.521054e+000 4.507395e-001 -9.592975e+000 209 230 216
2.589857e+000 3.024768e-001 -6.893454e+000 127 112 70
2.589857e+000 3.024768e-001 -6.893454e+000 127 112 70
3.771234e+000 2.511843e-001 -8.054199e+000 122 105 62
4.649961e+000 4.851157e-001 -9.012158e+000 109 99 63
7.483377e+000 2.487304e-001 -7.803011e+000 180 144 60
-2.349538e+001 3.439972e+000 -7.648592e+001 79 72 86
2.054288e+000 7.931679e-002 -6.356193e+000 130 115 72
3.047681e+000 -3.948002e-002 -7.225250e+000 127 113 68
-1.564713e+000 -1.246971e-001 -7.675153e+000 206 229 216
-1.563267e+000 -1.241255e-001 -7.616735e+000 206 229 216
2.702404e+000 -4.198348e-001 -6.649160e+000 122 107 62
3.605421e+000 -6.435431e-001 -7.431720e+000 127 107 72
3.970354e+000 -4.782931e-001 -7.899425e+000 118 104 62
5.213827e+000 -5.305411e-001 -9.008072e+000 104 88 55
1.692428e+000 -8.346532e-001 -5.458634e+000 102 89 57
2.257983e+000 -7.811992e-001 -6.080919e+000 124 108 65
4.552706e+000 -1.280783e+000 -7.978137e+000 120 104 66
4.552706e+000 -1.280783e+000 -7.978137e+000 120 104 66
4.728083e+000 -1.100197e+000 -8.236691e+000 115 99 63
4.723351e+000 -1.100164e+000 -8.233353e+000 115 99 63
2.192962e+000 -1.472625e+000 -5.730779e+000 117 104 61
2.595371e+000 -1.329332e+000 -6.224746e+000 127 112 68
3.628408e+000 -1.543113e+000 -6.961772e+000 129 111 68
4.713467e+000 -1.539961e+000 -7.961649e+000 120 102 66
2.532164e+000 -1.676459e+000 -5.923004e+000 124 109 66
-1.762325e+000 -2.075910e+000 -7.536265e+000 200 228 209
3.760920e+000 -2.028595e+000 -6.876204e+000 124 111 67
4.302448e+000 -2.225082e+000 -7.167649e+000 54 41 7
4.302448e+000 -2.225082e+000 -7.167649e+000 54 41 7
5.877052e+000 -2.836007e+000 -8.398237e+000 42 23 6
-7.295629e-001 -2.792605e+000 -5.560344e+000 67 57 83
-2.536664e+000 -3.289969e+000 -8.322566e+000 91 52 63
-1.904325e+000 -3.130554e+000 -7.104884e+000 88 64 90
-1.121168e+000 -3.206660e+000 -6.026507e+000 64 53 76
-8.314854e-001 -3.310675e+000 -5.597760e+000 162 162 174
2.121559e+000 4.517986e+000 -9.426628e+000 86 72 37
2.083365e+000 4.471981e+000 -9.232195e+000 86 72 37
-3.589643e+000 4.897153e+000 -1.228918e+001 166 119 91
2.054168e+000 4.249021e+000 -9.093838e+000 88 75 40
5.110856e+000 4.733588e+000 -1.210888e+001 57 39 19
2.578895e+000 3.863676e+000 -9.240289e+000 129 116 71
2.624685e+000 3.732742e+000 -9.228903e+000 76 62 25
2.610589e+000 3.723799e+000 -9.184182e+000 76 62 25
4.524909e+000 4.171134e+000 -1.089252e+001 97 84 49
1.164013e+000 3.170418e+000 -7.609914e+000 82 68 23
2.176188e+000 3.594637e+000 -8.952907e+000 80 67 33
2.433250e+000 3.553720e+000 -9.061607e+000 89 74 41
2.433250e+000 3.553720e+000 -9.061607e+000 89 74 41
2.320270e+000 3.315712e+000 -8.843930e+000 75 60 27
3.027858e+000 3.672744e+000 -9.513251e+000 84 70 33
2.781614e+000 3.498822e+000 -9.302678e+000 63 51 15
3.079020e+000 3.418464e+000 -9.357256e+000 76 64 22
4.068422e+000 3.564734e+000 -1.013082e+001 125 108 65
-3.846662e+000 4.062023e+000 -1.247672e+001 129 74 56
1.901129e+000 2.947558e+000 -8.311188e+000 61 47 12
2.828181e+000 3.096648e+000 -9.124704e+000 119 105 68
3.204288e+000 3.055972e+000 -9.402704e+000 122 109 67
3.428987e+000 3.132927e+000 -9.594563e+000 76 64 26
3.858668e+000 3.303211e+000 -9.885758e+000 99 84 50
3.842765e+000 3.292548e+000 -9.822077e+000 99 84 50
3.575281e+000 3.099438e+000 -9.598783e+000 113 99 61
4.098318e+000 3.149395e+000 -9.959161e+000 126 113 69
1.213000e+000 2.301272e+000 -7.103441e+000 123 109 62
2.601479e+000 2.904463e+000 -8.929135e+000 131 117 75
3.192253e+000 2.919387e+000 -9.316955e+000 81 66 33
3.542028e+000 3.005614e+000 -9.692776e+000 125 112 70
3.692689e+000 2.966390e+000 -9.644525e+000 124 111 67
3.903066e+000 2.801268e+000 -9.742024e+000 82 68 33
3.903066e+000 2.801268e+000 -9.742024e+000 82 68 33
4.462706e+000 3.044809e+000 -1.020828e+001 111 98 56
4.629485e+000 2.911361e+000 -1.024776e+001 73 59 24
6.485964e+000 2.917875e+000 -1.017715e+001 129 92 45
6.649526e+000 2.891174e+000 -9.657214e+000 174 145 69
-1.148485e+000 2.110440e+000 -7.417630e+000 211 224 208
1.162193e+000 1.991195e+000 -6.833315e+000 82 66 32
3.785880e+000 2.674932e+000 -9.646019e+000 128 111 69
3.600469e+000 2.380109e+000 -9.517883e+000 65 50 19
3.600469e+000 2.380109e+000 -9.517883e+000 65 50 19
4.295104e+000 2.472471e+000 -9.992555e+000 73 56 30
4.889889e+000 2.496622e+000 -1.032693e+001 105 93 55
1.461184e+000 1.895821e+000 -7.069315e+000 77 62 28
-3.737528e+000 2.290625e+000 -1.182613e+001 202 234 213
-2.643595e+000 2.030119e+000 -1.017124e+001 94 77 87
1.566039e+000 1.580891e+000 -6.888534e+000 123 107 72
-5.454794e+001 1.167725e+001 -9.899999e+001 160 54 72
1.394845e+000 1.221562e+000 -6.467754e+000 130 117 73
3.413061e+000 1.292430e+000 -8.363521e+000 75 59 30
6.917324e+000 1.442809e+000 -9.051834e+000 184 152 77
-3.203401e+001 8.819992e+000 -8.007815e+001 126 91 123
-3.445706e+000 1.413832e+000 -1.128127e+001 79 67 84
2.450648e+000 1.095765e+000 -7.362566e+000 73 74 45
3.818157e+000 9.132142e-001 -8.452833e+000 123 111 70
-2.016844e+000 6.825811e-001 -8.661820e+000 100 68 86
1.389036e+000 4.635118e-001 -6.037261e+000 66 52 21
1.367781e+000 4.606750e-001 -5.930769e+000 66 52 21
2.034497e+000 6.533109e-001 -6.568987e+000 125 113 65
2.271108e+000 7.061069e-001 -6.856032e+000 102 90 51
2.274293e+000 7.066264e-001 -6.868753e+000 102 90 51
2.431785e+000 4.607376e-001 -6.863907e+000 84 69 36
2.683094e+000 7.275951e-001 -7.270808e+000 128 113 70
2.661533e+000 5.283245e-001 -7.124498e+000 117 104 61
3.515036e+000 6.506927e-001 -8.000180e+000 82 78 54
3.515036e+000 6.506927e-001 -8.000180e+000 82 78 54
1.872912e+000 3.648538e-001 -6.305188e+000 78 63 30
2.094623e+000 3.132634e-001 -6.475607e+000 85 72 40
2.307049e+000 3.682850e-001 -6.687816e+000 122 111 66
2.244913e+000 1.674317e-001 -6.527157e+000 126 110 67
2.634390e+000 4.083796e-001 -6.991399e+000 99 87 50
2.655017e+000 4.101747e-001 -7.072428e+000 99 87 50
2.521883e+000 2.080222e-001 -6.818703e+000 68 53 20
3.257915e+000 4.866130e-001 -7.688012e+000 80 66 29
4.091867e+000 2.961622e-001 -8.460645e+000 76 59 30
4.091867e+000 2.961622e-001 -8.460645e+000 76 59 30
4.174705e+000 4.900771e-001 -8.561273e+000 61 59 45
4.168108e+000 4.894939e-001 -8.535538e+000 61 59 45
4.416182e+000 4.376421e-001 -8.734249e+000 60 62 43
4.207391e+000 3.681290e-001 -8.533677e+000 123 106 63
5.103983e+000 2.689107e-001 -9.294897e+000 77 69 50
-2.856990e+000 2.089252e-001 -1.014732e+001 206 232 217
-2.436154e+000 3.319109e-001 -9.278429e+000 96 74 83
-2.436154e+000 3.319109e-001 -9.278429e+000 96 74 83
2.055478e+000 -1.558067e-002 -6.208757e+000 128 110 69
2.055478e+000 -1.558067e-002 -6.208757e+000 128 110 69
2.166873e+000 6.648150e-002 -6.394835e+000 52 41 9
2.161416e+000 6.637445e-002 -6.384436e+000 52 41 9
2.050808e+000 -1.406688e-001 -6.198821e+000 62 45 13
2.734144e+000 -7.665820e-002 -6.892653e+000 80 64 28
3.691703e+000 1.501100e-001 -7.934267e+000 69 53 19
4.409794e+000 2.077465e-001 -8.685549e+000 67 50 20
4.217109e+000 2.235491e-002 -8.356294e+000 70 54 21
4.230139e+000 2.244178e-002 -8.389712e+000 70 54 21
4.614223e+000 1.565250e-001 -8.811586e+000 70 54 22
4.614223e+000 1.565250e-001 -8.811586e+000 70 54 22
5.119718e+000 5.513534e-002 -9.304102e+000 76 56 29
2.374081e+000 -3.334155e-001 -6.413249e+000 124 109 66
2.954010e+000 -3.621794e-001 -6.983708e+000 60 46 20
3.556372e+000 -2.826184e-001 -7.593573e+000 69 54 20
3.550084e+000 -2.820805e-001 -7.567783e+000 69 54 20
3.682386e+000 -4.237691e-001 -7.653655e+000 125 111 64
3.682386e+000 -4.237691e-001 -7.653655e+000 125 111 64
4.175771e+000 -2.930009e-001 -8.135104e+000 110 95 52
4.598000e+000 -2.883280e-001 -8.548584e+000 62 43 16
7.157896e+000 -2.788974e-001 -8.157669e+000 183 154 76
1.809926e+000 -6.755635e-001 -5.730478e+000 129 114 73
1.978305e+000 -4.688937e-001 -5.931395e+000 126 112 70
3.202965e+000 -6.518091e-001 -7.036157e+000 80 63 33
3.398619e+000 -5.944998e-001 -7.316121e+000 125 111 66
4.699745e+000 -5.343574e-001 -8.538306e+000 66 51 24
4.442699e+000 -7.018545e-001 -8.203653e+000 74 57 27
5.440436e+000 -5.597615e-001 -9.200178e+000 109 92 63
2.190117e+000 -9.929149e-001 -5.962211e+000 123 111 63
2.552019e+000 -9.729774e-001 -6.242274e+000 73 54 22
3.360881e+000 -8.028628e-001 -7.160112e+000 130 110 69
3.311802e+000 -1.025669e+000 -7.003401e+000 119 104 62
4.050961e+000 -9.392570e-001 -7.769401e+000 113 102 56
4.407432e+000 -1.042573e+000 -7.956289e+000 116 102 62
4.602226e+000 -1.061314e+000 -8.168788e+000 114 99 56
2.957947e+000 -1.241291e+000 -6.603675e+000 123 106 60
3.468157e+000 -1.288022e+000 -6.988627e+000 122 105 62
3.839096e+000 -1.250798e+000 -7.362940e+000 76 60 24
3.835073e+000 -1.250198e+000 -7.354292e+000 76 60 24
4.906422e+000 -1.130608e+000 -8.319755e+000 111 96 56
5.228042e+000 -1.200646e+000 -8.613303e+000 112 97 65
-1.582106e+000 -1.540764e+000 -7.357577e+000 104 65 95
3.662049e+000 -1.434319e+000 -7.050641e+000 86 69 34
3.865219e+000 -1.377717e+000 -7.320850e+000 128 115 71
4.548678e+000 -1.389675e+000 -7.902647e+000 55 37 7
4.758638e+000 -1.442043e+000 -8.064720e+000 67 52 23
4.758638e+000 -1.442043e+000 -8.064720e+000 67 52 23
4.697058e+000 -1.647335e+000 -7.901779e+000 74 61 28
4.995913e+000 -1.484690e+000 -8.270766e+000 78 61 31
5.327725e+000 -1.438700e+000 -8.550533e+000 101 84 55
2.672645e+000 -1.699445e+000 -6.090073e+000 75 56 21
2.667942e+000 -1.803305e+000 -6.011864e+000 126 112 67
3.092899e+000 -1.661561e+000 -6.471219e+000 118 100 60
4.157694e+000 -1.865479e+000 -7.276608e+000 127 113 68
4.524623e+000 -1.708527e+000 -7.693951e+000 120 105 66
4.947426e+000 -1.936837e+000 -8.000800e+000 77 60 29
4.947426e+000 -1.936837e+000 -8.000800e+000 77 60 29
5.487692e+000 -1.811268e+000 -8.497590e+000 69 51 28
5.400943e+000 -1.906104e+000 -8.410303e+000 98 82 49
5.400943e+000 -1.906104e+000 -8.410303e+000 98 82 49
3.027189e+000 -1.878118e+000 -6.267255e+000 128 114 66
3.168728e+000 -1.899810e+000 -6.407349e+000 126 111 67
4.219989e+000 -2.115088e+000 -7.215194e+000 124 106 59
4.388372e+000 -2.138025e+000 -7.292978e+000 128 113 69
5.100943e+000 -2.046309e+000 -7.958899e+000 115 99 63
5.047823e+000 -2.156413e+000 -7.886413e+000 64 55 25
5.454650e+000 -2.334581e+000 -8.075109e+000 106 89 63
2.931635e+000 -2.330247e+000 -5.796257e+000 128 111 67
3.549934e+000 -2.422384e+000 -6.258186e+000 130 112 72
3.549934e+000 -2.422384e+000 -6.258186e+000 130 112 72
3.072797e+000 -2.521742e+000 -5.666403e+000 129 112 69
3.710339e+000 -2.631236e+000 -6.193725e+000 121 108 63
4.273483e+000 -2.651375e+000 -6.639726e+000 58 45 12
5.127909e+000 -2.639818e+000 -7.613660e+000 64 46 22
5.090983e+000 -2.741840e+000 -7.473362e+000 107 91 55
4.967328e+000 -2.806256e+000 -7.349040e+000 63 50 24
-4.508963e+001 -1.208568e+001 -8.077048e+001 89 70 57
-4.890921e+001 -1.373311e+001 -8.449023e+001 136 60 55
-2.053828e+000 -3.249481e+000 -7.503997e+000 70 57 77
-8.023204e-001 -3.062604e+000 -5.530244e+000 69 57 81
-7.494956e-001 -3.069718e+000 -5.498896e+000 67 55 80
-4.799709e-001 -2.837883e+000 -5.067456e+000 58 48 72
-8.867212e-001 -3.202563e+000 -5.820333e+000 66 60 83
-8.867212e-001 -3.202563e+000 -5.820333e+000 66 60 83
-4.363962e+001 -2.276211e+001 -7.535762e+001 110 107 95
-3.379405e+000 5.452920e+000 -1.228035e+001 197 169 106
3.385555e+000 3.686039e+000 -9.760520e+000 129 114 71
-1.531687e+000 3.026686e+000 -8.265610e+000 91 84 93
-1.251535e+000 2.678083e+000 -7.839645e+000 78 64 63
-1.251535e+000 2.678083e+000 -7.839645e+000 78 64 63
-1.231162e+000 2.502859e+000 -7.606321e+000 84 65 67
4.421459e+000 2.849852e+000 -1.008083e+001 114 99 58
5.177813e+000 2.876459e+000 -1.063662e+001 55 37 15
-2.028766e+000 2.545879e+000 -9.150922e+000 80 68 72
2.413890e+000 2.231492e+000 -8.218698e+000 119 104 65
-1.875969e+000 2.104647e+000 -8.865108e+000 89 72 85
4.869885e+000 2.388155e+000 -1.050578e+001 74 59 36
-3.552978e+000 2.245301e+000 -1.164302e+001 80 62 74
-3.552978e+000 2.245301e+000 -1.164302e+001 80 62 74
-1.853658e+000 1.921464e+000 -8.635651e+000 101 74 93
-1.854754e+000 1.925466e+000 -8.674321e+000 101 74 93
-2.176903e+001 7.831467e+000 -7.222360e+001 62 55 101
-3.282494e+000 1.525440e+000 -1.106150e+001 85 73 83
-2.866051e+000 1.311542e+000 -1.020963e+001 111 73 86
7.005352e+000 9.860476e-001 -8.853565e+000 178 146 70
7.227250e+000 1.137153e+000 -8.312685e+000 208 178 90
7.368920e+000 1.143317e+000 -8.272600e+000 193 145 80
7.368920e+000 1.143317e+000 -8.272600e+000 193 145 80
-3.965729e+000 1.033661e+000 -1.180765e+001 95 83 97
-2.849275e+000 1.086133e+000 -1.020622e+001 113 77 91
-2.849275e+000 1.086133e+000 -1.020622e+001 113 77 91
-3.110334e+000 8.571196e-001 -1.061534e+001 101 69 90
-2.804885e+000 8.131069e-001 -9.961459e+000 118 82 99
-2.804885e+000 8.131069e-001 -9.961459e+000 118 82 99
-2.599085e+000 3.158846e-001 -9.596628e+000 210 227 211
1.742488e+000 -8.074518e-002 -5.911578e+000 72 61 29
7.416218e+000 -9.249852e-003 -7.934993e+000 176 150 63
7.411681e+000 1.434832e-001 -7.832365e+000 199 174 81
1.884492e+000 -2.219811e-001 -5.999855e+000 126 109 66
1.966562e+000 -3.504462e-001 -6.022304e+000 72 56 22
1.966562e+000 -3.504462e-001 -6.022304e+000 72 56 22
