ply
format ascii 1.0
element face 0
property list uchar int vertex_indices
element vertex 892
property float x
property float y
property float z
property uchar diffuse_red
property uchar diffuse_green
property uchar diffuse_blue
end_header
1.976565e+000 2.812860e+000 -9.590380e+000 122 110 69
-1.071899e+000 2.764681e+000 -1.098322e+001 133 82 59
1.351328e+000 2.497457e+000 -8.831645e+000 121 105 69
1.554051e+000 2.451368e+000 -9.032251e+000 121 106 65
2.543407e+000 2.778965e+000 -1.002716e+001 113 96 60
2.593111e+000 2.782306e+000 -1.013533e+001 117 103 66
2.680542e+000 2.791412e+000 -1.017770e+001 79 64 33
-1.228705e+000 2.725091e+000 -1.117617e+001 184 156 116
-1.159546e+000 2.590386e+000 -1.102948e+001 189 177 117
2.086876e+000 2.434728e+000 -9.469800e+000 73 60 25
2.278978e+000 2.465365e+000 -9.602990e+000 127 112 69
-1.274603e+000 2.436667e+000 -1.118593e+001 176 146 82
1.389575e+000 2.146884e+000 -8.655576e+000 71 56 17
1.516771e+000 2.157323e+000 -8.822120e+000 119 105 60
1.608983e+000 2.273311e+000 -8.985224e+000 81 69 29
2.225959e+000 2.362259e+000 -9.482540e+000 120 107 63
2.663483e+000 2.396937e+000 -9.827956e+000 124 104 67
2.632263e+000 2.361431e+000 -9.802278e+000 91 74 37
2.449815e-001 1.918920e+000 -8.674031e+000 81 66 73
1.501414e+000 2.020556e+000 -8.705639e+000 69 54 14
2.278473e+000 2.146638e+000 -9.425354e+000 130 115 72
2.284984e+000 2.148908e+000 -9.450202e+000 130 115 72
2.655296e+000 2.303358e+000 -9.807836e+000 122 108 63
2.058178e+000 2.066002e+000 -9.226168e+000 120 105 62
1.831957e+000 1.889802e+000 -8.988838e+000 121 108 64
2.809461e+000 1.955163e+000 -9.741808e+000 118 98 62
2.814154e+000 1.841656e+000 -9.708248e+000 115 100 59
-1.078202e+000 1.630877e+000 -1.075518e+001 84 64 66
1.470707e+000 1.447614e+000 -8.246014e+000 127 108 68
2.493520e+000 1.470306e+000 -9.338359e+000 115 100 62
3.283502e+000 1.527332e+000 -1.005051e+001 94 78 54
4.225637e+000 1.598355e+000 -9.078588e+000 213 177 91
2.057736e+000 1.324645e+000 -8.748610e+000 122 107 67
2.195817e+000 1.292228e+000 -8.821555e+000 129 114 71
2.495645e+000 1.198873e+000 -9.067808e+000 77 61 27
2.566968e+000 1.183821e+000 -9.122508e+000 85 70 31
2.485524e+000 1.022199e+000 -8.899252e+000 69 73 46
4.084933e+000 1.136613e+000 -9.164027e+000 191 163 78
2.676080e+000 6.271746e-001 -8.856971e+000 118 103 64
4.143741e+000 5.528135e-001 -8.875815e+000 157 130 48
2.569152e+000 2.605586e-001 -8.567166e+000 78 59 27
2.091671e+000 1.226812e-001 -8.038530e+000 130 115 74
-1.621303e+000 -7.861544e-001 -1.121757e+001 109 70 89
9.477763e-002 -4.397240e-001 -8.485051e+000 198 220 206
2.832893e+000 -2.677050e-001 -8.538014e+000 91 72 40
-8.179660e-001 -1.265912e+000 -9.534893e+000 83 59 64
5.174462e-001 -8.517564e-001 -7.689714e+000 154 143 162
6.031234e-001 -7.818819e-001 -7.512162e+000 62 49 76
3.568544e-001 -9.578933e-001 -7.923105e+000 181 184 192
4.147241e-001 -9.481606e-001 -7.832865e+000 56 47 68
4.731490e-001 -9.564360e-001 -7.755068e+000 55 44 68
6.272586e-001 -8.731198e-001 -7.549124e+000 154 148 165
-9.323197e-001 3.118726e+000 -1.086890e+001 201 161 103
1.155825e+000 2.622375e+000 -8.698988e+000 67 50 19
2.045208e+000 2.863959e+000 -9.661113e+000 85 72 37
2.121018e+000 2.906815e+000 -9.712969e+000 125 110 67
1.829219e+000 2.735687e+000 -9.425109e+000 122 108 71
1.889735e+000 2.701409e+000 -9.420428e+000 126 112 73
2.405057e+000 2.920429e+000 -9.969468e+000 122 106 70
1.454493e+000 2.521321e+000 -8.976062e+000 87 73 38
1.913548e+000 2.516694e+000 -9.363222e+000 126 111 72
2.196626e+000 2.636261e+000 -9.655469e+000 91 75 42
1.353701e+000 2.246358e+000 -8.708681e+000 86 71 38
1.728805e+000 2.368266e+000 -9.153976e+000 105 89 55
1.721488e+000 2.362967e+000 -9.117185e+000 105 89 55
1.819953e+000 2.366488e+000 -9.229923e+000 79 66 32
1.906229e+000 2.455715e+000 -9.329459e+000 98 84 49
1.900269e+000 2.449729e+000 -9.291390e+000 98 84 49
1.923539e+000 2.300676e+000 -9.264616e+000 122 110 68
2.112748e+000 2.329448e+000 -9.397996e+000 86 72 35
1.665736e+000 2.127935e+000 -8.963190e+000 117 104 59
2.151867e+000 2.215017e+000 -9.358569e+000 78 63 24
2.107356e+000 2.114060e+000 -9.278681e+000 88 74 37
2.540526e+000 2.152963e+000 -9.615507e+000 90 76 39
9.345492e-002 1.878543e+000 -8.958907e+000 213 221 205
9.345492e-002 1.878543e+000 -8.958907e+000 213 221 205
1.242263e+000 1.821062e+000 -8.235623e+000 73 54 24
1.242263e+000 1.821062e+000 -8.235623e+000 73 54 24
1.915939e+000 2.037501e+000 -9.136990e+000 72 56 24
1.878684e+000 1.997169e+000 -9.106174e+000 125 110 71
2.891426e+000 2.103563e+000 -9.891206e+000 96 77 45
2.880555e+000 2.098651e+000 -9.845122e+000 96 77 45
1.437676e+000 1.757825e+000 -8.440699e+000 73 58 25
2.603094e-001 1.634028e+000 -8.591439e+000 208 226 212
-1.894246e-001 1.516149e+000 -9.373510e+000 204 225 210
2.212725e+000 1.574044e+000 -9.154151e+000 66 47 21
2.485601e+000 1.673863e+000 -9.464602e+000 112 97 60
2.485601e+000 1.673863e+000 -9.464602e+000 112 97 60
3.127065e+000 1.685524e+000 -9.982159e+000 113 94 62
1.587980e+000 1.320864e+000 -8.259861e+000 119 104 65
1.760454e+000 1.374861e+000 -8.516308e+000 125 110 71
1.760454e+000 1.374861e+000 -8.516308e+000 125 110 71
1.717236e+000 1.341441e+000 -8.424849e+000 76 60 26
1.719951e+000 1.340900e+000 -8.439298e+000 76 60 26
1.892169e+000 1.358422e+000 -8.596780e+000 128 111 65
2.779714e+000 1.514798e+000 -9.647960e+000 110 96 61
2.783559e+000 1.514869e+000 -9.657061e+000 110 96 61
2.776295e+000 1.460879e+000 -9.625629e+000 66 49 24
2.985668e+000 1.484486e+000 -9.811470e+000 112 93 63
2.349738e+000 1.353083e+000 -9.088040e+000 122 107 66
3.219279e+000 1.443074e+000 -9.991041e+000 66 54 32
1.593433e+000 1.139461e+000 -8.126220e+000 121 109 68
1.666385e+000 1.132020e+000 -8.194516e+000 121 109 72
1.886363e+000 1.086718e+000 -8.366107e+000 114 102 61
1.886363e+000 1.086718e+000 -8.366107e+000 114 102 61
2.077900e+000 1.143197e+000 -8.602339e+000 120 107 66
2.223798e+000 1.151885e+000 -8.765948e+000 82 67 38
2.355249e+000 1.180361e+000 -8.906718e+000 129 112 72
2.839735e+000 1.135910e+000 -9.349086e+000 76 59 31
1.633498e+000 1.043490e+000 -8.086287e+000 120 108 68
2.196249e+000 1.033145e+000 -8.620134e+000 133 118 75
2.519025e+000 1.095697e+000 -8.990280e+000 74 61 29
1.908406e+000 8.981632e-001 -8.230992e+000 126 113 68
2.892666e+000 9.822783e-001 -9.306314e+000 112 99 57
3.170058e+000 9.670592e-001 -9.588838e+000 70 62 39
-5.639314e-001 5.219649e-001 -9.794214e+000 207 225 210
2.548684e+000 7.540431e-001 -8.797701e+000 120 103 59
2.869690e+000 8.348361e-001 -9.176399e+000 74 68 42
2.869690e+000 8.348361e-001 -9.176399e+000 74 68 42
2.580750e+000 6.967483e-001 -8.782778e+000 77 58 26
2.848378e+000 5.849094e-001 -9.020087e+000 119 99 61
2.157035e-001 4.376938e-001 -8.483016e+000 84 67 82
2.157035e-001 4.376938e-001 -8.483016e+000 84 67 82
2.346101e+000 4.894119e-001 -8.463381e+000 122 101 56
2.399967e+000 4.825404e-001 -8.499516e+000 126 106 59
3.214190e+000 5.074820e-001 -9.344164e+000 103 87 51
4.212700e+000 4.841734e-001 -8.737474e+000 182 156 69
2.963390e+000 2.506501e-001 -8.965966e+000 112 97 54
3.044291e+000 -7.347348e-002 -8.859461e+000 117 97 63
3.350449e+000 1.451079e-002 -9.199077e+000 60 41 16
2.126391e+000 -7.849453e-002 -7.922708e+000 125 108 61
2.423167e+000 -3.569017e-001 -8.104843e+000 122 102 69
6.913925e-001 -3.925907e-001 -7.524833e+000 80 60 104
3.203744e+000 -5.048727e-001 -8.725681e+000 112 95 59
-3.051141e-001 -9.110769e-001 -8.917338e+000 95 65 73
2.686703e+000 -5.940626e-001 -8.105212e+000 126 103 69
-5.993702e-001 -1.194008e+000 -9.268531e+000 205 222 207
-2.853065e-002 -9.632086e-001 -8.421794e+000 83 69 84
1.087230e+000 -5.154585e-001 -6.869533e+000 66 58 95
1.551383e+000 -5.522766e-001 -7.121066e+000 117 103 66
-8.802402e-001 3.030842e+000 -1.075054e+001 125 71 47
1.992510e+000 2.545636e+000 -9.446608e+000 92 78 42
-1.031120e+000 2.690444e+000 -1.093421e+001 179 131 98
-1.100460e+000 2.616702e+000 -1.100889e+001 104 65 58
-1.439541e+000 2.277967e+000 -1.137285e+001 179 146 100
-3.886596e-001 2.175538e+000 -9.840715e+000 211 224 209
2.384281e+000 2.141567e+000 -9.509470e+000 119 104 61
2.260251e+000 1.976043e+000 -9.365869e+000 111 100 60
2.716366e+000 2.092347e+000 -9.775228e+000 129 110 68
2.708577e+000 2.090554e+000 -9.740835e+000 129 110 68
2.369486e+000 1.684863e+000 -9.392868e+000 121 105 62
2.835441e+000 1.784168e+000 -9.748001e+000 98 81 54
-5.956253e-001 1.269497e+000 -9.968219e+000 84 68 78
-6.009562e-001 1.267912e+000 -9.983553e+000 84 68 78
-9.341232e-001 1.034628e+000 -1.040317e+001 90 80 92
-8.376822e-001 1.099649e+000 -1.031718e+001 91 78 89
-6.185285e-001 9.802311e-001 -1.005649e+001 129 82 101
1.779143e+000 8.727359e-001 -8.076066e+000 98 83 47
1.779143e+000 8.727359e-001 -8.076066e+000 98 83 47
2.279766e+000 8.702864e-001 -8.584795e+000 81 81 57
4.191778e+000 9.057924e-001 -8.934741e+000 213 191 102
4.340454e-001 6.297516e-001 -8.102402e+000 91 77 87
2.030940e+000 6.192712e-001 -8.189631e+000 83 63 36
2.396000e+000 6.337440e-001 -8.576885e+000 87 71 37
3.069197e+000 6.871166e-001 -9.309605e+000 68 66 51
1.955711e+000 4.829273e-001 -8.050170e+000 121 104 58
2.471939e+000 5.146910e-001 -8.606039e+000 78 66 30
2.940993e+000 5.127395e-001 -9.065940e+000 80 61 28
2.211702e+000 4.204552e-001 -8.288803e+000 124 107 63
2.231536e+000 3.608879e-001 -8.285767e+000 76 62 33
2.323143e+000 3.413206e-001 -8.342364e+000 90 70 43
2.616434e+000 3.739800e-001 -8.681535e+000 92 78 36
1.705368e+000 2.749887e-001 -7.691981e+000 69 57 24
2.495667e+000 2.426066e-001 -8.490677e+000 116 99 56
2.504986e+000 2.392557e-001 -8.512071e+000 116 99 56
2.913230e+000 2.101159e-001 -8.892848e+000 71 57 28
3.309397e+000 2.275630e-001 -9.281098e+000 62 48 22
3.279706e+000 1.756129e-001 -9.226991e+000 118 98 65
1.813620e+000 2.086505e-001 -7.738347e+000 120 101 58
2.008051e+000 1.285884e-001 -7.952082e+000 120 105 61
2.619351e+000 1.709653e-001 -8.560785e+000 87 71 37
2.802608e+000 1.293030e-001 -8.740723e+000 74 54 29
2.899376e+000 1.591244e-001 -8.849380e+000 109 92 49
3.040370e+000 8.044150e-002 -8.922484e+000 84 67 35
3.309871e+000 7.787778e-002 -9.213259e+000 98 79 49
3.214267e+000 5.005378e-002 -9.081321e+000 80 61 30
2.619068e+000 6.278417e-002 -8.530622e+000 80 62 24
2.811713e+000 2.897258e-002 -8.679871e+000 77 61 27
3.143620e+000 1.140249e-002 -8.998599e+000 115 97 59
3.232211e+000 -6.330206e-002 -9.038098e+000 66 49 22
2.564477e+000 -1.239609e-001 -8.354559e+000 83 68 29
1.780109e+000 -1.631594e-001 -7.573339e+000 68 53 22
2.148833e+000 -1.929521e-001 -7.898913e+000 129 113 64
2.715133e+000 -2.531776e-001 -8.423083e+000 74 58 25
2.113944e+000 -2.404719e-001 -7.871056e+000 70 53 23
2.333137e+000 -3.253039e-001 -8.004422e+000 122 105 59
2.689572e+000 -3.090129e-001 -8.403782e+000 122 103 61
2.679344e+000 -3.946043e-001 -8.290503e+000 118 101 62
2.899270e+000 -3.991920e-001 -8.547129e+000 110 90 58
2.899270e+000 -3.991920e-001 -8.547129e+000 110 90 58
2.998278e+000 -4.093980e-001 -8.596142e+000 70 53 21
3.192324e+000 -4.496462e-001 -8.756490e+000 58 43 13
3.469987e+000 -4.121339e-001 -9.061565e+000 63 47 22
2.809006e+000 -5.721037e-001 -8.261996e+000 74 58 27
2.792216e+000 -6.150676e-001 -8.201940e+000 127 110 69
2.860738e+000 -6.275718e-001 -8.269360e+000 125 104 65
2.860738e+000 -6.275718e-001 -8.269360e+000 125 104 65
3.038104e+000 -6.196409e-001 -8.452260e+000 82 66 33
3.049550e+000 -6.281689e-001 -8.483553e+000 82 66 33
2.977213e+000 -6.495231e-001 -8.358400e+000 113 91 50
3.352664e+000 -6.531137e-001 -8.797697e+000 99 81 49
3.486413e+000 -6.897114e-001 -8.911822e+000 93 76 48
2.137089e+000 -5.930712e-001 -7.618172e+000 117 98 55
3.151260e+000 -8.106391e-001 -8.519621e+000 102 82 43
4.769796e-001 -8.593674e-001 -7.709367e+000 67 53 82
4.199026e+000 -8.532948e-001 -8.602747e+000 153 121 62
-1.503047e+000 3.195327e+000 -1.151330e+001 105 69 53
3.090407e+000 3.033913e+000 -1.064218e+001 48 29 12
-1.441964e+000 2.407382e+000 -1.136156e+001 170 140 99
-1.069737e+000 1.539667e+000 -1.069037e+001 208 226 210
2.897019e+000 1.654163e+000 -9.772696e+000 76 65 37
3.283517e+000 1.303787e+000 -9.959886e+000 90 76 48
4.026605e-001 7.870917e-001 -8.126832e+000 87 76 84
4.149359e+000 5.201363e-001 -9.000373e+000 205 180 100
4.239979e+000 6.088876e-001 -8.763839e+000 200 175 85
1.666186e+000 3.835841e-001 -7.720890e+000 70 56 27
2.271561e+000 4.558976e-001 -8.359778e+000 93 77 44
2.261217e-001 -1.357300e-001 -8.319441e+000 85 63 90
1.910010e+000 1.258580e-001 -7.813191e+000 70 57 19
1.911815e+000 1.247844e-001 -7.825876e+000 70 57 19
2.894308e+000 -4.686614e-002 -8.715325e+000 119 100 57
2.005065e+000 1.368588e-003 -7.846738e+000 88 75 41
2.375422e+000 -1.874654e-001 -8.137841e+000 62 47 16
1.832866e+000 -2.716260e-001 -7.535680e+000 81 67 32
2.462245e+000 -3.085877e-001 -8.169254e+000 79 63 27
2.462245e+000 -3.085877e-001 -8.169254e+000 79 63 27
-6.936197e-001 -9.376418e-001 -9.507361e+000 67 56 59
1.036391e+000 -3.075134e-001 -6.941289e+000 63 47 88
2.506365e+000 -5.178398e-001 -8.009499e+000 62 46 20
2.664103e+000 -5.482762e-001 -8.139945e+000 70 56 29
2.985943e+000 -5.679854e-001 -8.468432e+000 116 101 60
-1.573270e-001 -1.009441e+000 -8.699282e+000 82 63 82
2.497380e+000 -6.051045e-001 -7.918077e+000 69 54 25
4.206316e+000 -7.343228e-001 -8.682161e+000 159 126 63
-2.485201e-001 7.502182e-001 -9.329052e+000 206 225 209
1.545564e+000 5.120382e-001 -7.655337e+000 77 61 35
1.577260e+000 4.267128e-001 -7.647790e+000 121 107 60
6.645843e-001 -3.404126e-001 -7.529021e+000 202 223 210
2.114289e+000 -3.314652e-001 -7.765777e+000 90 75 44
2.331492e+000 -4.562632e-001 -7.969135e+000 126 105 58
1.967147e+000 -4.757527e-001 -7.570223e+000 126 110 59
-7.337490e-001 2.723715e+000 -1.046373e+001 111 69 51
3.831543e-001 1.257271e+000 -8.322457e+000 204 224 205
1.425546e+000 1.315943e+000 -8.108033e+000 128 107 60
1.450683e-001 1.062240e+000 -8.719915e+000 204 227 206
3.112384e-001 2.349848e-003 -8.223929e+000 204 225 207
4.424914e-001 7.135164e-001 -8.095174e+000 206 227 210
-4.030687e-001 -8.721069e-001 -9.142199e+000 85 71 72
1.564590e+000 9.653947e-003 -7.468298e+000 127 110 66
5.671413e-001 -2.682546e-001 -7.678864e+000 203 226 208
3.041912e-001 1.891796e+000 -8.500412e+000 69 53 58
1.247318e+000 1.835239e+000 -8.208289e+000 127 114 69
1.430821e-002 1.851951e+000 -9.033066e+000 72 61 65
-1.251233e+000 2.095512e+000 -1.105411e+001 173 156 131
-7.971824e-001 1.948337e+000 -1.038916e+001 88 76 71
-3.081105e-001 1.425671e+000 -9.570972e+000 217 219 212
-3.666292e-001 1.386706e+000 -9.678261e+000 214 230 213
-2.701686e-001 1.385999e+000 -9.482485e+000 86 58 55
-7.609597e-001 1.100598e+000 -1.019973e+001 207 218 213
-1.016482e+000 9.211044e-001 -1.047290e+001 201 213 211
-3.272432e-001 8.942942e-001 -9.481163e+000 213 230 219
-2.473272e-001 9.463792e-001 -9.379486e+000 90 60 65
-1.332850e-001 8.821408e-001 -9.173699e+000 202 229 210
-7.460507e-001 5.823314e-001 -9.998040e+000 203 229 215
-4.392059e-001 -8.113823e-001 -9.180485e+000 203 211 208
3.562597e-001 -7.161661e-001 -7.893918e+000 205 208 215
-5.489493e-001 -1.126226e+000 -9.180124e+000 51 40 46
5.415003e-001 -8.227108e-001 -7.605523e+000 67 55 79
6.482631e-001 -8.692121e-001 -7.444528e+000 188 199 202
-8.260812e-001 -1.280877e+000 -9.628047e+000 76 66 67
-5.763645e-001 -1.221612e+000 -9.310258e+000 74 59 64
-6.099839e-001 -1.339971e+000 -9.214106e+000 217 205 209
-8.343759e-001 -1.621768e+000 -9.584441e+000 177 165 170
-8.068024e-001 -1.631679e+000 -9.614553e+000 64 52 66
-1.609023e+000 3.550142e+000 -1.173512e+001 157 127 74
-9.341341e-001 2.883452e+000 -1.076044e+001 137 86 60
2.223674e+000 2.352040e+000 -9.471145e+000 125 112 70
-6.402835e-001 1.743778e+000 -1.013934e+001 216 217 207
2.455857e-001 1.588752e+000 -8.645353e+000 76 53 68
-1.075771e+000 1.628372e+000 -1.073549e+001 81 69 70
3.250952e+000 1.496806e+000 -1.004545e+001 33 18 1
-5.972006e-001 1.368926e+000 -9.960300e+000 77 67 73
2.148895e+000 1.044043e+000 -8.614891e+000 127 113 74
-3.625303e-001 9.574847e-001 -9.502703e+000 88 67 66
4.045377e+000 8.708478e-001 -9.224696e+000 142 110 46
-6.840371e-001 8.443030e-001 -1.003513e+001 94 80 91
3.390470e-001 6.906137e-001 -8.246127e+000 204 228 212
-8.773039e-001 5.038954e-001 -1.014918e+001 201 216 210
-6.382617e-001 2.668162e-001 -9.794407e+000 92 72 70
-7.534480e-001 -1.206003e+000 -9.479315e+000 62 51 50
-2.170007e-001 -9.818762e-001 -8.741563e+000 197 223 216
-1.091910e+000 2.831714e+000 -1.109873e+001 138 86 65
2.621715e+000 2.358579e+000 -9.796687e+000 96 82 48
-1.068116e+000 2.442181e+000 -1.090974e+001 191 167 121
1.872319e+000 2.001815e+000 -9.113179e+000 119 103 69
1.946846e+000 1.964100e+000 -9.127724e+000 118 104 65
2.381379e+000 1.986347e+000 -9.517847e+000 85 71 34
2.381379e+000 1.986347e+000 -9.517847e+000 85 71 34
2.331737e+000 1.809676e+000 -9.404305e+000 127 113 71
2.827761e+000 1.970230e+000 -9.829302e+000 119 106 65
2.070701e-002 1.686310e+000 -9.040329e+000 206 222 209
-1.782494e-001 1.521290e+000 -9.362217e+000 208 220 208
1.405506e+000 1.185314e+000 -7.976751e+000 124 110 63
2.961402e+000 1.441185e+000 -9.810509e+000 62 44 20
3.032139e+000 1.477980e+000 -9.885570e+000 116 95 66
3.203069e+000 1.521602e+000 -1.004476e+001 43 32 10
-5.762517e-001 1.200250e+000 -9.948618e+000 204 227 213
1.827451e+000 5.612654e-001 -7.981096e+000 130 115 72
1.972276e+000 3.759600e-001 -8.021912e+000 125 110 67
2.101677e+000 2.385304e-001 -8.092423e+000 129 111 63
2.643497e+000 2.174977e-001 -8.649807e+000 123 107 71
2.713509e+000 1.971048e-001 -8.720434e+000 123 106 62
2.803560e+000 -1.188525e-001 -8.634244e+000 122 107 68
3.365947e+000 -4.800830e-001 -8.969666e+000 68 51 23
-3.132164e-001 -9.077915e-001 -8.947050e+000 93 64 65
3.696621e+000 -9.034012e-001 -9.165846e+000 80 64 47
-5.953401e-001 -1.191955e+000 -9.241184e+000 206 218 209
-5.009012e-001 -1.123516e+000 -9.127373e+000 204 220 213
-1.275471e+000 3.259671e+000 -1.127089e+001 151 114 66
1.888491e+000 2.155728e+000 -9.162023e+000 91 76 46
-3.715126e-001 2.158751e+000 -9.768247e+000 212 222 213
2.083912e+000 1.905234e+000 -9.235105e+000 82 66 34
2.743495e+000 2.093725e+000 -9.827468e+000 128 111 68
4.051457e-002 1.737242e+000 -9.026061e+000 81 75 76
3.005649e+000 1.769373e+000 -9.902941e+000 62 51 23
1.532887e-001 1.292693e+000 -8.707631e+000 206 222 209
-1.129124e+000 8.907542e-001 -1.056705e+001 87 72 85
3.125683e+000 6.858552e-001 -9.433589e+000 47 41 26
-1.078982e+000 6.543279e-001 -1.048619e+001 199 218 207
1.911496e-001 5.918247e-001 -8.464223e+000 88 70 80
-1.718354e+001 1.146642e+000 -6.641992e+001 201 54 72
1.681250e+000 4.417386e-001 -7.779284e+000 119 105 65
-8.558671e-001 3.350675e-001 -1.015937e+001 203 225 214
4.344358e+000 3.263657e-001 -8.732439e+000 214 187 99
1.749991e+000 1.641724e-001 -7.664630e+000 75 63 31
1.751394e+000 1.645053e-001 -7.670059e+000 75 63 31
1.780767e+000 -1.587975e-001 -7.568365e+000 74 61 29
2.099074e+000 -2.343167e-001 -7.831075e+000 75 56 21
3.077886e+000 -5.821372e-001 -8.552078e+000 121 102 62
3.356840e+000 -6.486337e-001 -8.842392e+000 108 93 62
4.432608e+000 -5.572195e-001 -8.454616e+000 203 184 92
1.094877e+000 -1.384839e+000 -6.701912e+000 69 61 100
-1.548380e+000 3.207573e+000 -1.167957e+001 95 60 42
-1.548380e+000 3.207573e+000 -1.167957e+001 95 60 42
-1.772442e+000 3.151890e+000 -1.193396e+001 151 122 80
-1.696840e+000 3.236727e+000 -1.184745e+001 150 121 78
-8.836244e-001 2.455973e+000 -1.066441e+001 137 69 63
-6.688368e-002 1.668485e+000 -9.196152e+000 80 68 72
2.932833e+000 1.662374e+000 -9.860902e+000 72 56 30
3.715623e-001 1.154894e+000 -8.330095e+000 78 67 75
8.402284e-002 1.020131e+000 -8.812571e+000 205 226 211
4.389681e-001 6.282521e-001 -8.080437e+000 88 71 87
1.791907e-001 4.838393e-001 -8.528273e+000 205 226 207
4.170667e+000 5.222021e-001 -9.035061e+000 192 165 86
-7.248587e-001 4.015537e-001 -9.983877e+000 198 228 206
3.401844e+000 3.567709e-001 -9.501325e+000 97 81 55
1.910726e+000 1.317832e-001 -7.856400e+000 75 57 28
2.898983e+000 -1.302691e-001 -8.716683e+000 118 103 62
-5.250325e-001 -6.180091e-001 -9.298971e+000 204 229 211
2.400140e+000 -4.962369e-001 -7.976390e+000 74 64 33
4.213568e+000 -5.068813e-001 -8.708895e+000 139 110 46
2.264528e+000 -5.657960e-001 -7.765765e+000 78 62 33
2.954263e+000 -6.968192e-001 -8.347397e+000 94 80 48
3.307365e+000 -7.940503e-001 -8.729286e+000 56 36 12
3.226679e+000 -8.221592e-001 -8.639110e+000 102 87 46
6.539093e-001 -8.183006e-001 -7.449285e+000 84 66 88
-1.478396e+000 3.293345e+000 -1.160745e+001 102 65 49
-1.481422e+000 3.298399e+000 -1.162016e+001 102 65 49
-1.399857e+000 2.251619e+000 -1.120651e+001 171 139 93
-5.111551e-001 1.239999e+000 -9.887591e+000 99 72 85
-2.259271e+001 1.186188e+000 -6.287562e+001 178 34 47
-5.573179e-001 2.288885e-001 -9.702265e+000 209 225 212
4.930743e-001 2.715255e-001 -7.891311e+000 103 71 96
-6.665773e-001 1.931633e-001 -9.834690e+000 204 228 210
6.130595e-001 -2.577342e-002 -7.752219e+000 197 225 207
2.173241e-001 -1.337666e-001 -8.331678e+000 78 58 85
-1.423568e-001 -7.343521e-001 -8.736239e+000 78 64 81
-1.547652e-001 -1.013576e+000 -8.644979e+000 78 65 80
-1.160559e+000 2.956437e+000 -1.110507e+001 94 65 51
-6.739864e-001 1.625627e+000 -1.023272e+001 89 74 93
-1.406292e-001 9.848805e-001 -9.132365e+000 120 79 85
-2.104595e-001 8.593722e-001 -9.250163e+000 86 65 67
3.692825e-001 6.986653e-001 -8.197383e+000 205 226 209
4.735756e-001 7.201889e-001 -8.036890e+000 204 226 207
-1.787734e+001 1.992532e+000 -6.755607e+001 174 38 52
4.295993e+000 1.802148e-001 -8.706266e+000 175 140 62
-5.965650e-001 2.187944e+000 -1.010746e+001 93 71 74
1.512679e+000 1.157018e+000 -8.059424e+000 121 115 81
2.331235e-001 8.067574e-002 -8.263060e+000 81 65 92
2.523751e-001 -6.776263e-001 -8.013921e+000 96 69 104
5.138318e-001 -7.042931e-001 -7.632346e+000 70 53 89
1.291247e+000 1.373311e+000 -8.007965e+000 131 114 71
4.247336e+000 6.910860e-001 -8.916947e+000 211 186 96
3.862777e-001 -1.136050e-001 -8.096576e+000 81 60 96
3.473582e+000 -4.971803e-001 -9.079858e+000 68 51 25
-7.167220e-001 -8.914719e-001 -9.475114e+000 63 54 58
-8.268808e-001 1.378466e+000 -1.041096e+001 77 61 79
3.650522e+000 -7.997179e-001 -9.022071e+000 51 34 18
-7.189194e-001 2.960341e+000 -1.052625e+001 199 154 105
-6.749919e-001 2.786088e+000 -1.040493e+001 141 89 65
-1.681506e+000 2.831193e+000 -1.177373e+001 93 73 87
-4.987495e-001 2.525232e+000 -1.009557e+001 133 91 66
1.803982e+000 2.281755e+000 -9.162250e+000 123 109 69
-1.491725e+000 2.356338e+000 -1.146593e+001 169 137 93
-9.979631e-001 2.260261e+000 -1.075683e+001 199 182 138
2.335575e+000 2.127608e+000 -9.483626e+000 124 110 65
-5.445124e-001 1.968580e+000 -1.005376e+001 92 60 70
1.951019e+000 1.937749e+000 -9.146635e+000 124 111 71
-8.829751e-001 1.609891e+000 -1.045587e+001 84 68 70
-3.106705e+001 2.663139e+000 -7.562715e+001 104 63 57
-8.755899e-001 5.022350e-001 -1.014384e+001 211 227 223
4.132609e+000 4.344729e-001 -9.057983e+000 134 106 41
1.873036e+000 -1.796326e-001 -7.630109e+000 104 91 57
-1.270161e+000 2.737164e+000 -1.119131e+001 95 61 52
-8.656114e-001 1.853739e+000 -1.047456e+001 80 75 72
3.062072e+000 1.366894e+000 -9.816870e+000 102 81 54
-7.724513e-002 -5.401603e-001 -8.666578e+000 211 225 217
4.245706e+000 -3.972752e-001 -8.634536e+000 141 118 42
2.250831e+000 -5.270422e-001 -7.754589e+000 128 111 67
3.587533e-001 -7.141255e-001 -7.886101e+000 187 198 199
6.818218e-001 -9.189173e-001 -7.405959e+000 172 171 182
-6.973534e-001 2.857375e+000 -1.043138e+001 130 76 52
-8.682519e-001 2.429866e+000 -1.061583e+001 123 62 48
1.558265e+000 2.097833e+000 -8.863164e+000 90 76 38
2.023710e+000 1.973396e+000 -9.220727e+000 119 104 62
1.482417e+000 1.695915e+000 -8.458024e+000 132 109 70
1.898205e+000 1.592810e+000 -8.842354e+000 122 109 64
1.636498e+000 7.081374e-001 -7.833996e+000 79 64 30
1.594199e+000 4.694863e-001 -7.683652e+000 66 51 20
1.862091e+000 -1.078775e-001 -7.660968e+000 82 67 29
7.024239e-001 -2.991825e-001 -7.486953e+000 69 57 84
2.049737e+000 -2.283264e-001 -7.790704e+000 117 103 58
2.067871e+000 -3.582295e-001 -7.704634e+000 123 108 65
7.207351e-001 -4.525017e-001 -7.412557e+000 174 179 182
2.452459e+000 -4.771654e-001 -8.005231e+000 122 105 58
1.823810e+000 2.824204e+000 -9.486048e+000 123 108 69
1.745264e+000 2.785246e+000 -9.416732e+000 85 72 37
2.189675e+000 2.637512e+000 -9.618241e+000 91 75 42
1.819866e+000 2.368369e+000 -9.224950e+000 79 66 32
1.877505e+000 2.358238e+000 -9.273424e+000 97 82 51
-1.529577e+000 2.543674e+000 -1.153777e+001 80 63 75
2.649156e+000 2.419368e+000 -9.858469e+000 132 114 74
-2.547442e+001 9.061513e+000 -6.786264e+001 132 95 146
1.836326e+000 2.154552e+000 -9.121938e+000 74 59 28
2.266572e+000 2.098192e+000 -9.423377e+000 78 63 24
2.411503e+000 1.849663e+000 -9.462220e+000 76 61 28
2.411503e+000 1.849663e+000 -9.462220e+000 76 61 28
2.468579e+000 1.788687e+000 -9.508662e+000 122 107 66
3.226318e+000 1.669355e+000 -1.002853e+001 92 72 47
-5.857717e-001 1.202857e+000 -9.951816e+000 202 229 208
-1.795918e+001 -1.882266e-001 -6.509083e+001 151 57 57
-1.684086e+001 -1.548589e-001 -6.606676e+001 179 97 97
1.726895e+000 7.482538e-001 -7.947494e+000 125 107 59
4.116188e+000 6.074634e-001 -8.984636e+000 190 162 81
6.479176e-001 -6.831928e-001 -7.441473e+000 79 61 86
-1.494404e-002 9.499931e-001 -8.970715e+000 204 227 206
-1.494404e-002 9.499931e-001 -8.970715e+000 204 227 206
1.836928e+000 7.582919e-001 -8.055504e+000 91 73 37
-8.102632e-001 -1.021138e+000 -9.676206e+000 72 58 60
-2.343590e+001 -2.830478e+000 -6.579081e+001 32 24 44
7.187881e-001 -6.534592e-001 -7.324272e+000 132 138 149
7.165805e-001 -6.546807e-001 -7.353294e+000 132 138 149
-3.235667e+001 -3.571047e+000 -7.498765e+001 56 34 32
-9.077472e-001 2.990607e+000 -1.081762e+001 174 120 93
-1.232814e+000 2.850011e+000 -1.131454e+001 101 67 53
-8.359929e-001 2.774469e+000 -1.065479e+001 184 137 107
-6.190757e-001 2.739731e+000 -1.033233e+001 180 143 93
-8.314375e-001 2.616000e+000 -1.063028e+001 186 138 99
-4.860708e-001 2.592401e+000 -1.014174e+001 119 86 54
-4.580425e-001 2.558829e+000 -1.005555e+001 205 174 148
-1.243393e+000 2.372815e+000 -1.108630e+001 171 136 82
-2.714344e-001 2.344851e+000 -9.677396e+000 70 43 46
-4.792219e-001 2.207058e+000 -9.978054e+000 205 195 193
-4.792219e-001 2.207058e+000 -9.978054e+000 205 195 193
1.875970e+000 2.299153e+000 -9.299672e+000 127 108 75
1.702610e-001 2.000725e+000 -8.811649e+000 96 80 90
-2.179105e-001 2.881875e-001 -9.083082e+000 203 217 209
1.995252e+000 4.016761e-001 -7.979213e+000 86 64 25
2.665503e-001 -2.767738e-001 -8.237674e+000 80 66 84
5.375248e-001 -5.070758e-001 -7.640556e+000 76 61 90
-8.141868e-001 -1.608677e+000 -9.525859e+000 180 178 183
-3.155917e-001 2.847790e+000 -9.897022e+000 183 138 73
-2.194675e-001 2.874968e+000 -9.626841e+000 206 168 103
-1.602512e+000 2.724253e+000 -1.147525e+001 98 75 93
2.505705e+000 2.715728e+000 -1.002042e+001 131 108 74
2.555963e+000 2.747159e+000 -1.012129e+001 90 67 36
-9.527932e-001 2.358885e+000 -1.073212e+001 144 82 57
2.654319e+000 2.546264e+000 -1.006950e+001 91 68 37
2.895537e+000 2.537476e+000 -1.031109e+001 121 102 70
1.614177e+000 2.329077e+000 -9.091844e+000 121 104 61
3.997817e+000 2.277855e+000 -9.775817e+000 176 144 61
1.729574e+000 2.069054e+000 -9.047959e+000 119 99 64
-5.837134e-001 1.738356e+000 -1.006078e+001 76 58 70
-6.939211e-002 1.800476e+000 -9.229398e+000 76 62 65
1.690730e+000 1.838209e+000 -8.828821e+000 135 116 76
-5.538876e-001 1.310041e+000 -9.917544e+000 208 211 208
3.152631e+000 1.290355e+000 -9.842147e+000 104 85 55
4.099548e+000 7.643848e-001 -9.069304e+000 195 159 85
3.458171e+000 3.429214e-001 -9.517664e+000 88 70 49
4.109003e+000 1.574696e-001 -8.864784e+000 179 142 74
1.543244e+000 1.761406e-001 -7.385106e+000 123 104 62
1.684428e-001 -4.640961e-001 -8.238224e+000 90 53 78
-2.678972e-001 -8.231606e-001 -8.774654e+000 208 212 209
-2.352408e-001 -8.076998e-001 -8.768271e+000 75 58 61
3.033452e+000 -4.045418e-001 -8.572642e+000 115 96 58
2.752124e+000 -5.326670e-001 -8.202816e+000 71 50 23
1.718359e-002 -8.749637e-001 -8.291039e+000 204 197 204
2.862027e+000 -5.978157e-001 -8.253084e+000 122 104 65
-3.023896e-001 2.989618e+000 -9.802177e+000 208 168 109
2.098468e+000 3.216222e+000 -1.001081e+001 126 110 67
2.144215e+000 3.196916e+000 -9.955234e+000 118 103 66
2.095211e+000 3.151267e+000 -9.861780e+000 80 69 37
2.142861e+000 3.107374e+000 -9.963113e+000 119 102 60
2.267385e+000 3.168701e+000 -1.004237e+001 125 113 74
2.291302e+000 3.182304e+000 -1.016110e+001 125 113 74
2.660650e+000 3.225374e+000 -1.048256e+001 73 58 29
1.179463e+000 2.772715e+000 -8.852436e+000 125 106 66
1.179463e+000 2.772715e+000 -8.852436e+000 125 106 66
2.664771e+000 3.090598e+000 -1.040075e+001 122 105 69
2.902638e+000 3.083961e+000 -1.062538e+001 63 55 36
1.961378e+000 2.709882e+000 -9.559663e+000 119 99 62
1.541277e+000 2.561905e+000 -9.166378e+000 124 107 70
1.606327e+000 2.550952e+000 -9.218699e+000 126 108 71
1.752395e+000 2.526148e+000 -9.277522e+000 125 109 70
1.817602e+000 2.520216e+000 -9.325183e+000 118 102 66
1.974789e+000 2.610004e+000 -9.535138e+000 127 109 71
2.182359e+000 2.697959e+000 -9.749997e+000 124 106 70
2.303142e+000 2.565985e+000 -9.681958e+000 125 110 69
2.293958e+000 2.465999e+000 -9.681010e+000 124 106 67
2.417790e+000 2.447343e+000 -9.760240e+000 122 104 66
2.417790e+000 2.447343e+000 -9.760240e+000 122 104 66
-1.351653e+000 2.101031e+000 -1.115493e+001 96 67 67
2.377119e+000 2.348286e+000 -9.668626e+000 120 101 61
2.768355e+000 2.432051e+000 -1.007939e+001 82 61 30
2.853127e+000 2.408973e+000 -1.014161e+001 83 63 32
1.793070e+000 2.111694e+000 -9.077858e+000 125 107 67
1.509217e+000 2.021971e+000 -8.776482e+000 79 58 21
1.534839e+000 2.058161e+000 -8.812800e+000 124 103 62
1.536986e+000 2.058216e+000 -8.819207e+000 124 103 62
3.099523e+000 2.127146e+000 -1.013077e+001 112 91 62
1.974399e+000 1.908747e+000 -9.195755e+000 122 104 64
2.186474e-001 1.615590e+000 -8.656555e+000 212 226 208
-1.984191e-001 1.460215e+000 -9.343188e+000 95 66 82
1.994723e+000 1.567898e+000 -8.953444e+000 118 99 59
3.923949e+000 1.800174e+000 -9.623897e+000 191 159 83
4.070093e+000 1.786537e+000 -9.542483e+000 177 135 62
4.060858e+000 1.721254e+000 -9.340692e+000 213 172 93
1.956734e+000 1.430019e+000 -8.765260e+000 119 102 59
2.402127e+000 1.426475e+000 -9.224201e+000 119 99 62
3.953344e+000 1.536907e+000 -9.445377e+000 190 154 78
2.947575e+000 1.386132e+000 -9.738394e+000 113 92 63
3.938712e+000 1.496110e+000 -9.469792e+000 153 113 46
-7.006386e-001 8.850944e-001 -9.986708e+000 214 225 217
-6.683261e-003 9.888779e-001 -8.837341e+000 202 224 205
1.755901e+000 1.202118e+000 -8.341785e+000 126 106 69
2.975784e+000 1.156732e+000 -9.506206e+000 123 103 70
3.950926e+000 1.378809e+000 -9.412090e+000 153 110 48
2.986882e+000 1.064096e+000 -9.459340e+000 111 91 56
3.106629e+000 1.031255e+000 -9.590138e+000 117 93 65
4.261459e+000 1.230647e+000 -9.014773e+000 188 151 70
2.304462e+000 7.028611e-001 -8.536525e+000 132 112 63
3.404144e+000 -3.850558e-002 -9.222008e+000 99 77 46
1.005285e-001 -4.072208e-001 -8.390462e+000 203 219 208
-7.056695e-001 -1.038715e+000 -9.428277e+000 66 56 60
4.300353e+000 -1.722082e-001 -8.712711e+000 156 122 48
1.992095e+000 -2.470691e-001 -7.676107e+000 122 103 63
2.208064e+000 -2.535529e-001 -7.899457e+000 134 113 68
-4.729662e-001 -1.058782e+000 -9.011361e+000 211 221 216
4.052483e-001 -8.371130e-001 -7.725008e+000 66 48 73
-1.884988e-002 2.917279e+000 -9.261949e+000 92 64 57
1.043525e+000 2.971226e+000 -8.824978e+000 83 63 26
1.642932e+000 3.110773e+000 -9.534225e+000 59 54 38
1.647943e+000 3.118533e+000 -9.606436e+000 59 54 38
-3.539437e-001 2.872094e+000 -9.884146e+000 202 177 117
1.143192e+000 2.936870e+000 -8.918972e+000 81 61 28
1.319166e+000 2.882642e+000 -9.125997e+000 93 75 39
1.319166e+000 2.882642e+000 -9.125997e+000 93 75 39
2.405110e+000 3.143874e+000 -1.022325e+001 121 104 65
3.824166e+000 3.219943e+000 -1.020385e+001 167 127 55
1.365332e+000 2.762649e+000 -9.109375e+000 74 56 20
1.365332e+000 2.762649e+000 -9.109375e+000 74 56 20
1.553484e+000 2.877936e+000 -9.401184e+000 119 100 59
2.843016e+000 2.987733e+000 -1.047676e+001 69 55 37
1.199295e+000 2.660471e+000 -8.812951e+000 128 100 61
1.289888e+000 2.679349e+000 -8.933132e+000 86 64 27
1.484525e+000 2.733369e+000 -9.220670e+000 78 60 25
1.425637e+000 2.644854e+000 -9.118266e+000 85 64 34
2.236390e+000 2.737225e+000 -9.772366e+000 93 73 38
3.892751e+000 2.862117e+000 -9.976406e+000 194 159 79
3.892751e+000 2.862117e+000 -9.976406e+000 194 159 79
-1.340171e+000 2.459228e+000 -1.126201e+001 102 69 38
1.401374e+000 2.547149e+000 -9.008907e+000 65 48 18
1.401374e+000 2.547149e+000 -9.008907e+000 65 48 18
1.939221e+000 2.658503e+000 -9.503637e+000 68 52 19
2.069419e+000 2.683207e+000 -9.602201e+000 127 105 69
2.013910e+000 2.601489e+000 -9.511286e+000 118 99 61
2.255995e+000 2.681180e+000 -9.764059e+000 123 105 68
2.255995e+000 2.681180e+000 -9.764059e+000 123 105 68
2.404255e+000 2.605728e+000 -9.830251e+000 83 67 33
2.903024e+000 2.818169e+000 -1.056690e+001 110 90 59
2.890020e+000 2.812917e+000 -1.050249e+001 110 90 59
3.936025e+000 2.823161e+000 -9.960734e+000 173 131 57
1.360365e+000 2.354413e+000 -8.818166e+000 81 65 32
1.847036e+000 2.414279e+000 -9.318456e+000 122 104 67
1.847036e+000 2.414279e+000 -9.318456e+000 122 104 67
1.960275e+000 2.402782e+000 -9.408886e+000 124 106 66
3.928816e+000 2.616989e+000 -1.013803e+001 157 120 46
-1.244677e+000 2.181306e+000 -1.104854e+001 122 85 60
-1.251364e+000 2.181975e+000 -1.109049e+001 122 85 60
-3.383000e-001 2.218646e+000 -9.775406e+000 85 69 74
1.272529e+000 2.283127e+000 -8.690966e+000 77 61 28
1.354085e+000 2.196603e+000 -8.696056e+000 124 103 62
1.461206e+000 2.226625e+000 -8.840386e+000 77 61 35
1.465078e+000 2.226916e+000 -8.858059e+000 77 61 35
2.651586e+000 2.360898e+000 -9.872887e+000 80 65 26
1.472393e+000 2.126723e+000 -8.780055e+000 89 68 37
1.601947e+000 2.139417e+000 -8.969047e+000 126 103 61
2.687878e+000 2.248053e+000 -9.797775e+000 84 63 32
2.687878e+000 2.248053e+000 -9.797775e+000 84 63 32
1.288448e-001 1.955714e+000 -8.900581e+000 210 218 205
1.455080e+000 1.995507e+000 -8.667931e+000 125 102 61
1.680966e+000 2.066370e+000 -8.982067e+000 86 68 32
1.538650e+000 1.961442e+000 -8.767148e+000 126 107 66
1.639794e+000 1.983799e+000 -8.905608e+000 81 65 31
2.523685e+000 2.059146e+000 -9.622743e+000 81 61 30
2.523685e+000 2.059146e+000 -9.622743e+000 81 61 30
2.483637e+000 2.008161e+000 -9.557027e+000 125 106 67
2.618930e+000 2.102224e+000 -9.744053e+000 121 101 64
2.618930e+000 2.102224e+000 -9.744053e+000 121 101 64
2.886781e+000 2.161317e+000 -9.959397e+000 121 96 65
3.015688e+000 2.091244e+000 -1.001364e+001 79 57 30
1.874875e+000 1.878423e+000 -9.060620e+000 118 103 59
2.219294e+000 1.935025e+000 -9.343446e+000 115 95 58
2.219294e+000 1.935025e+000 -9.343446e+000 115 95 58
3.927199e+000 2.001534e+000 -9.776767e+000 179 151 77
1.308112e+000 1.747911e+000 -8.297301e+000 124 106 60
1.890450e+000 1.777274e+000 -9.027347e+000 131 108 66
2.519381e+000 1.781303e+000 -9.544694e+000 116 98 59
3.031413e+000 1.813588e+000 -9.957031e+000 114 94 61
3.188887e+000 1.788009e+000 -1.004742e+001 115 97 67
3.840110e+000 1.862746e+000 -9.758468e+000 162 126 65
2.182977e+000 1.426614e+000 -9.020338e+000 55 39 8
2.182977e+000 1.426614e+000 -9.020338e+000 55 39 8
2.384296e+000 1.529314e+000 -9.323611e+000 77 60 34
2.494722e+000 1.511952e+000 -9.400117e+000 67 43 15
2.661121e+000 1.534024e+000 -9.578426e+000 122 101 60
2.657033e+000 1.534263e+000 -9.571236e+000 122 101 60
2.908940e+000 1.490433e+000 -9.763807e+000 113 95 60
2.908940e+000 1.490433e+000 -9.763807e+000 113 95 60
3.261005e+000 1.427893e+000 -1.012109e+001 78 61 42
3.288326e+000 1.531447e+000 -9.896681e+000 64 45 26
4.058179e+000 1.670856e+000 -9.402511e+000 181 137 62
2.063123e+000 1.405911e+000 -8.840760e+000 116 98 62
2.152915e+000 1.388838e+000 -8.934714e+000 127 108 66
2.230203e+000 1.332857e+000 -8.965802e+000 88 68 34
2.384137e+000 1.386473e+000 -9.184020e+000 64 45 21
2.553887e+000 1.359217e+000 -9.301474e+000 64 45 12
2.637576e+000 1.299044e+000 -9.354581e+000 118 98 63
2.637576e+000 1.299044e+000 -9.354581e+000 118 98 63
2.867447e+000 1.301518e+000 -9.582510e+000 79 59 30
-2.857358e-001 9.329938e-001 -9.337899e+000 214 226 214
1.692163e+000 1.299539e+000 -8.372867e+000 125 103 64
1.841557e+000 1.271958e+000 -8.523671e+000 125 101 63
1.841557e+000 1.271958e+000 -8.523671e+000 125 101 63
2.888614e+000 1.214819e+000 -9.497137e+000 68 49 21
2.760144e+000 1.195480e+000 -9.346896e+000 121 101 60
3.144308e+000 1.250275e+000 -9.818141e+000 61 43 19
-1.614805e-002 9.686652e-001 -8.923125e+000 208 229 206
1.468995e+000 1.166291e+000 -8.027005e+000 120 102 58
1.471513e+000 1.126857e+000 -7.963387e+000 92 81 61
2.150664e+000 1.078240e+000 -8.633070e+000 74 67 41
2.849501e+000 1.131887e+000 -9.372174e+000 67 47 23
3.190667e+000 1.013153e+000 -9.652655e+000 103 83 55
4.031757e+000 1.200894e+000 -9.351053e+000 201 168 92
2.089757e+000 1.052439e+000 -8.545339e+000 122 105 59
2.139106e+000 1.038086e+000 -8.578245e+000 123 105 62
2.361239e+000 9.935333e-001 -8.765267e+000 136 117 75
2.487378e+000 9.685694e-001 -8.890771e+000 129 112 68
4.085206e+000 1.084674e+000 -9.229795e+000 162 128 54
-8.443842e-001 3.411045e-001 -1.007134e+001 206 229 215
2.355111e+000 9.033424e-001 -8.684515e+000 132 115 71
1.922718e-001 5.833289e-001 -8.493461e+000 87 63 82
2.454008e+000 6.752582e-001 -8.669299e+000 126 106 68
2.854909e+000 6.843981e-001 -9.089881e+000 126 96 62
3.225470e+000 6.498903e-001 -9.465373e+000 64 51 34
2.491782e+000 5.609496e-001 -8.651764e+000 129 110 68
3.003949e+000 5.503349e-001 -9.152211e+000 121 99 60
3.299517e+000 4.800666e-001 -9.440674e+000 107 83 56
4.118007e+000 4.676892e-001 -9.033009e+000 151 117 49
4.176459e+000 5.844303e-001 -8.879158e+000 204 174 89
-2.321782e-001 -7.161058e-002 -9.068625e+000 212 226 212
1.655639e+000 4.530592e-001 -7.687614e+000 124 102 61
2.322649e+000 3.971774e-001 -8.378078e+000 131 111 68
2.123260e+000 3.406221e-001 -8.129083e+000 135 114 71
3.034454e+000 1.303254e-001 -8.966184e+000 112 89 55
3.114136e+000 1.205486e-001 -9.029475e+000 118 96 59
3.114136e+000 1.205486e-001 -9.029475e+000 118 96 59
4.148827e+000 2.982921e-001 -8.964291e+000 156 121 56
2.168156e+000 1.166902e-001 -8.078780e+000 129 108 63
3.029673e+000 3.929211e-002 -8.876209e+000 116 92 56
2.693235e+000 -9.412784e-002 -8.469666e+000 123 102 60
3.068207e+000 -1.281527e-001 -8.852165e+000 59 41 17
9.200321e-002 -5.349501e-001 -8.362022e+000 125 71 102
1.898549e+000 -1.320193e-001 -7.677445e+000 127 108 64
2.974348e+000 -3.632541e-001 -8.625717e+000 125 106 66
2.951978e+000 -3.391530e-001 -8.560289e+000 125 106 66
3.318444e+000 -4.107367e-001 -8.865483e+000 102 78 51
7.076907e-001 -2.675183e-001 -7.439164e+000 83 68 101
3.311189e+000 -5.186564e-001 -8.817705e+000 113 93 60
4.995533e-001 -4.721518e-001 -7.688951e+000 71 58 80
3.642304e+000 -9.009404e-001 -9.023000e+000 73 55 41
1.740386e+000 3.093939e+000 -9.600560e+000 70 70 60
3.960195e+000 3.344178e+000 -9.934020e+000 176 142 56
1.161748e+000 2.830102e+000 -8.876830e+000 89 66 32
1.465333e+000 2.937432e+000 -9.272127e+000 90 70 33
1.980015e+000 3.081781e+000 -9.788867e+000 65 62 45
7.729953e-002 2.668001e+000 -9.014859e+000 80 59 57
1.190099e+000 2.718259e+000 -8.840984e+000 80 57 27
1.619230e+000 2.910967e+000 -9.436330e+000 73 55 20
1.752334e+000 2.895819e+000 -9.542954e+000 83 66 33
3.864490e+000 3.142164e+000 -1.017100e+001 190 159 79
4.094695e+000 2.993465e+000 -9.962283e+000 210 179 89
-1.511035e+000 2.528012e+000 -1.144840e+001 80 63 78
-7.441181e-001 2.486207e+000 -1.046316e+001 185 114 78
1.812248e+000 2.573583e+000 -9.404051e+000 68 52 19
2.276289e+000 2.517489e+000 -9.657110e+000 75 55 22
-3.925272e-001 2.175268e+000 -9.849043e+000 211 220 203
1.505709e+000 2.273020e+000 -8.953657e+000 126 103 61
2.030645e+000 2.374766e+000 -9.383008e+000 125 107 67
1.844664e+000 2.151866e+000 -9.136089e+000 64 49 18
2.051263e+000 2.229937e+000 -9.353416e+000 99 80 47
2.177533e+000 1.999991e+000 -9.323483e+000 93 74 40
3.878427e+000 2.203714e+000 -9.826028e+000 187 155 80
4.047146e-002 1.740465e+000 -9.013887e+000 83 79 83
2.446650e+000 1.901002e+000 -9.502853e+000 129 110 68
2.615336e+000 1.932140e+000 -9.647972e+000 71 54 24
2.609516e+000 1.933451e+000 -9.618153e+000 71 54 24
2.936609e+000 1.996874e+000 -9.891724e+000 73 54 24
3.894248e+000 2.084933e+000 -9.764366e+000 184 153 80
-1.813622e+001 -2.176652e+000 -6.504500e+001 164 33 38
1.510816e+000 1.730503e+000 -8.526267e+000 85 69 43
2.490941e+000 1.841273e+000 -9.511524e+000 85 69 33
2.839456e+000 1.782350e+000 -9.773468e+000 83 67 42
4.089162e+000 1.901471e+000 -9.377370e+000 185 146 70
-4.956492e-001 1.221489e+000 -9.822962e+000 107 71 93
-4.874469e-001 1.231000e+000 -9.762065e+000 107 71 93
1.801039e+000 1.464624e+000 -8.659453e+000 133 110 66
2.031683e+000 1.454438e+000 -8.878494e+000 82 63 33
2.300979e+000 1.551782e+000 -9.243546e+000 73 56 30
-4.605340e-001 1.110290e+000 -9.648995e+000 117 73 98
1.476270e+000 1.398551e+000 -8.224280e+000 79 60 35
1.476270e+000 1.398551e+000 -8.224280e+000 79 60 35
1.809638e+000 1.411555e+000 -8.614135e+000 85 70 38
3.307547e+000 1.338290e+000 -1.001512e+001 92 71 51
3.641011e-001 1.149430e+000 -8.349136e+000 86 72 77
3.666757e-001 1.156369e+000 -8.306148e+000 86 72 77
1.656198e+000 1.263297e+000 -8.298058e+000 70 54 21
2.029627e+000 1.192906e+000 -8.612413e+000 112 94 58
2.029627e+000 1.192906e+000 -8.612413e+000 112 94 58
4.042201e+000 1.344008e+000 -9.422298e+000 166 126 56
4.031775e+000 1.261623e+000 -9.414688e+000 192 156 80
1.715374e+000 1.162844e+000 -8.274415e+000 60 56 30
2.080378e+000 1.140950e+000 -8.614232e+000 124 101 62
1.992584e+000 1.117547e+000 -8.473032e+000 80 72 49
1.992584e+000 1.117547e+000 -8.473032e+000 80 72 49
2.219582e+000 1.152154e+000 -8.763195e+000 65 50 24
2.696553e+000 1.059487e+000 -9.171482e+000 65 48 22
-2.571487e-001 6.569611e-001 -9.286124e+000 84 74 72
-2.571487e-001 6.569611e-001 -9.286124e+000 84 74 72
1.575535e+000 1.007286e+000 -7.992009e+000 71 66 47
1.719143e+000 1.033167e+000 -8.145934e+000 129 112 71
1.694092e+000 9.894347e-001 -8.065742e+000 61 62 37
1.897961e+000 1.043238e+000 -8.311131e+000 59 60 36
1.846702e+000 9.588299e-001 -8.206827e+000 86 78 49
2.206847e+000 1.026573e+000 -8.652524e+000 128 106 64
3.051901e+000 9.933968e-001 -9.490316e+000 73 59 33
4.023101e-001 7.850567e-001 -8.134927e+000 81 69 80
1.769203e+000 9.247707e-001 -8.129245e+000 137 114 73
1.765377e+000 9.296542e-001 -8.108878e+000 137 114 73
1.913961e+000 8.439688e-001 -8.193693e+000 80 63 25
2.121863e+000 9.031925e-001 -8.443587e+000 66 69 41
2.683672e+000 8.785655e-001 -9.018901e+000 72 67 41
2.684288e+000 8.756026e-001 -9.030814e+000 72 67 41
3.021858e+000 7.978413e-001 -9.341972e+000 90 80 54
1.764802e+000 7.735557e-001 -8.027947e+000 78 63 34
2.011472e+000 8.205394e-001 -8.297098e+000 86 67 35
2.089665e+000 7.126649e-001 -8.300749e+000 89 69 37
2.357284e+000 7.518903e-001 -8.596624e+000 82 62 29
2.702179e+000 7.290624e-001 -8.948495e+000 132 111 68
2.778095e+000 7.543274e-001 -9.047471e+000 70 64 49
2.725617e+000 6.637080e-001 -8.943712e+000 80 63 34
3.073372e+000 6.848534e-001 -9.319345e+000 59 53 36
4.134791e+000 7.723480e-001 -9.022524e+000 166 129 58
1.510386e+000 7.302172e-001 -7.721481e+000 72 57 28
2.999880e+000 5.954867e-001 -9.208795e+000 82 62 35
2.999880e+000 5.954867e-001 -9.208795e+000 82 62 35
5.047923e-001 2.706316e-001 -7.919244e+000 87 60 85
1.821745e+000 4.612332e-001 -7.885666e+000 72 55 27
3.372650e+000 2.692713e-001 -9.386718e+000 106 84 56
4.189622e+000 3.841264e-001 -8.860546e+000 170 139 59
2.204388e+000 2.779014e-001 -8.164768e+000 81 63 31
2.204388e+000 2.779014e-001 -8.164768e+000 81 63 31
2.399514e+000 2.771068e-001 -8.384802e+000 126 106 63
-1.408997e-001 -2.635118e-001 -8.905703e+000 87 70 82
1.537238e-001 -1.319918e-001 -8.409956e+000 213 225 215
2.347133e+000 1.421259e-001 -8.247496e+000 93 72 44
2.468618e+000 1.035703e-001 -8.374727e+000 90 72 36
3.045981e+000 7.615343e-002 -8.935610e+000 82 62 29
3.156369e+000 4.290915e-003 -9.026161e+000 113 90 54
3.018781e+000 -5.478712e-003 -8.840513e+000 71 51 24
3.240515e+000 -6.914482e-002 -9.058078e+000 74 54 29
3.290643e+000 -1.993283e-002 -9.096492e+000 110 86 51
1.621565e+000 1.431622e-001 -7.524159e+000 120 101 58
1.749305e+000 1.710505e-001 -7.628251e+000 83 68 35
2.288744e+000 -1.130338e-003 -8.135064e+000 130 107 68
2.971843e+000 -1.048391e-001 -8.767634e+000 73 57 32
3.156652e+000 -1.378344e-001 -8.895702e+000 71 50 19
2.897602e-001 -2.539122e-001 -8.112159e+000 77 61 87
2.558888e+000 -1.174465e-001 -8.333320e+000 73 53 21
3.016933e+000 -2.023689e-001 -8.710196e+000 73 48 18
3.131387e+000 -2.333246e-001 -8.824583e+000 69 50 20
3.131387e+000 -2.333246e-001 -8.824583e+000 69 50 20
1.775098e+000 -8.079377e-002 -7.519949e+000 129 107 65
2.704922e+000 -2.389496e-001 -8.379268e+000 81 62 30
2.812796e+000 -3.269964e-001 -8.485455e+000 121 95 58
3.127258e+000 -3.357365e-001 -8.750417e+000 77 56 29
3.127258e+000 -3.357365e-001 -8.750417e+000 77 56 29
3.296329e+000 -3.696055e-001 -8.904391e+000 65 39 14
3.500348e+000 -4.330885e-001 -9.128774e+000 64 46 24
1.902349e+000 -2.146423e-001 -7.579422e+000 124 104 61
2.881540e+000 -4.182321e-001 -8.422553e+000 127 103 66
-2.093291e-001 -9.617969e-001 -8.656660e+000 196 210 201
5.020946e-001 -4.013781e-001 -7.555988e+000 67 50 82
3.084123e+000 -5.702495e-001 -8.507426e+000 116 96 59
3.084123e+000 -5.702495e-001 -8.507426e+000 116 96 59
-5.370196e-001 -1.295793e+000 -9.039266e+000 66 56 64
2.770472e+000 -5.875107e-001 -8.142652e+000 120 100 57
4.242427e+000 -6.505845e-001 -8.832251e+000 160 128 63
2.241785e+000 -5.670608e-001 -7.608656e+000 123 101 60
2.478962e+000 -6.210272e-001 -7.823755e+000 126 103 62
-2.375206e+001 6.033340e+000 -6.748509e+001 124 33 38
2.397070e+000 2.219016e+000 -9.595127e+000 123 103 66
-6.285025e-001 1.681850e+000 -1.006817e+001 87 72 92
-1.696807e-001 1.596519e+000 -9.325377e+000 85 68 74
2.774858e+000 1.744524e+000 -9.723841e+000 118 96 57
3.268489e+000 1.729721e+000 -1.005610e+001 47 29 9
4.243276e+000 1.042919e+000 -9.022131e+000 192 138 78
-2.492994e-001 2.274918e-001 -9.134075e+000 211 223 209
1.732540e+000 6.913723e-001 -7.914038e+000 83 67 33
2.164603e+000 5.851512e-001 -8.325786e+000 110 90 55
2.164603e+000 5.851512e-001 -8.325786e+000 110 90 55
3.367315e+000 3.572907e-001 -9.413654e+000 96 77 49
1.696633e+000 4.832646e-001 -7.787930e+000 66 49 23
1.727244e+000 4.347079e-001 -7.751529e+000 124 105 63
2.058036e+000 4.596625e-001 -8.097713e+000 130 109 64
2.072877e+000 3.607074e-001 -8.093955e+000 125 103 56
2.072877e+000 3.607074e-001 -8.093955e+000 125 103 56
2.127460e+000 3.998232e-001 -8.146870e+000 80 64 31
2.787379e+000 3.275197e-001 -8.842249e+000 91 70 41
6.010788e-001 2.942003e-003 -7.680560e+000 207 225 208
2.201942e+000 5.611750e-002 -8.091837e+000 97 80 46
2.189481e+000 7.539313e-002 -8.035077e+000 97 80 46
2.273370e+000 7.530026e-002 -8.179753e+000 125 104 61
2.369454e+000 1.508847e-002 -8.252139e+000 72 51 24
1.993951e+000 1.819631e-002 -7.803711e+000 93 76 46
2.311234e+000 -6.054580e-002 -8.110685e+000 80 62 26
2.311234e+000 -6.054580e-002 -8.110685e+000 80 62 26
2.846823e+000 -1.811223e-001 -8.587113e+000 78 56 25
-5.809697e-001 -8.437670e-001 -9.330891e+000 74 63 69
1.668392e+000 -1.046603e-002 -7.441864e+000 76 60 34
2.916893e+000 -2.815706e-001 -8.559565e+000 82 61 32
4.187101e+000 -5.017924e-001 -8.854751e+000 161 131 67
1.730472e+000 -2.263127e-001 -7.398510e+000 71 55 25
1.730472e+000 -2.263127e-001 -7.398510e+000 71 55 25
1.790102e+000 -2.884075e-001 -7.423842e+000 124 103 60
1.951313e+000 -2.754400e-001 -7.591101e+000 72 58 31
2.289832e+000 -3.489828e-001 -7.892798e+000 62 45 15
2.423072e+000 -3.800530e-001 -8.005886e+000 101 81 46
2.581235e+000 -4.039621e-001 -8.124743e+000 78 62 29
3.424475e+000 -5.931344e-001 -8.857221e+000 62 46 23
2.646780e+000 -6.053387e-001 -7.988264e+000 75 58 31
-9.355857e-001 2.438075e+000 -1.070964e+001 145 85 64
