ply
format ascii 1.0
element face 0
property list uchar int vertex_indices
element vertex 877
property float x
property float y
property float z
property uchar diffuse_red
property uchar diffuse_green
property uchar diffuse_blue
end_header
4.636471e-001 -8.965079e-001 -7.663500e+000 63 52 73
-2.696223e-001 -6.957640e-001 -8.804613e+000 90 55 68
-2.383583e-001 -7.346613e-001 -8.689229e+000 202 219 211
-4.850645e-001 -7.296530e-001 -9.131361e+000 210 213 212
-1.990178e-001 -8.271667e-001 -8.626060e+000 206 228 218
-2.082611e-001 -8.591560e-001 -8.648990e+000 218 231 217
1.634871e+000 -1.420432e+000 -6.601229e+000 24 18 44
-4.376262e-001 3.326868e+000 -1.000397e+001 115 78 46
1.801947e+000 2.496646e+000 -9.307648e+000 155 142 107
-1.326921e+000 4.135226e+000 -1.148251e+001 145 131 104
-3.013446e-001 2.927174e+000 -9.669360e+000 193 159 98
1.425670e+000 2.311980e+000 -8.919160e+000 156 144 106
-1.558941e+000 4.416993e+000 -1.206967e+001 189 175 148
-1.074277e+000 3.772431e+000 -1.105319e+001 175 150 114
1.513664e+000 1.832745e+000 -8.688316e+000 152 134 98
-1.665260e+000 4.128180e+000 -1.195003e+001 185 171 145
-1.702009e+000 4.230128e+000 -1.213570e+001 185 171 145
-5.761266e-001 2.984092e+000 -1.019747e+001 203 173 113
1.569438e+000 1.799044e+000 -8.706280e+000 154 140 101
2.176483e+000 1.912835e+000 -9.291594e+000 152 138 103
-7.136513e-001 2.929080e+000 -1.039093e+001 195 168 113
-2.249317e-001 2.273693e+000 -9.455255e+000 208 222 209
-1.811306e-001 2.250672e+000 -9.425923e+000 80 65 66
2.658431e+000 1.898965e+000 -9.650134e+000 123 108 77
2.660653e+000 1.791882e+000 -9.624772e+000 102 87 57
2.653477e+000 1.779766e+000 -9.596718e+000 102 87 57
-1.553313e+000 3.477635e+000 -1.161999e+001 153 121 74
-1.033697e+000 2.940407e+000 -1.088365e+001 104 67 48
2.418292e-001 1.620487e+000 -8.502312e+000 211 224 214
3.235756e-001 1.489051e+000 -8.370841e+000 213 223 214
2.500849e+000 1.719680e+000 -9.510359e+000 93 79 47
2.973817e+000 1.652717e+000 -9.874809e+000 87 73 46
-3.601016e-001 2.086644e+000 -9.695694e+000 77 70 72
3.523878e-001 1.227723e+000 -8.318461e+000 78 61 70
3.523878e-001 1.227723e+000 -8.318461e+000 78 61 70
-1.124538e+000 2.436603e+000 -1.086059e+001 135 103 53
1.314389e-001 1.320171e+000 -8.659839e+000 214 222 215
1.563224e+000 7.232572e-001 -7.820300e+000 151 137 100
3.791182e-002 1.235231e+000 -8.799623e+000 211 232 220
-1.332941e+000 2.133426e+000 -1.104691e+001 80 57 73
1.631944e+000 4.105916e-001 -7.720586e+000 150 134 98
1.617746e+000 3.003109e-001 -7.633113e+000 158 142 106
-5.348238e-001 1.340262e+000 -9.764107e+000 210 224 213
1.755920e+000 1.803189e-001 -7.728645e+000 152 137 96
1.927892e+000 3.230367e-001 -7.969272e+000 152 134 96
1.927892e+000 3.230367e-001 -7.969272e+000 152 134 96
2.293973e+000 3.430820e-001 -8.382567e+000 147 131 95
4.558553e-001 3.372747e-001 -7.958328e+000 98 79 93
4.558553e-001 3.372747e-001 -7.958328e+000 98 79 93
1.566887e+000 6.309060e-002 -7.454041e+000 104 88 52
1.566887e+000 6.309060e-002 -7.454041e+000 104 88 52
2.329191e+000 1.971051e-001 -8.353846e+000 104 88 53
2.567049e+000 2.002718e-001 -8.574726e+000 152 136 100
-2.339325e-001 7.179206e-001 -9.162475e+000 91 68 71
1.682170e+000 -1.005000e-001 -7.513730e+000 155 141 105
1.681624e+000 -1.967891e-001 -7.452509e+000 147 134 90
1.741568e+000 -1.540645e-001 -7.560327e+000 87 74 42
2.038378e+000 -8.759139e-002 -7.893915e+000 158 139 106
2.231421e+000 -7.481780e-002 -8.093914e+000 104 88 52
-5.203271e-001 7.758556e-001 -9.656345e+000 210 224 218
4.370245e-001 2.140877e-002 -7.861817e+000 77 63 82
1.887228e+000 -1.906939e-001 -7.682861e+000 85 68 38
1.934984e+000 -2.010499e-001 -7.728655e+000 102 85 54
2.340097e+000 -1.848140e-001 -8.139533e+000 98 82 48
2.781964e+000 -5.596703e-002 -8.638976e+000 146 132 98
-1.007424e+000 9.689077e-001 -1.033556e+001 93 76 88
-1.068823e+000 9.293339e-001 -1.040696e+001 80 78 81
2.260752e+000 -3.644285e-001 -7.909035e+000 90 75 43
2.260752e+000 -3.644285e-001 -7.909035e+000 90 75 43
3.092366e+000 -6.395303e-001 -8.569304e+000 60 39 20
3.365274e+000 -5.706661e-001 -8.942528e+000 119 99 75
-1.081585e-001 -3.890844e-001 -8.682733e+000 96 70 84
-2.925464e-001 -7.488203e-001 -8.846074e+000 103 64 73
1.190674e+000 -1.304512e+000 -6.567291e+000 133 141 164
-4.479204e-001 -1.119311e+000 -8.976487e+000 73 55 70
1.333482e+000 2.170571e+000 -8.681144e+000 121 102 71
1.573433e+000 2.105975e+000 -8.888521e+000 155 144 108
-1.481759e+000 3.961936e+000 -1.155067e+001 144 128 103
-1.411196e+000 4.185714e+000 -1.156343e+001 187 171 143
-5.466334e-001 3.154461e+000 -1.017908e+001 93 65 43
-5.490548e-001 3.161231e+000 -1.018892e+001 93 65 43
-1.758614e+000 4.052655e+000 -1.199730e+001 189 177 151
1.532838e+000 1.568280e+000 -8.468371e+000 151 138 100
1.532838e+000 1.568280e+000 -8.468371e+000 151 138 100
-1.283934e+000 3.487622e+000 -1.129685e+001 150 109 68
1.667533e+000 1.546323e+000 -8.607662e+000 155 141 104
-1.458184e+000 3.299028e+000 -1.140691e+001 160 124 85
3.067226e+000 1.744660e+000 -9.918810e+000 92 62 32
-3.570111e-001 2.124554e+000 -9.645379e+000 209 229 213
-5.674876e-001 2.048331e+000 -9.991015e+000 214 221 214
-1.545281e-001 1.558300e+000 -9.140414e+000 82 66 69
1.513176e+000 5.682538e-001 -7.707660e+000 129 117 86
1.930499e+000 4.281128e-001 -8.033869e+000 156 140 97
-6.388311e-001 1.217208e+000 -9.899256e+000 90 70 81
-1.119407e-001 8.995630e-001 -9.012178e+000 207 231 211
-1.112996e-001 8.970624e-001 -9.004949e+000 207 231 211
1.655602e-001 5.360349e-001 -8.406205e+000 210 230 218
-4.501688e-001 9.532297e-001 -9.664232e+000 118 81 98
2.762054e+000 5.601643e-002 -8.712505e+000 146 130 94
-2.702201e-001 2.576307e-001 -9.111264e+000 213 232 220
-7.969632e-001 4.054394e-001 -9.968595e+000 213 234 224
3.295702e+000 -7.522901e-001 -8.802613e+000 120 101 70
3.986053e-001 -8.475713e-001 -7.753125e+000 70 66 87
-2.077452e-002 -8.060600e-001 -8.354114e+000 84 67 85
1.060286e+000 -1.212085e+000 -6.682294e+000 47 41 79
-8.237174e-001 -7.344121e-001 -9.572553e+000 215 226 219
1.918571e+000 2.333776e+000 -9.309988e+000 152 139 104
3.004607e+000 2.997671e+000 -1.072600e+001 91 63 34
2.556365e+000 2.121236e+000 -9.660031e+000 156 142 107
-9.776620e-001 3.187063e+000 -1.086111e+001 86 52 43
-9.776620e-001 3.187063e+000 -1.086111e+001 86 52 43
1.576413e+000 8.060108e-001 -7.832413e+000 155 140 101
6.394872e-003 1.457953e+000 -8.929492e+000 85 73 89
4.425081e-002 1.170479e+000 -8.801053e+000 98 70 92
-1.253430e+000 2.103260e+000 -1.093516e+001 157 130 95
-2.604416e-001 1.360877e+000 -9.345851e+000 210 215 208
7.241163e-002 1.052695e+000 -8.715408e+000 211 230 212
-4.052349e-001 1.347703e+000 -9.494557e+000 89 73 82
3.188773e+000 4.103093e-001 -9.309644e+000 133 116 86
-5.535315e-001 9.327250e-001 -9.702754e+000 97 62 83
-4.192358e-001 9.201010e-001 -9.432289e+000 119 75 92
-4.192358e-001 9.201010e-001 -9.432289e+000 119 75 92
2.339507e-001 5.837263e-002 -8.302740e+000 210 229 219
-7.691212e-001 5.514292e-001 -9.982236e+000 121 84 101
-7.691212e-001 5.514292e-001 -9.982236e+000 121 84 101
3.475049e+000 -3.568128e-001 -9.187412e+000 81 48 28
-8.885863e-001 4.528823e-001 -1.008045e+001 82 71 94
-8.718766e-001 4.240841e-001 -9.955536e+000 82 71 94
-5.908196e-001 3.826838e-001 -9.639544e+000 111 79 82
-4.079961e-001 -5.002267e-001 -8.983540e+000 83 67 74
8.783527e-001 -1.088790e+000 -6.801301e+000 62 44 99
-5.612083e-001 -7.330562e-001 -9.264392e+000 82 65 71
-3.403299e-001 -8.272692e-001 -8.879991e+000 104 66 74
1.059235e+000 -1.287918e+000 -6.677763e+000 60 54 90
1.299228e+000 -1.340955e+000 -6.626459e+000 138 147 174
7.912846e-001 1.860693e+000 -7.873241e+000 64 48 50
-1.172390e-001 2.400791e+000 -9.289653e+000 207 228 210
2.842809e+000 2.223216e+000 -1.001307e+001 140 124 92
-1.692777e+000 3.026926e+000 -1.186864e+001 77 65 75
-1.149729e+000 2.588133e+000 -1.090354e+001 193 170 125
2.315880e-001 1.336785e+000 -8.558685e+000 82 65 69
-4.819810e-001 1.253347e+000 -9.715221e+000 105 72 88
-4.036562e-001 7.338731e-001 -9.439583e+000 90 79 87
3.190708e+000 5.781952e-002 -9.139591e+000 116 101 72
4.144838e+000 -5.542712e-001 -8.401507e+000 195 164 81
4.103692e+000 -6.429055e-001 -8.259811e+000 192 163 83
3.288673e+000 -3.482197e-001 -8.981584e+000 97 77 52
4.160794e+000 -7.269596e-001 -8.310643e+000 200 176 88
6.282502e-001 -4.566499e-001 -7.433503e+000 84 62 97
4.132349e-001 -3.998729e-001 -7.779405e+000 206 228 214
8.320869e-001 -1.152274e+000 -6.829591e+000 158 167 185
1.809886e+000 -1.367051e+000 -6.616424e+000 142 146 172
-2.674490e-001 -7.909573e-001 -8.769234e+000 185 167 167
9.876409e-001 -1.282061e+000 -6.730170e+000 55 44 84
-7.344866e-001 3.001402e+000 -1.042786e+001 170 140 79
1.206976e+000 1.392690e+000 -7.970572e+000 157 139 99
-1.064611e+000 3.095589e+000 -1.089070e+001 187 158 102
-1.038953e+000 2.741149e+000 -1.084893e+001 131 85 54
-1.212097e+000 2.748986e+000 -1.094939e+001 96 65 60
-6.789165e-001 2.057006e+000 -1.005408e+001 78 68 63
-2.097907e-001 7.795572e-001 -9.131561e+000 211 232 215
3.241274e+000 -7.693032e-001 -8.738075e+000 111 90 61
-1.662700e-001 -2.302862e-001 -8.855688e+000 208 227 211
-1.683749e-001 -2.352624e-001 -8.831131e+000 208 227 211
-6.304952e-002 -3.481484e-001 -8.585483e+000 103 68 88
3.378385e+000 -8.257675e-001 -8.879005e+000 100 79 59
1.226789e+000 -1.385628e+000 -6.675944e+000 63 59 94
-5.180125e-001 -9.908411e-001 -9.146470e+000 216 207 208
2.342802e+000 -2.161602e+000 -6.682031e+000 109 78 59
8.097805e-001 -2.098034e+000 -7.132950e+000 44 31 49
-1.895299e+000 4.227874e+000 -1.222784e+001 173 164 157
-1.318753e+000 3.360986e+000 -1.134400e+001 97 60 46
-1.316207e+000 2.216514e+000 -1.103532e+001 173 141 91
3.007291e+000 6.935921e-001 -9.261332e+000 104 97 71
3.369357e+000 6.396249e-001 -9.676769e+000 89 59 31
2.995488e-001 -2.629929e-001 -8.005410e+000 80 56 78
1.119359e+000 -1.170343e+000 -6.688154e+000 45 30 71
1.203340e+000 -1.542143e+000 -6.655216e+000 81 70 113
2.278884e+000 -2.087387e+000 -6.505198e+000 46 31 34
2.828306e+000 1.968043e+000 -9.849217e+000 143 127 93
-2.206203e-001 1.345742e-001 -9.013065e+000 87 67 78
-4.723894e-001 2.781620e+000 -1.000010e+001 200 186 139
1.397074e+000 9.842664e-001 -7.919271e+000 157 143 104
-6.919295e-001 9.373063e-001 -9.882196e+000 212 212 214
1.244586e+000 -1.319988e+000 -6.639876e+000 99 104 134
4.798275e-001 -1.660089e+000 -7.318454e+000 75 60 103
6.568736e-001 -6.704954e-001 -7.229895e+000 103 88 122
4.144787e-001 -8.363697e-001 -7.717288e+000 81 71 94
7.545082e-001 -3.578101e-001 -7.333191e+000 82 59 102
8.579985e-001 -1.702180e+000 -6.991381e+000 47 35 83
-3.230418e+001 1.665758e+001 -8.130934e+001 87 68 90
-3.143871e+001 2.250366e+001 -8.066932e+001 108 93 117
-3.125033e+001 1.894034e+001 -8.076988e+001 187 78 94
-2.435925e+001 1.198749e+001 -6.838868e+001 163 171 156
-2.732771e+001 1.818179e+001 -7.236126e+001 134 63 83
-2.501456e+001 2.151079e+001 -7.490330e+001 203 53 72
-2.785127e+001 2.095491e+001 -7.558836e+001 221 63 76
-2.034926e+001 1.996925e+001 -7.450128e+001 205 55 70
-1.503523e+001 -1.078173e+000 -6.569777e+001 32 27 50
-2.664627e+001 1.613062e+001 -7.168077e+001 100 62 115
-2.605907e+001 1.731448e+001 -7.164710e+001 207 209 196
-2.605907e+001 1.731448e+001 -7.164710e+001 207 209 196
-2.444253e+001 1.729552e+001 -7.119487e+001 190 43 53
-2.022372e+001 1.820905e+001 -7.530938e+001 189 43 56
-1.815704e+001 1.237812e+001 -7.135841e+001 176 50 53
-3.524990e+001 1.806753e+001 -8.532112e+001 167 146 101
-2.234400e+001 1.902630e+001 -7.521958e+001 39 28 58
-5.170773e+001 8.021482e+000 -8.951219e+001 63 36 46
-5.053272e+001 3.265934e-001 -8.772865e+001 218 199 195
-3.027909e+001 2.179397e+000 -7.613335e+001 83 49 64
1.925964e-001 6.495137e-001 -8.393402e+000 91 75 81
6.025484e-001 1.145916e-001 -7.652402e+000 74 56 95
7.200472e-001 -6.090607e-001 -7.270021e+000 133 128 151
7.162985e-001 -5.811885e-001 -7.259565e+000 69 58 92
3.959809e-001 -6.966597e-001 -7.744129e+000 167 166 170
1.162297e-001 1.772882e+000 -8.794688e+000 213 224 210
2.742470e+000 1.732132e+000 -9.674729e+000 126 109 76
-1.185008e-001 1.635611e+000 -9.129356e+000 88 71 77
6.703635e-001 -6.206240e-001 -7.335974e+000 63 51 78
-7.310460e-001 1.591930e+000 -1.008607e+001 92 71 87
7.355320e-001 -6.893614e-001 -7.246452e+000 179 191 182
-1.071591e+000 4.466752e+000 -1.122354e+001 163 130 82
-4.816790e-001 3.640592e+000 -1.008759e+001 175 130 84
-1.038230e+000 4.126508e+000 -1.109125e+001 155 124 76
-2.948766e-001 3.139689e+000 -9.721859e+000 149 106 68
-1.066315e-001 2.425729e+000 -9.187239e+000 83 69 61
-1.257010e+000 3.703080e+000 -1.129053e+001 168 160 125
-8.116479e-001 3.175452e+000 -1.046949e+001 141 113 76
-5.262024e-001 2.917739e+000 -1.009498e+001 178 157 92
-3.119840e-001 2.671847e+000 -9.663623e+000 196 171 122
1.018269e-001 1.709970e+000 -8.761452e+000 80 73 74
-9.152181e-001 2.494155e+000 -1.060278e+001 172 131 106
-1.166855e+000 2.524297e+000 -1.091731e+001 161 135 75
-5.598648e-001 2.022789e+000 -1.003644e+001 206 219 207
4.215913e+000 2.781336e-001 -8.357916e+000 180 138 54
-4.399018e-001 1.386253e+000 -9.459488e+000 79 64 73
1.761088e-001 -3.791092e-001 -8.226573e+000 215 219 220
9.009643e-002 -3.380207e-001 -8.398628e+000 93 65 68
1.531065e-001 -4.249286e-001 -8.254475e+000 73 48 68
5.829258e-001 -6.277920e-001 -7.507174e+000 74 60 82
5.829258e-001 -6.277920e-001 -7.507174e+000 74 60 82
5.521427e-001 -6.689876e-001 -7.474967e+000 68 58 82
4.040972e-001 -7.716760e-001 -7.755338e+000 70 53 75
3.360723e-001 -7.699142e-001 -7.821684e+000 58 51 68
4.337653e-001 -8.981937e-001 -7.692381e+000 65 57 81
4.810052e-001 -9.337970e-001 -7.661468e+000 73 56 92
7.835977e-001 -1.149987e+000 -6.757644e+000 60 50 103
-2.633103e-001 3.365839e+000 -9.682050e+000 197 185 133
-1.162866e+000 4.214575e+000 -1.125040e+001 127 112 83
-5.321477e-001 3.573507e+000 -1.015838e+001 120 81 41
-1.573165e+000 4.394336e+000 -1.184278e+001 186 175 147
-1.509648e+000 4.341681e+000 -1.177365e+001 144 130 101
-2.654970e-001 2.652993e+000 -9.464813e+000 190 162 101
2.062627e+000 2.040420e+000 -9.242287e+000 157 143 106
-5.836724e-001 2.867460e+000 -1.020340e+001 170 136 72
-8.002945e-001 3.001212e+000 -1.044087e+001 200 168 115
-8.621262e-001 2.969162e+000 -1.063065e+001 125 81 50
-2.740762e-001 2.295887e+000 -9.510428e+000 80 65 68
2.077404e-001 1.845060e+000 -8.596425e+000 217 220 215
2.077404e-001 1.845060e+000 -8.596425e+000 217 220 215
2.244751e+000 1.798112e+000 -9.324720e+000 150 138 101
2.869321e+000 1.912266e+000 -9.806776e+000 150 134 101
2.584978e+000 1.594895e+000 -9.547680e+000 104 89 58
-1.079553e+000 2.796719e+000 -1.088775e+001 188 155 120
4.327941e+000 3.425329e-001 -8.193580e+000 188 146 60
3.928755e-001 8.205442e-001 -8.029547e+000 75 62 67
-2.352871e-001 1.368442e+000 -9.322629e+000 210 220 208
-1.124559e-001 1.097909e+000 -9.009098e+000 198 223 213
-1.124559e-001 1.097909e+000 -9.009098e+000 198 223 213
1.762528e+000 2.205942e-001 -7.737149e+000 96 78 44
-3.288090e-001 9.746635e-001 -9.336607e+000 101 74 77
-7.414838e-001 1.118163e+000 -9.935916e+000 85 70 81
-7.181271e-001 1.122359e+000 -1.001056e+001 209 204 203
-9.164875e-001 1.009296e+000 -1.015975e+001 91 78 90
6.004360e-001 -3.069837e-001 -7.517451e+000 217 230 227
3.487221e+000 -7.452255e-001 -9.044324e+000 113 95 73
6.062089e-001 -7.484563e-001 -7.445198e+000 69 50 76
-8.410792e-001 4.142020e+000 -1.080156e+001 92 60 39
-7.646909e-001 4.071537e+000 -1.066149e+001 151 116 94
-8.425988e-002 3.030995e+000 -9.227612e+000 191 164 109
-1.379350e+000 4.317692e+000 -1.138129e+001 191 177 150
-1.359769e+000 4.444550e+000 -1.158935e+001 133 116 85
-4.542394e-001 3.567166e+000 -1.008951e+001 155 107 63
-2.121230e-001 2.960383e+000 -9.454993e+000 110 77 46
-1.502431e-001 2.960546e+000 -9.334589e+000 119 86 41
-1.395901e+000 4.071639e+000 -1.153134e+001 145 131 104
-8.999491e-001 3.196561e+000 -1.068018e+001 173 143 91
1.897254e+000 1.896407e+000 -9.077283e+000 119 105 68
-8.330076e-001 2.898194e+000 -1.059057e+001 162 113 82
2.047534e-001 1.667400e+000 -8.555375e+000 76 73 72
2.452844e+000 1.769328e+000 -9.480917e+000 148 134 99
2.731714e+000 1.922880e+000 -9.707101e+000 152 137 104
-1.657303e+000 3.269932e+000 -1.166201e+001 161 127 80
-9.868498e-001 2.623590e+000 -1.071786e+001 170 125 97
-5.956731e-001 2.347047e+000 -1.008291e+001 80 62 70
3.025545e+000 1.542581e+000 -9.904697e+000 56 39 19
4.344734e+000 4.928810e-001 -8.191298e+000 190 150 63
-1.068684e+000 2.474621e+000 -1.079606e+001 112 77 58
-1.538437e+000 2.577154e+000 -1.137345e+001 83 65 79
-8.813681e-001 1.075558e+000 -1.023379e+001 102 88 103
-7.819076e-001 1.063226e+000 -1.006263e+001 211 226 219
1.842141e+000 -1.921046e-001 -7.620411e+000 99 84 49
1.367286e+000 -1.191072e+000 -6.550883e+000 59 47 49
-2.033788e-001 -7.222823e-001 -8.685754e+000 215 231 221
-5.768024e-001 -7.846251e-001 -9.278955e+000 209 218 213
1.251101e+000 -1.556139e+000 -6.646641e+000 63 51 84
-1.234089e+000 4.223461e+000 -1.125595e+001 188 174 147
-1.234089e+000 4.223461e+000 -1.125595e+001 188 174 147
-3.944717e-001 3.435059e+000 -9.944285e+000 198 177 123
-3.572975e-001 3.225455e+000 -9.860544e+000 188 153 112
1.528676e+000 2.410403e+000 -9.013542e+000 156 140 106
-2.073123e+000 4.746435e+000 -1.231639e+001 72 70 81
2.790642e+000 2.967594e+000 -1.044611e+001 129 123 100
2.243794e+000 2.134022e+000 -9.403742e+000 159 146 108
3.604436e+000 1.911098e+000 -9.718387e+000 161 114 56
-1.266893e+000 2.390418e+000 -1.100829e+001 119 85 57
-3.361171e-001 8.057395e-001 -9.358489e+000 94 74 73
-1.012826e+000 3.398124e-001 -1.011782e+001 79 65 83
4.004144e-001 -8.451258e-001 -7.764775e+000 70 66 87
-7.457354e-001 -1.066764e+000 -9.403542e+000 215 231 220
-1.123146e+000 4.238129e+000 -1.103750e+001 191 178 146
-6.127918e-001 3.705143e+000 -1.036278e+001 193 160 107
2.719750e+000 1.865295e+000 -9.668579e+000 142 127 96
-1.110038e+000 2.881313e+000 -1.091258e+001 88 60 56
-1.829153e+000 3.344266e+000 -1.179375e+001 170 164 160
-3.737979e-001 1.948684e+000 -9.664769e+000 207 231 209
2.794337e+000 3.962609e-001 -8.909492e+000 144 128 95
-5.867615e-001 6.534151e-001 -9.714745e+000 97 74 100
-1.017644e+000 7.022428e-001 -1.027338e+001 211 218 215
-1.684411e-001 -4.603600e-001 -8.746697e+000 88 70 82
1.026988e+000 -1.362453e+000 -6.764083e+000 56 44 92
-2.287201e-001 -9.406894e-001 -8.649667e+000 97 57 78
3.337608e-001 2.289571e+000 -8.370285e+000 139 67 91
-1.725757e-001 2.616826e-001 -9.053470e+000 87 71 82
4.395966e-001 -6.085941e-001 -7.645413e+000 86 64 102
1.257531e-001 2.649018e+000 -8.855927e+000 213 226 209
1.451005e+000 1.360370e+000 -8.199259e+000 124 106 73
-9.039593e-001 3.787453e-001 -1.007771e+001 82 73 105
-1.078296e+000 3.937962e+000 -1.107966e+001 193 182 150
-2.466970e-001 2.162465e+000 -9.442425e+000 113 115 104
-2.466970e-001 2.162465e+000 -9.442425e+000 113 115 104
-4.076852e-001 2.030150e+000 -9.728570e+000 216 226 215
-1.586729e-001 1.904735e+000 -9.301145e+000 89 72 82
-9.926721e-001 1.984062e+000 -1.056587e+001 82 59 74
-1.169612e+000 1.876976e+000 -1.077524e+001 96 74 94
6.449513e-001 -2.018363e+000 -7.270027e+000 62 45 77
-9.498023e-001 7.521852e-001 -1.019881e+001 206 206 204
7.624596e-001 -1.270537e+000 -6.876352e+000 54 40 78
-1.092327e+000 1.175297e+000 -1.043460e+001 71 55 66
3.834507e-001 6.278339e-001 -8.049739e+000 88 70 89
-1.624365e+000 4.309939e+000 -1.185164e+001 176 164 139
-5.673531e-001 3.224189e+000 -1.010596e+001 193 173 118
-2.310216e-001 2.751475e+000 -9.578158e+000 135 86 49
-3.027610e-001 2.121417e+000 -9.599434e+000 99 82 82
1.394236e-001 1.345475e+000 -8.625550e+000 81 70 72
-5.803253e-001 1.069103e+000 -9.796879e+000 210 210 210
-1.040378e+000 8.489745e-001 -1.034631e+001 106 95 99
-7.038716e-001 6.365593e-001 -9.834499e+000 201 213 211
-6.455778e-001 6.676121e-001 -9.755584e+000 207 214 213
-1.053858e+000 4.606378e-001 -1.023262e+001 90 78 86
6.747500e-001 -5.808859e-001 -7.351217e+000 195 209 217
4.699922e-001 -6.386392e-001 -7.645281e+000 71 53 80
5.953758e-001 -7.030751e-001 -7.459970e+000 172 171 189
5.953758e-001 -7.030751e-001 -7.459970e+000 172 171 189
6.335684e-001 -7.316846e-001 -7.411681e+000 76 59 93
2.665028e-002 -7.837434e-001 -8.327263e+000 63 50 63
-1.405080e+000 4.109701e+000 -1.158541e+001 128 116 90
1.957546e+000 2.058506e+000 -9.178326e+000 156 143 108
2.123671e+000 2.085149e+000 -9.314180e+000 105 91 54
-5.090133e-001 2.489724e+000 -9.943731e+000 198 179 137
-9.137445e-001 2.484882e+000 -1.058855e+001 176 132 106
-6.607303e-001 2.037633e+000 -1.011206e+001 96 77 70
-1.063216e+000 1.544066e+000 -1.056318e+001 209 222 208
-2.150756e-001 1.014677e+000 -9.156538e+000 212 230 219
4.532280e-001 -2.394357e-002 -7.899997e+000 81 60 82
-2.714849e-001 2.432749e-001 -9.101549e+000 192 228 214
6.902936e-001 -4.772157e-001 -7.336900e+000 183 187 197
-2.551038e-001 2.913826e+000 -9.568241e+000 134 97 50
2.346717e+000 1.740307e+000 -9.383402e+000 86 75 43
-1.647405e+000 3.106918e+000 -1.162186e+001 152 121 74
-1.647405e+000 3.106918e+000 -1.162186e+001 152 121 74
3.454780e+000 1.260348e+000 -9.796585e+000 102 66 32
-7.043036e-001 1.473115e+000 -1.002058e+001 205 230 216
-7.043036e-001 1.473115e+000 -1.002058e+001 205 230 216
5.006515e-001 -7.472372e-001 -7.606809e+000 71 55 81
-1.416340e-001 2.310615e+000 -9.295800e+000 88 71 64
1.665449e-001 1.849422e+000 -8.650873e+000 89 79 82
-6.459115e-001 3.194827e+000 -1.032641e+001 200 179 130
1.774321e-001 1.084048e-001 -8.338138e+000 88 71 94
-6.933448e-001 2.649422e+000 -1.024219e+001 107 63 50
-3.883538e+001 2.535322e+001 -9.018983e+001 60 47 35
-2.496299e+001 3.052502e+001 -7.973389e+001 159 109 116
-2.805388e+001 2.754832e+001 -7.905806e+001 203 49 62
-2.983838e+001 2.554581e+001 -8.000444e+001 207 60 68
-2.422195e+001 3.083323e+001 -8.031337e+001 175 40 47
-2.155436e+001 2.731849e+001 -7.914457e+001 198 50 63
-2.155436e+001 2.731849e+001 -7.914457e+001 198 50 63
-1.967953e+001 2.320427e+001 -7.944363e+001 199 57 66
-2.315958e+001 3.052628e+001 -7.994375e+001 191 87 94
-2.442231e+001 3.013918e+001 -8.087882e+001 213 114 118
-2.339339e+001 3.008137e+001 -8.112057e+001 170 35 48
-2.760839e+001 2.731941e+001 -7.968350e+001 193 107 119
-2.143992e+001 2.427546e+001 -7.877158e+001 205 56 67
-1.832197e+001 2.200482e+001 -7.722080e+001 192 144 152
-2.529261e+001 2.495635e+001 -7.779778e+001 62 54 108
-1.949684e+001 2.416867e+001 -7.962912e+001 185 137 145
-2.322109e+001 2.901585e+001 -8.153309e+001 211 131 127
-2.084122e+001 2.712834e+001 -8.049120e+001 196 125 124
-3.057082e+001 2.519714e+001 -7.985579e+001 153 173 178
-2.335473e+001 2.348340e+001 -7.834119e+001 69 60 104
-2.362347e+001 2.656816e+001 -7.761662e+001 67 49 79
-2.938334e+001 2.768059e+001 -8.013180e+001 203 121 116
-3.128778e+001 2.733081e+001 -7.965848e+001 57 37 39
-2.390883e+001 2.492827e+001 -7.804176e+001 223 186 97
-2.386955e+001 2.488875e+001 -7.792366e+001 223 186 97
-1.396428e-001 2.078771e+000 -9.323935e+000 74 62 66
9.921775e-002 1.790990e+000 -8.769166e+000 74 63 68
-2.091850e-001 4.091661e-002 -8.998736e+000 222 232 226
-2.091850e-001 4.091661e-002 -8.998736e+000 222 232 226
6.919084e-001 -4.743972e-001 -7.346912e+000 213 214 226
6.841109e-001 -5.048318e-001 -7.333785e+000 60 43 75
-3.207851e-001 2.179953e+000 -9.628535e+000 85 67 73
2.898644e+000 1.657184e+000 -9.821052e+000 97 83 56
4.873539e-001 3.447645e-001 -7.845536e+000 105 66 71
-5.529912e-001 7.497661e-001 -9.672549e+000 78 63 72
4.040734e+000 4.307814e-002 -8.650390e+000 165 118 48
-2.237310e-001 3.381341e+000 -9.585336e+000 203 184 133
-1.326857e-001 3.045246e+000 -9.397157e+000 136 102 57
-9.064079e-001 2.960636e+000 -1.069672e+001 117 76 57
4.423062e-001 7.035260e-001 -8.003556e+000 209 226 220
-6.640216e-001 1.503268e+000 -1.004426e+001 64 51 78
-4.144351e-001 1.127511e+000 -9.530496e+000 106 77 82
5.332947e-001 5.271619e-002 -7.750683e+000 69 60 71
-4.559790e-001 8.524930e-001 -9.521012e+000 102 76 90
-2.111363e-001 3.649503e-001 -9.110171e+000 216 221 219
7.228229e-001 -5.973746e-001 -7.301828e+000 155 157 156
3.470252e-001 -5.555518e-001 -7.840576e+000 65 50 74
-8.255086e-001 2.951362e-001 -9.943056e+000 93 80 93
5.303664e-001 -8.114743e-001 -7.558716e+000 175 176 193
3.558409e-001 -7.834343e-001 -7.809039e+000 172 186 192
3.777494e-001 -9.044934e-001 -7.766569e+000 70 60 88
-2.386779e-001 -7.212192e-001 -8.757226e+000 213 230 222
-1.202385e+000 4.868477e+000 -1.142405e+001 119 105 84
-4.814179e-001 3.412273e+000 -1.007874e+001 202 180 130
-4.340821e-001 3.212017e+000 -1.000834e+001 125 87 53
-6.365686e-001 3.098532e+000 -1.034694e+001 143 111 55
-3.331258e-001 2.518291e+000 -9.721229e+000 76 57 80
2.990983e+000 1.839381e+000 -9.925995e+000 140 126 97
2.990983e+000 1.839381e+000 -9.925995e+000 140 126 97
-7.720595e-001 2.982922e+000 -1.047111e+001 152 109 62
-4.989201e-002 1.195887e+000 -8.918856e+000 96 67 81
5.404108e-001 7.581190e-002 -7.736852e+000 205 228 211
7.133863e-001 -5.038476e-001 -7.321265e+000 68 55 98
6.392847e-001 -5.583139e-001 -7.412482e+000 180 183 196
6.947452e-001 -6.324345e-001 -7.320083e+000 172 172 188
5.785825e-001 -5.549635e-001 -7.499802e+000 183 183 195
5.984189e-001 -5.690030e-001 -7.469223e+000 64 55 84
-8.650387e-001 5.437600e-001 -9.938298e+000 84 63 78
-5.484233e-001 2.243664e-001 -9.552205e+000 86 70 73
-5.484233e-001 2.243664e-001 -9.552205e+000 86 70 73
4.871688e-001 -6.347675e-001 -7.615653e+000 183 186 195
4.715807e-001 -6.297613e-001 -7.664233e+000 68 54 83
5.891282e-001 -7.696826e-001 -7.463773e+000 164 182 187
-8.380158e-001 3.414165e-001 -9.905344e+000 90 76 96
-9.262522e-001 3.077254e-001 -1.012643e+001 75 78 106
3.299106e-001 -7.972179e-001 -7.825786e+000 200 206 218
3.760897e-001 -7.939497e-001 -7.768053e+000 61 57 80
-5.337680e-001 -1.010079e+000 -9.079634e+000 207 209 208
-1.187851e+000 4.962050e+000 -1.141698e+001 195 207 192
-1.354554e-001 3.162198e+000 -9.395269e+000 137 92 60
-4.769182e-001 3.807363e+000 -1.019619e+001 154 111 64
-1.368516e+000 4.493976e+000 -1.165109e+001 130 116 89
2.323670e-002 1.682121e+000 -8.939887e+000 216 227 221
1.814221e-001 6.553802e-001 -8.404642e+000 77 60 79
-7.311509e-001 1.589481e+000 -1.008234e+001 70 56 71
-1.157039e+000 1.628786e+000 -1.069813e+001 210 229 225
1.231463e-001 -6.748351e-002 -8.405723e+000 206 231 215
1.231463e-001 -6.748351e-002 -8.405723e+000 206 231 215
5.383463e-001 -6.817676e-001 -7.537589e+000 187 204 204
6.420613e-001 -7.694813e-001 -7.396984e+000 195 202 209
1.266587e-001 -4.438694e-001 -8.258523e+000 209 231 211
4.927237e-001 -8.455984e-001 -7.605468e+000 58 49 80
4.101664e+000 7.663068e-001 -8.788185e+000 197 153 66
3.560498e-001 1.212517e+000 -8.285257e+000 72 56 63
3.560498e-001 1.212517e+000 -8.285257e+000 72 56 63
-3.938109e-001 1.406057e+000 -9.622223e+000 81 63 78
5.220834e-001 -7.105783e-001 -7.554430e+000 77 62 98
4.174588e-001 -9.119413e-001 -7.683660e+000 65 55 88
3.544483e-001 -9.548023e-001 -7.801993e+000 79 62 89
-1.735430e-001 -9.104218e-001 -8.587520e+000 76 56 78
-6.387241e-001 -8.681632e-001 -9.315112e+000 204 224 217
-6.394225e-001 -8.677766e-001 -9.315619e+000 204 224 217
7.427172e-001 -2.136585e+000 -7.256431e+000 26 13 30
-2.154113e+000 4.947464e+000 -1.255098e+001 81 85 97
-1.945189e-001 2.103309e+000 -9.374676e+000 208 230 217
1.745385e-001 1.136142e+000 -8.534742e+000 212 234 215
1.755761e-001 1.145009e+000 -8.549438e+000 212 234 215
-6.327510e-002 1.087798e+000 -8.953005e+000 97 75 84
-1.477184e+000 2.475661e+000 -1.129546e+001 74 63 78
-1.600428e-001 1.013310e+000 -9.104019e+000 103 61 75
-5.566547e-001 9.470032e-001 -9.722576e+000 107 72 96
-2.661290e-001 2.571826e-001 -9.077956e+000 214 235 221
-8.374902e-001 4.888249e-001 -9.974562e+000 95 73 94
-8.430297e-001 5.002049e-001 -9.997391e+000 95 73 94
-1.073091e+000 4.656360e+000 -1.121863e+001 209 224 203
2.916422e-001 1.685508e+000 -8.450536e+000 72 60 64
9.286990e-003 1.457672e+000 -8.932762e+000 86 72 95
1.202016e-001 1.232956e+000 -8.647612e+000 88 72 87
6.342026e-001 -4.595901e-001 -7.414664e+000 79 60 93
3.804969e-001 -9.241905e-001 -7.791758e+000 171 180 186
-3.059077e-001 2.419392e+000 -9.633002e+000 78 61 79
-3.059077e-001 2.419392e+000 -9.633002e+000 78 61 79
-1.324974e+000 3.354462e+000 -1.131871e+001 98 67 49
1.764659e-001 1.101329e+000 -8.577467e+000 208 230 218
-1.975829e-001 7.867084e-001 -9.155903e+000 210 229 216
-1.035383e+000 1.562396e+000 -1.053049e+001 213 231 218
1.691059e-001 1.023241e-001 -8.294740e+000 81 65 93
-7.436558e-001 -8.786401e-001 -9.435794e+000 60 48 54
-1.244708e+000 3.908158e+000 -1.136870e+001 191 182 153
-5.089194e-001 1.975328e+000 -9.921483e+000 147 140 140
-1.246973e+000 4.668696e+000 -1.145771e+001 192 181 150
-5.809724e-001 3.430800e+000 -1.019422e+001 179 160 104
-1.506768e+000 4.473097e+000 -1.172852e+001 182 177 148
-2.836139e+001 3.450274e+001 -8.009700e+001 140 112 142
-2.708112e+001 3.421716e+001 -7.989428e+001 216 106 123
-2.540936e+001 3.240039e+001 -8.125971e+001 204 123 122
-2.540936e+001 3.240039e+001 -8.125971e+001 204 123 122
-2.409910e+001 3.189918e+001 -7.782141e+001 177 15 35
-2.338342e-001 3.698834e-001 -9.082080e+000 80 73 78
-1.190319e+000 2.139358e+000 -1.085440e+001 126 93 60
-2.145002e-001 3.019751e+000 -9.536731e+000 113 81 34
7.611803e-001 -1.135345e+000 -6.835071e+000 59 46 91
1.029482e-001 3.308977e+000 -9.118889e+000 61 47 35
-1.950016e-001 3.328088e+000 -9.537165e+000 146 118 73
-3.571535e-001 3.066880e+000 -9.842755e+000 133 96 54
7.184212e-001 -6.106923e-001 -7.279696e+000 175 166 183
6.329355e-001 -7.348610e-001 -7.407390e+000 96 75 127
-1.017845e+000 1.616543e+000 -1.051854e+001 101 95 95
5.141003e-001 -6.650420e-001 -7.568582e+000 187 200 209
1.753860e-001 -3.870281e-001 -8.213884e+000 200 214 213
4.404463e-001 -7.585810e-001 -7.681512e+000 189 198 217
5.127033e-001 -8.259498e-001 -7.587652e+000 201 204 225
5.127033e-001 -8.259498e-001 -7.587652e+000 201 204 225
-2.410481e-003 -8.080166e-001 -8.324428e+000 67 57 75
-7.887080e-002 -8.426143e-001 -8.431708e+000 221 220 228
-4.313133e-001 -9.139014e-001 -8.969155e+000 79 59 70
-6.574775e-001 -8.883374e-001 -9.342538e+000 88 54 66
-6.645649e-001 -1.058218e+000 -9.271261e+000 219 212 215
-7.681831e-001 5.110468e+000 -1.084430e+001 154 162 145
-8.031152e-001 5.055483e+000 -1.086848e+001 169 173 158
-6.207595e-001 4.278558e+000 -1.039983e+001 101 65 39
-6.207595e-001 4.278558e+000 -1.039983e+001 101 65 39
-5.131975e-001 3.729555e+000 -1.024296e+001 158 115 69
-1.622337e-001 3.056077e+000 -9.462134e+000 123 89 44
-2.155635e-001 3.055232e+000 -9.569630e+000 116 84 36
-7.818819e-001 4.240978e+000 -1.074343e+001 102 67 47
-8.020928e-001 4.056527e+000 -1.075399e+001 139 107 82
-2.572396e-001 2.909319e+000 -9.568409e+000 132 98 51
2.966638e-001 1.587918e+000 -8.419721e+000 201 221 215
3.259774e-001 1.565154e+000 -8.384082e+000 59 48 46
-4.984232e-001 3.107135e+000 -1.012982e+001 198 178 127
-6.583667e-002 2.455062e+000 -9.289523e+000 76 58 71
-1.379839e-001 2.337408e+000 -9.310109e+000 80 57 58
-1.334124e+000 4.165206e+000 -1.152555e+001 136 120 95
-1.414944e+000 4.170546e+000 -1.165594e+001 146 130 105
-2.342503e-001 2.056966e+000 -9.413230e+000 72 56 67
-1.302654e+000 3.582236e+000 -1.132586e+001 144 104 68
-7.614294e-001 2.903971e+000 -1.045581e+001 168 123 84
5.985453e-001 8.043828e-002 -7.616392e+000 74 51 96
-1.080078e+000 2.810281e+000 -1.090380e+001 181 143 116
2.128739e-001 5.272666e-001 -8.371760e+000 78 58 67
-4.923011e-001 1.307524e+000 -9.718908e+000 84 60 77
6.930682e-001 -6.398905e-001 -7.307663e+000 197 196 216
7.108084e-001 -6.747848e-001 -7.308138e+000 64 49 88
6.843150e-001 -7.351193e-001 -7.320659e+000 197 197 207
6.843150e-001 -7.351193e-001 -7.320659e+000 197 197 207
1.630736e+000 -1.454892e+000 -6.628070e+000 24 16 31
-6.518476e-001 1.165162e+000 -9.940768e+000 198 219 211
4.665616e-001 -6.602403e-001 -7.608996e+000 84 64 92
4.865736e-001 -6.360911e-001 -7.613696e+000 199 213 218
5.520314e-001 -6.466661e-001 -7.526442e+000 63 52 83
-5.842014e-001 7.204512e-001 -9.699347e+000 203 219 219
4.985972e-001 -7.386659e-001 -7.601793e+000 70 51 83
4.419228e-001 -7.457545e-001 -7.654545e+000 72 54 94
-9.596424e-001 9.648046e-001 -1.031632e+001 206 220 213
-6.511406e-001 6.773903e-001 -9.775585e+000 202 219 215
3.279926e-001 -7.876993e-001 -7.843496e+000 197 207 218
-7.686193e-001 5.887555e-001 -9.897104e+000 194 217 209
-1.020870e+000 4.413349e-001 -1.019734e+001 202 201 214
-1.021228e+000 4.374156e-001 -1.018915e+001 202 201 214
-2.800882e-001 -8.795486e-001 -8.737239e+000 205 224 219
-2.800882e-001 -8.795486e-001 -8.737239e+000 205 224 219
-5.182678e-001 -1.038940e+000 -9.084299e+000 83 60 68
-4.605136e-001 -1.117227e+000 -9.002020e+000 77 60 78
-8.116176e-001 -9.143475e-001 -9.505288e+000 83 54 65
7.547349e-001 -2.169317e+000 -7.265472e+000 32 19 38
-5.354993e-001 3.587247e+000 -1.020370e+001 138 101 56
2.571116e-001 1.784333e+000 -8.489299e+000 206 215 214
-1.175489e+000 4.289683e+000 -1.135202e+001 142 124 98
-2.251286e-001 2.249710e+000 -9.431028e+000 208 225 212
1.038790e-001 1.742569e+000 -8.847048e+000 77 71 75
3.654486e-002 1.722689e+000 -8.914384e+000 74 69 73
1.636284e-001 1.384796e+000 -8.577883e+000 215 224 221
1.636284e-001 1.384796e+000 -8.577883e+000 215 224 221
-3.184190e-001 2.167427e+000 -9.613207e+000 71 59 68
-6.223703e-002 1.644146e+000 -9.055108e+000 83 71 79
3.478649e-001 8.177369e-001 -8.128837e+000 75 63 75
-1.585333e+000 4.072987e+000 -1.184497e+001 151 139 115
-7.351353e-002 1.599536e+000 -9.080358e+000 209 227 216
1.431771e-001 1.043140e+000 -8.615221e+000 86 60 77
-1.045726e+000 2.946402e+000 -1.089240e+001 107 70 51
-2.754018e-001 1.451299e+000 -9.384087e+000 77 63 69
-2.903688e-001 1.405414e+000 -9.419699e+000 214 217 212
6.485803e-001 -1.812892e-001 -7.495602e+000 76 55 99
-1.125955e+000 2.446281e+000 -1.086800e+001 141 104 48
7.189443e-001 -5.799928e-001 -7.271225e+000 63 47 93
1.375916e+000 -1.157081e+000 -6.658002e+000 53 39 54
-1.139848e+000 2.316368e+000 -1.081848e+001 168 132 70
-3.346731e-001 9.512820e-001 -9.297759e+000 88 60 72
6.732899e-001 -6.002355e-001 -7.371927e+000 65 52 82
1.682993e+000 -1.477457e+000 -6.550543e+000 88 80 108
-1.321732e+000 2.131486e+000 -1.104421e+001 77 59 85
-6.386139e-001 1.237231e+000 -9.936238e+000 92 72 88
-2.277636e-001 7.273288e-001 -9.177185e+000 88 71 77
-2.277636e-001 7.273288e-001 -9.177185e+000 88 71 77
6.057737e-001 -6.948081e-001 -7.427057e+000 72 56 92
1.619431e+000 -1.449870e+000 -6.596342e+000 89 79 106
-7.763119e-001 1.062534e+000 -1.006578e+001 210 227 221
-6.799353e-001 9.032957e-001 -9.864580e+000 211 226 222
-8.726000e-001 1.050648e+000 -1.018293e+001 97 83 102
1.092556e-001 -3.281487e-001 -8.350117e+000 207 228 221
9.836908e-002 -3.792321e-001 -8.334302e+000 77 52 69
-8.301637e-001 5.614755e-001 -9.970687e+000 195 227 218
-8.301637e-001 5.614755e-001 -9.970687e+000 195 227 218
2.482354e-002 -3.787083e-001 -8.461430e+000 203 224 213
2.482354e-002 -3.787083e-001 -8.461430e+000 203 224 213
-5.965357e-002 -3.903327e-001 -8.570888e+000 84 56 82
-5.730291e-002 -4.355057e-001 -8.573361e+000 204 223 221
-2.010811e-001 -5.438643e-001 -8.761378e+000 204 225 216
-7.691064e-001 -7.707764e-001 -9.478502e+000 76 55 62
-5.528138e-001 -1.034411e+000 -9.124952e+000 214 213 211
7.853294e-001 -2.104912e+000 -7.333873e+000 60 47 65
-7.834799e-001 5.298882e+000 -1.087392e+001 195 208 191
-7.036226e-001 4.978883e+000 -1.074384e+001 190 204 187
-1.400711e-002 3.254382e+000 -9.175239e+000 112 68 45
2.936471e-001 1.923358e+000 -8.469887e+000 209 220 212
-1.253897e+000 4.808280e+000 -1.144499e+001 182 175 149
3.472219e-001 1.547233e+000 -8.268719e+000 212 223 215
3.472219e-001 1.547233e+000 -8.268719e+000 212 223 215
2.570667e-001 1.588282e+000 -8.389170e+000 66 58 60
3.899999e-001 1.329065e+000 -8.207641e+000 198 229 213
-3.454411e-001 2.109458e+000 -9.634539e+000 217 227 218
6.268802e-002 1.052046e+000 -8.730856e+000 214 231 220
6.268802e-002 1.052046e+000 -8.730856e+000 214 231 220
4.391833e-001 2.989621e-001 -7.880182e+000 102 68 98
-6.825503e-001 1.987481e+000 -1.016856e+001 211 229 217
1.598128e-001 5.632201e-001 -8.466198e+000 206 230 216
1.598128e-001 5.632201e-001 -8.466198e+000 206 230 216
-3.132542e-001 8.900888e-001 -9.368222e+000 73 63 63
-3.371140e-001 7.904831e-001 -9.344027e+000 63 63 61
2.273617e-001 6.766855e-002 -8.315057e+000 203 232 220
6.222074e-001 -6.565575e-001 -7.437745e+000 73 61 91
5.573002e-001 -7.428608e-001 -7.488766e+000 69 59 92
-1.085906e+000 1.524580e+000 -1.060485e+001 83 67 71
-3.192388e-001 -5.794234e-001 -8.945382e+000 84 53 67
-1.670444e-001 -8.741512e-001 -8.596143e+000 78 60 84
-2.237040e-001 -9.388563e-001 -8.629625e+000 90 55 66
-6.049591e-001 -6.437320e-001 -9.287757e+000 79 60 66
-5.601240e-001 -7.399332e-001 -9.256350e+000 78 61 69
-5.595451e-001 -8.064096e-001 -9.229572e+000 219 225 224
-5.582122e-001 -8.086817e-001 -9.225589e+000 219 225 224
8.817396e-001 -2.311081e+000 -7.598267e+000 60 31 43
5.508899e-002 -2.249698e+000 -7.821823e+000 50 39 82
-3.402887e-002 3.023646e+000 -9.188608e+000 191 162 106
-7.181181e-001 3.906469e+000 -1.059307e+001 100 68 54
-4.992798e-001 3.343248e+000 -1.008727e+001 195 174 118
3.166615e-001 1.442990e+000 -8.388066e+000 67 56 58
-3.596385e-002 1.829758e+000 -9.022630e+000 210 228 212
-2.941177e-001 2.241058e+000 -9.586856e+000 218 226 213
-2.222660e+000 5.004164e+000 -1.281639e+001 150 167 175
1.278958e-002 1.368176e+000 -8.819285e+000 90 71 90
3.005789e-002 1.199619e+000 -8.836980e+000 93 71 97
-1.645150e-001 1.050333e+000 -9.152061e+000 110 68 75
-1.618763e+000 2.844075e+000 -1.150596e+001 71 64 80
-1.218310e+000 2.518911e+000 -1.099433e+001 187 158 100
-7.866785e-001 1.880032e+000 -1.028466e+001 212 231 223
-5.895025e-001 6.466778e-001 -9.702407e+000 86 72 97
-7.181054e-001 5.768422e-001 -9.861779e+000 102 62 88
-5.864861e-001 3.296496e-001 -9.539872e+000 108 74 88
-8.214116e-001 -7.544069e-001 -9.535494e+000 218 233 225
-8.214116e-001 -7.544069e-001 -9.535494e+000 218 233 225
-4.999242e-001 -1.174729e+000 -8.932715e+000 70 62 74
-1.293652e-001 3.345057e+000 -9.494327e+000 121 83 63
-2.010896e+000 4.406195e+000 -1.251250e+001 167 169 158
5.317776e-001 -2.889225e-002 -7.723843e+000 81 66 93
-6.123481e-001 1.458892e+000 -9.800024e+000 77 65 90
-6.216180e-001 1.557934e+000 -9.936689e+000 77 65 90
-4.423756e-001 1.023787e+000 -9.572094e+000 112 72 94
5.873133e-001 -6.015494e-001 -7.468870e+000 145 142 161
3.736375e-001 -4.241631e-001 -7.880544e+000 74 60 95
-7.643422e-001 4.811315e-001 -9.886416e+000 116 76 98
3.812587e-001 -9.303571e-001 -7.781326e+000 198 210 217
1.569776e+000 -2.198670e+000 -7.511153e+000 60 19 59
4.170906e-001 -2.433790e+000 -7.910272e+000 31 11 20
4.170906e-001 -2.433790e+000 -7.910272e+000 31 11 20
-5.510695e-001 4.390207e+000 -1.038215e+001 184 154 94
1.308060e-001 2.632216e+000 -8.842153e+000 208 225 209
-2.675507e-001 3.187697e+000 -9.711590e+000 185 153 110
3.249161e-001 7.602661e-001 -8.157818e+000 205 225 213
2.793455e-001 7.288118e-001 -8.266284e+000 80 68 79
3.662863e-001 5.778616e-001 -8.145238e+000 214 231 221
3.662863e-001 5.778616e-001 -8.145238e+000 214 231 221
-7.651741e-001 2.386815e+000 -1.036935e+001 182 152 100
-8.665425e-003 9.105042e-001 -8.843953e+000 206 230 217
3.440105e-001 -3.872685e-002 -8.101717e+000 82 61 99
-1.324874e+000 2.224320e+000 -1.104442e+001 171 140 89
-1.324874e+000 2.224320e+000 -1.104442e+001 171 140 89
-1.033174e+000 1.556462e+000 -1.052343e+001 216 228 219
4.638232e-001 -8.826415e-001 -7.674596e+000 67 54 81
8.136374e-001 -2.114792e+000 -7.364642e+000 55 41 66
-8.821361e-001 4.833148e+000 -1.086880e+001 194 202 188
-1.095584e+000 4.914372e+000 -1.135470e+001 195 206 190
2.361169e-001 5.465649e-001 -8.303903e+000 210 230 221
3.950571e-001 -3.663061e-001 -7.805450e+000 206 226 215
1.508018e+000 -1.499944e+000 -6.842683e+000 51 43 56
7.911192e-001 -1.732079e+000 -7.259666e+000 79 77 116
7.871180e-001 -1.736682e+000 -7.247562e+000 79 77 116
6.441298e-001 -2.010320e+000 -7.217607e+000 50 33 75
1.581549e+000 -2.288666e+000 -7.745411e+000 79 26 103
1.068816e-001 7.781498e-001 -8.544177e+000 80 64 92
-1.086145e+000 2.331821e+000 -1.074961e+001 186 152 97
-1.086145e+000 2.331821e+000 -1.074961e+001 186 152 97
1.342501e+000 -1.140763e+000 -6.692013e+000 110 98 134
5.953922e-001 -3.998567e-001 -7.545369e+000 66 51 82
-8.460324e-001 1.457225e+000 -1.037133e+001 72 58 75
2.633540e-001 -7.793183e-001 -7.967009e+000 76 55 97
2.633540e-001 -7.793183e-001 -7.967009e+000 76 55 97
-1.758301e-002 -6.678889e-001 -8.430590e+000 123 111 127
1.620326e+000 -2.253587e+000 -7.625483e+000 157 127 191
1.620326e+000 -2.253587e+000 -7.625483e+000 157 127 191
1.825989e-001 3.095382e-001 -8.350850e+000 71 60 90
-7.964925e-001 -2.876816e-001 -9.602122e+000 214 233 224
-3.997326e-002 -9.863549e-001 -8.459265e+000 77 64 108
1.437128e+000 -2.316853e+000 -7.631230e+000 60 27 51
-3.817157e+001 -1.869260e+001 -6.937670e+001 86 79 72
-4.360021e+001 -2.211970e+001 -7.523375e+001 168 151 143
-4.150689e+001 -2.188082e+001 -7.355408e+001 162 156 144
-4.037760e+001 -2.120525e+001 -7.165441e+001 162 156 144
-3.577848e+001 -2.934796e+001 -7.284645e+001 116 121 115
-2.971708e+001 -2.904521e+001 -7.277894e+001 122 134 124
-2.568174e+001 -2.926838e+001 -7.530002e+001 123 129 115
-2.625168e+001 -3.045460e+001 -7.159228e+001 178 182 165
-3.048550e+001 -2.860779e+001 -7.663497e+001 121 130 117
-2.757931e+001 -3.271172e+001 -6.933613e+001 107 115 100
-3.218507e+001 -2.910938e+001 -7.162200e+001 170 180 169
-3.100027e+001 -2.968437e+001 -7.083949e+001 96 78 65
-2.527787e+001 -3.000658e+001 -7.211027e+001 95 72 64
-2.381086e+001 -2.957914e+001 -7.346301e+001 155 165 156
-3.051950e+001 -3.207899e+001 -6.884183e+001 154 152 139
-2.919606e+001 -3.230179e+001 -6.957059e+001 193 197 182
-2.919606e+001 -3.230179e+001 -6.957059e+001 193 197 182
-2.906808e+001 -1.334673e+001 -5.833272e+001 45 39 35
-2.800821e+001 -2.874946e+001 -7.191047e+001 177 187 176
-3.505323e+001 -2.978582e+001 -6.681665e+001 130 132 121
-2.548285e+001 -3.350192e+001 -7.219653e+001 44 39 39
-3.057365e+001 -3.081221e+001 -6.975820e+001 207 219 208
-3.329091e+001 -2.925315e+001 -6.976789e+001 89 80 74
-3.359740e+001 -3.172980e+001 -6.963535e+001 188 188 178
-2.643983e+001 -3.186269e+001 -7.125339e+001 197 206 187
-9.948201e-001 2.560143e+000 -1.070905e+001 105 58 48
-1.282014e+000 2.365623e+000 -1.104408e+001 105 69 37
7.969212e-002 2.182587e+000 -8.900078e+000 94 64 81
2.959264e+000 1.503039e+000 -9.786399e+000 45 29 12
-5.195760e-001 2.915623e+000 -1.010018e+001 183 146 87
1.943252e+000 2.615653e+000 -9.465722e+000 125 104 73
-1.099293e+000 1.583570e+000 -1.056077e+001 80 67 68
1.853909e+000 8.349529e-001 -8.158531e+000 128 108 71
2.365913e+000 2.902123e+000 -9.992661e+000 79 71 52
1.227481e+000 2.427387e+000 -8.700599e+000 80 60 36
1.546059e+000 2.488785e+000 -9.083138e+000 120 103 66
-5.546335e-001 3.182519e+000 -1.011017e+001 94 59 38
-8.713850e-001 2.906526e+000 -1.065976e+001 174 119 92
-1.131674e+000 2.744026e+000 -1.101120e+001 199 155 126
-1.231600e+000 2.191442e+000 -1.085622e+001 152 112 64
-9.443544e-001 2.337976e+000 -1.061817e+001 125 70 47
-5.561373e-001 1.842011e+000 -9.911456e+000 113 90 102
-1.122305e+000 2.706538e+000 -1.091807e+001 120 68 48
-5.693860e-001 2.412387e+000 -1.002991e+001 192 164 128
-9.100368e-002 2.491211e+000 -9.135379e+000 77 55 56
-6.315707e-001 2.053629e+000 -1.001307e+001 92 63 67
-7.477988e-001 1.961711e+000 -1.017210e+001 79 57 56
-1.114440e+000 1.681489e+000 -1.064087e+001 73 57 62
-6.790546e-002 1.784712e+000 -9.085498e+000 65 51 58
-7.766240e-001 -8.321619e-001 -9.385198e+000 175 165 173
-4.664503e-001 -9.892068e-001 -8.857026e+000 191 178 188
-1.006387e+000 3.004463e+000 -1.085897e+001 143 95 57
1.994963e-002 3.120981e+000 -9.090564e+000 181 136 71
-7.745077e-001 2.673499e+000 -1.042485e+001 99 56 43
-5.620579e-001 2.731284e+000 -1.015500e+001 189 149 82
-3.405319e-001 2.729239e+000 -9.706679e+000 181 143 81
-2.209684e-001 2.764515e+000 -9.550542e+000 201 166 110
-1.008579e+000 1.750695e+000 -1.046574e+001 81 66 73
-1.045423e+000 1.482881e+000 -1.049820e+001 74 61 69
-5.166885e-001 1.368958e+000 -9.681848e+000 205 221 210
-1.875491e-001 1.535582e+000 -9.062572e+000 88 72 83
-3.673145e-001 9.191450e-001 -9.343529e+000 213 221 221
-2.590923e-001 9.986282e-001 -9.316102e+000 88 58 67
1.601194e-001 6.745742e-001 -8.284284e+000 214 227 215
-6.236948e-001 -8.289507e-001 -9.170764e+000 194 192 195
-6.236948e-001 -8.289507e-001 -9.170764e+000 194 192 195
-4.150897e-002 -3.531035e-001 -8.387512e+000 204 205 207
-5.397994e-001 3.050721e+000 -1.015721e+001 205 173 119
-5.095303e-001 2.998243e+000 -1.009265e+001 160 96 55
1.099722e+000 3.188453e+000 -9.041932e+000 129 106 73
-6.005914e-001 2.366123e+000 -1.008430e+001 78 59 60
-3.250767e-001 2.210539e+000 -9.554898e+000 87 76 84
-3.250767e-001 2.210539e+000 -9.554898e+000 87 76 84
-1.031366e+000 1.524347e+000 -1.037062e+001 72 58 68
-8.417149e-001 1.594547e+000 -1.016767e+001 215 225 211
2.704102e-001 1.950284e+000 -8.406641e+000 206 226 214
-6.669690e-001 5.602353e-001 -9.641308e+000 212 228 212
-5.797627e-001 3.661682e-001 -9.640255e+000 98 74 84
1.289041e+000 1.496102e+000 -8.078727e+000 128 109 73
1.852580e+000 1.199105e+000 -8.439212e+000 130 111 74
-2.022410e-001 -4.370821e-001 -8.643385e+000 211 220 218
2.753521e+000 1.525461e-001 -8.722021e+000 108 88 53
2.753521e+000 1.525461e-001 -8.722021e+000 108 88 53
-4.498396e-001 -8.477743e-001 -8.880633e+000 204 203 209
8.226340e-002 -3.886955e-001 -8.279529e+000 108 61 97
-1.222031e-002 3.290656e+000 -9.102960e+000 114 65 48
1.808193e+000 3.479274e+000 -9.869112e+000 94 73 41
1.841598e+000 3.468734e+000 -1.000987e+001 94 73 41
6.711258e-003 3.073465e+000 -9.019374e+000 185 138 72
1.624950e+000 3.252341e+000 -9.700508e+000 121 100 63
1.655109e+000 3.200914e+000 -9.672209e+000 65 58 41
1.536844e+000 3.088818e+000 -9.415540e+000 127 107 73
-7.079468e-001 2.435593e+000 -1.027170e+001 177 110 70
1.802765e+000 3.049951e+000 -9.589765e+000 114 94 62
2.329061e+000 2.992085e+000 -1.013172e+001 111 88 67
2.297686e+000 2.864594e+000 -9.933307e+000 123 98 57
2.503635e+000 2.866928e+000 -1.011318e+001 64 55 42
-3.155608e-001 2.279245e+000 -9.581060e+000 220 223 216
2.633542e+000 2.712748e+000 -1.030540e+001 56 38 14
-8.190539e-001 1.901508e+000 -1.027930e+001 211 226 215
-3.804163e-001 2.158816e+000 -9.639263e+000 216 221 212
1.477689e+000 2.656040e+000 -9.106170e+000 80 63 35
2.255975e+000 2.625363e+000 -9.803583e+000 68 45 19
-1.660089e-001 2.101622e+000 -9.247504e+000 213 220 213
-1.660089e-001 2.101622e+000 -9.247504e+000 213 220 213
2.820263e+000 2.492982e+000 -1.029565e+001 81 57 36
-3.449976e-001 1.954183e+000 -9.524099e+000 212 224 216
-3.472474e-001 1.936420e+000 -9.584796e+000 212 224 216
1.471115e+000 2.410377e+000 -8.977546e+000 125 105 66
1.957912e+000 2.384992e+000 -9.360405e+000 79 57 28
2.294364e+000 2.445500e+000 -9.625411e+000 85 65 39
2.832635e+000 2.319778e+000 -1.017108e+001 69 44 22
8.719756e-002 1.894038e+000 -8.743001e+000 212 224 214
1.340723e+000 2.164794e+000 -8.663013e+000 131 112 72
2.160934e+000 2.203262e+000 -9.472506e+000 123 101 62
2.635503e+000 2.201367e+000 -9.771287e+000 82 58 35
1.895712e+000 2.008919e+000 -9.102458e+000 81 61 35
2.890762e+000 2.038363e+000 -9.980917e+000 81 57 29
1.716838e+000 1.905381e+000 -8.987014e+000 82 60 33
2.795526e+000 1.690091e+000 -9.774845e+000 108 83 53
3.752019e+000 1.819726e+000 -9.761149e+000 150 116 52
3.014796e+000 1.236195e+000 -9.782424e+000 70 47 30
2.098649e+000 1.348766e+000 -8.872738e+000 79 62 35
2.828563e+000 1.237879e+000 -9.548345e+000 112 87 57
2.111979e+000 1.212237e+000 -8.779394e+000 126 104 67
1.779399e+000 1.257676e+000 -8.409115e+000 60 43 17
1.974456e+000 1.044827e+000 -8.432046e+000 75 63 47
2.696180e+000 7.327281e-001 -9.012497e+000 114 96 58
2.696180e+000 7.327281e-001 -9.012497e+000 114 96 58
2.714191e+000 6.740301e-001 -9.003485e+000 60 40 15
-6.599113e-001 -5.518680e-001 -9.346262e+000 211 221 213
-2.993153e-001 -3.028239e-001 -8.895213e+000 209 222 213
1.403547e-001 1.362924e-002 -8.310417e+000 216 224 214
