ply
format ascii 1.0
element face 0
property list uchar int vertex_indices
element vertex 885
property float x
property float y
property float z
property uchar diffuse_red
property uchar diffuse_green
property uchar diffuse_blue
end_header
-3.451267e+001 7.270575e+000 -8.409544e+001 155 126 109
-3.169727e+001 6.715554e+000 -7.919250e+001 134 54 63
-6.512842e+001 1.168668e+001 -1.181428e+002 202 56 75
-3.401886e+001 5.252734e+000 -7.419882e+001 161 126 89
-3.528571e+001 4.943968e+000 -8.019092e+001 156 124 84
-3.689487e+001 4.709597e+000 -8.131814e+001 185 153 115
-1.946493e+001 9.193175e-001 -6.672573e+001 196 106 110
-2.451153e+001 -1.060452e+000 -6.539844e+001 176 30 37
-1.110670e+000 2.695319e+000 -1.031125e+001 198 181 134
-1.995837e+000 2.945284e+000 -1.165954e+001 77 49 37
-1.723391e-001 3.620363e-001 -8.182311e+000 205 228 212
-1.174023e+000 3.655495e-001 -9.867994e+000 100 66 90
-1.357074e+000 2.673369e-001 -1.000085e+001 108 78 95
-6.128262e+001 1.734783e+001 -1.090487e+002 129 69 91
-1.937824e+001 3.887192e+000 -7.329314e+001 165 41 52
-3.931058e+001 5.828809e+000 -9.199596e+001 182 146 112
-1.861211e+001 2.647115e+000 -6.796046e+001 197 126 124
-3.725166e+001 4.260866e+000 -7.867145e+001 157 123 88
-3.712121e+001 3.589188e+000 -8.321779e+001 154 124 88
-2.829209e+001 2.076205e+000 -7.393666e+001 198 120 121
-3.281119e+001 2.987865e+000 -9.209762e+001 183 39 52
-2.244527e+001 -2.713852e-001 -7.921292e+001 186 127 125
-5.413621e+001 4.034182e+000 -9.451817e+001 188 35 52
-3.452766e+001 1.239245e+000 -7.818079e+001 136 121 100
-1.658607e+001 -1.068109e+000 -6.322078e+001 175 40 48
-6.185458e-001 2.042395e+000 -9.394725e+000 91 71 80
-2.552095e-001 4.565163e-001 -8.205053e+000 91 75 94
-5.635439e+001 1.482983e+001 -1.058420e+002 75 49 69
-2.670315e+001 7.208029e+000 -7.311059e+001 203 200 191
-2.670315e+001 7.208029e+000 -7.311059e+001 203 200 191
-2.969359e+001 7.684163e+000 -7.686687e+001 54 30 59
-2.061459e+001 4.727356e+000 -6.861629e+001 44 32 53
-6.052514e+001 1.270674e+001 -1.108804e+002 61 35 46
-6.923651e+001 1.486367e+001 -1.313696e+002 164 141 97
-4.847805e+001 9.054422e+000 -9.961768e+001 164 90 71
-2.661526e+001 4.123489e+000 -7.176871e+001 199 47 60
-1.769582e+001 4.794767e-001 -6.841535e+001 180 126 121
-5.156694e+001 4.307851e+000 -9.558068e+001 207 53 65
-5.156694e+001 4.307851e+000 -9.558068e+001 207 53 65
-2.559288e+001 1.439351e-001 -6.678515e+001 203 122 120
-6.853475e-001 -1.552637e-001 -8.994015e+000 75 62 72
-3.433218e+001 1.461551e+000 -8.120486e+001 184 146 122
-6.005026e+001 1.184513e+001 -1.084749e+002 102 41 49
-6.005026e+001 1.184513e+001 -1.084749e+002 102 41 49
-5.619371e+001 1.168699e+001 -1.093049e+002 167 141 93
-3.754394e+001 1.177095e+001 -8.834718e+001 189 154 124
-2.030865e+001 3.306545e+000 -7.100269e+001 168 89 87
4.466824e+000 2.041727e+000 -8.785002e+000 171 125 48
1.165855e+000 2.009388e+000 -8.266872e+000 82 68 23
1.405526e+000 2.223090e+000 -8.717583e+000 129 114 74
1.843792e+000 2.348301e+000 -9.083753e+000 74 59 27
-1.103297e+000 3.154603e+000 -1.050744e+001 160 116 58
-1.672828e+000 3.069133e+000 -1.121916e+001 198 165 134
3.102770e+000 1.405458e+000 -9.710445e+000 76 62 35
-8.641293e-001 7.151037e-001 -9.483104e+000 204 225 216
-2.483873e-001 -7.881389e-001 -7.999046e+000 86 56 76
-2.176807e-001 -7.923356e-001 -7.956272e+000 193 225 208
3.824027e-001 -1.090154e+000 -6.883220e+000 176 171 191
2.392375e+000 2.374924e+000 -9.440239e+000 94 76 40
-1.160036e+000 3.105934e+000 -1.062898e+001 193 153 99
1.806832e+000 1.642006e+000 -8.695050e+000 82 67 33
-1.453886e-001 1.573737e+000 -8.348440e+000 76 53 68
3.257149e+000 1.560943e+000 -9.839713e+000 102 84 60
-1.141322e+000 7.952899e-001 -9.895800e+000 207 233 216
2.020643e+000 2.377549e+000 -9.223192e+000 123 109 70
2.415832e+000 1.959201e+000 -9.365009e+000 125 112 70
-1.335330e+000 9.601801e-001 -1.020438e+001 203 227 213
2.912986e+000 -1.051468e+000 -7.851964e+000 126 107 61
3.419843e+000 -1.209773e+000 -8.369750e+000 99 81 45
4.039739e+000 2.284988e+000 -9.464070e+000 159 126 52
-2.721691e-001 1.854736e+000 -8.664091e+000 78 65 82
-8.291001e-001 2.004068e+000 -9.685819e+000 210 228 209
-6.752634e-001 -3.150795e-001 -8.881915e+000 208 228 216
-6.752650e-001 -1.196706e+000 -8.518613e+000 202 219 208
-4.068871e+001 6.131302e+000 -1.009888e+002 147 66 72
-3.189573e+001 -1.224275e+000 -7.348857e+001 149 122 88
-3.391962e+001 1.095383e+001 -8.227518e+001 167 126 102
-2.326047e+001 1.093332e+001 -8.991497e+001 160 45 53
-3.152906e+001 7.400113e+000 -8.008748e+001 147 52 66
-3.173410e+001 4.040662e+000 -7.739848e+001 141 102 87
-1.880986e+001 1.656405e+000 -6.656528e+001 180 45 51
-1.643671e+001 9.700656e-001 -6.597136e+001 181 42 55
-2.363936e+001 -1.462696e+000 -6.445178e+001 157 89 94
-4.047577e+001 -1.739016e+000 -8.360553e+001 151 117 85
-5.668726e+001 -2.700412e+000 -1.027983e+002 171 45 65
-3.665317e+001 -3.653889e+000 -7.728635e+001 102 81 59
-4.560478e+001 -5.097730e+000 -8.543680e+001 161 136 72
-4.560478e+001 -5.097730e+000 -8.543680e+001 161 136 72
2.410897e-001 -7.509146e-001 -7.201179e+000 82 65 92
-4.477075e+001 1.900038e+001 -9.938389e+001 174 147 98
-7.465461e+001 2.455327e+001 -1.320302e+002 152 143 146
-2.093442e+001 3.655945e+000 -6.892386e+001 115 116 135
-5.325261e+001 7.870514e+000 -9.467065e+001 207 41 63
-2.049715e+001 1.404644e+000 -6.783720e+001 75 47 73
-3.705894e+001 -3.952163e-001 -7.539373e+001 152 119 84
-3.373879e+001 -1.281401e+000 -7.594220e+001 177 137 111
-2.028540e+001 -1.212722e+000 -5.711033e+001 44 31 52
-2.069762e+001 -2.319355e+000 -6.916591e+001 103 40 45
-3.531747e+001 -2.889084e+000 -7.925182e+001 139 103 77
-3.743637e+001 -2.629201e+000 -9.037929e+001 85 42 43
-2.541167e+001 -2.738834e+000 -6.420273e+001 90 56 81
-5.069960e+001 -2.893364e+000 -9.042385e+001 70 33 56
-3.756643e+001 -3.582133e+000 -8.103497e+001 126 103 78
-2.533827e+001 -4.915518e+000 -6.238998e+001 62 50 52
-5.062541e+001 6.102109e-001 -8.894725e+001 49 27 62
-4.718295e+001 -3.540790e+000 -8.911220e+001 142 113 87
-1.760672e+001 -4.842753e+000 -6.500639e+001 179 38 47
-2.233043e-001 1.969622e-001 -8.252694e+000 84 68 88
-1.587722e-001 -1.319580e-001 -7.962102e+000 81 65 92
-4.029668e+001 7.167954e+000 -8.586014e+001 195 151 114
-5.384776e+001 -7.390406e-002 -9.774651e+001 195 42 54
-3.756058e+001 -2.761758e-001 -7.843320e+001 184 150 111
-5.121667e+001 -1.487120e+000 -9.098949e+001 80 41 61
-3.223823e+001 -1.998960e+000 -7.550120e+001 173 147 110
-3.223823e+001 -1.998960e+000 -7.550120e+001 173 147 110
-1.588484e+001 -4.618406e+000 -6.358805e+001 204 129 128
1.207822e+000 4.760490e-001 -7.314898e+000 124 107 63
-5.070317e+001 6.783623e+000 -8.773008e+001 229 221 219
-5.070317e+001 6.783623e+000 -8.773008e+001 229 221 219
-1.597666e+001 -1.599096e+000 -6.547019e+001 162 117 108
-1.833928e+001 -2.825592e+000 -6.452070e+001 175 39 48
-5.133343e+001 -4.055612e+000 -9.400706e+001 49 34 60
-2.601183e+001 -2.397061e+000 -6.936098e+001 172 80 77
-2.168937e+001 -2.901927e+000 -6.572445e+001 36 28 49
-2.926694e+001 -4.144303e+000 -7.181875e+001 148 119 107
-1.967834e+001 -4.067142e+000 -6.461049e+001 201 158 53
-1.768452e+001 -6.337312e+000 -6.615040e+001 36 27 24
-4.126883e+001 2.216196e+000 -8.494709e+001 193 159 121
-2.086475e+001 5.981536e-001 -6.328499e+001 36 26 50
-1.607739e+000 3.338764e+000 -1.121899e+001 138 101 57
-9.407459e-001 2.670697e+000 -1.011314e+001 170 139 132
-1.695107e+000 3.049014e+000 -1.110872e+001 100 71 55
-1.737443e+000 2.629253e+000 -1.116946e+001 118 91 40
1.692549e+000 1.484373e+000 -8.459723e+000 84 69 30
-1.891719e+000 2.219317e+000 -1.123321e+001 189 160 117
-1.849141e+000 2.161325e+000 -1.122103e+001 166 149 123
-7.564314e-001 1.401784e+000 -9.456425e+000 217 219 212
-5.360911e-001 9.846762e-001 -8.928836e+000 219 230 226
-5.360911e-001 9.846762e-001 -8.928836e+000 219 230 226
-1.523896e+000 2.469738e-001 -1.017490e+001 197 212 208
-6.646065e-001 8.317856e-002 -8.970747e+000 199 229 215
1.760412e+000 -5.765181e-001 -7.205253e+000 52 44 23
-5.100636e-001 -8.701453e-001 -8.341060e+000 73 50 59
-6.836831e-001 -1.023460e+000 -8.607130e+000 71 58 59
-1.114646e+000 -1.602047e+000 -9.046478e+000 206 204 200
2.688765e+000 2.364718e+000 -9.694181e+000 90 76 41
1.618970e+000 1.936654e+000 -8.714847e+000 127 112 73
1.618970e+000 1.936654e+000 -8.714847e+000 127 112 73
-1.472236e+000 2.681592e+000 -1.081243e+001 188 147 126
-2.894687e-001 1.739927e+000 -8.633450e+000 71 61 65
1.251325e+000 1.206580e+000 -7.769513e+000 122 108 69
-1.734366e+000 2.195508e+000 -1.099300e+001 152 126 106
2.207582e+000 1.557744e+000 -9.023659e+000 72 58 20
2.894679e+000 1.493267e+000 -9.558322e+000 118 104 70
3.351255e+000 1.390343e+000 -9.773484e+000 85 70 49
-1.718133e+000 1.681668e+000 -1.086459e+001 88 74 73
-1.709814e+000 1.569123e+000 -1.084373e+001 74 69 69
1.578055e+000 3.493582e-001 -7.499073e+000 126 111 68
2.986760e+000 -6.650551e-002 -8.626887e+000 113 97 64
3.135664e-001 -1.010264e+000 -6.994339e+000 184 187 199
1.735185e-001 -1.096025e+000 -7.269679e+000 62 50 72
-7.397239e-001 -1.196124e+000 -8.607222e+000 197 218 213
-9.451692e-001 -1.444913e+000 -8.827687e+000 210 221 217
-5.118975e-001 -1.335388e+000 -8.191231e+000 212 215 220
-1.195943e+000 -1.573979e+000 -9.169634e+000 201 203 200
1.650194e+000 2.314516e+000 -8.932747e+000 130 116 78
2.790050e+000 2.212892e+000 -9.667624e+000 77 62 26
1.111328e+000 1.512720e+000 -7.888204e+000 69 53 19
1.111328e+000 1.512720e+000 -7.888204e+000 69 53 19
2.092641e+000 1.871715e+000 -9.096947e+000 118 103 64
2.607026e+000 1.927213e+000 -9.449440e+000 121 108 66
2.702143e+000 1.976457e+000 -9.507680e+000 77 62 29
3.081808e+000 1.991101e+000 -9.807700e+000 110 97 62
3.081808e+000 1.991101e+000 -9.807700e+000 110 97 62
-1.782848e-001 1.607072e+000 -8.406594e+000 202 223 207
3.113579e+000 1.917022e+000 -9.791738e+000 79 66 34
3.092207e+000 1.518986e+000 -9.698926e+000 64 47 21
1.450663e+000 5.250342e-001 -7.444702e+000 128 109 71
-4.695177e-001 7.131793e-001 -8.784219e+000 89 58 74
3.249211e+000 3.001454e-001 -9.062632e+000 76 58 34
3.432593e+000 -7.870428e-002 -9.011884e+000 69 52 27
-2.683119e-001 -8.244978e-001 -7.987320e+000 200 220 216
1.515891e-001 -1.345400e+000 -7.195618e+000 62 46 72
2.048210e+000 2.004044e+000 -9.102201e+000 119 105 68
-1.071539e+000 2.145119e+000 -1.009238e+001 213 225 215
-3.486357e+001 2.031660e+001 -8.783515e+001 128 96 118
1.634764e+000 3.034677e-001 -7.528588e+000 62 45 13
-1.604547e+000 8.484008e-001 -1.051058e+001 86 73 90
1.531852e+000 1.487915e-001 -7.363431e+000 125 111 70
1.580812e+000 -3.385472e-001 -7.160958e+000 122 106 63
-1.559393e+000 2.312933e-002 -1.024178e+001 201 230 214
2.813528e+000 -4.227588e-001 -8.252982e+000 63 48 16
2.758923e+000 -4.736242e-001 -8.193354e+000 124 106 62
2.889908e-001 -6.714988e-001 -7.140085e+000 211 228 212
2.889908e-001 -6.714988e-001 -7.140085e+000 211 228 212
-2.992345e+001 4.566335e+000 -7.186843e+001 138 102 80
-2.242988e+001 3.195024e+000 -7.209141e+001 51 42 71
-2.228847e+001 2.956132e+000 -7.385864e+001 120 115 130
-2.048681e+001 3.507309e+000 -7.157620e+001 167 77 74
3.648849e+000 -1.240062e+000 -8.628374e+000 43 30 11
4.066832e-002 -1.345878e+000 -7.395300e+000 76 63 91
-2.624529e+001 -4.002063e+000 -6.680677e+001 86 40 56
-1.819680e+000 2.653314e+000 -1.127468e+001 186 161 100
-1.004773e-002 1.079153e+000 -7.976344e+000 78 67 75
1.902268e+000 1.812118e-001 -7.719705e+000 133 116 70
-2.987868e+001 1.415498e+001 -7.825143e+001 127 113 130
-2.763643e+001 1.389467e+001 -7.692878e+001 163 171 156
2.947570e+000 1.725291e-001 -8.695124e+000 124 106 63
-3.765091e+001 4.440366e+000 -9.323355e+001 108 52 62
-2.023189e+001 2.051222e+000 -6.826448e+001 172 114 115
2.988434e-001 -1.147229e+000 -7.037745e+000 84 66 88
-2.541167e+001 -2.738834e+000 -6.420273e+001 90 56 81
-1.006517e+000 -1.701582e+000 -8.783744e+000 60 51 64
-1.766266e+000 2.808592e+000 -1.123180e+001 186 167 110
-5.264028e+001 2.368614e+001 -1.093827e+002 171 102 60
-5.264028e+001 2.368614e+001 -1.093827e+002 171 102 60
-3.492831e+001 1.359184e+001 -8.037400e+001 171 151 100
2.711374e+000 -9.530450e-003 -8.439395e+000 122 105 59
-6.950435e-001 2.829069e-002 -8.934950e+000 200 227 210
-3.210746e+001 1.028459e+001 -7.965648e+001 169 130 123
-3.079465e+001 2.013373e+000 -7.114164e+001 178 148 124
-3.079465e+001 2.013373e+000 -7.114164e+001 178 148 124
-1.731079e+001 1.735683e+000 -6.963251e+001 196 81 89
-1.731079e+001 1.735683e+000 -6.963251e+001 196 81 89
-4.730559e+001 -1.976079e+000 -9.019822e+001 177 132 106
-2.884424e+001 -2.782403e+000 -7.073859e+001 166 133 128
-2.884424e+001 -2.782403e+000 -7.073859e+001 166 133 128
-3.856265e+001 7.284153e+000 -8.574410e+001 161 122 88
-2.371178e+001 3.447477e+000 -6.826835e+001 176 38 57
-3.111229e-001 -1.141942e+000 -7.832080e+000 100 69 100
2.123390e-001 -1.394690e+000 -7.140836e+000 73 57 93
-2.628796e+001 -3.227200e+000 -6.827715e+001 181 135 124
2.096545e+000 -7.426689e-001 -7.374068e+000 127 111 67
-2.929107e+001 -5.255271e+000 -5.919408e+001 75 67 65
-6.853475e-001 -1.552637e-001 -8.994015e+000 75 62 72
-8.284967e-001 -1.455151e+000 -8.543500e+000 108 66 78
-1.233591e+000 -1.748088e+000 -9.110255e+000 69 56 57
-2.018554e+001 -1.275873e-001 -6.511079e+001 35 20 47
1.606877e+000 2.917168e+000 -9.251055e+000 122 108 71
2.137418e+000 3.089534e+000 -9.680474e+000 128 112 76
-1.539490e+000 3.257725e+000 -1.100787e+001 165 126 88
-1.383597e+000 3.182145e+000 -1.089815e+001 175 123 93
1.101929e+000 2.531229e+000 -8.565975e+000 120 106 69
-1.645122e+000 3.269720e+000 -1.129189e+001 111 73 57
-1.641919e+000 3.120919e+000 -1.116849e+001 110 75 55
-8.405729e-001 2.705809e+000 -9.863587e+000 185 167 141
1.949634e+000 2.632627e+000 -9.315365e+000 130 116 78
-1.422112e+000 2.898517e+000 -1.083646e+001 125 78 56
-6.754194e-001 2.504626e+000 -9.527876e+000 87 69 69
-6.110434e-001 2.494201e+000 -9.403372e+000 73 55 51
1.592173e+000 2.311817e+000 -8.900332e+000 132 118 82
2.007529e+000 2.321614e+000 -9.184565e+000 127 114 70
1.357893e+000 2.013057e+000 -8.519637e+000 128 113 73
1.726629e+000 2.094518e+000 -8.923703e+000 126 112 73
2.840075e+000 2.451285e+000 -9.856002e+000 76 61 30
-1.561421e+000 2.424314e+000 -1.080828e+001 179 161 110
-1.514723e+000 2.455450e+000 -1.079503e+001 187 160 116
-1.410130e+000 2.368623e+000 -1.065753e+001 149 123 88
-1.839148e+000 2.211256e+000 -1.119665e+001 138 106 73
-1.101605e+000 2.103577e+000 -1.018505e+001 87 72 72
-6.116684e-002 1.584434e+000 -8.238922e+000 218 224 218
2.042586e+000 1.540164e+000 -8.860679e+000 134 119 79
2.634566e+000 1.652614e+000 -9.430661e+000 113 100 66
2.634566e+000 1.652614e+000 -9.430661e+000 113 100 66
-1.604162e+000 1.776974e+000 -1.081230e+001 97 90 87
-1.604162e+000 1.776974e+000 -1.081230e+001 97 90 87
-6.528909e-001 1.488650e+000 -9.299273e+000 205 222 207
1.929570e+000 1.489180e+000 -8.701977e+000 129 114 75
2.600671e+000 1.428824e+000 -9.250206e+000 120 108 71
2.587542e+000 1.363701e+000 -9.213178e+000 119 107 69
2.025530e+000 1.086859e+000 -8.350779e+000 125 111 75
2.146017e+000 1.036076e+000 -8.463359e+000 114 105 72
1.689103e+000 8.329311e-001 -7.875594e+000 84 81 48
2.566919e+000 9.588672e-001 -8.800171e+000 120 109 80
4.388425e+000 9.254390e-001 -8.696063e+000 184 145 66
1.072370e+000 6.455005e-001 -7.303342e+000 66 49 28
-1.685933e+000 7.354926e-001 -1.062627e+001 213 215 212
-1.609061e+000 7.863526e-001 -1.054179e+001 208 213 212
-8.307501e-001 6.963177e-001 -9.394835e+000 92 67 76
1.627537e+000 5.895373e-001 -7.654033e+000 127 114 72
1.552261e+000 4.438255e-001 -7.508645e+000 115 100 67
-1.165112e+000 4.830780e-001 -9.807470e+000 211 221 218
-1.236548e+000 4.407037e-001 -9.918683e+000 203 229 215
-1.604837e+000 1.975858e-001 -1.028482e+001 195 197 204
2.775352e+000 9.800346e-002 -8.523286e+000 120 102 66
2.296507e+000 -2.740841e-001 -7.852922e+000 128 113 74
3.445362e+000 -2.650447e-001 -8.840844e+000 117 97 72
4.326387e+000 -2.056723e-001 -8.388848e+000 169 139 66
2.059627e+000 -3.428134e-001 -7.614175e+000 129 116 72
-1.211250e-001 -5.010003e-001 -7.898006e+000 215 218 223
-1.211250e-001 -5.010003e-001 -7.898006e+000 215 218 223
4.409933e+000 -6.849169e-001 -8.265551e+000 164 140 68
-2.483873e-001 -7.881389e-001 -7.999046e+000 86 56 76
-2.413532e-001 -8.400591e-001 -7.956812e+000 74 59 73
2.475781e+000 -8.369038e-001 -7.648019e+000 61 44 12
2.502423e+000 -8.292514e-001 -7.654313e+000 126 107 73
-6.836831e-001 -1.023460e+000 -8.607130e+000 71 58 59
2.218404e+000 -8.900156e-001 -7.348706e+000 58 44 10
3.017721e+000 -9.822964e-001 -8.015575e+000 118 105 63
-1.341531e+000 -1.430670e+000 -9.429002e+000 201 204 205
-7.753455e-001 -1.213723e+000 -8.654888e+000 85 60 64
-7.753455e-001 -1.213723e+000 -8.654888e+000 85 60 64
1.431261e-001 -1.091614e+000 -7.259462e+000 206 201 220
-6.374299e-001 -1.347072e+000 -8.401080e+000 89 58 82
-3.669958e+001 -1.235014e+001 -6.448108e+001 145 143 129
-9.919774e-001 -1.658855e+000 -8.846437e+000 213 208 215
-2.042226e-002 -1.321603e+000 -7.471805e+000 71 61 83
-1.321249e+000 -2.027022e+000 -9.283196e+000 177 165 170
1.536344e+000 2.918333e+000 -9.174853e+000 134 120 81
1.140003e+000 2.663453e+000 -8.749288e+000 122 110 69
1.194427e+000 2.696474e+000 -8.810793e+000 73 59 24
1.188965e+000 2.641228e+000 -8.780625e+000 126 114 73
1.188965e+000 2.641228e+000 -8.780625e+000 126 114 73
1.060573e+000 2.559709e+000 -8.569016e+000 130 115 76
1.369781e+000 2.598956e+000 -8.913645e+000 125 111 73
1.588960e+000 2.683373e+000 -9.120389e+000 130 118 79
1.677943e+000 2.668568e+000 -9.157571e+000 134 120 82
2.767317e+000 3.178059e+000 -1.028511e+001 102 92 61
2.958199e+000 3.132950e+000 -1.048307e+001 107 91 65
-5.815346e-001 2.542694e+000 -9.380362e+000 82 67 63
1.200269e+000 2.329146e+000 -8.538128e+000 78 64 29
1.265708e+000 2.385434e+000 -8.703882e+000 128 114 77
1.583497e+000 2.566430e+000 -9.061970e+000 124 110 73
1.707129e+000 2.633424e+000 -9.147789e+000 89 75 40
1.707129e+000 2.633424e+000 -9.147789e+000 89 75 40
1.741415e+000 2.543995e+000 -9.146420e+000 131 119 79
1.832986e+000 2.564990e+000 -9.146290e+000 91 75 41
2.308694e+000 2.716118e+000 -9.572536e+000 123 109 71
2.341687e+000 2.589940e+000 -9.536032e+000 128 116 74
2.341687e+000 2.589940e+000 -9.536032e+000 128 116 74
2.803816e+000 2.865138e+000 -1.020816e+001 90 72 42
2.803816e+000 2.865138e+000 -1.020816e+001 90 72 42
2.944655e+000 2.952049e+000 -1.038983e+001 66 53 21
-1.642451e+000 2.866719e+000 -1.112334e+001 166 116 90
-6.210286e-001 2.380773e+000 -9.411240e+000 88 69 70
1.250588e+000 2.324655e+000 -8.622050e+000 71 56 25
1.250588e+000 2.324655e+000 -8.622050e+000 71 56 25
1.424789e+000 2.333263e+000 -8.807033e+000 127 114 72
1.722422e+000 2.349459e+000 -8.965811e+000 60 45 11
1.724356e+000 2.307384e+000 -8.997577e+000 124 110 74
2.154621e+000 2.496161e+000 -9.379796e+000 125 112 70
1.982218e+000 2.384011e+000 -9.155140e+000 126 109 66
-1.425042e+000 2.673438e+000 -1.081521e+001 119 68 48
-7.889722e-001 2.358277e+000 -9.737097e+000 72 70 66
2.500140e+000 2.308075e+000 -9.498357e+000 127 112 75
2.396280e+000 2.211987e+000 -9.394497e+000 129 111 71
2.396280e+000 2.211987e+000 -9.394497e+000 129 111 71
2.827042e+000 2.395877e+000 -9.798776e+000 120 105 71
1.467621e+000 1.980894e+000 -8.608870e+000 121 107 69
1.783667e+000 1.975946e+000 -8.933729e+000 75 61 26
2.904589e+000 2.136347e+000 -9.719053e+000 126 112 75
3.133823e+000 2.167598e+000 -9.922452e+000 79 64 35
1.171242e+000 1.451504e+000 -7.911540e+000 126 111 69
1.777711e+000 1.587871e+000 -8.629451e+000 124 111 68
2.565082e+000 1.734304e+000 -9.415114e+000 124 107 69
2.565082e+000 1.734304e+000 -9.415114e+000 124 107 69
3.039760e+000 1.728686e+000 -9.692337e+000 101 88 54
1.447812e+000 1.375151e+000 -8.132231e+000 127 111 72
1.808300e+000 1.410076e+000 -8.495953e+000 122 110 71
2.087035e+000 1.409525e+000 -8.763996e+000 72 58 21
2.087035e+000 1.409525e+000 -8.763996e+000 72 58 21
2.035911e+000 1.366533e+000 -8.671868e+000 124 110 71
2.346490e+000 1.480082e+000 -9.076695e+000 125 108 72
2.560666e+000 1.452098e+000 -9.280757e+000 130 111 78
3.340172e+000 1.529151e+000 -9.852195e+000 89 72 52
4.232507e+000 1.484069e+000 -9.030937e+000 188 156 71
1.240867e+000 1.102334e+000 -7.682959e+000 123 113 78
1.710136e+000 1.121550e+000 -8.130915e+000 125 113 71
1.852848e+000 1.300204e+000 -8.447743e+000 126 112 71
2.210493e+000 1.283522e+000 -8.762439e+000 89 75 38
2.210493e+000 1.283522e+000 -8.762439e+000 89 75 38
3.368894e+000 1.473870e+000 -9.865608e+000 90 75 54
3.368894e+000 1.473870e+000 -9.865608e+000 90 75 54
2.083630e+000 1.042405e+000 -8.409909e+000 122 112 78
2.678073e+000 1.103929e+000 -9.014807e+000 69 55 20
2.600349e+000 1.061464e+000 -8.848527e+000 119 105 66
-4.258827e-001 8.888462e-001 -8.744813e+000 210 229 210
-4.258827e-001 8.888462e-001 -8.744813e+000 210 229 210
2.188809e+000 9.354512e-001 -8.431865e+000 119 109 72
-1.173851e+000 8.269925e-001 -9.904883e+000 89 82 87
1.584430e+000 5.986534e-001 -7.635768e+000 125 107 67
-1.165164e+000 7.352401e-001 -9.913285e+000 94 80 91
1.692288e+000 5.749907e-001 -7.730023e+000 126 115 70
2.118491e+000 5.979965e-001 -8.152640e+000 125 110 67
4.401499e+000 5.696535e-001 -8.470861e+000 209 184 95
1.431902e+000 3.919834e-001 -7.383489e+000 125 108 72
1.431902e+000 3.919834e-001 -7.383489e+000 125 108 72
1.313825e+000 3.109533e-001 -7.228065e+000 119 105 67
1.523546e+000 3.693086e-001 -7.454851e+000 116 105 65
-1.633907e+001 -2.042260e+000 -6.306599e+001 158 117 105
2.852038e-001 -2.094990e-001 -7.330470e+000 87 70 112
4.352699e+000 -1.966494e-001 -8.503822e+000 144 111 44
1.662510e+000 -3.734064e-001 -7.223218e+000 123 108 69
1.944878e+000 -3.384418e-001 -7.516894e+000 90 76 41
1.944878e+000 -3.384418e-001 -7.516894e+000 90 76 41
2.002038e+000 -3.360115e-001 -7.583372e+000 125 112 70
3.271512e+000 -3.528632e-001 -8.712057e+000 111 95 62
1.869900e+000 -6.054887e-001 -7.285766e+000 64 49 20
1.899700e+000 -6.221400e-001 -7.277055e+000 129 115 78
-5.052788e-001 -8.322252e-001 -8.391810e+000 209 225 214
-3.804831e-001 -8.178004e-001 -8.175008e+000 203 226 216
-3.804831e-001 -8.178004e-001 -8.175008e+000 203 226 216
3.780270e+000 -1.192442e+000 -8.811286e+000 73 56 36
-1.190416e+000 -1.342950e+000 -9.254871e+000 201 217 206
-1.190416e+000 -1.342950e+000 -9.254871e+000 201 217 206
-1.204236e+000 -1.398513e+000 -9.286833e+000 68 61 59
3.662848e-001 -9.456212e-001 -6.946277e+000 68 55 85
3.421917e-001 -9.968275e-001 -6.938709e+000 74 62 87
3.080929e-001 -1.054914e+000 -7.005871e+000 70 51 79
3.080929e-001 -1.054914e+000 -7.005871e+000 70 51 79
3.746937e-001 -1.000886e+000 -6.899070e+000 71 58 86
3.746937e-001 -1.000886e+000 -6.899070e+000 71 58 86
-7.410824e-001 -1.378765e+000 -8.525842e+000 208 219 211
-6.533524e-001 -1.320423e+000 -8.406670e+000 197 223 216
-5.110958e-001 -1.370442e+000 -8.163409e+000 64 57 68
-4.782780e-001 -1.337593e+000 -8.101303e+000 65 54 70
-4.182094e-001 -1.263223e+000 -8.064389e+000 210 217 214
-4.182094e-001 -1.263223e+000 -8.064389e+000 210 217 214
2.432817e-001 -1.161841e+000 -7.067833e+000 62 52 76
3.033897e-001 -1.173843e+000 -7.032223e+000 68 52 79
9.550047e-003 -1.362942e+000 -7.459775e+000 63 49 77
9.861324e-002 -1.348621e+000 -7.293736e+000 68 53 76
2.527527e-001 -1.295969e+000 -7.068329e+000 66 52 78
2.020760e+000 3.036232e+000 -9.524992e+000 92 81 44
1.475329e+000 2.755524e+000 -9.079391e+000 105 91 56
1.475329e+000 2.755524e+000 -9.079391e+000 105 91 56
1.793802e+000 2.823781e+000 -9.287513e+000 78 65 31
1.876781e+000 2.830596e+000 -9.375710e+000 88 74 39
2.056161e+000 2.775398e+000 -9.480932e+000 124 113 71
9.546668e-001 2.421887e+000 -8.381060e+000 85 69 35
1.011145e+000 2.382684e+000 -8.352974e+000 92 76 42
1.224088e+000 2.434223e+000 -8.641525e+000 92 78 43
1.431676e+000 2.571950e+000 -8.910909e+000 128 115 71
1.494234e+000 2.518485e+000 -8.981839e+000 77 63 34
1.494234e+000 2.518485e+000 -8.981839e+000 77 63 34
1.486428e+000 2.454300e+000 -8.927938e+000 123 112 68
1.628776e+000 2.543760e+000 -9.062252e+000 128 114 77
1.817139e+000 2.530362e+000 -9.169564e+000 119 105 66
1.817139e+000 2.530362e+000 -9.169564e+000 119 105 66
1.898748e+000 2.517628e+000 -9.242122e+000 128 116 74
2.133762e+000 2.562593e+000 -9.397046e+000 71 58 19
2.368105e+000 2.644801e+000 -9.577368e+000 88 74 37
1.650194e+000 2.314516e+000 -8.932747e+000 130 116 78
1.822938e+000 2.283894e+000 -9.009230e+000 128 114 76
2.104608e+000 2.499437e+000 -9.351358e+000 127 114 72
2.302750e+000 2.471316e+000 -9.458112e+000 127 111 70
2.399312e+000 2.453785e+000 -9.496446e+000 125 110 71
2.501682e+000 2.507603e+000 -9.607952e+000 100 86 51
-5.507120e-001 2.283171e+000 -9.280524e+000 211 206 203
1.249141e+000 2.046504e+000 -8.400296e+000 123 106 61
1.249141e+000 2.046504e+000 -8.400296e+000 123 106 61
1.724443e+000 2.174632e+000 -8.914382e+000 127 113 75
1.724252e+000 2.061955e+000 -8.888925e+000 119 103 69
2.457295e+000 2.200526e+000 -9.422047e+000 128 113 74
2.609621e+000 2.301601e+000 -9.559516e+000 125 110 70
2.688765e+000 2.364718e+000 -9.694181e+000 90 76 41
1.376284e+000 1.943559e+000 -8.456433e+000 82 67 33
1.583150e+000 1.992357e+000 -8.747131e+000 128 114 77
1.718833e+000 1.923070e+000 -8.804893e+000 128 114 72
2.143074e+000 2.103527e+000 -9.126585e+000 123 109 65
2.470696e+000 2.140013e+000 -9.430535e+000 79 63 29
2.581266e+000 2.199054e+000 -9.558092e+000 126 111 72
2.581266e+000 2.199054e+000 -9.558092e+000 126 111 72
2.436348e+000 2.078170e+000 -9.374255e+000 130 117 75
2.436348e+000 2.078170e+000 -9.374255e+000 130 117 75
2.531508e+000 2.067748e+000 -9.449999e+000 120 107 69
2.604896e+000 2.053016e+000 -9.474064e+000 123 109 69
3.027685e+000 2.181322e+000 -9.827739e+000 81 63 33
-1.674073e+000 2.198011e+000 -1.097467e+001 78 62 73
1.358372e+000 1.691558e+000 -8.279063e+000 124 111 67
1.462622e+000 1.716679e+000 -8.426596e+000 61 46 15
1.462622e+000 1.716679e+000 -8.426596e+000 61 46 15
1.519212e+000 1.702396e+000 -8.442168e+000 98 83 49
1.626013e+000 1.673783e+000 -8.549787e+000 82 66 36
1.626013e+000 1.673783e+000 -8.549787e+000 82 66 36
1.818005e+000 1.857179e+000 -8.899653e+000 77 61 27
3.174186e+000 2.040350e+000 -9.880290e+000 73 59 31
4.214407e+000 1.820093e+000 -9.084334e+000 197 160 79
-5.071328e-001 1.605643e+000 -9.032858e+000 211 223 211
1.169794e+000 1.497466e+000 -7.939392e+000 95 80 45
1.405624e+000 1.447438e+000 -8.179145e+000 80 66 31
2.131005e+000 1.583190e+000 -8.991774e+000 74 58 22
2.350922e+000 1.643494e+000 -9.195927e+000 55 42 8
2.350922e+000 1.643494e+000 -9.195927e+000 55 42 8
-1.570688e+000 1.824427e+000 -1.074825e+001 207 227 218
1.518869e+000 1.364403e+000 -8.188044e+000 118 101 59
1.562898e+000 1.409021e+000 -8.284481e+000 75 59 25
1.706815e+000 1.426169e+000 -8.396034e+000 125 110 67
1.629554e+000 1.388833e+000 -8.312770e+000 89 76 37
2.420764e+000 1.510658e+000 -9.173866e+000 76 63 31
2.673545e+000 1.593049e+000 -9.443481e+000 62 47 21
2.655884e+000 1.538525e+000 -9.411099e+000 122 105 74
2.655884e+000 1.538525e+000 -9.411099e+000 122 105 74
1.699986e+000 1.280262e+000 -8.300063e+000 79 62 29
1.648977e+000 1.129191e+000 -8.101417e+000 130 117 80
1.722718e+000 1.173916e+000 -8.211886e+000 86 73 38
1.722718e+000 1.173916e+000 -8.211886e+000 86 73 38
1.885179e+000 1.248540e+000 -8.434454e+000 81 67 32
1.885179e+000 1.248540e+000 -8.434454e+000 81 67 32
2.045650e+000 1.279775e+000 -8.627463e+000 128 114 76
2.022698e+000 1.218872e+000 -8.510754e+000 82 67 32
2.022698e+000 1.218872e+000 -8.510754e+000 82 67 32
2.107012e+000 1.161287e+000 -8.549615e+000 124 110 73
1.534329e+000 9.546458e-001 -7.859569e+000 122 113 71
1.631562e+000 9.900652e-001 -7.939647e+000 55 57 28
1.942672e+000 1.082545e+000 -8.306913e+000 125 116 77
2.197067e+000 9.831658e-001 -8.473456e+000 70 73 55
-7.056557e-001 8.999799e-001 -9.165355e+000 99 72 74
1.886586e+000 8.918461e-001 -8.112868e+000 115 107 70
1.886586e+000 8.918461e-001 -8.112868e+000 115 107 70
1.949596e+000 9.208227e-001 -8.170999e+000 88 86 62
1.949596e+000 9.208227e-001 -8.170999e+000 88 86 62
2.309062e+000 8.589081e-001 -8.513865e+000 73 70 49
2.520751e+000 9.204183e-001 -8.735508e+000 65 60 42
2.691192e+000 9.905855e-001 -8.937859e+000 66 50 22
3.348577e+000 1.040306e+000 -9.595878e+000 103 83 64
3.271056e+000 1.000565e+000 -9.527488e+000 56 40 15
-4.695177e-001 7.131793e-001 -8.784219e+000 89 58 74
1.822384e+000 6.742389e-001 -7.912871e+000 132 118 79
2.085633e+000 7.333870e-001 -8.175658e+000 126 112 68
2.549127e+000 7.535936e-001 -8.627492e+000 120 106 64
2.654530e+000 8.392799e-001 -8.773786e+000 121 112 73
2.861363e+000 8.019140e-001 -8.991613e+000 125 114 69
2.921078e+000 7.801864e-001 -9.006866e+000 115 100 61
3.428937e+000 7.975573e-001 -9.409261e+000 52 33 19
-7.399723e-001 5.855181e-001 -9.242102e+000 209 230 216
1.912587e+000 5.340325e-001 -7.887183e+000 127 112 70
1.912587e+000 5.340325e-001 -7.887183e+000 127 112 70
2.533201e+000 5.160119e-001 -8.495260e+000 122 105 62
3.000643e+000 6.443413e-001 -9.002418e+000 109 99 63
4.461231e+000 5.362944e-001 -8.385880e+000 180 144 60
-2.118508e+001 3.314810e+000 -7.071605e+001 79 72 86
1.638702e+000 4.160819e-001 -7.617325e+000 130 115 72
2.152372e+000 3.611549e-001 -8.058769e+000 127 113 68
-2.224583e-001 2.917145e-001 -8.215785e+000 206 229 216
-2.224583e-001 2.917145e-001 -8.215785e+000 206 229 216
1.972374e+000 1.640882e-001 -7.759325e+000 122 107 62
2.445370e+000 5.306756e-002 -8.166977e+000 127 107 72
2.637930e+000 1.397880e-001 -8.411144e+000 118 104 62
3.300650e+000 1.183107e-001 -9.000108e+000 104 88 55
1.452270e+000 -5.119875e-002 -7.148163e+000 102 89 57
1.743314e+000 -2.234158e-002 -7.466625e+000 124 108 65
2.946331e+000 -2.724635e-001 -8.455851e+000 120 104 66
2.946331e+000 -2.724635e-001 -8.455851e+000 120 104 66
3.036715e+000 -1.787166e-001 -8.588602e+000 115 99 63
3.036715e+000 -1.787166e-001 -8.588602e+000 115 99 63
1.711787e+000 -3.739144e-001 -7.285567e+000 117 104 61
1.919177e+000 -2.997566e-001 -7.528584e+000 127 112 68
2.457417e+000 -4.081099e-001 -7.921815e+000 129 111 68
3.030620e+000 -4.055284e-001 -8.446267e+000 120 102 66
1.887195e+000 -4.769230e-001 -7.384288e+000 124 109 66
-3.120986e-001 -7.095118e-001 -8.146899e+000 200 228 209
2.528085e+000 -6.565424e-001 -7.878792e+000 124 111 67
2.812210e+000 -7.569250e-001 -8.032463e+000 54 41 7
2.812210e+000 -7.569250e-001 -8.032463e+000 54 41 7
3.651293e+000 -1.074769e+000 -8.678535e+000 42 23 6
2.299377e-001 -1.046747e+000 -7.115829e+000 67 57 83
-7.065480e-001 -1.333746e+000 -8.491476e+000 91 52 63
-3.751169e-001 -1.245990e+000 -7.919166e+000 88 64 90
3.190135e-002 -1.271328e+000 -7.384781e+000 64 53 76
1.818468e-001 -1.319093e+000 -7.174559e+000 162 162 174
1.657041e+000 2.731770e+000 -9.191630e+000 86 72 37
1.657041e+000 2.731770e+000 -9.191630e+000 86 72 37
-1.379896e+000 2.968456e+000 -1.079162e+001 166 119 91
1.641165e+000 2.613166e+000 -9.122580e+000 88 75 40
3.260726e+000 2.911910e+000 -1.066466e+001 57 39 19
1.910771e+000 2.402617e+000 -9.146661e+000 129 116 71
1.924851e+000 2.325168e+000 -9.100277e+000 76 62 25
1.924851e+000 2.325168e+000 -9.100277e+000 76 62 25
2.958836e+000 2.610188e+000 -1.008578e+001 97 84 49
1.165855e+000 2.009388e+000 -8.266872e+000 82 68 23
1.691206e+000 2.247782e+000 -8.956567e+000 80 67 33
1.825668e+000 2.229168e+000 -9.013890e+000 89 74 41
1.825668e+000 2.229168e+000 -9.013890e+000 89 74 41
1.768527e+000 2.103621e+000 -8.907119e+000 75 60 27
2.138452e+000 2.300738e+000 -9.255965e+000 84 70 33
2.010179e+000 2.206560e+000 -9.147330e+000 63 51 15
2.178793e+000 2.179126e+000 -9.237770e+000 76 64 22
2.716052e+000 2.276074e+000 -9.675895e+000 125 108 65
-3.486357e+001 2.031660e+001 -8.783515e+001 128 96 118
-1.500931e+000 2.502447e+000 -1.079636e+001 129 74 56
1.549676e+000 1.903198e+000 -8.621600e+000 61 47 12
2.048210e+000 2.004044e+000 -9.102201e+000 119 105 68
2.234932e+000 1.979552e+000 -9.204736e+000 122 109 67
2.352564e+000 2.022500e+000 -9.303056e+000 76 64 26
2.579925e+000 2.117857e+000 -9.461393e+000 99 84 50
2.579925e+000 2.117857e+000 -9.461393e+000 99 84 50
2.447697e+000 2.018889e+000 -9.378382e+000 113 99 61
2.723387e+000 2.049508e+000 -9.556689e+000 126 113 69
-3.923300e+001 1.879716e+001 -9.066807e+001 143 113 79
1.194463e+000 1.554261e+000 -7.991832e+000 123 109 62
1.924146e+000 1.898181e+000 -8.988460e+000 131 117 75
2.238300e+000 1.914579e+000 -9.201944e+000 81 66 33
2.415832e+000 1.959201e+000 -9.365009e+000 125 112 70
2.506523e+000 1.946360e+000 -9.381765e+000 124 111 67
2.618166e+000 1.861224e+000 -9.431321e+000 82 68 33
2.618166e+000 1.861224e+000 -9.431321e+000 82 68 33
2.925583e+000 2.002685e+000 -9.711616e+000 111 98 56
3.010821e+000 1.931430e+000 -9.720943e+000 73 59 24
3.970428e+000 1.936820e+000 -9.636133e+000 129 92 45
4.127039e+000 1.949344e+000 -9.540621e+000 174 145 69
-2.067644e-002 1.444025e+000 -8.133936e+000 211 224 208
1.173283e+000 1.394343e+000 -7.865283e+000 82 66 32
2.565766e+000 1.798643e+000 -9.415249e+000 128 111 69
2.448605e+000 1.630606e+000 -9.272897e+000 65 50 19
2.448605e+000 1.630606e+000 -9.272897e+000 65 50 19
2.833245e+000 1.695380e+000 -9.585257e+000 73 56 30
3.122569e+000 1.701890e+000 -9.675360e+000 105 93 55
1.326596e+000 1.349908e+000 -7.999285e+000 77 62 28
-5.220833e+001 1.529741e+001 -9.916627e+001 143 86 83
-1.422029e+000 1.557492e+000 -1.045134e+001 202 234 213
-8.211244e-001 1.413655e+000 -9.566420e+000 94 77 87
1.379811e+000 1.184788e+000 -7.884289e+000 123 107 72
-7.095097e+001 1.484623e+001 -1.260328e+002 160 54 72
1.292930e+000 9.973723e-001 -7.668097e+000 130 117 73
2.338988e+000 1.053080e+000 -8.639776e+000 75 59 30
4.186015e+000 1.158440e+000 -9.044662e+000 184 152 77
-3.001441e+001 8.392710e+000 -7.593275e+001 126 91 123
-1.241340e+000 1.085554e+000 -1.006991e+001 79 67 84
1.840467e+000 9.427911e-001 -8.133945e+000 73 74 45
2.565263e+000 8.617004e-001 -8.725639e+000 123 111 70
-4.703478e-001 7.069765e-001 -8.763165e+000 100 68 86
1.292904e+000 6.081928e-001 -7.446270e+000 66 52 21
1.292904e+000 6.081928e-001 -7.446270e+000 66 52 21
1.623797e+000 7.101557e-001 -7.719268e+000 125 113 65
1.748566e+000 7.397553e-001 -7.876170e+000 102 90 51
1.748566e+000 7.397553e-001 -7.876170e+000 102 90 51
1.828224e+000 6.139751e-001 -7.859852e+000 84 69 36
1.962235e+000 7.540340e-001 -8.083747e+000 128 113 70
1.953966e+000 6.513930e-001 -8.019516e+000 117 104 61
2.400302e+000 7.216359e-001 -8.477638e+000 82 78 54
2.400302e+000 7.216359e-001 -8.477638e+000 82 78 54
1.540588e+000 5.607707e-001 -7.572631e+000 78 63 30
1.649318e+000 5.354910e-001 -7.642117e+000 85 72 40
1.765816e+000 5.658635e-001 -7.780887e+000 122 111 66
1.732855e+000 4.622895e-001 -7.686622e+000 126 110 67
1.935741e+000 5.888571e-001 -7.938741e+000 99 87 50
1.935741e+000 5.888571e-001 -7.938741e+000 99 87 50
1.876364e+000 4.849528e-001 -7.843554e+000 68 53 20
2.263001e+000 6.341660e-001 -8.304432e+000 80 66 29
2.704050e+000 5.417674e-001 -8.709630e+000 76 59 30
2.704050e+000 5.417674e-001 -8.709630e+000 76 59 30
2.743556e+000 6.427623e-001 -8.749846e+000 61 59 45
2.743556e+000 6.427623e-001 -8.749846e+000 61 59 45
2.871515e+000 6.174439e-001 -8.850423e+000 60 62 43
2.765280e+000 5.799589e-001 -8.750733e+000 123 106 63
3.243272e+000 5.347404e-001 -9.153677e+000 77 69 50
-9.197799e-001 4.581435e-001 -9.527571e+000 206 232 217
-6.916211e-001 5.236438e-001 -9.075941e+000 96 74 83
-6.916211e-001 5.236438e-001 -9.075941e+000 96 74 83
1.636277e+000 3.674513e-001 -7.532927e+000 128 110 69
1.636277e+000 3.674513e-001 -7.532927e+000 128 110 69
1.691291e+000 4.100190e-001 -7.624847e+000 52 41 9
1.691291e+000 4.100190e-001 -7.624847e+000 52 41 9
1.634764e+000 3.034677e-001 -7.528588e+000 62 45 13
1.988891e+000 3.401628e-001 -7.886755e+000 80 64 28
2.491252e+000 4.631050e-001 -8.432028e+000 69 53 19
2.873172e+000 4.979870e-001 -8.830216e+000 67 50 20
2.769342e+000 4.002863e-001 -8.654620e+000 70 54 21
2.769342e+000 4.002863e-001 -8.654620e+000 70 54 21
2.981307e+000 4.726765e-001 -8.896315e+000 70 54 22
2.981307e+000 4.726765e-001 -8.896315e+000 70 54 22
3.252559e+000 4.232093e-001 -9.157322e+000 76 56 29
1.802185e+000 2.066741e-001 -7.637870e+000 124 109 66
2.099762e+000 1.951998e-001 -7.915010e+000 60 46 20
2.416833e+000 2.389016e-001 -8.240429e+000 69 54 20
2.416833e+000 2.389016e-001 -8.240429e+000 69 54 20
2.486378e+000 1.665233e-001 -8.283574e+000 125 111 64
2.486378e+000 1.665233e-001 -8.283574e+000 125 111 64
2.746277e+000 2.366264e-001 -8.535908e+000 110 95 52
2.958293e+000 2.417171e-001 -8.720839e+000 62 43 16
4.307205e+000 2.606387e-001 -8.580756e+000 183 154 76
1.498249e+000 3.252321e-002 -7.230137e+000 129 114 73
1.598112e+000 1.356872e-001 -7.390755e+000 126 112 70
2.234227e+000 4.724994e-002 -7.960827e+000 80 63 33
2.337452e+000 7.732041e-002 -8.106975e+000 125 111 66
3.025422e+000 1.140353e-001 -8.749650e+000 66 51 24
2.891202e+000 2.578249e-002 -8.582078e+000 74 57 27
3.423601e+000 1.039673e-001 -9.105891e+000 109 92 63
1.708867e+000 -1.293771e-001 -7.391909e+000 123 111 63
1.895741e+000 -1.190923e-001 -7.549732e+000 73 54 22
2.317155e+000 -2.970787e-002 -8.023844e+000 130 110 69
2.293232e+000 -1.442102e-001 -7.944564e+000 119 104 62
2.680808e+000 -9.773271e-002 -8.342821e+000 113 102 56
2.868447e+000 -1.497131e-001 -8.441867e+000 116 102 62
2.972796e+000 -1.590775e-001 -8.554670e+000 114 99 56
2.103302e+000 -2.540593e-001 -7.719957e+000 123 106 60
2.373699e+000 -2.780311e-001 -7.935390e+000 122 105 62
2.566585e+000 -2.580425e-001 -8.126606e+000 76 60 24
2.566585e+000 -2.580425e-001 -8.126606e+000 76 60 24
3.132607e+000 -1.936140e-001 -8.632807e+000 111 96 56
3.306306e+000 -2.295370e-001 -8.791919e+000 112 97 65
-2.216003e-001 -4.340118e-001 -8.064031e+000 104 65 95
2.475014e+000 -3.524234e-001 -7.967980e+000 86 69 34
2.582304e+000 -3.233628e-001 -8.108499e+000 128 115 71
2.943312e+000 -3.283635e-001 -8.414660e+000 55 37 7
3.055213e+000 -3.551476e-001 -8.501274e+000 67 52 23
3.055213e+000 -3.551476e-001 -8.501274e+000 67 52 23
3.021965e+000 -4.608952e-001 -8.414859e+000 74 61 28
3.181315e+000 -3.767635e-001 -8.608905e+000 78 61 31
3.358262e+000 -3.523703e-001 -8.757764e+000 101 84 55
1.955120e+000 -4.868144e-001 -7.453030e+000 75 56 21
1.954911e+000 -5.400790e-001 -7.419133e+000 126 112 67
2.170970e+000 -4.656172e-001 -7.635904e+000 118 100 60
2.735922e+000 -5.728864e-001 -8.086799e+000 127 113 68
2.909069e+000 -4.871063e-001 -8.255274e+000 120 105 66
3.155428e+000 -6.100827e-001 -8.468037e+000 77 60 29
3.155428e+000 -6.100827e-001 -8.468037e+000 77 60 29
3.443640e+000 -5.450228e-001 -8.731392e+000 69 51 28
3.397880e+000 -5.943479e-001 -8.685668e+000 98 82 49
3.397880e+000 -5.943479e-001 -8.685668e+000 98 82 49
2.144837e+000 -5.795984e-001 -7.564153e+000 128 114 66
2.211469e+000 -5.878446e-001 -7.613890e+000 126 111 67
2.762692e+000 -6.989237e-001 -8.040927e+000 124 106 59
2.857452e+000 -7.124183e-001 -8.097348e+000 128 113 69
3.235043e+000 -6.656289e-001 -8.446336e+000 115 99 63
3.193213e+000 -7.182390e-001 -8.376263e+000 64 55 25
3.422638e+000 -8.139897e-001 -8.508521e+000 106 89 63
2.095119e+000 -8.080048e-001 -7.323989e+000 128 111 67
2.416420e+000 -8.555218e-001 -7.562486e+000 130 112 72
2.416420e+000 -8.555218e-001 -7.562486e+000 130 112 72
2.167927e+000 -9.043020e-001 -7.260503e+000 129 112 69
2.499499e+000 -9.611785e-001 -7.530532e+000 121 108 63
2.794219e+000 -9.725561e-001 -7.762012e+000 58 45 12
3.239757e+000 -9.684357e-001 -8.255179e+000 64 46 22
3.227747e+000 -1.021975e+000 -8.194352e+000 107 91 55
3.163033e+000 -1.055112e+000 -8.131026e+000 63 50 24
-4.056579e+001 -1.099415e+001 -7.341600e+001 89 70 57
-4.545643e+001 -1.293243e+001 -7.880094e+001 136 60 55
-4.509382e-001 -1.302162e+000 -8.077053e+000 70 57 77
1.955800e-001 -1.192674e+000 -7.142493e+000 69 57 81
2.225233e-001 -1.195541e+000 -7.126499e+000 67 55 80
3.595950e-001 -1.073713e+000 -6.917516e+000 58 48 72
1.508479e-001 -1.258100e+000 -7.249012e+000 66 60 83
1.508479e-001 -1.258100e+000 -7.249012e+000 66 60 83
-3.572060e+001 -1.885876e+001 -6.301964e+001 110 107 95
-1.253010e+000 3.235484e+000 -1.067263e+001 197 169 106
2.354232e+000 2.334372e+000 -9.488608e+000 129 114 71
-2.276182e-001 1.924627e+000 -8.583110e+000 91 84 93
-4.934094e+001 2.025977e+001 -9.567775e+001 177 71 65
-7.950063e-002 1.743962e+000 -8.377597e+000 78 64 63
-7.950063e-002 1.743962e+000 -8.377597e+000 78 64 63
-6.639671e-002 1.647035e+000 -8.229830e+000 84 65 67
2.894335e+000 1.893162e+000 -9.613135e+000 114 99 58
3.286718e+000 1.910630e+000 -9.871643e+000 55 37 15
-5.733054e+001 2.251370e+001 -1.178252e+002 178 146 105
-4.924178e-001 1.678594e+000 -9.032225e+000 80 68 72
1.819506e+000 1.534499e+000 -8.576989e+000 119 104 65
-4.064598e-001 1.446630e+000 -8.874777e+000 89 72 85
3.128032e+000 1.651392e+000 -9.808116e+000 74 59 36
-1.317841e+000 1.530417e+000 -1.033024e+001 80 62 74
-1.317841e+000 1.530417e+000 -1.033024e+001 80 62 74
-3.940702e-001 1.353270e+000 -8.782141e+000 101 74 93
-3.940702e-001 1.353270e+000 -8.782141e+000 101 74 93
-1.908756e+001 7.147781e+000 -6.546271e+001 62 55 101
-1.153815e+000 1.144305e+000 -9.961680e+000 85 73 83
-9.307719e-001 1.033852e+000 -9.553005e+000 111 73 86
4.232278e+000 9.197921e-001 -8.943098e+000 178 146 70
4.338106e+000 9.978926e-001 -8.661934e+000 208 178 90
4.412393e+000 1.001993e+000 -8.645326e+000 193 145 80
4.412393e+000 1.001993e+000 -8.645326e+000 193 145 80
-1.531371e+000 8.892687e-001 -1.041634e+001 95 83 97
-9.255377e-001 9.192715e-001 -9.602882e+000 113 77 91
-9.255377e-001 9.192715e-001 -9.602882e+000 113 77 91
-1.060042e+000 7.964346e-001 -9.766713e+000 101 69 90
-8.895757e-001 7.716847e-001 -9.387755e+000 118 82 99
-8.895757e-001 7.716847e-001 -9.387755e+000 118 82 99
-7.796635e-001 5.147988e-001 -9.240790e+000 210 227 211
1.475457e+000 3.323480e-001 -7.380209e+000 72 61 29
4.435317e+000 4.022618e-001 -8.465117e+000 176 150 63
4.437159e+000 4.814898e-001 -8.428303e+000 199 174 81
1.549167e+000 2.610712e-001 -7.425739e+000 126 109 66
1.586684e+000 1.966435e-001 -7.411122e+000 72 56 22
1.586684e+000 1.966435e-001 -7.411122e+000 72 56 22
1.988285e+000 2.270718e-001 -7.827580e+000 50 39 8
-1.088477e+000 1.163390e-001 -9.569183e+000 103 75 84
1.785026e+000 1.423032e-001 -7.569287e+000 93 78 45
1.865985e+000 7.466392e-002 -7.594674e+000 127 110 67
1.865985e+000 7.466392e-002 -7.594674e+000 127 110 67
1.966808e+000 1.076517e-001 -7.740255e+000 81 68 33
2.086880e+000 8.072936e-002 -7.861029e+000 87 74 39
2.086880e+000 8.072936e-002 -7.861029e+000 87 74 39
-9.933327e-002 -1.403022e-001 -7.921760e+000 90 78 99
1.836715e+000 -6.919350e-002 -7.547708e+000 125 108 60
2.098431e+000 -4.308865e-002 -7.810875e+000 73 56 28
2.388974e+000 -1.077297e-001 -8.081271e+000 65 50 17
2.036582e-001 -1.921833e-001 -7.467932e+000 85 66 88
1.683989e+000 -1.859394e-001 -7.339622e+000 79 63 34
1.839884e+000 -1.535607e-001 -7.508998e+000 129 113 67
2.255472e+000 -1.966087e-001 -7.877646e+000 70 56 21
2.163754e+000 -2.238813e-001 -7.766872e+000 124 102 61
2.494550e+000 -1.912329e-001 -8.069846e+000 121 107 62
2.413964e+000 -2.278683e-001 -7.983911e+000 71 56 21
2.630803e+000 -1.594133e-001 -8.226691e+000 76 63 21
2.880786e+000 -2.722582e-001 -8.413718e+000 117 102 61
-4.501025e+001 -4.879759e+000 -8.061306e+001 219 52 70
1.580812e+000 -3.385472e-001 -7.160958e+000 122 106 63
2.109080e+000 -3.315685e-001 -7.666172e+000 122 109 65
2.813528e+000 -4.227588e-001 -8.252982e+000 63 48 16
2.938455e+000 -4.058282e-001 -8.405749e+000 112 102 59
-5.777153e-001 -5.176667e-001 -8.632570e+000 84 78 85
1.814122e+000 -4.625144e-001 -7.313556e+000 76 62 29
1.814122e+000 -4.625144e-001 -7.313556e+000 76 62 29
1.730946e+000 -4.958171e-001 -7.236447e+000 127 114 72
2.172449e+000 -5.311234e-001 -7.621499e+000 87 73 44
2.421151e+000 -4.571926e-001 -7.858620e+000 96 80 48
2.421151e+000 -4.571926e-001 -7.858620e+000 96 80 48
2.919917e+000 -5.576475e-001 -8.264423e+000 72 56 24
2.919917e+000 -5.576475e-001 -8.264423e+000 72 56 24
3.240017e+000 -5.714900e-001 -8.554668e+000 108 93 52
1.791957e+000 -5.667830e-001 -7.252051e+000 54 48 21
2.176385e+000 -6.392926e-001 -7.539235e+000 68 55 23
2.464774e+000 -6.365463e-001 -7.815388e+000 119 105 61
2.515417e+000 -7.022929e-001 -7.789260e+000 62 50 26
2.712850e+000 -6.317763e-001 -8.040418e+000 53 39 10
2.712850e+000 -6.317763e-001 -8.040418e+000 53 39 10
2.996579e+000 -6.867341e-001 -8.278097e+000 61 45 12
-1.197311e+000 -1.063930e+000 -9.315505e+000 203 227 206
1.684627e+000 -7.790495e-001 -6.981088e+000 59 43 20
1.839330e+000 -8.032762e-001 -7.099314e+000 112 97 68
2.269242e+000 -7.751812e-001 -7.511211e+000 74 64 33
2.293751e+000 -8.412197e-001 -7.482464e+000 129 116 72
2.635288e+000 -7.859183e-001 -7.828938e+000 124 107 62
2.943111e+000 -7.834473e-001 -8.128097e+000 80 65 32
-1.076583e+000 -1.193745e+000 -9.140777e+000 78 65 72
-3.224225e-001 -9.282468e-001 -8.065167e+000 121 73 96
1.777070e+000 -8.408002e-001 -7.001293e+000 120 105 62
2.992759e+000 -1.017274e+000 -7.956731e+000 73 53 28
2.992759e+000 -1.017274e+000 -7.956731e+000 73 53 28
3.476523e+000 -1.039394e+000 -8.504096e+000 68 56 32
3.476523e+000 -1.039394e+000 -8.504096e+000 68 56 32
-2.111223e-001 -1.103948e+000 -7.739094e+000 85 64 90
-5.323361e+001 -1.634081e+001 -9.480088e+001 103 81 70
-1.006517e+000 -1.701582e+000 -8.783744e+000 60 51 64
-3.690233e+001 -1.926122e+001 -6.413259e+001 109 85 74
3.068726e+000 3.305000e+000 -1.069470e+001 86 80 52
-1.561197e+000 3.209729e+000 -1.106982e+001 112 74 55
-5.529099e-001 2.596645e+000 -9.342992e+000 213 220 204
1.499989e+000 6.429376e-001 -7.654792e+000 124 110 63
4.487457e+000 6.088205e-001 -8.620221e+000 209 182 93
-6.950435e-001 2.829069e-002 -8.934950e+000 200 227 210
1.311648e-001 8.455741e-002 -7.573396e+000 103 71 96
-4.130835e+001 -3.072785e+000 -8.778236e+001 107 91 65
1.461729e+000 -2.595353e-001 -7.085550e+000 57 41 14
1.461729e+000 -2.595353e-001 -7.085550e+000 57 41 14
-2.739383e+001 -4.474601e+000 -6.651966e+001 158 145 132
1.532842e+000 -5.110663e-001 -7.036145e+000 68 53 22
4.499417e+000 -5.231765e-001 -8.378422e+000 176 155 74
-4.922397e-001 -7.738641e-001 -8.431222e+000 90 69 88
-4.717898e+001 -1.206097e+001 -8.099462e+001 134 86 135
-3.958481e+001 -1.080982e+001 -7.048875e+001 169 159 152
-3.958481e+001 -1.080982e+001 -7.048875e+001 169 159 152
-3.963447e+001 -1.510372e+001 -6.788794e+001 122 127 121
-3.963447e+001 -1.510372e+001 -6.788794e+001 122 127 121
-3.973493e+001 -2.135550e+001 -6.881769e+001 168 161 148
-6.028183e+001 2.431121e+001 -1.109041e+002 193 184 184
-6.028183e+001 2.431121e+001 -1.109041e+002 193 184 184
-7.571072e-002 1.296380e+000 -8.231917e+000 81 65 68
-1.704610e+000 1.629365e+000 -1.088617e+001 206 227 212
-4.453445e+001 1.244468e+001 -9.685573e+001 153 80 63
-3.454679e-001 1.061402e+000 -8.635763e+000 92 66 93
-3.361689e+001 9.151088e+000 -8.347549e+001 142 115 124
-1.033707e+000 4.816328e-001 -9.677068e+000 82 68 91
1.334599e+000 5.587747e-003 -7.086644e+000 78 66 42
1.334599e+000 5.587747e-003 -7.086644e+000 78 66 42
-5.841132e-001 -6.196641e-001 -8.619101e+000 202 226 210
-4.748246e+001 -7.282619e+000 -8.449178e+001 59 39 43
-4.748246e+001 -7.282619e+000 -8.449178e+001 59 39 43
-3.182287e+001 -1.363254e+001 -6.109127e+001 86 86 78
-1.304377e+000 2.440250e+000 -1.054642e+001 176 156 98
1.551582e+000 1.532224e+000 -8.392446e+000 130 114 66
-2.040627e+001 6.806298e+000 -7.139737e+001 36 24 50
-3.069290e-001 7.965036e-001 -8.621190e+000 96 77 109
-3.069290e-001 7.965036e-001 -8.621190e+000 96 77 109
4.419329e+000 7.769203e-001 -8.666518e+000 201 171 85
-5.252176e-001 6.148275e-001 -8.948828e+000 114 72 88
-4.953034e+001 -7.400230e+000 -8.588876e+001 202 193 184
-4.105060e+001 -7.943811e+000 -7.774432e+001 68 58 49
3.519928e+000 -1.272953e+000 -8.499109e+000 88 64 37
-4.247328e+001 -1.299028e+001 -7.421075e+001 193 189 182
-4.247328e+001 -1.299028e+001 -7.421075e+001 193 189 182
-8.460582e-001 -1.368173e+000 -8.760278e+000 100 58 70
8.348172e-001 -1.050161e+000 -6.143983e+000 145 153 172
-6.308200e-001 2.801571e+000 -9.522381e+000 102 71 66
-3.699682e-001 2.434625e+000 -8.942579e+000 92 68 78
