ply
format ascii 1.0
element face 0
property list uchar int vertex_indices
element vertex 891
property float x
property float y
property float z
property uchar diffuse_red
property uchar diffuse_green
property uchar diffuse_blue
end_header
2.436514e+000 8.214006e-001 -8.682144e+000 120 103 59
2.751510e+000 9.011964e-001 -9.052245e+000 74 68 42
2.751510e+000 9.011964e-001 -9.052245e+000 74 68 42
2.468041e+000 7.652987e-001 -8.667431e+000 77 58 26
2.730889e+000 6.561688e-001 -8.899164e+000 119 99 61
1.497820e-001 5.071625e-001 -8.378953e+000 84 67 82
1.497820e-001 5.071625e-001 -8.378953e+000 84 67 82
2.237993e+000 5.616335e-001 -8.355079e+000 122 101 56
2.290856e+000 5.549975e-001 -8.390330e+000 126 106 59
3.090118e+000 5.809467e-001 -9.215657e+000 103 87 51
4.070860e+000 5.599814e-001 -8.617260e+000 182 156 69
2.844237e+000 3.287165e-001 -8.845751e+000 112 97 54
2.923585e+000 1.115546e-002 -8.740425e+000 117 97 63
3.223896e+000 9.816270e-002 -9.071498e+000 60 41 16
2.022727e+000 4.835356e-003 -7.824144e+000 125 108 61
2.314712e+000 -2.678048e-001 -8.002791e+000 122 102 69
6.162974e-001 -3.055074e-001 -7.437315e+000 80 60 104
3.081319e+000 -4.115742e-001 -8.608935e+000 112 95 59
-3.579659e-001 -8.156840e-001 -8.804216e+000 95 65 73
2.573091e+000 -4.993351e-001 -8.000043e+000 126 103 69
-6.465119e-001 -1.095052e+000 -9.153095e+000 205 222 207
-8.761740e-002 -8.665430e-001 -8.318732e+000 83 69 84
1.003849e+000 -4.254197e-001 -6.794442e+000 66 58 95
1.459211e+000 -4.607295e-001 -7.039998e+000 117 103 66
-9.261754e-001 3.047404e+000 -1.059952e+001 125 71 47
1.889091e+000 2.576589e+000 -9.317268e+000 92 78 42
-1.073406e+000 2.713694e+000 -1.078167e+001 179 131 98
-1.141172e+000 2.641385e+000 -1.085566e+001 104 65 58
-1.472456e+000 2.308384e+000 -1.121208e+001 179 146 100
-4.438192e-001 2.209674e+000 -9.709498e+000 211 224 209
2.273577e+000 2.180933e+000 -9.377613e+000 119 104 61
2.152291e+000 2.018710e+000 -9.238658e+000 111 100 60
2.599435e+000 2.133508e+000 -9.637299e+000 129 110 68
2.591594e+000 2.131698e+000 -9.603069e+000 129 110 68
2.259447e+000 1.733390e+000 -9.263763e+000 121 105 62
2.716355e+000 1.831621e+000 -9.610274e+000 98 81 54
-6.450696e-001 1.321131e+000 -9.835130e+000 84 68 78
-6.504028e-001 1.319527e+000 -9.850958e+000 84 68 78
-9.761625e-001 1.090276e+000 -1.026305e+001 90 80 92
-8.817942e-001 1.154175e+000 -1.017847e+001 91 78 89
-6.670363e-001 1.037490e+000 -9.922407e+000 129 82 101
1.680977e+000 9.363853e-001 -7.976302e+000 98 83 47
1.680977e+000 9.363853e-001 -7.976302e+000 98 83 47
2.172450e+000 9.348457e-001 -8.474303e+000 81 81 57
4.049745e+000 9.734737e-001 -8.811118e+000 213 191 102
3.630376e-001 6.957692e-001 -8.005818e+000 91 77 87
1.928284e+000 6.884372e-001 -8.086805e+000 83 63 36
2.286794e+000 7.031983e-001 -8.466211e+000 87 71 37
2.946931e+000 7.568821e-001 -9.180796e+000 68 66 51
1.854836e+000 5.545668e-001 -7.951199e+000 121 104 58
2.361121e+000 5.867493e-001 -8.493513e+000 78 66 30
2.821892e+000 5.855951e-001 -8.943826e+000 80 61 28
2.106159e+000 4.937987e-001 -8.184336e+000 124 107 63
2.125001e+000 4.358551e-001 -8.178794e+000 76 62 33
2.215295e+000 4.165840e-001 -8.235417e+000 90 70 43
2.503810e+000 4.483996e-001 -8.570151e+000 92 78 36
1.609373e+000 3.503106e-001 -7.600620e+000 69 57 24
2.384682e+000 3.201879e-001 -8.380046e+000 116 99 56
2.394262e+000 3.167188e-001 -8.402243e+000 116 99 56
2.794456e+000 2.889680e-001 -8.773346e+000 71 57 28
3.183985e+000 3.067096e-001 -9.153554e+000 62 48 22
3.154199e+000 2.559569e-001 -9.099090e+000 118 98 65
1.715503e+000 2.856462e-001 -7.644760e+000 120 101 58
1.906633e+000 2.073595e-001 -7.854654e+000 120 105 61
2.506215e+000 2.501300e-001 -8.448616e+000 87 71 37
2.686557e+000 2.094709e-001 -8.625437e+000 74 54 29
2.780945e+000 2.391091e-001 -8.730242e+000 109 92 49
2.919439e+000 1.622289e-001 -8.801455e+000 84 67 35
3.183928e+000 1.602336e-001 -9.085428e+000 98 79 49
3.090143e+000 1.327734e-001 -8.956481e+000 80 61 30
2.506472e+000 1.439384e-001 -8.420006e+000 80 62 24
2.695621e+000 1.111320e-001 -8.565721e+000 77 61 27
3.021520e+000 9.449583e-002 -8.877120e+000 115 97 59
3.107936e+000 2.168987e-002 -8.914026e+000 66 49 22
2.453112e+000 -3.921980e-002 -8.247452e+000 83 68 29
1.683257e+000 -7.898539e-002 -7.483627e+000 68 53 22
2.044881e+000 -1.072658e-001 -7.800502e+000 129 113 64
2.601193e+000 -1.656376e-001 -8.314090e+000 74 58 25
2.011024e+000 -1.541955e-001 -7.774561e+000 70 53 23
2.225886e+000 -2.366338e-001 -7.903137e+000 122 105 59
2.576196e+000 -2.204089e-001 -8.295166e+000 122 103 61
2.565728e+000 -3.039629e-001 -8.182459e+000 118 101 62
2.782216e+000 -3.084708e-001 -8.435002e+000 110 90 58
2.782216e+000 -3.084708e-001 -8.435002e+000 110 90 58
2.879420e+000 -3.183143e-001 -8.482728e+000 70 53 21
3.069326e+000 -3.570447e-001 -8.637598e+000 58 43 13
3.342679e+000 -3.201994e-001 -8.937523e+000 63 47 22
2.693113e+000 -4.776085e-001 -8.153450e+000 74 58 27
2.676656e+000 -5.197134e-001 -8.094427e+000 127 110 69
2.744643e+000 -5.324551e-001 -8.162412e+000 125 104 65
2.744643e+000 -5.324551e-001 -8.162412e+000 125 104 65
2.918111e+000 -5.238765e-001 -8.339327e+000 82 66 33
2.930078e+000 -5.327263e-001 -8.371847e+000 82 66 33
2.858345e+000 -5.532367e-001 -8.247335e+000 113 91 50
3.227833e+000 -5.566841e-001 -8.678864e+000 99 81 49
3.359256e+000 -5.923404e-001 -8.790224e+000 93 76 48
2.034121e+000 -4.997859e-001 -7.525983e+000 117 98 55
3.030273e+000 -7.114592e-001 -8.406537e+000 102 82 43
4.070898e-001 -7.631773e-001 -7.617496e+000 67 53 82
4.058823e+000 -7.513663e-001 -8.481708e+000 153 121 62
-1.535969e+000 3.207755e+000 -1.134743e+001 105 69 53
2.966680e+000 3.057891e+000 -1.048667e+001 48 29 12
-1.475820e+000 2.435469e+000 -1.120293e+001 170 140 99
-1.120123e+000 1.584624e+000 -1.058769e+001 208 226 210
2.776943e+000 1.704325e+000 -9.634226e+000 76 65 37
3.151424e+000 1.364503e+000 -9.795010e+000 90 76 48
3.320628e-001 8.499237e-001 -8.030010e+000 87 76 84
4.008469e+000 5.951197e-001 -8.875491e+000 205 180 100
4.097543e+000 6.823603e-001 -8.643110e+000 200 175 85
1.570815e+000 4.566761e-001 -7.629151e+000 70 56 27
2.164565e+000 5.287678e-001 -8.252752e+000 93 77 44
1.606284e-001 -5.499656e-002 -8.219121e+000 85 63 90
1.809778e+000 2.051701e-001 -7.715737e+000 70 57 19
1.812159e+000 2.034593e-001 -7.731197e+000 70 57 19
2.776812e+000 3.693175e-002 -8.600181e+000 119 100 57
1.903569e+000 8.290746e-002 -7.750049e+000 88 75 41
2.267233e+000 -1.015015e-001 -8.034115e+000 62 47 16
1.734873e+000 -1.847987e-001 -7.444771e+000 81 67 32
2.353011e+000 -2.203785e-001 -8.065892e+000 79 63 27
2.353011e+000 -2.203785e-001 -8.065892e+000 79 63 27
-7.388553e-001 -8.433704e-001 -9.386588e+000 67 56 59
9.537350e-001 -2.217297e-001 -6.865364e+000 63 47 88
2.395992e+000 -4.248968e-001 -7.906831e+000 62 46 20
2.550861e+000 -4.544933e-001 -8.034272e+000 70 56 29
2.866870e+000 -4.733505e-001 -8.355535e+000 116 101 60
-2.131922e-001 -9.118486e-001 -8.590145e+000 82 63 82
2.387271e+000 -5.104327e-001 -7.817005e+000 69 54 25
4.065818e+000 -6.347331e-001 -8.560071e+000 159 126 63
-3.048055e-001 8.126653e-001 -9.209004e+000 206 225 209
1.452220e+000 5.824466e-001 -7.564580e+000 77 61 35
1.483410e+000 4.988907e-001 -7.556993e+000 121 107 60
5.900536e-001 -2.551060e-001 -7.443859e+000 202 223 210
2.011088e+000 -2.429914e-001 -7.669600e+000 90 75 44
2.224860e+000 -3.653602e-001 -7.869859e+000 126 105 58
1.867195e+000 -3.850535e-001 -7.479607e+000 126 110 59
-7.825475e-001 2.746881e+000 -1.032134e+001 111 69 51
3.124450e-001 1.310796e+000 -8.221263e+000 204 224 205
1.333842e+000 1.370150e+000 -8.009383e+000 128 107 60
7.975514e-002 1.119187e+000 -8.611696e+000 204 227 206
2.437542e-001 8.051808e-002 -8.125353e+000 204 225 207
3.714288e-001 7.780143e-001 -7.997633e+000 206 227 210
-4.537801e-001 -7.776434e-001 -9.024786e+000 85 71 72
1.471560e+000 9.001515e-002 -7.381394e+000 127 110 66
4.944729e-001 -1.840058e-001 -7.589210e+000 203 226 208
2.340572e-001 1.932354e+000 -8.393567e+000 69 53 58
1.158312e+000 1.878711e+000 -8.106056e+000 127 114 69
-4.935570e-002 1.892743e+000 -8.916139e+000 72 61 65
-1.287635e+000 2.129131e+000 -1.089715e+001 173 156 131
-8.431822e-001 1.985689e+000 -1.024555e+001 88 76 71
-3.639486e-001 1.474378e+000 -9.444613e+000 217 219 212
-4.209600e-001 1.435779e+000 -9.548204e+000 214 230 213
-3.268050e-001 1.435577e+000 -9.357987e+000 86 58 55
-8.064570e-001 1.155020e+000 -1.006173e+001 207 218 213
-1.056284e+000 9.786882e-001 -1.032992e+001 201 213 211
-3.816938e-001 9.532363e-001 -9.355124e+000 213 230 219
-3.037901e-001 1.004806e+000 -9.257999e+000 90 60 65
-1.921559e-001 9.420578e-001 -9.056399e+000 202 229 210
-7.895432e-001 6.461358e-001 -9.859712e+000 203 229 215
-4.891971e-001 -7.185723e-001 -9.064800e+000 203 211 208
2.890700e-001 -6.239061e-001 -7.802820e+000 205 208 215
-5.960757e-001 -1.027447e+000 -9.063698e+000 51 40 46
4.703907e-001 -7.281266e-001 -7.519844e+000 67 55 79
5.750541e-001 -7.735575e-001 -7.362744e+000 188 199 202
-8.672199e-001 -1.179639e+000 -9.503600e+000 76 66 67
-6.228317e-001 -1.121070e+000 -9.191797e+000 74 59 64
-6.554436e-001 -1.237094e+000 -9.096343e+000 217 205 209
-8.748449e-001 -1.513971e+000 -9.460375e+000 177 165 170
-8.477521e-001 -1.523632e+000 -9.489894e+000 64 52 66
-1.640504e+000 3.554830e+000 -1.156291e+001 157 127 74
-9.787029e-001 2.902043e+000 -1.060766e+001 137 86 60
2.116154e+000 2.387275e+000 -9.341518e+000 125 112 70
-6.875652e-001 1.783647e+000 -9.995797e+000 216 217 207
1.772906e-001 1.635232e+000 -8.536554e+000 76 53 68
-1.114357e+000 1.670305e+000 -1.057996e+001 81 69 70
3.125389e+000 1.550586e+000 -9.902410e+000 33 18 1
-6.467087e-001 1.418255e+000 -9.826454e+000 77 67 73
2.044194e+000 1.104926e+000 -8.504917e+000 127 113 74
-3.992149e-001 9.899168e-001 -9.326598e+000 88 67 66
3.906900e+000 9.390170e-001 -9.099317e+000 142 110 46
-7.308445e-001 9.039990e-001 -9.900917e+000 94 80 91
2.700186e-001 7.551389e-001 -8.146759e+000 204 228 212
-9.191984e-001 5.697871e-001 -1.001043e+001 201 216 210
-6.850194e-001 3.379568e-001 -9.663273e+000 92 72 70
-7.960084e-001 -1.105998e+000 -9.356854e+000 62 51 50
-2.715808e-001 -8.853848e-001 -8.634125e+000 197 223 216
-1.132309e+000 2.850175e+000 -1.093703e+001 138 86 65
2.506908e+000 2.394572e+000 -9.660133e+000 96 82 48
-1.107971e+000 2.467252e+000 -1.074885e+001 191 167 121
1.771773e+000 2.043083e+000 -8.991554e+000 119 103 69
1.844929e+000 2.006332e+000 -9.005997e+000 118 104 65
2.271314e+000 2.028813e+000 -9.386855e+000 85 71 34
2.271314e+000 2.028813e+000 -9.386855e+000 85 71 34
2.222918e+000 1.855736e+000 -9.276815e+000 127 113 71
2.709399e+000 2.013898e+000 -9.691136e+000 119 106 65
-4.271585e-002 1.730021e+000 -8.922239e+000 206 222 209
-2.367557e-001 1.567333e+000 -9.235765e+000 208 220 208
1.314314e+000 1.242021e+000 -7.880586e+000 124 110 63
2.841569e+000 1.495769e+000 -9.674431e+000 62 44 20
2.910990e+000 1.531995e+000 -9.747863e+000 116 95 66
3.078455e+000 1.574909e+000 -9.902346e+000 43 32 10
-6.270043e-001 1.253015e+000 -9.812619e+000 204 227 213
1.729233e+000 6.310889e-001 -7.885267e+000 130 115 72
1.871660e+000 4.496788e-001 -7.925187e+000 125 110 67
1.998777e+000 3.151524e-001 -7.993695e+000 129 111 63
2.530704e+000 2.954717e-001 -8.538267e+000 123 107 71
2.599744e+000 2.756368e-001 -8.608131e+000 123 106 62
2.688627e+000 -3.403715e-002 -8.523507e+000 122 107 68
3.241516e+000 -3.873606e-001 -8.850653e+000 68 51 23
-3.657947e-001 -8.128981e-001 -8.835788e+000 93 64 65
3.567072e+000 -8.020506e-001 -9.041637e+000 80 64 47
-6.412841e-001 -1.091922e+000 -9.122266e+000 206 218 209
-5.490114e-001 -1.024670e+000 -9.010922e+000 204 220 213
-1.313426e+000 3.270396e+000 -1.110773e+001 151 114 66
1.787416e+000 2.193823e+000 -9.038677e+000 91 76 46
-4.271400e-001 2.192678e+000 -9.636245e+000 212 222 213
1.979538e+000 1.948893e+000 -9.111131e+000 82 66 34
2.626776e+000 2.135101e+000 -9.690477e+000 128 111 68
-2.330043e-002 1.779381e+000 -8.906437e+000 81 75 76
2.884561e+000 1.817653e+000 -9.764558e+000 62 51 23
8.745041e-002 1.344937e+000 -8.598527e+000 206 222 209
-1.166536e+000 9.487547e-001 -1.042231e+001 87 72 85
3.003824e+000 7.555995e-001 -9.305664e+000 47 41 26
-1.116958e+000 7.170595e-001 -1.034242e+001 199 218 207
1.255280e-001 6.578778e-001 -8.359616e+000 88 70 80
-1.678074e+001 1.170549e+000 -6.497106e+001 201 54 72
1.585871e+000 5.136436e-001 -7.687930e+000 119 105 65
-8.983021e-001 4.046329e-001 -1.002366e+001 203 225 214
4.201814e+000 4.054485e-001 -8.616326e+000 214 187 99
1.653609e+000 2.416369e-001 -7.575570e+000 75 63 31
1.654971e+000 2.419434e-001 -7.580622e+000 75 63 31
1.684372e+000 -7.500674e-002 -7.481384e+000 74 61 29
1.996841e+000 -1.484815e-001 -7.737958e+000 75 56 21
2.958129e+000 -4.878998e-001 -8.440898e+000 121 102 62
3.232789e+000 -5.527113e-001 -8.725725e+000 108 93 62
4.289927e+000 -4.616164e-001 -8.342821e+000 203 184 92
1.012803e+000 -1.278323e+000 -6.630278e+000 69 61 100
-1.580319e+000 3.218825e+000 -1.150861e+001 95 60 42
-1.580319e+000 3.218825e+000 -1.150861e+001 95 60 42
-1.798687e+000 3.162820e+000 -1.175530e+001 151 122 80
-1.719860e+000 3.238972e+000 -1.165455e+001 150 121 78
-9.297663e-001 2.475929e+000 -1.049669e+001 137 69 63
-1.282889e-001 1.712354e+000 -9.074770e+000 80 68 72
2.812907e+000 1.712239e+000 -9.722025e+000 72 56 30
3.011886e-001 1.210294e+000 -8.228592e+000 78 67 75
2.016119e-002 1.077690e+000 -8.702062e+000 205 226 211
3.678619e-001 6.941857e-001 -7.984314e+000 88 71 87
1.140309e-001 5.522488e-001 -8.424415e+000 205 226 207
4.030156e+000 5.972396e-001 -8.912903e+000 192 165 86
-7.698291e-001 4.695880e-001 -9.847249e+000 198 228 206
3.275546e+000 4.334384e-001 -9.371722e+000 97 81 55
1.811584e+000 2.101591e-001 -7.763307e+000 75 57 28
2.782358e+000 -4.506681e-002 -8.604077e+000 118 103 62
-5.732932e-001 -5.290896e-001 -9.179101e+000 204 229 211
2.292931e+000 -4.048513e-001 -7.879563e+000 74 64 33
4.074424e+000 -4.123307e-001 -8.593898e+000 139 110 46
2.159807e+000 -4.733112e-001 -7.673340e+000 78 62 33
2.837348e+000 -6.006596e-001 -8.241490e+000 94 80 48
3.184416e+000 -6.954363e-001 -8.614837e+000 56 36 12
3.105182e+000 -7.231387e-001 -8.526581e+000 102 87 46
5.803981e-001 -7.236354e-001 -7.366646e+000 84 66 88
-1.511798e+000 3.302940e+000 -1.143753e+001 102 65 49
-1.513617e+000 3.305186e+000 -1.144304e+001 102 65 49
-1.433411e+000 2.281879e+000 -1.104625e+001 171 139 93
-5.622361e-001 1.292056e+000 -9.755389e+000 99 72 85
-2.216598e+001 1.202701e+000 -6.175309e+001 178 34 47
-6.057725e-001 3.008194e-001 -9.572004e+000 209 225 212
4.213142e-001 3.445494e-001 -7.798833e+000 103 71 96
-7.125958e-001 2.657412e-001 -9.702874e+000 204 228 210
5.394415e-001 5.336127e-002 -7.662926e+000 197 225 207
1.522511e-001 -5.311347e-002 -8.232354e+000 78 58 85
-1.987269e-001 -6.425129e-001 -8.628135e+000 78 64 81
-2.105440e-001 -9.163556e-001 -8.539213e+000 78 65 80
-1.200495e+000 2.973498e+000 -1.094647e+001 94 65 51
-7.220540e-001 1.669644e+000 -1.009282e+001 89 74 93
-1.993080e-001 1.042081e+000 -9.012056e+000 120 79 85
-2.676659e-001 9.196035e-001 -9.131401e+000 86 65 67
2.995737e-001 7.630753e-001 -8.098860e+000 205 226 209
4.017474e-001 7.840968e-001 -7.940315e+000 204 226 207
-1.744945e+001 1.995861e+000 -6.604755e+001 174 38 52
4.154431e+000 2.619256e-001 -8.590691e+000 175 140 62
-6.467516e-001 2.219237e+000 -9.963825e+000 93 71 74
1.419527e+000 1.214506e+000 -7.961564e+000 121 115 81
1.672803e-001 1.571396e-001 -8.164981e+000 81 65 92
1.871817e-001 -5.863130e-001 -7.920727e+000 96 69 104
4.430700e-001 -6.120411e-001 -7.546311e+000 70 53 89
1.201980e+000 1.426060e+000 -7.910881e+000 131 114 71
4.105835e+000 7.631572e-001 -8.797469e+000 211 186 96
3.175690e-001 -3.306637e-002 -8.001694e+000 81 60 96
3.347278e+000 -4.039475e-001 -8.958349e+000 68 51 25
-7.608146e-001 -7.975953e-001 -9.353871e+000 63 54 58
-8.708432e-001 1.426582e+000 -1.026482e+001 77 61 79
3.521577e+000 -7.004526e-001 -8.901005e+000 51 34 18
-7.685265e-001 2.979286e+000 -1.038312e+001 199 154 105
-7.251745e-001 2.808265e+000 -1.026372e+001 141 89 65
-1.711354e+000 2.851332e+000 -1.160894e+001 93 73 87
-5.521844e-001 2.552166e+000 -9.957720e+000 133 91 66
1.704312e+000 2.317452e+000 -9.039140e+000 123 109 69
-1.524170e+000 2.385441e+000 -1.130543e+001 169 137 93
-1.040248e+000 2.291860e+000 -1.060884e+001 199 182 138
2.225823e+000 2.167300e+000 -9.352642e+000 124 110 65
-5.960021e-001 2.006473e+000 -9.918661e+000 92 60 70
1.848763e+000 1.980439e+000 -9.023585e+000 124 111 71
-9.267706e-001 1.654313e+000 -1.031346e+001 84 68 70
-3.052426e+001 2.644151e+000 -7.438150e+001 104 63 57
-9.176696e-001 5.684349e-001 -1.000620e+001 211 227 223
3.991227e+000 5.111899e-001 -8.930326e+000 134 106 41
1.774224e+000 -9.466974e-002 -7.537412e+000 104 91 57
-1.308053e+000 2.759481e+000 -1.103629e+001 95 61 52
-9.101505e-001 1.893387e+000 -1.033182e+001 80 75 72
2.939157e+000 1.423019e+000 -9.677390e+000 102 81 54
-1.358539e-001 -4.520696e-001 -8.560257e+000 211 225 217
4.103687e+000 -3.041921e-001 -8.513615e+000 141 118 42
2.145171e+000 -4.342795e-001 -7.657118e+000 128 111 67
2.911338e-001 -6.213174e-001 -7.792017e+000 187 198 199
6.078611e-001 -8.221832e-001 -7.322484e+000 172 171 182
-7.472425e-001 2.878229e+000 -1.028985e+001 130 76 52
-9.136172e-001 2.458094e+000 -1.046845e+001 123 62 48
1.463418e+000 2.136696e+000 -8.746844e+000 90 76 38
1.920392e+000 2.015602e+000 -9.096885e+000 119 104 62
1.389256e+000 1.742609e+000 -8.350630e+000 132 109 70
1.797204e+000 1.642263e+000 -8.726083e+000 122 109 64
1.541218e+000 7.747660e-001 -7.739485e+000 79 64 30
1.499641e+000 5.412728e-001 -7.589331e+000 66 51 20
1.763430e+000 -2.441824e-002 -7.567978e+000 82 67 29
6.270791e-001 -2.145714e-001 -7.403048e+000 69 57 84
1.947655e+000 -1.420771e-001 -7.694300e+000 117 103 58
1.965542e+000 -2.692773e-001 -7.609370e+000 123 108 65
6.450612e-001 -3.640296e-001 -7.326476e+000 174 179 182
2.343047e+000 -3.851759e-001 -7.902754e+000 122 105 58
1.723625e+000 2.849720e+000 -9.357528e+000 123 108 69
1.646552e+000 2.811214e+000 -9.288710e+000 85 72 37
2.082535e+000 2.667105e+000 -9.485018e+000 91 75 42
1.719568e+000 2.402158e+000 -9.098196e+000 79 66 32
1.776392e+000 2.392576e+000 -9.147798e+000 97 82 51
-1.561009e+000 2.568601e+000 -1.137238e+001 80 63 75
2.533411e+000 2.454034e+000 -9.719205e+000 132 114 74
-2.500817e+001 8.929715e+000 -6.665508e+001 132 95 146
1.736106e+000 2.192786e+000 -8.999602e+000 74 59 28
2.158162e+000 2.138327e+000 -9.293850e+000 78 63 24
2.300496e+000 1.894952e+000 -9.331560e+000 76 61 28
2.300496e+000 1.894952e+000 -9.331560e+000 76 61 28
2.357226e+000 1.835445e+000 -9.378696e+000 122 107 66
3.100073e+000 1.719815e+000 -9.884149e+000 92 72 47
-6.353650e-001 1.255775e+000 -9.819707e+000 202 229 208
-1.754451e+001 -1.344883e-001 -6.369429e+001 151 57 57
-1.644110e+001 -9.989109e-002 -6.461473e+001 179 97 97
1.629452e+000 8.145577e-001 -7.847778e+000 125 107 59
3.974880e+000 6.807887e-001 -8.858474e+000 190 162 81
5.740899e-001 -5.900722e-001 -7.354127e+000 79 61 86
-7.643603e-002 1.008722e+000 -8.855784e+000 204 227 206
-7.643603e-002 1.008722e+000 -8.855784e+000 204 227 206
1.737785e+000 8.242801e-001 -7.956005e+000 91 73 37
-8.520357e-001 -9.248541e-001 -9.550138e+000 72 58 60
-2.296669e+001 -2.736713e+000 -6.457274e+001 32 24 44
6.435166e-001 -5.620174e-001 -7.243876e+000 132 138 149
6.413983e-001 -5.632042e-001 -7.272010e+000 132 138 149
-3.180659e+001 -3.490470e+000 -7.381107e+001 56 34 32
-9.540379e-001 3.008895e+000 -1.067374e+001 174 120 93
-1.272040e+000 2.870298e+000 -1.116089e+001 101 67 53
-8.822424e-001 2.796409e+000 -1.050770e+001 184 137 107
-6.705064e-001 2.762852e+000 -1.019481e+001 180 143 93
-8.781500e-001 2.641071e+000 -1.048672e+001 186 138 99
-5.398416e-001 2.618409e+000 -1.000649e+001 119 86 54
-5.123774e-001 2.585519e+000 -9.921824e+000 205 174 148
-1.281228e+000 2.401882e+000 -1.093441e+001 171 136 82
-3.293349e-001 2.375909e+000 -9.549756e+000 70 43 46
-5.319479e-001 2.240458e+000 -9.841843e+000 205 195 193
-5.319479e-001 2.240458e+000 -9.841843e+000 205 195 193
1.774851e+000 2.334653e+000 -9.172871e+000 127 108 75
1.032989e-001 2.039261e+000 -8.699819e+000 96 80 90
-2.747836e-001 3.591286e-001 -8.971030e+000 203 217 209
1.893221e+000 4.754851e-001 -7.879438e+000 86 64 25
2.004889e-001 -1.922936e-001 -8.136300e+000 80 66 84
4.657018e-001 -4.177082e-001 -7.550395e+000 76 61 90
-8.572491e-001 -1.504356e+000 -9.409452e+000 180 178 183
-3.735818e-001 2.869441e+000 -9.768097e+000 183 138 73
-2.796982e-001 2.896367e+000 -9.503590e+000 206 168 103
-1.634759e+000 2.746514e+000 -1.132057e+001 98 75 93
2.392901e+000 2.744428e+000 -9.879260e+000 131 108 74
2.442165e+000 2.775329e+000 -9.977627e+000 90 67 36
-9.960895e-001 2.388605e+000 -1.058458e+001 144 82 57
2.538402e+000 2.578436e+000 -9.925427e+000 91 68 37
2.775166e+000 2.570295e+000 -1.016162e+001 121 102 70
1.518107e+000 2.363537e+000 -8.970167e+000 121 104 61
3.857379e+000 2.318750e+000 -9.634276e+000 176 144 61
1.631299e+000 2.108867e+000 -8.926108e+000 119 99 64
-6.339389e-001 1.780759e+000 -9.925378e+000 76 58 70
-1.308081e-001 1.842546e+000 -9.109406e+000 76 62 65
1.593319e+000 1.882587e+000 -8.711713e+000 135 116 76
-6.042904e-001 1.360918e+000 -9.785820e+000 208 211 208
3.028235e+000 1.348134e+000 -9.703094e+000 104 85 55
3.957684e+000 8.350439e-001 -8.940076e+000 195 159 85
3.328125e+000 4.209206e-001 -9.380943e+000 88 70 49
3.967572e+000 2.402605e-001 -8.738686e+000 179 142 74
1.450023e+000 2.538223e-001 -7.297770e+000 123 104 62
1.043191e-001 -3.774150e-001 -8.140182e+000 90 53 78
-3.226538e-001 -7.309483e-001 -8.668371e+000 208 212 209
-2.906510e-001 -7.157254e-001 -8.662080e+000 75 58 61
2.912468e+000 -3.122175e-001 -8.455727e+000 115 96 58
2.636369e+000 -4.378993e-001 -8.093096e+000 71 50 23
-4.327827e-002 -7.801340e-001 -8.190829e+000 204 197 204
2.744265e+000 -5.015244e-001 -8.141828e+000 122 104 65
-3.598760e-001 3.008011e+000 -9.667214e+000 208 168 109
1.993822e+000 3.235133e+000 -9.874070e+000 126 110 67
2.032008e+000 3.213872e+000 -9.791919e+000 118 103 66
1.989407e+000 3.170590e+000 -9.721025e+000 80 69 37
2.037231e+000 3.128254e+000 -9.826323e+000 119 102 60
2.158458e+000 3.188108e+000 -9.898207e+000 125 113 74
2.182977e+000 3.202095e+000 -1.002005e+001 125 113 74
2.543248e+000 3.244558e+000 -1.030240e+001 73 58 29
1.091660e+000 2.798142e+000 -8.739864e+000 125 106 66
1.091660e+000 2.798142e+000 -8.739864e+000 125 106 66
2.549504e+000 3.112761e+000 -1.025351e+001 122 105 69
2.782904e+000 3.106672e+000 -1.047245e+001 63 55 36
1.858816e+000 2.737671e+000 -9.429445e+000 119 99 62
1.446650e+000 2.591743e+000 -9.044514e+000 124 107 70
1.510418e+000 2.581097e+000 -9.095228e+000 126 108 71
1.653105e+000 2.556863e+000 -9.148238e+000 125 109 70
1.717057e+000 2.551175e+000 -9.194930e+000 118 102 66
1.871831e+000 2.639667e+000 -9.404318e+000 127 109 71
2.075541e+000 2.726349e+000 -9.614769e+000 124 106 70
2.193359e+000 2.597020e+000 -9.544535e+000 125 110 69
2.184858e+000 2.499036e+000 -9.545886e+000 124 106 67
2.306379e+000 2.480987e+000 -9.623351e+000 122 104 66
2.306379e+000 2.480987e+000 -9.623351e+000 122 104 66
-1.386788e+000 2.135127e+000 -1.100210e+001 96 67 67
2.266355e+000 2.383775e+000 -9.533048e+000 120 101 61
2.650193e+000 2.466666e+000 -9.934393e+000 82 61 30
2.733522e+000 2.444214e+000 -9.995655e+000 83 63 32
1.693160e+000 2.150810e+000 -8.952855e+000 125 107 67
1.415232e+000 2.062352e+000 -8.661042e+000 79 58 21
1.439947e+000 2.097950e+000 -8.693085e+000 124 103 62
1.442435e+000 2.097923e+000 -8.702771e+000 124 103 62
2.975040e+000 2.168439e+000 -9.983340e+000 112 91 62
1.871414e+000 1.952217e+000 -9.069828e+000 122 104 64
1.511252e-001 1.661830e+000 -8.547882e+000 212 226 208
-2.566707e-001 1.508783e+000 -9.221758e+000 95 66 82
1.891560e+000 1.618287e+000 -8.832765e+000 118 99 59
3.784706e+000 1.849987e+000 -9.485285e+000 191 159 83
3.928182e+000 1.837049e+000 -9.404642e+000 177 135 62
3.918685e+000 1.773079e+000 -9.206131e+000 213 172 93
1.854058e+000 1.483307e+000 -8.647092e+000 119 102 59
2.291143e+000 1.480434e+000 -9.097042e+000 119 99 62
3.813457e+000 1.591903e+000 -9.310047e+000 190 154 78
2.826122e+000 1.442002e+000 -9.598547e+000 113 92 63
3.799170e+000 1.551838e+000 -9.334211e+000 153 113 46
-7.476966e-001 9.438968e-001 -9.855727e+000 214 225 217
-6.871402e-002 1.046990e+000 -8.727088e+000 202 224 205
1.657650e+000 1.259431e+000 -8.235074e+000 126 106 69
2.854086e+000 1.217257e+000 -9.371652e+000 123 103 70
3.811394e+000 1.436915e+000 -9.277504e+000 153 110 48
2.865099e+000 1.126497e+000 -9.325868e+000 111 91 56
2.982513e+000 1.094598e+000 -9.453280e+000 117 93 65
4.116326e+000 1.292636e+000 -8.885670e+000 188 151 70
2.196209e+000 7.711830e-001 -8.424628e+000 132 112 63
3.275635e+000 4.711249e-002 -9.091241e+000 99 77 46
3.775760e-002 -3.220284e-001 -8.290364e+000 203 219 208
-7.513948e-001 -9.440620e-001 -9.312363e+000 66 56 60
4.155844e+000 -8.232710e-002 -8.587488e+000 156 122 48
1.890680e+000 -1.596947e-001 -7.580343e+000 122 103 63
2.102531e+000 -1.656719e-001 -7.798655e+000 134 113 68
-5.232682e-001 -9.625699e-001 -8.901041e+000 211 221 216
3.366759e-001 -7.407046e-001 -7.631538e+000 66 48 73
-8.341987e-002 2.938331e+000 -9.146096e+000 92 64 57
9.582187e-001 2.992957e+000 -8.714821e+000 83 63 26
1.544871e+000 3.130499e+000 -9.408163e+000 59 54 38
1.551544e+000 3.138368e+000 -9.478509e+000 59 54 38
-4.103322e-001 2.892536e+000 -9.746909e+000 202 177 117
1.056050e+000 2.959292e+000 -8.806023e+000 81 61 28
1.228808e+000 2.906230e+000 -9.007826e+000 93 75 39
1.228808e+000 2.906230e+000 -9.007826e+000 93 75 39
2.294651e+000 3.164566e+000 -1.008046e+001 121 104 65
3.687543e+000 3.243121e+000 -1.005556e+001 167 127 55
1.274054e+000 2.788453e+000 -8.990213e+000 74 56 20
1.274054e+000 2.788453e+000 -8.990213e+000 74 56 20
1.458755e+000 2.901905e+000 -9.276292e+000 119 100 59
2.723829e+000 3.011928e+000 -1.032469e+001 69 55 37
1.111120e+000 2.687980e+000 -8.700331e+000 128 100 61
1.200020e+000 2.706627e+000 -8.817781e+000 86 64 27
1.391004e+000 2.759887e+000 -9.098670e+000 78 60 25
1.333227e+000 2.672937e+000 -8.998147e+000 85 64 34
2.128576e+000 2.765004e+000 -9.636827e+000 93 73 38
3.754622e+000 2.891941e+000 -9.832036e+000 194 159 79
3.754622e+000 2.891941e+000 -9.832036e+000 194 159 79
-1.376257e+000 2.486536e+000 -1.110749e+001 102 69 38
1.309402e+000 2.577054e+000 -8.890690e+000 65 48 18
1.309402e+000 2.577054e+000 -8.890690e+000 65 48 18
1.837044e+000 2.687219e+000 -9.374379e+000 68 52 19
1.964044e+000 2.711457e+000 -9.466369e+000 127 105 69
1.905985e+000 2.631065e+000 -9.364515e+000 118 99 61
2.147768e+000 2.710044e+000 -9.628347e+000 123 105 68
2.147768e+000 2.710044e+000 -9.628347e+000 123 105 68
2.293244e+000 2.636321e+000 -9.692795e+000 83 67 33
2.782738e+000 2.845631e+000 -1.041294e+001 110 90 59
2.772136e+000 2.840706e+000 -1.035893e+001 110 90 59
3.797144e+000 2.853828e+000 -9.816540e+000 173 131 57
1.269167e+000 2.387978e+000 -8.703298e+000 81 65 32
1.746486e+000 2.447483e+000 -9.191821e+000 122 104 67
1.746486e+000 2.447483e+000 -9.191821e+000 122 104 67
1.857576e+000 2.436413e+000 -9.280173e+000 124 106 66
3.789664e+000 2.651202e+000 -9.989692e+000 157 120 46
-1.279035e+000 2.215950e+000 -1.089243e+001 122 85 60
-1.288498e+000 2.214651e+000 -1.093763e+001 122 85 60
-3.945192e-001 2.252027e+000 -9.645510e+000 85 69 74
1.183044e+000 2.317945e+000 -8.578899e+000 77 61 28
1.263045e+000 2.233254e+000 -8.583432e+000 124 103 62
1.367660e+000 2.262856e+000 -8.719979e+000 77 61 35
1.371916e+000 2.263143e+000 -8.741744e+000 77 61 35
2.535674e+000 2.396692e+000 -9.732709e+000 80 65 26
1.379099e+000 2.164950e+000 -8.665114e+000 89 68 37
1.506161e+000 2.177601e+000 -8.849586e+000 126 103 61
2.571063e+000 2.286124e+000 -9.658282e+000 84 63 32
2.571063e+000 2.286124e+000 -9.658282e+000 84 63 32
6.287220e-002 1.995058e+000 -8.787006e+000 210 218 205
1.361747e+000 2.036458e+000 -8.551146e+000 125 102 61
1.583652e+000 2.106150e+000 -8.861937e+000 86 68 32
1.444122e+000 2.003084e+000 -8.651756e+000 126 107 66
1.543368e+000 2.025143e+000 -8.787423e+000 81 65 31
2.410089e+000 2.100633e+000 -9.487148e+000 81 61 30
2.410089e+000 2.100633e+000 -9.487148e+000 81 61 30
2.370684e+000 2.050591e+000 -9.422479e+000 125 106 67
2.503520e+000 2.143035e+000 -9.605743e+000 121 101 64
2.503520e+000 2.143035e+000 -9.605743e+000 121 101 64
2.766384e+000 2.201497e+000 -9.816417e+000 121 96 65
2.892640e+000 2.133095e+000 -9.868364e+000 79 57 30
1.773899e+000 1.922305e+000 -8.938220e+000 118 103 59
2.111366e+000 1.978437e+000 -9.213316e+000 115 95 58
2.111366e+000 1.978437e+000 -9.213316e+000 115 95 58
3.787840e+000 2.047442e+000 -9.635099e+000 179 151 77
1.218147e+000 1.793429e+000 -8.192805e+000 124 106 60
1.789192e+000 1.823238e+000 -8.905316e+000 131 108 66
2.405911e+000 1.828352e+000 -9.410176e+000 116 98 59
2.908188e+000 1.860982e+000 -9.812808e+000 114 94 61
3.062657e+000 1.836247e+000 -9.900798e+000 115 97 67
3.705460e+000 1.910312e+000 -9.626128e+000 162 126 65
2.076222e+000 1.480230e+000 -8.897637e+000 55 39 8
2.076222e+000 1.480230e+000 -8.897637e+000 55 39 8
2.273532e+000 1.581235e+000 -9.193722e+000 77 60 34
2.382010e+000 1.564309e+000 -9.269462e+000 67 43 15
2.544908e+000 1.586404e+000 -9.442090e+000 122 101 60
2.541312e+000 1.586442e+000 -9.437095e+000 122 101 60
2.788717e+000 1.543870e+000 -9.626026e+000 113 95 60
2.788717e+000 1.543870e+000 -9.626026e+000 113 95 60
3.133250e+000 1.483619e+000 -9.971345e+000 78 61 42
3.160457e+000 1.585022e+000 -9.753292e+000 64 45 26
3.916189e+000 1.723599e+000 -9.267080e+000 181 137 62
1.958693e+000 1.459725e+000 -8.722223e+000 116 98 62
2.046556e+000 1.443240e+000 -8.813190e+000 127 108 66
2.122645e+000 1.388432e+000 -8.844409e+000 88 68 34
2.272044e+000 1.441954e+000 -9.055135e+000 64 45 21
2.440056e+000 1.414863e+000 -9.172114e+000 64 45 12
2.522007e+000 1.356157e+000 -9.223199e+000 118 98 63
2.522007e+000 1.356157e+000 -9.223199e+000 118 98 63
2.747556e+000 1.358969e+000 -9.446069e+000 79 59 30
-3.416622e-001 9.916560e-001 -9.218547e+000 214 226 214
1.595132e+000 1.354724e+000 -8.265962e+000 125 103 64
1.741634e+000 1.328004e+000 -8.412979e+000 125 101 63
1.741634e+000 1.328004e+000 -8.412979e+000 125 101 63
2.768361e+000 1.274083e+000 -9.362402e+000 68 49 21
2.642705e+000 1.254635e+000 -9.217382e+000 121 101 60
3.019160e+000 1.309301e+000 -9.675965e+000 61 43 19
-7.787429e-002 1.027144e+000 -8.811242e+000 208 229 206
1.376362e+000 1.223753e+000 -7.927938e+000 120 102 58
1.378873e+000 1.185066e+000 -7.865898e+000 92 81 61
2.044484e+000 1.139038e+000 -8.517599e+000 74 67 41
2.730062e+000 1.192763e+000 -9.240190e+000 67 47 23
3.064915e+000 1.077052e+000 -9.514080e+000 103 83 55
3.890684e+000 1.262754e+000 -9.216793e+000 201 168 92
1.985258e+000 1.113321e+000 -8.433860e+000 122 105 59
2.033684e+000 1.099335e+000 -8.466018e+000 123 105 62
2.251453e+000 1.056201e+000 -8.647954e+000 136 117 75
2.375062e+000 1.031974e+000 -8.770359e+000 129 112 68
3.943215e+000 1.148996e+000 -9.097476e+000 162 128 54
-8.882016e-001 4.097925e-001 -9.941644e+000 206 229 215
2.245599e+000 9.677650e-001 -8.569196e+000 132 115 71
1.264515e-001 6.495589e-001 -8.390847e+000 87 63 82
2.342820e+000 7.445086e-001 -8.553824e+000 126 106 68
2.735977e+000 7.542728e-001 -8.964266e+000 126 96 62
3.099430e+000 7.212364e-001 -9.330514e+000 64 51 34
2.379906e+000 6.326758e-001 -8.536130e+000 129 110 68
2.882133e+000 6.233522e-001 -9.024192e+000 121 99 60
3.172447e+000 5.548838e-001 -9.306541e+000 107 83 56
3.975909e+000 5.443707e-001 -8.903753e+000 151 117 49
4.033214e+000 6.589643e-001 -8.752536e+000 204 174 89
-2.884741e-001 5.069456e-003 -8.960193e+000 212 226 212
1.560051e+000 5.252287e-001 -7.594654e+000 124 102 61
2.214362e+000 4.717409e-001 -8.269080e+000 131 111 68
2.018916e+000 4.158660e-001 -8.025987e+000 135 114 71
2.913537e+000 2.108615e-001 -8.845242e+000 112 89 55
2.990807e+000 2.024786e-001 -8.903498e+000 118 96 59
2.990807e+000 2.024786e-001 -8.903498e+000 118 96 59
4.006162e+000 3.785429e-001 -8.835577e+000 156 121 56
2.063167e+000 1.966362e-001 -7.976035e+000 129 108 63
2.908066e+000 1.227012e-001 -8.753594e+000 116 92 56
2.578415e+000 -8.850265e-003 -8.356866e+000 123 102 60
2.947157e+000 -4.257415e-002 -8.733581e+000 59 41 17
2.956451e-002 -4.472172e-001 -8.262161e+000 125 71 102
1.798872e+000 -4.727228e-002 -7.582442e+000 127 108 64
2.855372e+000 -2.731811e-001 -8.511530e+000 125 106 66
2.832209e+000 -2.480300e-001 -8.443329e+000 125 106 66
3.191938e+000 -3.176049e-001 -8.741287e+000 102 78 51
6.319159e-001 -1.824364e-001 -7.352417e+000 83 68 101
3.184980e+000 -4.233370e-001 -8.694285e+000 113 93 60
4.284757e-001 -3.836713e-001 -7.598269e+000 71 58 80
3.510898e+000 -7.976742e-001 -8.894456e+000 73 55 41
1.644438e+000 3.114204e+000 -9.478818e+000 70 70 60
3.820564e+000 3.365692e+000 -9.788228e+000 176 142 56
1.074269e+000 2.854455e+000 -8.764040e+000 89 66 32
1.369493e+000 2.959004e+000 -9.128056e+000 90 70 33
1.877408e+000 3.102860e+000 -9.656183e+000 65 62 45
1.116846e-002 2.693654e+000 -8.901835e+000 80 59 57
1.102109e+000 2.744694e+000 -8.728308e+000 80 57 27
1.523255e+000 2.934462e+000 -9.310762e+000 73 55 20
1.653828e+000 2.919789e+000 -9.414524e+000 83 66 33
3.727074e+000 3.166835e+000 -1.002309e+001 190 159 79
3.952234e+000 3.021452e+000 -9.815047e+000 210 179 89
-1.544061e+000 2.553554e+000 -1.128828e+001 80 63 78
-7.923237e-001 2.513828e+000 -1.032186e+001 185 114 78
1.712449e+000 2.603656e+000 -9.276565e+000 68 52 19
2.168388e+000 2.549619e+000 -9.527773e+000 75 55 22
-4.475041e-001 2.209406e+000 -9.717611e+000 211 220 203
1.411754e+000 2.308401e+000 -8.835163e+000 126 103 61
1.926921e+000 2.409080e+000 -9.257877e+000 125 107 67
1.743721e+000 2.190267e+000 -9.009798e+000 64 49 18
1.946761e+000 2.267133e+000 -9.225038e+000 99 80 47
2.070341e+000 2.042023e+000 -9.193685e+000 93 74 40
3.740115e+000 2.245629e+000 -9.684049e+000 187 155 80
-2.329126e-002 1.783909e+000 -8.898219e+000 83 79 83
2.334557e+000 1.945501e+000 -9.369677e+000 129 110 68
2.499908e+000 1.976358e+000 -9.511032e+000 71 54 24
2.494278e+000 1.977601e+000 -9.482456e+000 71 54 24
2.815432e+000 2.040370e+000 -9.750683e+000 73 54 24
3.755573e+000 2.129165e+000 -9.623330e+000 184 153 80
-1.772346e+001 -2.080101e+000 -6.368193e+001 164 33 38
1.416922e+000 1.776747e+000 -8.416001e+000 85 69 43
2.377884e+000 1.887090e+000 -9.377446e+000 85 69 33
2.719754e+000 1.830024e+000 -9.633071e+000 83 67 42
3.946958e+000 1.949921e+000 -9.242711e+000 185 146 70
-5.469243e-001 1.274382e+000 -9.691864e+000 107 71 93
-5.393180e-001 1.283415e+000 -9.633764e+000 107 71 93
1.701345e+000 1.516980e+000 -8.543422e+000 133 110 66
1.927581e+000 1.507332e+000 -8.758029e+000 82 63 33
2.191800e+000 1.603097e+000 -9.115538e+000 73 56 30
-5.128745e-001 1.165210e+000 -9.523247e+000 117 73 98
1.383269e+000 1.451417e+000 -8.120611e+000 79 60 35
1.383269e+000 1.451417e+000 -8.120611e+000 79 60 35
1.710179e+000 1.464765e+000 -8.501274e+000 85 70 38
3.183019e+000 1.393935e+000 -9.881920e+000 92 71 51
2.943014e-001 1.205905e+000 -8.242383e+000 86 72 77
2.964625e-001 1.211910e+000 -8.205183e+000 86 72 77
1.559883e+000 1.319147e+000 -8.192825e+000 70 54 21
1.926001e+000 1.250980e+000 -8.498842e+000 112 94 58
1.926001e+000 1.250980e+000 -8.498842e+000 112 94 58
3.900906e+000 1.403057e+000 -9.286760e+000 166 126 56
3.890548e+000 1.322308e+000 -9.278956e+000 192 156 80
1.617938e+000 1.220881e+000 -8.169201e+000 60 56 30
1.975492e+000 1.200359e+000 -8.499168e+000 124 101 62
1.889852e+000 1.176963e+000 -8.363172e+000 80 72 49
1.889852e+000 1.176963e+000 -8.363172e+000 80 72 49
2.113120e+000 1.210551e+000 -8.650120e+000 65 50 24
2.580340e+000 1.121315e+000 -9.045445e+000 65 48 22
-3.134101e-001 7.209219e-001 -9.168826e+000 84 74 72
-3.134101e-001 7.209219e-001 -9.168826e+000 84 74 72
1.480423e+000 1.068884e+000 -7.889484e+000 71 66 47
1.621804e+000 1.093734e+000 -8.043867e+000 129 112 71
1.597225e+000 1.050873e+000 -7.965212e+000 61 62 37
1.797058e+000 1.104029e+000 -8.204636e+000 59 60 36
1.746371e+000 1.021738e+000 -8.099953e+000 86 78 49
2.100017e+000 1.088279e+000 -8.538020e+000 128 106 64
2.929426e+000 1.056986e+000 -9.358162e+000 73 59 33
3.317219e-001 8.478681e-001 -8.038185e+000 81 69 80
1.670427e+000 9.882714e-001 -8.024040e+000 137 114 73
1.667395e+000 9.923129e-001 -8.007342e+000 137 114 73
1.813021e+000 9.087269e-001 -8.089965e+000 80 63 25
2.016826e+000 9.671844e-001 -8.333922e+000 66 69 41
2.567857e+000 9.441402e-001 -8.895511e+000 72 67 41
2.570091e+000 9.397431e-001 -8.913843e+000 72 67 41
2.899674e+000 8.657033e-001 -9.210796e+000 90 80 54
1.666241e+000 8.402042e-001 -7.924745e+000 78 63 34
1.908161e+000 8.864482e-001 -8.188548e+000 86 67 35
1.984976e+000 7.808761e-001 -8.192129e+000 89 69 37
2.247844e+000 8.194198e-001 -8.482903e+000 82 62 29
2.586172e+000 7.976971e-001 -8.826493e+000 132 111 68
2.660710e+000 8.223933e-001 -8.924092e+000 70 64 49
2.609207e+000 7.337359e-001 -8.821607e+000 80 63 34
2.950216e+000 7.551768e-001 -9.188103e+000 59 53 36
3.992345e+000 8.429246e-001 -8.894092e+000 166 129 58
1.416786e+000 7.975071e-001 -7.624467e+000 72 57 28
2.878824e+000 6.668939e-001 -9.082605e+000 82 62 35
2.878824e+000 6.668939e-001 -9.082605e+000 82 62 35
4.327046e-001 3.436679e-001 -7.826810e+000 87 60 85
1.723004e+000 5.335157e-001 -7.788363e+000 72 55 27
3.244243e+000 3.486523e-001 -9.252734e+000 106 84 56
4.046335e+000 4.626761e-001 -8.733986e+000 170 139 59
2.098486e+000 3.546566e-001 -8.060336e+000 81 63 31
2.098486e+000 3.546566e-001 -8.060336e+000 81 63 31
2.289903e+000 3.542370e-001 -8.275346e+000 126 106 63
-1.983372e-001 -1.807769e-001 -8.794062e+000 87 70 82
8.953116e-002 -5.213916e-002 -8.309835e+000 213 225 215
2.238613e+000 2.219709e-001 -8.140580e+000 93 72 44
2.357769e+000 1.845048e-001 -8.264580e+000 90 72 36
2.924110e+000 1.587651e-001 -8.812039e+000 82 62 29
3.032637e+000 8.845145e-002 -8.900690e+000 113 90 54
2.897515e+000 7.875068e-002 -8.718827e+000 71 51 24
3.116403e+000 1.537451e-002 -8.935570e+000 74 54 29
3.164329e+000 6.502404e-002 -8.968904e+000 110 86 51
1.526492e+000 2.226974e-001 -7.430930e+000 120 101 58
1.652160e+000 2.492351e-001 -7.535463e+000 83 68 35
2.181490e+000 8.156713e-002 -8.030257e+000 130 107 68
2.852433e+000 -1.977090e-002 -8.650671e+000 73 57 32
3.033061e+000 -5.076887e-002 -8.772578e+000 71 50 19
2.228397e-001 -1.710889e-001 -8.016419e+000 77 61 87
2.446617e+000 -3.188893e-002 -8.223508e+000 73 53 21
2.895847e+000 -1.140272e-001 -8.590539e+000 73 48 18
3.008421e+000 -1.443832e-001 -8.702878e+000 69 50 20
3.008421e+000 -1.443832e-001 -8.702878e+000 69 50 20
1.677699e+000 2.657035e-003 -7.428550e+000 129 107 65
2.589917e+000 -1.505416e-001 -8.267534e+000 81 62 30
2.696596e+000 -2.377076e-001 -8.373987e+000 121 95 58
3.004479e+000 -2.446972e-001 -8.629952e+000 77 56 29
3.004479e+000 -2.446972e-001 -8.629952e+000 77 56 29
3.170216e+000 -2.773740e-001 -8.779663e+000 65 39 14
3.370744e+000 -3.394217e-001 -8.999376e+000 64 46 24
1.802531e+000 -1.279596e-001 -7.485568e+000 124 104 61
2.763384e+000 -3.258251e-001 -8.308926e+000 127 103 66
-2.650413e-001 -8.664061e-001 -8.551410e+000 196 210 201
4.307336e-001 -3.141649e-001 -7.467620e+000 67 50 82
2.962155e+000 -4.741736e-001 -8.390549e+000 116 96 59
2.962155e+000 -4.741736e-001 -8.390549e+000 116 96 59
-5.856558e-001 -1.194862e+000 -8.927551e+000 66 56 64
2.654381e+000 -4.915345e-001 -8.033765e+000 120 100 57
4.099975e+000 -5.515470e-001 -8.705056e+000 160 128 63
2.135451e+000 -4.719054e-001 -7.510926e+000 123 101 60
2.368331e+000 -5.246562e-001 -7.721550e+000 126 103 62
-2.321687e+001 5.940144e+000 -6.603134e+001 124 33 38
2.285938e+000 2.257087e+000 -9.460926e+000 123 103 66
-6.777660e-001 1.725297e+000 -9.932877e+000 87 72 92
-2.286999e-001 1.642455e+000 -9.203903e+000 85 68 74
2.658523e+000 1.791903e+000 -9.593824e+000 118 96 57
3.140683e+000 1.779316e+000 -9.908779e+000 47 29 9
4.098674e+000 1.108476e+000 -8.893152e+000 192 138 78
-3.054544e-001 2.994813e-001 -9.021368e+000 211 223 209
1.635404e+000 7.590238e-001 -7.815801e+000 83 67 33
2.058714e+000 6.559743e-001 -8.216908e+000 110 90 55
2.058714e+000 6.559743e-001 -8.216908e+000 110 90 55
3.238743e+000 4.349787e-001 -9.278761e+000 96 77 49
1.599724e+000 5.558024e-001 -7.689679e+000 66 49 23
1.630386e+000 5.072471e-001 -7.657502e+000 124 105 63
1.954706e+000 5.324790e-001 -7.995201e+000 130 109 64
1.969483e+000 4.354415e-001 -7.991775e+000 125 103 56
1.969483e+000 4.354415e-001 -7.991775e+000 125 103 56
2.022868e+000 4.739885e-001 -8.043078e+000 80 64 31
2.670461e+000 4.040568e-001 -8.723381e+000 91 70 41
5.272614e-001 8.169757e-002 -7.591575e+000 207 225 208
2.096085e+000 1.376595e-001 -7.987718e+000 97 80 46
2.084095e+000 1.562315e-001 -7.933017e+000 97 80 46
2.166170e+000 1.564957e-001 -8.073929e+000 125 104 61
2.260606e+000 9.750794e-002 -8.144999e+000 72 51 24
1.892248e+000 1.000250e-001 -7.706245e+000 93 76 46
2.203574e+000 2.345695e-002 -8.006043e+000 80 62 26
2.203574e+000 2.345695e-002 -8.006043e+000 80 62 26
2.729161e+000 -9.374541e-002 -8.471181e+000 78 56 25
-6.294030e-001 -7.525606e-001 -9.216742e+000 74 63 69
1.572922e+000 7.142062e-002 -7.352277e+000 76 60 34
2.797886e+000 -1.918788e-001 -8.443356e+000 82 61 32
4.045346e+000 -4.057941e-001 -8.727696e+000 161 131 67
1.633919e+000 -1.395728e-001 -7.308391e+000 71 55 25
1.633919e+000 -1.395728e-001 -7.308391e+000 71 55 25
1.692491e+000 -2.003280e-001 -7.333012e+000 124 103 60
1.850575e+000 -1.873304e-001 -7.496524e+000 72 58 31
2.182768e+000 -2.589059e-001 -7.791418e+000 62 45 15
2.313468e+000 -2.890628e-001 -7.901685e+000 101 81 46
2.468631e+000 -3.122096e-001 -8.017628e+000 78 62 29
3.296092e+000 -4.959491e-001 -8.732051e+000 62 46 23
2.532919e+000 -5.090151e-001 -7.882336e+000 75 58 31
-9.805606e-001 2.465896e+000 -1.056210e+001 145 85 64
-9.862942e-001 2.465837e+000 -1.057850e+001 145 85 64
3.041938e+000 2.749728e+000 -1.047866e+001 50 32 12
1.307880e+000 2.098158e+000 -8.479516e+000 121 97 53
3.107213e+000 1.908639e+000 -9.883574e+000 52 31 17
2.082169e+000 1.552327e+000 -8.974958e+000 94 79 38
2.999376e+000 1.391928e+000 -9.732683e+000 105 84 53
-6.543119e-001 2.832765e-001 -9.605166e+000 208 225 211
-6.597244e-001 2.755083e-001 -9.630821e+000 208 225 211
8.708577e-001 5.516070e-001 -7.124777e+000 184 181 190
3.196591e-001 -5.173837e-002 -7.951450e+000 85 65 95
1.457079e+000 3.066422e-001 -7.328414e+000 71 60 32
-2.148786e-001 -4.684650e-001 -8.687615e+000 78 59 78
2.373450e+000 -3.467820e-001 -7.899113e+000 132 110 71
2.777413e-002 2.777023e+000 -8.967801e+000 212 224 206
4.086978e+000 1.746411e+000 -9.001240e+000 214 177 89
-6.524419e-002 1.109275e+000 -8.846933e+000 100 73 92
-4.495067e-001 8.055595e-001 -9.381747e+000 80 60 69
-2.730641e-001 9.327168e-001 -9.143416e+000 92 66 69
-1.162233e-001 9.554045e-001 -8.885367e+000 209 223 208
4.050307e+000 7.885093e-001 -8.947027e+000 188 147 78
1.714285e-001 1.391944e-001 -8.265443e+000 88 72 99
3.208724e-001 -7.759259e-001 -7.663930e+000 105 88 112
2.230840e-001 2.928945e+000 -8.831144e+000 135 69 71
-2.980372e-002 2.357014e+000 -9.021890e+000 84 61 71
2.901386e+000 2.226190e+000 -9.942400e+000 88 69 39
1.511745e-001 1.279474e+000 -8.520046e+000 87 65 78
1.591775e+000 1.664191e-001 -7.441420e+000 129 110 65
-7.931975e-001 -1.280740e+000 -9.326007e+000 70 56 63
-2.390896e-001 2.686216e+000 -9.545314e+000 89 62 55
-8.867900e-001 2.141765e+000 -1.038977e+001 76 61 59
1.022159e+000 2.492356e+000 -8.530761e+000 123 102 55
4.040902e+000 7.282782e-001 -9.146054e+000 159 128 67
-7.312375e-001 1.883103e+000 -1.020071e+001 111 74 88
1.152995e+000 2.082028e+000 -8.430227e+000 124 102 55
1.394163e+000 9.557499e-001 -7.812897e+000 129 108 61
2.197754e-001 1.813685e+000 -8.441845e+000 221 225 219
2.443875e+000 1.735147e+000 -9.417527e+000 61 45 11
-6.595656e-001 1.092204e+000 -9.815210e+000 203 215 211
4.113628e-001 -7.188437e-001 -7.604870e+000 63 49 70
6.580833e-001 -6.741580e-001 -7.244875e+000 176 171 191
3.291090e-001 -9.548197e-001 -7.724220e+000 64 56 80
5.263904e-001 -8.259383e-001 -7.435046e+000 199 205 216
3.386520e-001 -9.861652e-001 -7.715047e+000 199 200 211
2.002023e+000 2.522744e+000 -9.381811e+000 133 119 80
5.413649e-001 1.014128e-001 -7.591755e+000 198 228 205
-7.262528e-001 -9.874406e-001 -9.291662e+000 211 216 215
-7.262528e-001 -9.874406e-001 -9.291662e+000 211 216 215
-8.530324e-001 3.087020e+000 -1.052286e+001 138 101 49
5.720340e-002 1.816699e+000 -8.769080e+000 215 226 212
-2.779332e-001 1.595005e+000 -9.273943e+000 84 63 66
-9.272094e-001 3.046452e+000 -1.062845e+001 120 71 53
2.448963e+000 2.361411e+000 -9.642269e+000 131 116 72
-1.109456e+000 2.457049e+000 -1.073526e+001 193 171 123
2.843105e+000 1.772790e+000 -9.746075e+000 117 102 68
1.212801e-001 -6.950331e-001 -8.066298e+000 85 64 90
-4.826799e-001 1.151578e+000 -9.532381e+000 101 66 79
2.258101e+000 1.646166e+000 -9.217417e+000 117 100 57
-1.099610e+000 2.198059e+000 -1.066124e+001 177 135 111
1.734502e+000 2.357214e+000 -9.101370e+000 123 105 68
1.580359e+000 2.193767e+000 -8.893325e+000 123 104 65
-3.278540e-001 -8.138019e-001 -8.721528e+000 179 181 179
1.173272e-001 -5.061187e-001 -8.179697e+000 161 138 159
-8.558983e-001 -1.498203e+000 -9.406201e+000 180 178 183
-1.077638e+000 2.943302e+000 -1.084149e+001 179 130 100
1.989456e+000 2.601395e+000 -9.409236e+000 126 108 70
1.734201e+000 2.321029e+000 -9.079095e+000 85 69 35
3.011498e+000 1.449612e+000 -9.785953e+000 90 73 47
2.017870e+000 1.236676e+000 -8.576165e+000 61 45 9
1.552360e+000 2.905967e-001 -7.492550e+000 58 40 20
1.052352e+000 2.903209e+000 -8.730800e+000 126 105 61
2.643620e+000 3.127945e+000 -1.030966e+001 62 59 38
1.559220e+000 2.670512e+000 -9.149460e+000 126 106 64
1.555900e+000 2.168415e+000 -8.857898e+000 119 99 62
1.767420e+000 2.238658e+000 -9.048027e+000 118 106 70
1.797288e+000 1.997910e+000 -8.973108e+000 69 53 19
-7.532850e-001 9.397541e-001 -9.893262e+000 214 225 217
1.416510e+000 1.238543e+000 -7.983316e+000 69 64 41
1.487119e+000 2.531694e+000 -9.004141e+000 68 53 22
1.912993e+000 2.630806e+000 -9.390756e+000 118 99 61
1.988778e+000 1.997024e+000 -9.126293e+000 127 108 69
1.758779e+000 1.370946e+000 -8.443223e+000 74 58 24
1.558079e+000 5.216524e-001 -7.609805e+000 124 102 61
-1.544050e+000 2.552338e+000 -1.129220e+001 80 63 78
1.408519e+000 2.388146e+000 -8.859248e+000 131 109 66
2.217041e+000 1.908846e+000 -9.281114e+000 82 62 35
1.536781e-001 5.871468e-001 -8.344696e+000 210 224 209
1.285645e+000 1.117432e+000 -7.816431e+000 123 101 60
2.053581e+000 2.394576e+000 -9.390769e+000 85 72 30
2.593570e+000 2.277154e+000 -9.757008e+000 140 122 85
-6.726745e-001 2.089170e+000 -1.011442e+001 119 81 86
-4.057674e-001 2.079165e+000 -9.855476e+000 94 76 76
1.801358e+000 1.444610e+000 -8.599023e+000 133 115 77
2.567447e+000 1.710517e+000 -9.561615e+000 110 96 61
3.088288e+000 1.620999e+000 -9.926861e+000 98 83 57
-6.582825e-001 2.394234e-001 -9.602073e+000 200 217 201
3.860555e-001 -8.690173e-002 -8.006577e+000 83 66 98
-7.506885e-001 -3.925608e-002 -9.505625e+000 69 58 62
1.413340e+000 -4.266206e-001 -6.910933e+000 119 103 69
6.174788e-001 -5.984991e-001 -7.292307e+000 86 79 102
-5.669517e-001 -1.175620e+000 -8.969707e+000 207 205 206
-5.657260e-001 -1.176055e+000 -8.957130e+000 207 205 206
1.659227e+000 2.241467e+000 -9.032632e+000 95 83 43
1.937530e+000 2.312975e+000 -9.274050e+000 87 71 37
2.020176e+000 2.416383e+000 -9.393451e+000 88 77 36
2.474031e+000 2.567442e+000 -9.885931e+000 135 117 81
1.224617e+000 1.946032e+000 -8.347608e+000 136 118 70
1.709529e+000 2.191765e+000 -9.047217e+000 137 123 84
1.930590e+000 2.208515e+000 -9.217887e+000 91 77 38
2.061585e+000 2.294434e+000 -9.349933e+000 88 73 35
2.389551e+000 2.440684e+000 -9.714352e+000 136 121 76
2.579555e+000 2.404265e+000 -9.833146e+000 132 114 72
2.560012e+000 2.303442e+000 -9.759121e+000 135 120 79
2.570442e+000 2.321481e+000 -9.808975e+000 135 120 79
2.615931e+000 2.342246e+000 -9.823052e+000 99 81 46
2.677752e+000 2.328468e+000 -9.855211e+000 89 71 35
