ply
format ascii 1.0
element face 0
property list uchar int vertex_indices
element vertex 889
property float x
property float y
property float z
property uchar diffuse_red
property uchar diffuse_green
property uchar diffuse_blue
end_header
1.827767e+000 6.109403e-001 -8.011626e+000 52 41 9
1.781046e+000 5.202751e-001 -7.925968e+000 62 45 13
2.077734e+000 5.493218e-001 -8.251475e+000 80 64 28
2.497597e+000 6.510327e-001 -8.745193e+000 69 53 19
2.816735e+000 6.782561e-001 -9.106282e+000 67 50 20
2.731270e+000 5.956272e-001 -8.949817e+000 70 54 21
2.743538e+000 5.950044e-001 -8.978184e+000 70 54 21
2.908191e+000 6.560209e-001 -9.168899e+000 70 54 22
2.908191e+000 6.560209e-001 -9.168899e+000 70 54 22
3.135793e+000 6.118897e-001 -9.408781e+000 76 56 29
1.922393e+000 4.365023e-001 -8.028163e+000 124 109 66
2.175853e+000 4.243410e-001 -8.298926e+000 60 46 20
2.441196e+000 4.597871e-001 -8.590679e+000 69 54 20
2.436852e+000 4.601514e-001 -8.574122e+000 69 54 20
2.495870e+000 3.977797e-001 -8.615952e+000 125 111 64
2.495870e+000 3.977797e-001 -8.615952e+000 125 111 64
2.713919e+000 4.560378e-001 -8.846784e+000 110 95 52
2.904653e+000 4.584160e-001 -9.052867e+000 62 43 16
4.030838e+000 4.722021e-001 -8.920666e+000 183 154 76
1.680822e+000 2.870606e-001 -7.713972e+000 129 114 73
1.751970e+000 3.772541e-001 -7.804780e+000 126 112 70
2.285914e+000 2.975796e-001 -8.325346e+000 80 63 33
2.371537e+000 3.225132e-001 -8.456345e+000 125 111 66
2.948365e+000 3.495086e-001 -9.043505e+000 66 51 24
2.836619e+000 2.751344e-001 -8.890405e+000 74 57 27
3.284752e+000 3.384013e-001 -9.368732e+000 109 92 63
1.847263e+000 1.486851e-001 -7.825851e+000 123 111 63
2.003531e+000 1.575898e-001 -7.955029e+000 73 54 22
2.355925e+000 2.311277e-001 -8.384768e+000 130 110 69
2.337000e+000 1.332009e-001 -8.317713e+000 119 104 62
2.661021e+000 1.706683e-001 -8.676518e+000 113 102 56
2.819393e+000 1.252816e-001 -8.769564e+000 116 102 62
2.906308e+000 1.166129e-001 -8.871288e+000 114 99 56
2.182910e+000 3.916932e-002 -8.129996e+000 123 106 60
2.405341e+000 1.863232e-002 -8.309769e+000 122 105 62
2.570305e+000 3.370223e-002 -8.493959e+000 76 60 24
2.566717e+000 3.456906e-002 -8.483088e+000 76 60 24
3.041895e+000 8.615391e-002 -8.947179e+000 111 96 56
3.186297e+000 5.459182e-002 -9.089750e+000 112 97 65
1.799809e-001 -1.121562e-001 -8.387523e+000 104 65 95
2.491230e+000 -4.548967e-002 -8.342038e+000 86 69 34
2.580548e+000 -2.141987e-002 -8.468705e+000 128 115 71
2.883306e+000 -2.773657e-002 -8.748422e+000 55 37 7
2.976961e+000 -5.119057e-002 -8.827306e+000 67 52 23
2.976961e+000 -5.119057e-002 -8.827306e+000 67 52 23
2.950111e+000 -1.413936e-001 -8.751683e+000 74 61 28
3.083043e+000 -7.054866e-002 -8.927117e+000 78 61 31
3.231321e+000 -5.064967e-002 -9.063159e+000 101 84 55
2.056135e+000 -1.567109e-001 -7.876137e+000 75 56 21
2.059713e+000 -2.047211e-001 -7.860067e+000 126 112 67
2.244318e+000 -1.442771e-001 -8.074437e+000 118 100 60
2.711550e+000 -2.354152e-001 -8.455804e+000 127 113 68
2.878408e+000 -1.691945e-001 -8.665407e+000 120 105 66
3.062604e+000 -2.695924e-001 -8.803173e+000 77 60 29
3.062604e+000 -2.695924e-001 -8.803173e+000 77 60 29
3.303812e+000 -2.155429e-001 -9.042977e+000 69 51 28
3.265328e+000 -2.574135e-001 -9.001146e+000 98 82 49
3.265328e+000 -2.574135e-001 -9.001146e+000 98 82 49
2.215387e+000 -2.375942e-001 -7.977718e+000 128 114 66
2.277175e+000 -2.463969e-001 -8.037115e+000 126 111 67
2.742464e+000 -3.457708e-001 -8.436445e+000 124 106 59
2.814460e+000 -3.550838e-001 -8.468965e+000 128 113 69
3.130768e+000 -3.172712e-001 -8.787442e+000 115 99 63
3.110743e+000 -3.667336e-001 -8.761408e+000 64 55 25
3.289187e+000 -4.448934e-001 -8.849251e+000 106 89 63
2.176569e+000 -4.322619e-001 -7.767378e+000 128 111 67
2.446620e+000 -4.744799e-001 -7.986324e+000 130 112 72
2.446620e+000 -4.744799e-001 -7.986324e+000 130 112 72
2.239248e+000 -5.144010e-001 -7.713462e+000 129 112 69
2.517751e+000 -5.649737e-001 -7.961732e+000 121 108 63
2.764949e+000 -5.760470e-001 -8.173470e+000 58 45 12
3.147724e+000 -5.784576e-001 -8.640324e+000 64 46 22
3.127530e+000 -6.211188e-001 -8.568249e+000 107 91 55
3.072902e+000 -6.488555e-001 -8.509597e+000 63 50 24
-2.362348e-002 -8.698814e-001 -8.452402e+000 70 57 77
5.531197e-001 -7.625887e-001 -7.587322e+000 69 57 81
5.765711e-001 -7.651969e-001 -7.574311e+000 67 55 80
6.983364e-001 -6.587135e-001 -7.386571e+000 58 48 72
5.136654e-001 -8.270084e-001 -7.714677e+000 66 60 83
5.136654e-001 -8.270084e-001 -7.714677e+000 66 60 83
-7.415718e-001 3.027866e+000 -1.068513e+001 197 169 106
2.340455e+000 2.228682e+000 -9.585823e+000 129 114 71
1.706294e-001 1.905109e+000 -8.809556e+000 91 84 93
3.028338e-001 1.744367e+000 -8.579241e+000 78 64 63
3.023732e-001 1.749383e+000 -8.616856e+000 78 64 63
3.151325e-001 1.671840e+000 -8.518595e+000 84 65 67
2.819082e+000 1.864951e+000 -9.787251e+000 114 99 58
3.155949e+000 1.881608e+000 -1.004905e+001 55 37 15
-6.220627e-002 1.696274e+000 -9.210621e+000 80 68 72
1.923142e+000 1.568947e+000 -8.859811e+000 119 104 65
1.575884e-002 1.496635e+000 -9.023692e+000 89 72 85
3.018914e+000 1.659875e+000 -9.977405e+000 74 59 36
-7.956853e-001 1.568920e+000 -1.036171e+001 80 62 74
-7.956853e-001 1.568920e+000 -1.036171e+001 80 62 74
2.508536e-002 1.416289e+000 -8.991329e+000 101 74 93
2.560419e-002 1.418873e+000 -8.989722e+000 101 74 93
-6.565180e-001 1.242404e+000 -1.008489e+001 85 73 83
-4.497839e-001 1.145191e+000 -9.680027e+000 111 73 86
3.965128e+000 1.032818e+000 -9.240233e+000 178 146 70
4.056160e+000 1.099568e+000 -8.995379e+000 208 178 90
4.117691e+000 1.102510e+000 -8.980051e+000 193 145 80
4.117691e+000 1.102510e+000 -8.980051e+000 193 145 80
-9.814912e-001 1.019004e+000 -1.043108e+001 95 83 97
-4.434976e-001 1.044781e+000 -9.685629e+000 113 77 91
-4.414323e-001 1.043776e+000 -9.666402e+000 113 77 91
-5.684381e-001 9.414039e-001 -9.879082e+000 101 69 90
-4.182178e-001 9.223300e-001 -9.585461e+000 118 82 99
-4.182178e-001 9.223300e-001 -9.585461e+000 118 82 99
-3.166496e-001 7.006672e-001 -9.402501e+000 210 227 211
1.647592e+000 5.459644e-001 -7.791847e+000 72 61 29
4.140240e+000 5.927617e-001 -8.824396e+000 176 150 63
4.138694e+000 6.603413e-001 -8.783898e+000 199 174 81
1.709676e+000 4.845958e-001 -7.833740e+000 126 109 66
1.746544e+000 4.278984e-001 -7.848850e+000 72 56 22
1.746544e+000 4.278984e-001 -7.848850e+000 72 56 22
2.078166e+000 4.527402e-001 -8.199988e+000 50 39 8
-5.907512e-001 3.574313e-001 -9.703764e+000 103 75 84
1.915122e+000 3.805461e-001 -7.998931e+000 93 78 45
1.977550e+000 3.234468e-001 -7.992691e+000 127 110 67
1.987390e+000 3.218441e-001 -8.029956e+000 127 110 67
2.061307e+000 3.508588e-001 -8.123599e+000 81 68 33
2.161734e+000 3.270413e-001 -8.232987e+000 87 74 39
2.161734e+000 3.270413e-001 -8.232987e+000 87 74 39
2.886764e-001 1.414353e-001 -8.255330e+000 90 78 99
1.952875e+000 2.010020e-001 -7.955225e+000 125 108 60
2.172477e+000 2.211228e-001 -8.190437e+000 73 56 28
2.416127e+000 1.639172e-001 -8.437430e+000 65 50 17
5.567973e-001 9.830296e-002 -7.856021e+000 85 66 88
1.825964e+000 1.017166e-001 -7.764400e+000 79 63 34
1.960049e+000 1.278830e-001 -7.925526e+000 129 113 67
2.305611e+000 8.884959e-002 -8.255656e+000 70 56 21
2.228911e+000 6.621637e-002 -8.155030e+000 124 102 61
2.506684e+000 9.205460e-002 -8.432172e+000 121 107 62
2.455234e+000 5.584749e-002 -8.403319e+000 71 56 21
2.620060e+000 1.184606e-001 -8.572767e+000 76 63 21
2.830484e+000 2.034254e-002 -8.746590e+000 117 102 61
1.740841e+000 -2.825033e-002 -7.606765e+000 122 106 63
2.183964e+000 -2.561283e-002 -8.066384e+000 122 109 65
2.777613e+000 -1.080141e-001 -8.606798e+000 63 48 16
2.877567e+000 -9.378883e-002 -8.737956e+000 112 102 59
-1.364489e-001 -1.886691e-001 -8.916124e+000 84 78 85
1.937690e+000 -1.357729e-001 -7.749029e+000 76 62 29
1.937690e+000 -1.357729e-001 -7.749029e+000 76 62 29
1.869559e+000 -1.632686e-001 -7.681752e+000 127 114 72
2.238480e+000 -1.965660e-001 -8.030057e+000 87 73 44
2.447045e+000 -1.347450e-001 -8.245434e+000 96 80 48
2.447045e+000 -1.347450e-001 -8.245434e+000 96 80 48
2.865136e+000 -2.233010e-001 -8.616117e+000 72 56 24
2.865136e+000 -2.233010e-001 -8.616117e+000 72 56 24
3.133079e+000 -2.369898e-001 -8.880989e+000 108 93 52
1.919667e+000 -2.249016e-001 -7.695385e+000 54 48 21
2.242756e+000 -2.887811e-001 -7.957657e+000 68 55 23
2.483969e+000 -2.886073e-001 -8.211508e+000 119 105 61
2.527932e+000 -3.445122e-001 -8.188103e+000 62 50 26
2.696547e+000 -2.872579e-001 -8.427511e+000 53 39 10
2.687833e+000 -2.839235e-001 -8.407854e+000 53 39 10
2.928308e+000 -3.328330e-001 -8.622690e+000 61 45 12
-6.876082e-001 -6.619619e-001 -9.512597e+000 203 227 206
1.840141e+000 -4.106081e-001 -7.485872e+000 59 43 20
1.962264e+000 -4.271125e-001 -7.564351e+000 112 97 68
2.326114e+000 -4.063146e-001 -7.946324e+000 74 64 33
2.343499e+000 -4.617969e-001 -7.912932e+000 129 116 72
2.640944e+000 -4.194040e-001 -8.248563e+000 124 107 62
2.894684e+000 -4.188899e-001 -8.518325e+000 80 65 32
-5.808091e-001 -7.739504e-001 -9.361446e+000 78 65 72
9.169923e-002 -5.373086e-001 -8.393729e+000 121 73 96
1.910419e+000 -4.585769e-001 -7.475926e+000 120 105 62
2.942048e+000 -6.211028e-001 -8.382547e+000 73 53 28
2.938071e+000 -6.189575e-001 -8.372660e+000 73 53 28
3.334106e+000 -6.376413e-001 -8.847587e+000 68 56 32
3.320840e+000 -6.323073e-001 -8.817689e+000 68 56 32
1.925755e-001 -6.892752e-001 -8.113708e+000 85 64 90
-5.253074e-001 -1.226640e+000 -9.113984e+000 60 51 64
2.961701e+000 3.075569e+000 -1.080001e+001 86 80 52
-1.011785e+000 3.003394e+000 -1.102388e+001 112 74 55
-1.153641e-001 2.469107e+000 -9.450113e+000 213 220 204
1.653334e+000 8.091166e-001 -7.984141e+000 124 110 63
4.182505e+000 7.678614e-001 -8.962390e+000 209 182 93
-2.410683e-001 2.834693e-001 -9.145280e+000 200 227 210
4.934158e-001 3.359074e-001 -7.942983e+000 103 71 96
1.640376e+000 4.008238e-002 -7.536510e+000 57 41 14
1.644222e+000 3.794815e-002 -7.558664e+000 57 41 14
1.701872e+000 -1.756880e-001 -7.498053e+000 68 53 22
4.195502e+000 -1.957763e-001 -8.758459e+000 176 155 74
-6.120857e-002 -4.073246e-001 -8.721724e+000 90 69 88
3.075984e-001 1.371500e+000 -8.510606e+000 81 65 68
-1.130593e+000 1.652055e+000 -1.081066e+001 206 227 212
6.844242e-002 1.169581e+000 -8.858694e+000 92 66 93
-5.446628e-001 6.711264e-001 -9.795278e+000 82 68 91
1.536643e+000 2.657708e-001 -7.563583e+000 78 66 42
1.531855e+000 2.676527e-001 -7.531633e+000 78 66 42
-1.273640e-001 -2.687039e-001 -8.863404e+000 202 226 210
-2.844387e+001 -1.181879e+001 -5.608810e+001 86 86 78
-7.721022e-001 2.333305e+000 -1.047759e+001 176 156 98
1.696830e+000 1.568118e+000 -8.687571e+000 130 114 66
1.003937e-001 9.436219e-001 -8.838555e+000 96 77 109
1.014119e-001 9.432250e-001 -8.851333e+000 96 77 109
4.125905e+000 9.111253e-001 -9.003388e+000 201 171 85
-9.200402e-002 7.868564e-001 -9.113024e+000 114 72 88
3.372574e+000 -8.386600e-001 -8.852038e+000 88 64 37
-3.702943e-001 -9.175969e-001 -9.003293e+000 100 58 70
1.118797e+000 -6.331968e-001 -6.702524e+000 145 153 172
-1.890653e-001 2.660088e+000 -9.678188e+000 102 71 66
4.724931e-002 2.332068e+000 -9.099072e+000 92 68 78
-3.161396e-001 2.467673e+000 -9.788179e+000 93 70 81
6.633083e-001 2.002584e+000 -7.872768e+000 95 54 68
-1.008354e+000 2.540329e+000 -1.094427e+001 128 90 70
-5.015626e-001 2.328863e+000 -1.004915e+001 90 73 82
-5.015626e-001 2.328863e+000 -1.004915e+001 90 73 82
-4.351059e-001 2.685883e+000 -9.940599e+000 199 186 137
-4.484812e-001 2.049798e+000 -9.924033e+000 93 74 80
-4.484812e-001 2.049798e+000 -9.924033e+000 93 74 80
1.095405e+000 2.483281e+000 -8.731292e+000 124 111 59
1.213802e+000 2.063318e+000 -8.521523e+000 127 113 64
-6.463432e-001 1.870277e+000 -1.025567e+001 129 109 116
-6.463432e-001 1.870277e+000 -1.025567e+001 129 109 116
-2.473949e-001 1.814370e+000 -9.606437e+000 96 77 83
1.462647e+000 4.168130e-001 -7.604760e+000 120 104 60
2.819522e+000 1.964214e+000 -9.805527e+000 121 106 70
1.906273e-001 1.670128e+000 -8.698037e+000 175 178 173
1.461348e+000 9.515513e-001 -7.929138e+000 129 113 65
1.651165e+000 -3.392758e-001 -7.352345e+000 126 109 64
-6.558267e-001 3.084787e+000 -1.048134e+001 204 170 108
-1.354417e-001 2.759538e+000 -9.550984e+000 89 65 52
-1.514647e+000 2.573649e+000 -1.144904e+001 85 64 68
-1.199252e+000 2.585073e+000 -1.115193e+001 153 127 68
2.724088e+000 2.183472e+000 -9.825057e+000 116 102 66
2.723685e+000 2.184186e+000 -9.831188e+000 116 102 66
-8.444978e-001 1.874323e+000 -1.046894e+001 96 86 85
-1.146373e+000 1.604155e+000 -1.083489e+001 74 69 69
3.183235e+000 1.360243e+000 -9.943294e+000 92 81 58
1.810363e+000 9.466479e-001 -8.211441e+000 126 115 77
-5.998311e-001 2.413449e+000 -1.021412e+001 89 72 51
2.949958e+000 1.722247e+000 -9.879469e+000 101 88 54
2.923653e+000 1.601676e+000 -9.834966e+000 112 96 65
2.787081e+000 1.432624e+000 -9.646897e+000 112 97 65
2.977750e+000 1.399347e+000 -9.793260e+000 114 97 68
1.936518e+000 -4.034550e-002 -7.838672e+000 80 66 29
2.025167e+000 -2.776552e-001 -7.774039e+000 129 115 78
2.122354e+000 -2.282933e-001 -7.883218e+000 119 106 62
1.654906e+000 2.431949e+000 -9.167449e+000 132 120 78
2.143041e+000 2.572115e+000 -9.597966e+000 128 114 75
2.366395e+000 2.496402e+000 -9.713796e+000 88 74 37
2.298619e+000 2.410028e+000 -9.632615e+000 91 78 41
-1.036515e+000 2.437717e+000 -1.083804e+001 191 167 121
1.708270e+000 1.949837e+000 -8.959450e+000 128 114 77
1.830800e+000 1.899589e+000 -9.058586e+000 128 114 72
1.965232e+000 1.988639e+000 -9.208456e+000 120 105 66
-1.382992e+000 2.189052e+000 -1.125241e+001 84 66 77
1.702926e+000 1.459533e+000 -8.569275e+000 75 59 25
-1.078193e+000 1.508865e+000 -1.067918e+001 85 68 69
2.802809e+000 1.473528e+000 -9.680273e+000 57 40 14
2.071299e+000 5.019543e-001 -8.229434e+000 131 112 69
-9.069494e-001 3.105779e+000 -1.085519e+001 194 155 96
-1.424881e-001 2.390777e+000 -9.480225e+000 87 69 68
1.960256e+000 2.042554e+000 -9.200135e+000 91 78 46
2.831398e+000 1.799806e+000 -9.797954e+000 51 40 10
3.156826e+000 1.401319e+000 -9.972431e+000 41 28 13
-5.448780e-001 1.377479e+000 -9.941656e+000 208 229 215
-5.419729e-001 1.379626e+000 -9.944346e+000 208 229 215
1.616038e+000 3.958319e-001 -7.706646e+000 119 106 64
2.948707e+000 3.497652e-001 -9.034305e+000 66 51 24
3.052389e+000 -3.926425e-001 -8.670408e+000 109 96 54
-3.153939e-001 -7.496492e-001 -8.957271e+000 200 207 204
2.905277e+000 -4.750768e-001 -8.468413e+000 124 106 63
5.909175e-001 4.966104e-002 -7.801520e+000 197 225 207
2.183512e+000 -3.807636e-001 -7.847774e+000 127 111 67
-1.723463e+000 3.056005e+000 -1.182503e+001 100 77 84
-1.154449e+000 3.063520e+000 -1.120368e+001 124 81 53
-1.154449e+000 3.063520e+000 -1.120368e+001 124 81 53
-9.016331e-001 2.933068e+000 -1.076166e+001 185 134 105
-6.339446e-001 2.751801e+000 -1.037444e+001 192 154 108
-4.016573e-001 2.556681e+000 -9.945981e+000 104 74 82
-3.390177e-001 2.573106e+000 -9.857021e+000 97 74 66
1.990550e+000 2.576881e+000 -9.434603e+000 129 116 72
1.990550e+000 2.576881e+000 -9.434603e+000 129 116 72
-1.148868e+000 2.664567e+000 -1.109512e+001 197 168 124
-6.113896e-001 2.428159e+000 -1.025376e+001 87 70 53
-1.130779e+000 2.448119e+000 -1.101117e+001 147 107 48
-9.285736e-001 2.266080e+000 -1.068673e+001 144 111 82
3.050465e+000 2.114782e+000 -1.003797e+001 102 81 56
3.091791e+000 1.947500e+000 -9.946779e+000 49 31 11
-6.164541e-001 1.754793e+000 -1.014219e+001 204 219 205
1.890464e+000 1.554258e+000 -8.836278e+000 126 111 68
-5.838202e-001 1.400080e+000 -9.998545e+000 84 68 68
3.985383e+000 8.170015e-001 -9.047528e+000 196 160 86
1.639115e+000 1.381278e-002 -7.563580e+000 74 58 28
8.988153e-002 -3.847153e-001 -8.486794e+000 95 72 92
2.950346e+000 -5.287830e-001 -8.504510e+000 66 50 14
2.950346e+000 -5.287830e-001 -8.504510e+000 66 50 14
3.173196e-001 -8.327212e-001 -8.007554e+000 154 148 162
4.836781e-001 -9.779833e-001 -7.780148e+000 62 48 73
2.127697e+000 2.898682e+000 -9.684743e+000 85 70 39
1.962173e+000 2.694379e+000 -9.489367e+000 127 113 73
2.135761e+000 2.812484e+000 -9.651836e+000 81 62 29
-1.228305e+000 2.583208e+000 -1.112162e+001 190 166 109
2.128379e+000 2.512702e+000 -9.500029e+000 123 110 68
-7.664052e-001 2.341486e+000 -1.048472e+001 179 155 93
6.483314e-002 2.224310e+000 -9.034375e+000 214 207 201
-1.081103e+000 2.203355e+000 -1.085098e+001 134 93 63
8.321056e-002 1.931757e+000 -8.950044e+000 87 73 77
1.742673e-001 1.857425e+000 -8.817970e+000 224 225 217
1.900000e+000 1.981306e+000 -9.155997e+000 119 105 66
2.223471e+000 1.397782e+000 -9.015296e+000 114 99 56
2.720880e+000 1.445324e+000 -9.568955e+000 113 97 64
2.336018e+000 1.028188e+000 -8.795458e+000 115 109 73
2.869997e+000 8.310950e-001 -9.225032e+000 116 102 71
3.077066e-001 -6.812888e-002 -8.265689e+000 196 212 202
1.908538e+000 1.741477e-002 -7.847559e+000 121 104 61
2.550738e+000 -2.248631e-001 -8.344526e+000 118 103 59
1.995691e+000 -2.676596e-001 -7.770156e+000 71 57 29
2.174178e+000 -4.525314e-001 -7.801473e+000 127 110 67
3.635197e-001 -9.838072e-001 -7.962052e+000 179 176 185
1.453986e+000 2.761000e+000 -9.139308e+000 128 113 72
2.840046e+000 3.157601e+000 -1.059046e+001 61 47 21
1.240931e+000 2.630702e+000 -8.850410e+000 123 108 66
1.300144e+000 2.619087e+000 -8.933849e+000 113 99 60
1.564971e+000 2.755505e+000 -9.300020e+000 119 106 63
1.564971e+000 2.755505e+000 -9.300020e+000 119 106 63
1.932325e+000 2.808463e+000 -9.590397e+000 122 110 69
-1.039885e+000 2.761166e+000 -1.094972e+001 133 82 59
1.322711e+000 2.502527e+000 -8.850311e+000 121 105 69
1.520290e+000 2.457218e+000 -9.045872e+000 121 106 65
2.485099e+000 2.774587e+000 -1.001678e+001 113 96 60
2.533560e+000 2.777647e+000 -1.012222e+001 117 103 66
2.618872e+000 2.786446e+000 -1.016370e+001 79 64 33
-1.192947e+000 2.722379e+000 -1.113808e+001 184 156 116
-1.125494e+000 2.591191e+000 -1.099458e+001 189 177 117
2.039690e+000 2.440072e+000 -9.472489e+000 73 60 25
2.226993e+000 2.469639e+000 -9.602436e+000 127 112 69
-1.237998e+000 2.441178e+000 -1.114757e+001 176 146 82
1.359806e+000 2.161166e+000 -8.678152e+000 71 56 17
1.483792e+000 2.171012e+000 -8.840541e+000 119 105 60
1.573739e+000 2.283743e+000 -8.999761e+000 81 69 29
2.175250e+000 2.369362e+000 -9.484857e+000 120 107 63
2.601905e+000 2.402430e+000 -9.821852e+000 124 104 67
2.571411e+000 2.367866e+000 -9.796669e+000 91 74 37
2.442792e-001 1.939570e+000 -8.695713e+000 81 66 73
1.468746e+000 2.037929e+000 -8.726765e+000 69 54 14
2.226366e+000 2.159280e+000 -9.428912e+000 130 115 72
2.232653e+000 2.161424e+000 -9.452852e+000 130 115 72
2.593846e+000 2.311240e+000 -9.802004e+000 122 108 63
2.011510e+000 2.081104e+000 -9.234394e+000 120 105 62
1.790882e+000 1.909879e+000 -9.002672e+000 121 108 64
2.743995e+000 1.971872e+000 -9.737129e+000 118 98 62
2.748495e+000 1.861279e+000 -9.704158e+000 115 100 59
-1.046583e+000 1.655947e+000 -1.072538e+001 84 64 66
1.438480e+000 1.480427e+000 -8.277691e+000 127 108 68
2.435617e+000 1.500102e+000 -9.342754e+000 115 100 62
3.206137e+000 1.554056e+000 -1.003754e+001 94 78 54
4.123922e+000 1.624590e+000 -9.089591e+000 213 177 91
2.010598e+000 1.359408e+000 -8.767426e+000 122 107 67
2.145176e+000 1.327617e+000 -8.838484e+000 129 114 71
2.437458e+000 1.236036e+000 -9.078438e+000 77 61 27
2.506992e+000 1.221230e+000 -9.131753e+000 85 70 31
2.427441e+000 1.064168e+000 -8.913751e+000 69 73 46
3.986686e+000 1.174435e+000 -9.172163e+000 191 163 78
2.612975e+000 6.791660e-001 -8.871783e+000 118 103 64
4.043591e+000 6.059386e-001 -8.890079e+000 157 130 48
2.508469e+000 3.225200e-001 -8.588520e+000 78 59 27
2.042896e+000 1.895267e-001 -8.072934e+000 130 115 74
-1.577568e+000 -7.017039e-001 -1.117088e+001 109 70 89
9.678239e-002 -3.584451e-001 -8.506464e+000 198 220 206
2.765278e+000 -1.923748e-001 -8.559064e+000 91 72 40
-7.935517e-001 -1.165643e+000 -9.528212e+000 83 59 64
5.085473e-001 -7.582847e-001 -7.730624e+000 154 143 162
5.920678e-001 -6.898341e-001 -7.557825e+000 62 49 76
3.519996e-001 -8.621692e-001 -7.957750e+000 181 184 192
4.084011e-001 -8.524996e-001 -7.869858e+000 56 47 68
4.653307e-001 -8.604056e-001 -7.794054e+000 55 44 68
6.155365e-001 -7.788242e-001 -7.593641e+000 154 148 165
-9.035037e-001 3.106461e+000 -1.083860e+001 201 161 103
1.132226e+000 2.624531e+000 -8.721086e+000 67 50 19
1.999266e+000 2.858131e+000 -9.659467e+000 85 72 37
2.073229e+000 2.899815e+000 -9.710298e+000 125 110 67
1.788634e+000 2.733557e+000 -9.429172e+000 122 108 71
1.847652e+000 2.700162e+000 -9.424777e+000 126 112 73
2.350254e+000 2.912622e+000 -9.960677e+000 122 106 70
1.423282e+000 2.525518e+000 -8.991167e+000 87 73 38
1.870722e+000 2.520183e+000 -9.368515e+000 126 111 72
2.146765e+000 2.636137e+000 -9.653785e+000 91 75 42
1.324900e+000 2.258035e+000 -8.730093e+000 86 71 38
1.690579e+000 2.375952e+000 -9.164387e+000 105 89 55
1.683454e+000 2.370858e+000 -9.128575e+000 105 89 55
1.779430e+000 2.374059e+000 -9.238443e+000 79 66 32
1.863581e+000 2.460825e+000 -9.335639e+000 98 84 49
1.857779e+000 2.455061e+000 -9.298572e+000 98 84 49
1.880348e+000 2.309803e+000 -9.272035e+000 122 110 68
2.064839e+000 2.337560e+000 -9.402295e+000 86 72 35
1.628983e+000 2.142076e+000 -8.978051e+000 117 104 59
2.102930e+000 2.226082e+000 -9.363734e+000 78 63 24
2.059477e+000 2.127834e+000 -9.285666e+000 88 74 37
2.481849e+000 2.165007e+000 -9.614239e+000 90 76 39
9.652844e-002 1.899823e+000 -8.973328e+000 213 221 205
9.652844e-002 1.899823e+000 -8.973328e+000 213 221 205
1.216060e+000 1.844441e+000 -8.268257e+000 73 54 24
1.216060e+000 1.844441e+000 -8.268257e+000 73 54 24
1.872837e+000 2.053541e+000 -9.147380e+000 72 56 24
1.836463e+000 2.014289e+000 -9.117042e+000 125 110 71
2.824008e+000 2.116245e+000 -9.883043e+000 96 77 45
2.813408e+000 2.111539e+000 -9.838126e+000 96 77 45
1.406473e+000 1.782381e+000 -8.468055e+000 73 58 25
2.590871e-001 1.662075e+000 -8.614696e+000 208 226 212
-1.794887e-001 1.546050e+000 -9.376987e+000 204 225 210
2.161898e+000 1.601671e+000 -9.163302e+000 66 47 21
2.428034e+000 1.698294e+000 -9.466196e+000 112 97 60
2.428034e+000 1.698294e+000 -9.466196e+000 112 97 60
3.053719e+000 1.708459e+000 -9.971370e+000 113 94 62
1.552697e+000 1.356841e+000 -8.290956e+000 119 104 65
1.720851e+000 1.408909e+000 -8.541072e+000 125 110 71
1.720851e+000 1.408909e+000 -8.541072e+000 125 110 71
1.678694e+000 1.376529e+000 -8.451821e+000 76 60 26
1.681313e+000 1.375984e+000 -8.465687e+000 76 60 26
1.849220e+000 1.392681e+000 -8.619490e+000 128 111 65
2.714758e+000 1.542785e+000 -9.644811e+000 110 96 61
2.718530e+000 1.542837e+000 -9.653733e+000 110 96 61
2.711413e+000 1.490268e+000 -9.622985e+000 66 49 24
2.915642e+000 1.512850e+000 -9.804355e+000 112 93 63
2.295325e+000 1.386367e+000 -9.098460e+000 122 107 66
3.143454e+000 1.472049e+000 -9.979381e+000 66 54 32
1.557903e+000 1.180327e+000 -8.160367e+000 121 109 68
1.629000e+000 1.172913e+000 -8.226949e+000 121 109 72
1.843374e+000 1.128341e+000 -8.394115e+000 114 102 61
1.843374e+000 1.128341e+000 -8.394115e+000 114 102 61
2.030124e+000 1.182842e+000 -8.624517e+000 120 107 66
2.172352e+000 1.190940e+000 -8.783923e+000 82 67 38
2.300543e+000 1.218361e+000 -8.921319e+000 129 112 72
2.772956e+000 1.173979e+000 -9.352629e+000 76 59 31
1.596891e+000 1.086871e+000 -8.121296e+000 120 108 68
2.145414e+000 1.075506e+000 -8.641629e+000 133 118 75
2.460163e+000 1.135612e+000 -9.002642e+000 74 61 29
1.864731e+000 9.448559e-001 -8.262033e+000 126 113 68
2.824470e+000 1.024286e+000 -9.310643e+000 112 99 57
3.095027e+000 1.008777e+000 -9.586161e+000 70 62 39
-5.451875e-001 5.763308e-001 -9.785124e+000 207 225 210
2.488837e+000 8.029919e-001 -8.814230e+000 120 103 59
2.801933e+000 8.808373e-001 -9.183644e+000 74 68 42
2.801933e+000 8.808373e-001 -9.183644e+000 74 68 42
2.520058e+000 7.471675e-001 -8.799572e+000 77 58 26
2.780965e+000 6.375640e-001 -9.030723e+000 119 99 61
2.150490e-001 4.964922e-001 -8.506494e+000 84 67 82
2.150490e-001 4.964922e-001 -8.506494e+000 84 67 82
2.291148e+000 5.458689e-001 -8.487783e+000 122 101 56
2.343649e+000 5.390746e-001 -8.522981e+000 126 106 59
3.137705e+000 5.612561e-001 -9.346643e+000 103 87 51
4.110692e+000 5.392839e-001 -8.755072e+000 182 156 69
2.892897e+000 3.118324e-001 -8.977301e+000 112 97 54
2.971690e+000 -3.965074e-003 -8.873159e+000 117 97 63
3.270274e+000 8.095931e-002 -9.204257e+000 60 41 16
2.076604e+000 -6.255443e-003 -7.959619e+000 125 108 61
2.365741e+000 -2.781071e-001 -8.136620e+000 122 102 69
6.782516e-001 -3.106456e-001 -7.571032e+000 80 60 104
3.126758e+000 -4.241499e-001 -8.741591e+000 112 95 59
-2.932768e-001 -8.186001e-001 -8.926734e+000 95 65 73
2.622462e+000 -5.093406e-001 -8.136466e+000 126 103 69
-5.804936e-001 -1.095378e+000 -9.269385e+000 205 222 207
-2.365337e-002 -8.684309e-001 -8.443878e+000 83 69 84
1.063813e+000 -4.290695e-001 -6.932621e+000 66 58 95
1.515972e+000 -4.657586e-001 -7.177601e+000 117 103 66
-8.528157e-001 3.020997e+000 -1.072353e+001 125 71 47
1.947747e+000 2.548245e+000 -9.450021e+000 92 78 42
-1.000181e+000 2.688833e+000 -1.090201e+001 179 131 98
-1.067880e+000 2.616849e+000 -1.097474e+001 104 65 58
-1.398945e+000 2.286152e+000 -1.132926e+001 179 146 100
-3.735025e-001 2.188120e+000 -9.833800e+000 211 224 209
2.329489e+000 2.154121e+000 -9.510784e+000 119 104 61
2.208478e+000 1.993102e+000 -9.370482e+000 111 100 60
2.653289e+000 2.105580e+000 -9.769894e+000 129 110 68
2.645672e+000 2.103890e+000 -9.736326e+000 129 110 68
2.314831e+000 1.709193e+000 -9.396298e+000 121 105 62
2.769249e+000 1.805164e+000 -9.742877e+000 98 81 54
-5.758150e-001 1.304747e+000 -9.956626e+000 84 68 78
-5.810038e-001 1.303177e+000 -9.971486e+000 84 68 78
-9.061836e-001 1.075117e+000 -1.038056e+001 90 80 92
-8.120694e-001 1.138628e+000 -1.029677e+001 91 78 89
-5.983054e-001 1.022587e+000 -1.004202e+001 129 82 101
1.738723e+000 9.204430e-001 -8.110980e+000 98 83 47
1.738723e+000 9.204430e-001 -8.110980e+000 98 83 47
2.226721e+000 9.168232e-001 -8.606892e+000 81 81 57
4.090590e+000 9.498429e-001 -8.948174e+000 213 191 102
4.279631e-001 6.842981e-001 -8.135999e+000 91 77 87
1.983995e+000 6.731219e-001 -8.221179e+000 83 63 36
2.339889e+000 6.862665e-001 -8.598727e+000 87 71 37
2.996435e+000 7.364911e-001 -9.313317e+000 68 66 51
1.910585e+000 5.405866e-001 -8.085009e+000 121 104 58
2.413862e+000 5.701499e-001 -8.626911e+000 78 66 30
2.871234e+000 5.670840e-001 -9.075303e+000 80 61 28
2.160079e+000 4.790977e-001 -8.317467e+000 124 107 63
2.179393e+000 4.210467e-001 -8.314398e+000 76 62 33
2.268669e+000 4.018187e-001 -8.369514e+000 90 70 43
2.554724e+000 4.327576e-001 -8.700438e+000 92 78 36
1.666475e+000 3.388541e-001 -7.735516e+000 69 57 24
2.436820e+000 3.052232e-001 -8.513911e+000 116 99 56
2.445899e+000 3.019091e-001 -8.534757e+000 116 99 56
2.844042e+000 2.724602e-001 -8.906173e+000 71 57 28
3.230370e+000 2.884844e-001 -9.284620e+000 62 48 22
3.201390e+000 2.379705e-001 -9.231787e+000 118 98 65
1.771925e+000 2.740766e-001 -7.780522e+000 120 101 58
1.961393e+000 1.955091e-001 -7.988696e+000 120 105 61
2.557360e+000 2.351961e-001 -8.582121e+000 87 71 37
2.736021e+000 1.941201e-001 -8.757456e+000 74 54 29
2.830428e+000 2.228976e-001 -8.863495e+000 109 92 49
2.967865e+000 1.459813e-001 -8.934630e+000 84 67 35
3.230749e+000 1.427171e-001 -9.218206e+000 98 79 49
3.137460e+000 1.159287e-001 -9.089481e+000 80 61 30
2.557009e+000 1.298378e-001 -8.552480e+000 80 62 24
2.744824e+000 9.646425e-002 -8.697934e+000 77 61 27
3.068501e+000 7.848073e-002 -9.008679e+000 115 97 59
3.154880e+000 5.524668e-003 -9.047106e+000 66 49 22
2.503651e+000 -5.174091e-002 -8.380492e+000 83 68 29
1.739067e+000 -8.780617e-002 -7.619023e+000 68 53 22
2.098411e+000 -1.177361e-001 -7.936189e+000 129 113 64
2.650450e+000 -1.778923e-001 -8.447023e+000 74 58 25
2.064385e+000 -1.639670e-001 -7.908985e+000 70 53 23
2.277984e+000 -2.470320e-001 -8.038760e+000 122 105 59
2.625513e+000 -2.322549e-001 -8.428116e+000 122 103 61
2.615462e+000 -3.153980e-001 -8.317495e+000 118 101 62
2.829918e+000 -3.205709e-001 -8.567673e+000 110 90 58
2.829918e+000 -3.205709e-001 -8.567673e+000 110 90 58
2.926445e+000 -3.306851e-001 -8.615455e+000 70 53 21
3.115675e+000 -3.703856e-001 -8.771731e+000 58 43 13
3.386521e+000 -3.346577e-001 -9.069264e+000 63 47 22
2.741743e+000 -4.883776e-001 -8.289354e+000 74 58 27
2.725333e+000 -5.300976e-001 -8.230724e+000 127 110 69
2.792140e+000 -5.424873e-001 -8.296460e+000 125 104 65
2.792140e+000 -5.424873e-001 -8.296460e+000 125 104 65
2.965112e+000 -5.352751e-001 -8.474752e+000 82 66 33
2.976275e+000 -5.436715e-001 -8.505266e+000 82 66 33
2.905698e+000 -5.641418e-001 -8.383179e+000 113 91 50
3.271900e+000 -5.688788e-001 -8.811495e+000 99 81 49
3.402344e+000 -6.048945e-001 -8.922718e+000 93 76 48
2.086708e+000 -5.069631e-001 -7.661859e+000 117 98 55
3.075361e+000 -7.216498e-001 -8.540058e+000 102 82 43
4.691109e-001 -7.657422e-001 -7.749792e+000 67 53 82
4.096787e+000 -7.640024e-001 -8.620969e+000 153 121 62
-1.460438e+000 3.180634e+000 -1.146780e+001 105 69 53
3.018817e+000 3.022027e+000 -1.061730e+001 48 29 12
-1.401277e+000 2.412398e+000 -1.131871e+001 170 140 99
-1.038306e+000 1.567102e+000 -1.066174e+001 208 226 210
2.829232e+000 1.678363e+000 -9.766727e+000 76 65 37
3.206196e+000 1.336223e+000 -9.949397e+000 90 76 48
3.974517e-001 8.375722e-001 -8.160151e+000 87 76 84
4.049159e+000 5.738309e-001 -9.011482e+000 205 180 100
4.137338e+000 6.607748e-001 -8.780983e+000 200 175 85
1.628357e+000 4.446148e-001 -7.763911e+000 70 56 27
2.218459e+000 5.134596e-001 -8.386715e+000 93 77 44
2.249393e-001 -6.195099e-002 -8.345908e+000 85 63 90
1.865828e+000 1.932011e-001 -7.853301e+000 70 57 19
1.867585e+000 1.921219e-001 -7.865693e+000 70 57 19
2.825319e+000 2.242847e-002 -8.732374e+000 119 100 57
1.958396e+000 7.178833e-002 -7.885736e+000 88 75 41
2.319303e+000 -1.130426e-001 -8.169089e+000 62 47 16
1.790404e+000 -1.934063e-001 -7.582033e+000 81 67 32
2.403868e+000 -2.311920e-001 -8.199496e+000 79 63 27
2.403868e+000 -2.311920e-001 -8.199496e+000 79 63 27
-6.722830e-001 -8.458753e-001 -9.502475e+000 67 56 59
1.014391e+000 -2.266435e-001 -7.002933e+000 63 47 88
2.446710e+000 -4.347453e-001 -8.043322e+000 62 46 20
2.600475e+000 -4.647936e-001 -8.170418e+000 70 56 29
2.914304e+000 -4.849445e-001 -8.490627e+000 116 101 60
-1.492302e-001 -9.140071e-001 -8.713967e+000 82 63 82
2.437878e+000 -5.195585e-001 -7.954034e+000 69 54 25
4.104002e+000 -6.482368e-001 -8.698672e+000 159 126 63
-2.374502e-001 7.995968e-001 -9.331998e+000 206 225 209
1.510881e+000 5.699646e-001 -7.700240e+000 77 61 35
1.541721e+000 4.868351e-001 -7.692716e+000 121 107 60
6.521556e-001 -2.597790e-001 -7.575126e+000 202 223 210
2.064646e+000 -2.523770e-001 -7.806151e+000 90 75 44
2.276310e+000 -3.745685e-001 -8.004139e+000 126 105 58
1.921166e+000 -3.924609e-001 -7.615382e+000 126 110 59
-7.098795e-001 2.721756e+000 -1.044245e+001 111 69 51
3.786500e-001 1.295355e+000 -8.351764e+000 204 224 205
1.394401e+000 1.352401e+000 -8.143022e+000 128 107 60
1.464708e-001 1.104679e+000 -8.738794e+000 204 227 206
3.079668e-001 7.276671e-002 -8.253119e+000 204 225 207
4.362412e-001 7.659736e-001 -8.128823e+000 206 227 210
-3.888028e-001 -7.811119e-001 -9.146042e+000 85 71 72
1.529151e+000 8.089831e-002 -7.517019e+000 127 110 66
5.572469e-001 -1.898043e-001 -7.721373e+000 203 226 208
3.019940e-001 1.913423e+000 -8.526491e+000 69 53 58
1.221008e+000 1.858310e+000 -8.241628e+000 127 114 69
1.934232e-002 1.873857e+000 -9.045772e+000 72 61 65
-1.215284e+000 2.108686e+000 -1.101824e+001 173 156 131
-7.722083e-001 1.966000e+000 -1.036888e+001 88 76 71
-2.952972e-001 1.457575e+000 -9.569491e+000 217 219 212
-3.524036e-001 1.419427e+000 -9.674052e+000 214 230 213
-2.583003e-001 1.419042e+000 -9.483098e+000 86 58 55
-7.371862e-001 1.139739e+000 -1.018215e+001 207 218 213
-9.865468e-001 9.643399e-001 -1.044828e+001 201 213 211
-3.141678e-001 9.397681e-001 -9.480703e+000 213 230 219
-2.362108e-001 9.906981e-001 -9.381691e+000 90 60 65
-1.250194e-001 9.284250e-001 -9.180869e+000 202 229 210
-7.227468e-001 6.347906e-001 -9.983868e+000 203 229 215
-4.239955e-001 -7.220123e-001 -9.183470e+000 203 211 208
3.515452e-001 -6.265396e-001 -7.929647e+000 205 208 215
-5.310633e-001 -1.028788e+000 -9.182142e+000 51 40 46
5.319961e-001 -7.297382e-001 -7.648427e+000 67 55 79
6.359899e-001 -7.747035e-001 -7.491522e+000 188 199 202
-8.015008e-001 -1.180532e+000 -9.618721e+000 76 66 67
-5.579232e-001 -1.122082e+000 -9.308960e+000 74 59 64
-5.906068e-001 -1.237140e+000 -9.214455e+000 217 205 209
-8.097229e-001 -1.512683e+000 -9.575299e+000 177 165 170
-7.828656e-001 -1.522434e+000 -9.604652e+000 64 52 66
-1.564145e+000 3.526927e+000 -1.168662e+001 157 127 74
-9.055307e-001 2.877436e+000 -1.073333e+001 137 86 60
2.173106e+000 2.359498e+000 -9.474100e+000 125 112 70
-6.192237e-001 1.766879e+000 -1.012465e+001 216 217 207
2.447044e-001 1.617869e+000 -8.667152e+000 76 53 68
-1.044192e+000 1.653546e+000 -1.070613e+001 81 69 70
3.174522e+000 1.524373e+000 -1.003298e+001 33 18 1
-5.772974e-001 1.401704e+000 -9.949149e+000 77 67 73
2.099247e+000 1.086153e+000 -8.636461e+000 127 113 74
-3.485227e-001 1.001242e+000 -9.501580e+000 88 67 66
3.948030e+000 9.152731e-001 -9.230666e+000 142 110 46
-6.622328e-001 8.901412e-001 -1.002098e+001 94 80 91
3.354103e-001 7.433615e-001 -8.276155e+000 204 228 212
-8.508415e-001 5.581242e-001 -1.013134e+001 201 216 210
-6.177439e-001 3.276235e-001 -9.784695e+000 92 72 70
-7.305422e-001 -1.107190e+000 -9.473660e+000 62 51 50
-2.073644e-001 -8.872049e-001 -8.755095e+000 197 223 216
-1.059639e+000 2.826611e+000 -1.106353e+001 138 86 65
2.561272e+000 2.365186e+000 -9.791705e+000 96 82 48
-1.036501e+000 2.446958e+000 -1.087819e+001 191 167 121
1.830367e+000 2.018877e+000 -9.124363e+000 119 103 69
1.902957e+000 1.982028e+000 -9.138366e+000 118 104 65
2.326719e+000 2.002916e+000 -9.519125e+000 85 71 34
2.326719e+000 2.002916e+000 -9.519125e+000 85 71 34
2.278130e+000 1.830862e+000 -9.407820e+000 127 113 71
2.762044e+000 1.986500e+000 -9.823012e+000 119 106 65
2.548436e-002 1.712403e+000 -9.052538e+000 206 222 209
-1.686158e-001 1.551106e+000 -9.366139e+000 208 220 208
1.374788e+000 1.225370e+000 -8.014699e+000 124 110 63
2.891951e+000 1.470648e+000 -9.803335e+000 62 44 20
2.960976e+000 1.506352e+000 -9.876642e+000 116 95 66
3.127812e+000 1.548552e+000 -1.003225e+001 43 32 10
-5.569436e-001 1.237237e+000 -9.937263e+000 204 227 213
1.785594e+000 6.171266e-001 -8.017680e+000 130 115 72
1.926624e+000 4.364218e-001 -8.057071e+000 125 110 67
2.052666e+000 3.023074e-001 -8.125546e+000 129 111 63
2.580878e+000 2.803600e-001 -8.668858e+000 123 107 71
2.649125e+000 2.602974e-001 -8.737601e+000 123 106 62
2.736692e+000 -4.747315e-002 -8.652887e+000 122 107 68
3.284859e+000 -4.005744e-001 -8.979150e+000 68 51 23
-3.011649e-001 -8.154652e-001 -8.955619e+000 93 64 65
3.607138e+000 -8.138179e-001 -9.169541e+000 80 64 47
-5.762715e-001 -1.092970e+000 -9.241206e+000 206 218 209
-4.841685e-001 -1.026036e+000 -9.130479e+000 204 220 213
-1.238574e+000 3.243919e+000 -1.123255e+001 151 114 66
1.846248e+000 2.168846e+000 -9.172407e+000 91 76 46
-3.568299e-001 2.171934e+000 -9.763488e+000 212 222 213
2.036556e+000 1.924409e+000 -9.242979e+000 82 66 34
2.679867e+000 2.106873e+000 -9.821203e+000 128 111 68
4.481296e-002 1.762081e+000 -9.038792e+000 81 75 76
2.935315e+000 1.790413e+000 -9.894180e+000 62 51 23
1.545994e-001 1.329289e+000 -8.727309e+000 206 222 209
-1.096447e+000 9.346219e-001 -1.054009e+001 87 72 85
3.051505e+000 7.349815e-001 -9.434088e+000 47 41 26
-1.047611e+000 7.042252e-001 -1.046062e+001 199 218 207
1.912027e-001 6.467346e-001 -8.488513e+000 88 70 80
-1.704327e+001 1.086539e+000 -6.595514e+001 201 54 72
1.643042e+000 5.011570e-001 -7.820760e+000 119 105 65
-8.300517e-001 3.935106e-001 -1.014101e+001 203 225 214
4.238808e+000 3.854368e-001 -8.749481e+000 214 187 99
1.709853e+000 2.309452e-001 -7.708476e+000 75 63 31
1.711218e+000 2.312560e-001 -7.713750e+000 75 63 31
1.739649e+000 -8.350656e-002 -7.613941e+000 74 61 29
2.049791e+000 -1.578298e-001 -7.869775e+000 75 56 21
3.003728e+000 -4.989064e-001 -8.571661e+000 121 102 62
3.275818e+000 -5.645465e-001 -8.854667e+000 108 93 62
4.324167e+000 -4.751218e-001 -8.476730e+000 203 184 92
1.070763e+000 -1.275290e+000 -6.766761e+000 69 61 100
-1.505074e+000 3.192722e+000 -1.163155e+001 95 60 42
-1.505074e+000 3.192722e+000 -1.163155e+001 95 60 42
-1.723892e+000 3.138204e+000 -1.187991e+001 151 122 80
-1.650066e+000 3.221091e+000 -1.179574e+001 150 121 78
-8.564494e-001 2.460660e+000 -1.063873e+001 137 69 63
-5.993990e-002 1.694806e+000 -9.204466e+000 80 68 72
2.864331e+000 1.686260e+000 -9.853219e+000 72 56 30
3.673099e-001 1.195591e+000 -8.358992e+000 78 67 75
8.693817e-002 1.063499e+000 -8.829050e+000 205 226 211
4.327655e-001 6.828802e-001 -8.114546e+000 88 71 87
1.794843e-001 5.413835e-001 -8.550734e+000 205 226 207
4.070074e+000 5.758102e-001 -9.045448e+000 192 165 86
-7.021736e-001 4.585971e-001 -9.969727e+000 198 228 206
3.320603e+000 4.139275e-001 -9.499471e+000 97 81 55
1.866484e+000 1.988969e-001 -7.895251e+000 75 57 28
2.829730e+000 -5.883062e-002 -8.733239e+000 118 103 62
-5.075488e-001 -5.337873e-001 -9.299224e+000 204 229 211
2.343074e+000 -4.135095e-001 -8.010790e+000 74 64 33
4.110956e+000 -4.265336e-001 -8.724985e+000 139 110 46
2.210822e+000 -4.807202e-001 -7.805364e+000 78 62 33
2.883132e+000 -6.101192e-001 -8.371956e+000 94 80 48
3.227453e+000 -7.059738e-001 -8.744058e+000 56 36 12
3.148739e+000 -7.331075e-001 -8.656069e+000 102 87 46
6.415163e-001 -7.251233e-001 -7.496252e+000 84 66 88
-1.436726e+000 3.276436e+000 -1.156124e+001 102 65 49
-1.439747e+000 3.281475e+000 -1.157397e+001 102 65 49
-1.360268e+000 2.260784e+000 -1.116737e+001 171 139 93
-4.934412e-001 1.276100e+000 -9.877940e+000 99 72 85
-2.238702e+001 1.135301e+000 -6.239818e+001 178 34 47
-5.388086e-001 2.907941e-001 -9.694645e+000 209 225 212
4.853312e-001 3.356766e-001 -7.929468e+000 103 71 96
-6.453957e-001 2.557532e-001 -9.823802e+000 204 228 210
6.020983e-001 4.626245e-002 -7.793255e+000 197 225 207
2.163820e-001 -6.003379e-002 -8.357699e+000 78 58 85
-1.344823e-001 -6.460177e-001 -8.750425e+000 78 64 81
-1.466821e-001 -9.178783e-001 -8.660770e+000 78 65 80
-1.126508e+000 2.948244e+000 -1.106983e+001 94 65 51
-6.521616e-001 1.651537e+000 -1.021552e+001 89 74 93
-1.321227e-001 1.028642e+000 -9.140750e+000 120 79 85
-2.002745e-001 9.061231e-001 -9.255378e+000 86 65 67
3.648826e-001 7.512895e-001 -8.228667e+000 205 226 209
4.665392e-001 7.725252e-001 -8.072292e+000 204 226 207
-1.773428e+001 1.923444e+000 -6.709396e+001 174 38 52
4.191569e+000 2.430763e-001 -8.723660e+000 175 140 62
-5.764044e-001 2.200036e+000 -1.009465e+001 93 71 74
1.479223e+000 1.197599e+000 -8.095249e+000 121 115 81
2.318962e-001 1.490600e-001 -8.291317e+000 81 65 92
2.503342e-001 -5.892241e-001 -8.046651e+000 96 69 104
5.050982e-001 -6.144294e-001 -7.674865e+000 70 53 89
1.263559e+000 1.408542e+000 -8.045485e+000 131 114 71
4.144568e+000 7.405742e-001 -8.930156e+000 211 186 96
3.810585e-001 -3.995140e-002 -8.128631e+000 81 60 96
3.389843e+000 -4.175504e-001 -9.086570e+000 68 51 25
-6.946476e-001 -8.006500e-001 -9.470554e+000 63 54 58
-8.014341e-001 1.410305e+000 -1.038886e+001 77 61 79
3.562146e+000 -7.123860e-001 -9.029555e+000 51 34 18
-6.953071e-001 2.952337e+000 -1.050376e+001 199 154 105
-6.525276e-001 2.782607e+000 -1.038515e+001 141 89 65
-1.634853e+000 2.825218e+000 -1.172142e+001 93 73 87
-4.808197e-001 2.528774e+000 -1.008353e+001 133 91 66
1.763812e+000 2.291591e+000 -9.172327e+000 123 109 69
-1.449831e+000 2.362457e+000 -1.142019e+001 169 137 93
-9.679646e-001 2.269610e+000 -1.072798e+001 199 182 138
2.281980e+000 2.140594e+000 -9.485514e+000 124 110 65
-5.256404e-001 1.986105e+000 -1.004130e+001 92 60 70
1.906973e+000 1.956283e+000 -9.156574e+000 124 111 71
-8.560357e-001 1.635895e+000 -1.043312e+001 84 68 70
-3.090478e+001 2.584226e+000 -7.529587e+001 104 63 57
-8.491750e-001 5.565259e-001 -1.012616e+001 211 227 223
4.032837e+000 4.902256e-001 -9.067472e+000 134 106 41
1.829613e+000 -1.040148e-001 -7.674232e+000 104 91 57
-1.233328e+000 2.734116e+000 -1.115261e+001 95 61 52
-8.389649e-001 1.873614e+000 -1.045170e+001 80 75 72
2.990049e+000 1.398171e+000 -9.809342e+000 102 81 54
-7.098550e-002 -4.567109e-001 -8.683441e+000 211 225 217
4.142479e+000 -3.196284e-001 -8.652920e+000 141 118 42
2.197604e+000 -4.429815e-001 -7.794833e+000 128 111 67
3.539666e-001 -6.245953e-001 -7.922326e+000 187 198 199
6.686732e-001 -8.230450e-001 -7.453830e+000 172 171 182
-6.742986e-001 2.852077e+000 -1.041105e+001 130 76 52
-8.413912e-001 2.435212e+000 -1.059107e+001 123 62 48
1.524199e+000 2.112944e+000 -8.880415e+000 90 76 38
1.977935e+000 1.990908e+000 -9.229165e+000 119 104 62
1.450039e+000 1.721997e+000 -8.484783e+000 132 109 70
1.855267e+000 1.620656e+000 -8.859296e+000 122 109 64
1.599609e+000 7.606131e-001 -7.874731e+000 79 64 30
1.558238e+000 5.284421e-001 -7.727633e+000 66 51 20
1.818990e+000 -3.416855e-002 -7.704451e+000 82 67 29
6.890458e-001 -2.195405e-001 -7.534221e+000 69 57 84
2.001805e+000 -1.519092e-001 -7.830642e+000 117 103 58
2.019389e+000 -2.782902e-001 -7.746493e+000 123 108 65
7.068187e-001 -3.687661e-001 -7.461510e+000 174 179 182
2.394197e+000 -3.950733e-001 -8.039232e+000 122 105 58
1.783403e+000 2.819726e+000 -9.488667e+000 123 108 69
1.706851e+000 2.781924e+000 -9.421199e+000 85 72 37
2.140014e+000 2.637440e+000 -9.617545e+000 91 75 42
1.779321e+000 2.375880e+000 -9.233444e+000 79 66 32
1.835530e+000 2.365921e+000 -9.280857e+000 97 82 51
-1.486880e+000 2.545195e+000 -1.149140e+001 80 63 75
2.587923e+000 2.424244e+000 -9.851573e+000 132 114 74
-2.527938e+001 8.940290e+000 -6.745011e+001 132 95 146
1.795272e+000 2.167670e+000 -9.132826e+000 74 59 28
2.214688e+000 2.112053e+000 -9.426705e+000 78 63 24
2.355873e+000 1.869684e+000 -9.464203e+000 76 61 28
2.355873e+000 1.869684e+000 -9.464203e+000 76 61 28
2.411581e+000 1.810174e+000 -9.509656e+000 122 107 66
3.150417e+000 1.692577e+000 -1.001634e+001 92 72 47
-5.662406e-001 1.239810e+000 -9.940496e+000 202 229 208
-1.780277e+001 -2.328434e-001 -6.460260e+001 151 57 57
-1.670196e+001 -2.028773e-001 -6.559454e+001 179 97 97
1.687705e+000 7.994477e-001 -7.985276e+000 125 107 59
4.016824e+000 6.590013e-001 -8.996262e+000 190 162 81
6.357644e-001 -5.935383e-001 -7.489165e+000 79 61 86
-9.592551e-003 9.948895e-001 -8.983078e+000 204 227 206
-9.592551e-003 9.948895e-001 -8.983078e+000 204 227 206
1.794973e+000 8.089435e-001 -8.090713e+000 91 73 37
-7.860011e-001 -9.274889e-001 -9.666485e+000 72 58 60
-2.324246e+001 -2.851131e+000 -6.531982e+001 32 24 44
7.048117e-001 -5.642828e-001 -7.374916e+000 132 138 149
7.026611e-001 -5.655389e-001 -7.403161e+000 132 138 149
-3.218358e+001 -3.612119e+000 -7.463182e+001 56 34 32
-8.794937e-001 2.981547e+000 -1.078794e+001 174 120 93
-1.196853e+000 2.843960e+000 -1.127285e+001 101 67 53
-8.096514e-001 2.771034e+000 -1.062912e+001 184 137 107
-5.979703e-001 2.737488e+000 -1.031406e+001 180 143 93
-8.052343e-001 2.616549e+000 -1.060465e+001 186 138 99
-4.683143e-001 2.594072e+000 -1.012792e+001 119 86 54
-4.409774e-001 2.561457e+000 -1.004379e+001 205 174 148
-1.207354e+000 2.378976e+000 -1.104946e+001 171 136 82
-2.590606e-001 2.353352e+000 -9.674621e+000 70 43 46
-4.618131e-001 2.218678e+000 -9.967734e+000 205 195 193
-4.618131e-001 2.218678e+000 -9.967734e+000 205 195 193
1.833998e+000 2.308303e+000 -9.306266e+000 127 108 75
1.714795e-001 2.019101e+000 -8.829884e+000 96 80 90
-2.078286e-001 3.496587e-001 -9.091570e+000 203 217 209
1.949053e+000 4.615588e-001 -8.015629e+000 86 64 25
2.642797e-001 -1.992574e-001 -8.265983e+000 80 66 84
5.282730e-001 -4.223976e-001 -7.683564e+000 76 61 90
-7.903601e-001 -1.500551e+000 -9.520112e+000 180 178 183
-3.018838e-001 2.843267e+000 -9.889510e+000 183 138 73
-2.080840e-001 2.870078e+000 -9.626010e+000 206 168 103
-1.557608e+000 2.721304e+000 -1.142962e+001 98 75 93
2.448230e+000 2.712948e+000 -1.000984e+001 131 108 74
2.497279e+000 2.743417e+000 -1.010828e+001 90 67 36
-9.238476e-001 2.365784e+000 -1.070405e+001 144 82 57
2.593068e+000 2.547621e+000 -1.005749e+001 91 68 37
2.828361e+000 2.538585e+000 -1.029321e+001 121 102 70
1.578814e+000 2.337914e+000 -9.103646e+000 121 104 61
3.902580e+000 2.285848e+000 -9.770696e+000 176 144 61
1.691163e+000 2.084524e+000 -9.060470e+000 119 99 64
-5.639878e-001 1.761672e+000 -1.004776e+001 76 58 70
-6.229564e-002 1.823373e+000 -9.236895e+000 76 62 65
1.653163e+000 1.859937e+000 -8.846453e+000 135 116 76
-5.351009e-001 1.344331e+000 -9.907358e+000 208 211 208
3.078409e+000 1.323444e+000 -9.834086e+000 104 85 55
4.000711e+000 8.117911e-001 -9.079134e+000 195 159 85
3.375663e+000 4.003407e-001 -9.515690e+000 88 70 49
4.009567e+000 2.206421e-001 -8.878554e+000 179 142 74
1.508400e+000 2.433274e-001 -7.436165e+000 123 104 62
1.685662e-001 -3.818009e-001 -8.266234e+000 90 53 78
-2.570293e-001 -7.328839e-001 -8.788586e+000 208 212 209
-2.251882e-001 -7.178113e-001 -8.782391e+000 75 58 61
2.960740e+000 -3.259173e-001 -8.592555e+000 115 96 58
2.686282e+000 -4.497498e-001 -8.231681e+000 71 50 23
2.094141e-002 -7.822650e-001 -8.316866e+000 204 197 204
2.793390e+000 -5.134144e-001 -8.280555e+000 122 104 65
-2.889094e-001 2.981622e+000 -9.797187e+000 208 168 109
2.051428e+000 3.200980e+000 -1.000107e+001 126 110 67
2.095983e+000 3.182216e+000 -9.946749e+000 118 103 66
2.048171e+000 3.137868e+000 -9.855645e+000 80 69 37
2.094643e+000 3.094932e+000 -9.954412e+000 119 102 60
2.216089e+000 3.154552e+000 -1.003191e+001 125 113 74
2.239445e+000 3.167636e+000 -1.014766e+001 125 113 74
2.599674e+000 3.209056e+000 -1.046132e+001 73 58 29
1.155326e+000 2.770786e+000 -8.870841e+000 125 106 66
1.155326e+000 2.770786e+000 -8.870841e+000 125 106 66
2.603610e+000 3.077763e+000 -1.038141e+001 122 105 69
2.835641e+000 3.070888e+000 -1.060063e+001 63 55 36
1.917471e+000 2.708167e+000 -9.560387e+000 119 99 62
1.507877e+000 2.564732e+000 -9.176653e+000 124 107 70
1.571278e+000 2.553949e+000 -9.227648e+000 126 108 71
1.713616e+000 2.529611e+000 -9.284831e+000 125 109 70
1.777179e+000 2.523729e+000 -9.331316e+000 118 102 66
1.930496e+000 2.610855e+000 -9.536321e+000 127 109 71
2.132920e+000 2.696168e+000 -9.746006e+000 124 106 70
2.250574e+000 2.567579e+000 -9.679465e+000 125 110 69
2.241591e+000 2.470134e+000 -9.678408e+000 124 106 67
2.362324e+000 2.451771e+000 -9.755673e+000 122 104 66
2.362324e+000 2.451771e+000 -9.755673e+000 122 104 66
-1.313268e+000 2.113885e+000 -1.111658e+001 96 67 67
2.322605e+000 2.355380e+000 -9.666165e+000 120 101 61
2.704205e+000 2.436220e+000 -1.006699e+001 82 61 30
2.786880e+000 2.413590e+000 -1.012768e+001 83 63 32
1.753040e+000 2.126004e+000 -9.089487e+000 125 107 67
1.476338e+000 2.039188e+000 -8.795707e+000 79 58 21
1.501295e+000 2.074391e+000 -8.830878e+000 124 103 62
1.503423e+000 2.074426e+000 -8.837415e+000 124 103 62
3.026997e+000 2.138758e+000 -1.011671e+001 112 91 62
1.929749e+000 1.927932e+000 -9.204345e+000 122 104 64
2.184628e-001 1.644019e+000 -8.678054e+000 212 226 208
-1.882806e-001 1.491587e+000 -9.347322e+000 95 66 82
1.949348e+000 1.596143e+000 -8.967525e+000 118 99 59
3.830284e+000 1.820489e+000 -9.621765e+000 191 159 83
3.972699e+000 1.807274e+000 -9.542334e+000 177 135 62
3.963520e+000 1.743981e+000 -9.345494e+000 213 172 93
1.912175e+000 1.462149e+000 -8.783587e+000 119 102 59
2.346460e+000 1.457639e+000 -9.231267e+000 119 99 62
3.858763e+000 1.564144e+000 -9.447368e+000 190 154 78
2.878398e+000 1.417123e+000 -9.732798e+000 113 92 63
3.844514e+000 1.524338e+000 -9.471133e+000 153 113 46
-6.784561e-001 9.299598e-001 -9.974157e+000 214 225 217
-1.506979e-003 1.033022e+000 -8.853209e+000 202 224 205
1.716284e+000 1.240907e+000 -8.370560e+000 126 106 69
2.905683e+000 1.193914e+000 -9.505939e+000 123 103 70
3.856291e+000 1.410113e+000 -9.414508e+000 153 110 48
2.916443e+000 1.103696e+000 -9.460073e+000 111 91 56
3.033242e+000 1.071378e+000 -9.587597e+000 117 93 65
4.158655e+000 1.266293e+000 -9.026751e+000 188 151 70
