ply
format ascii 1.0
element face 0
property list uchar int vertex_indices
element vertex 869
property float x
property float y
property float z
property uchar diffuse_red
property uchar diffuse_green
property uchar diffuse_blue
end_header
-1.983792e-001 4.010122e-001 -7.485619e+000 144 131 120
-8.057163e-002 3.908272e-001 -7.359659e+000 172 162 152
6.633926e-001 4.949519e-001 -6.658183e+000 229 226 221
6.639371e-001 4.947359e-001 -6.661257e+000 229 226 221
1.089853e-001 2.144770e-001 -6.999974e+000 175 165 156
-2.020664e-001 1.210415e-001 -7.012476e+000 138 124 115
-6.127296e-002 2.210639e-002 -6.931873e+000 115 102 93
-5.979909e-003 2.017987e-003 -6.914137e+000 123 113 104
-1.963321e-001 -1.094577e-001 -6.878313e+000 184 161 155
1.628682e-001 -4.595258e-002 -6.852167e+000 206 197 188
-8.111604e-001 -1.907196e-001 -6.513382e+000 77 22 2
-7.886092e-001 -2.118766e-001 -6.469568e+000 54 5 8
-3.159122e-001 -1.907945e-001 -6.706217e+000 219 97 66
-2.142334e-001 -2.268085e-001 -6.892396e+000 93 69 26
-6.569832e-001 -2.988320e-001 -6.627121e+000 225 183 143
-1.750528e-001 -2.831805e-001 -6.896638e+000 97 79 41
-2.390918e-001 -3.272708e-001 -6.856188e+000 203 193 181
-2.151779e-001 -4.487990e-001 -6.921336e+000 45 36 31
-3.646892e-001 -5.173568e-001 -6.876774e+000 234 233 229
1.063232e+000 -3.295959e-001 -6.297420e+000 152 124 77
5.131529e-001 -6.450004e-001 -6.811497e+000 160 147 126
5.928055e-001 -7.520369e-001 -6.866977e+000 174 33 33
9.614917e-001 -6.136540e-001 -6.370905e+000 214 52 58
-7.224621e-002 1.066328e+000 -7.430449e+000 173 35 41
-2.376603e-001 9.822953e-001 -7.698565e+000 195 44 52
-2.376603e-001 9.822953e-001 -7.698565e+000 195 44 52
-3.368653e-001 8.138155e-001 -7.743832e+000 210 44 53
-1.897774e-001 8.290868e-001 -7.662708e+000 203 195 185
-1.893698e-001 8.292081e-001 -7.662438e+000 203 195 185
-3.674634e-001 7.706660e-001 -7.837474e+000 183 34 41
-3.750043e-001 6.593660e-001 -7.831596e+000 178 166 154
2.136517e-001 6.914518e-001 -7.227088e+000 213 204 198
3.921917e-002 5.942193e-001 -7.267728e+000 195 185 177
2.487591e-001 6.614266e-001 -7.185627e+000 208 201 195
-1.344313e-001 4.783217e-001 -7.415066e+000 193 184 175
8.118004e-001 5.422366e-001 -6.544001e+000 203 45 53
8.304749e-001 5.826659e-001 -6.525132e+000 171 26 33
-2.966338e-001 1.793982e-001 -7.882443e+000 203 52 59
-8.581735e-002 2.076816e-001 -7.168475e+000 124 111 102
-4.099998e-002 1.584270e-001 -7.096263e+000 122 114 103
-2.695591e-001 4.865323e-002 -6.944751e+000 130 108 100
6.681305e-001 9.971073e-002 -6.740553e+000 188 179 170
-9.457645e-001 -1.944388e-001 -6.452725e+000 158 135 82
1.034048e+000 1.251734e-001 -6.420211e+000 222 55 65
4.777059e-001 -9.064823e-002 -6.699933e+000 202 197 191
-8.495651e-001 -2.579963e-001 -6.495039e+000 98 31 28
-4.465799e-001 -3.012855e-001 -6.672691e+000 143 9 18
5.042203e-001 -3.133312e-001 -6.851668e+000 165 151 141
4.730773e-001 -4.133198e-001 -6.825372e+000 91 74 38
6.032153e-001 -3.367046e-001 -6.716015e+000 165 152 135
5.684671e-001 -3.675957e-001 -6.714081e+000 148 138 123
9.101122e-001 -2.582811e-001 -6.420359e+000 83 65 39
9.002385e-001 -2.532387e-001 -6.393588e+000 83 65 39
1.074642e+000 -2.122046e-001 -6.297161e+000 140 118 71
8.966033e-001 -5.190909e-001 -6.477830e+000 197 167 159
1.256134e+000 -3.814028e-001 -6.151965e+000 27 14 14
6.201313e-001 -7.977602e-001 -6.747420e+000 39 28 23
7.692690e-001 -8.185996e-001 -6.669034e+000 224 57 65
-3.621870e+000 9.482575e-001 -1.208729e+001 11 7 8
2.310394e-001 8.388267e-001 -7.193899e+000 192 179 173
6.782945e-001 8.698848e-001 -6.659374e+000 183 29 39
-6.803740e-002 5.426893e-001 -7.302220e+000 183 173 163
4.489159e-001 3.927140e-001 -6.950104e+000 183 175 163
-2.703776e-001 2.463026e-001 -7.784647e+000 168 33 38
2.006293e-001 6.350236e-002 -6.888108e+000 159 144 137
-3.907671e-001 -4.392760e-002 -6.829015e+000 123 51 35
3.843674e-001 7.912520e-002 -6.813361e+000 179 171 160
-9.423043e-001 -2.605221e-001 -6.524459e+000 32 23 24
-5.576461e-001 -1.907859e-001 -6.710004e+000 234 122 84
-5.404980e-001 -2.217715e-001 -6.698147e+000 166 35 18
-6.267704e-002 -1.314801e-001 -6.808339e+000 241 236 233
1.074980e+000 5.803819e-002 -6.260698e+000 119 10 23
-4.889353e-001 -4.129000e-001 -6.739574e+000 161 144 133
-2.581255e-001 -4.404668e-001 -6.856096e+000 211 204 198
8.481939e-001 -2.649980e-001 -6.507121e+000 147 129 119
8.327050e-001 -3.076710e-001 -6.428137e+000 174 151 101
6.167744e-001 -5.826654e-001 -6.658247e+000 194 185 174
8.766494e-001 -4.642070e-001 -6.448227e+000 175 151 105
1.244025e+000 -4.023314e-001 -6.161604e+000 206 183 115
1.244025e+000 -4.023314e-001 -6.161604e+000 206 183 115
7.859120e-001 -7.010988e-001 -6.636733e+000 208 200 189
3.453521e-001 -1.093782e+000 -7.399925e+000 134 114 69
4.613883e-001 -1.057723e+000 -7.279502e+000 13 5 8
9.735296e-001 -5.932994e-001 -6.382675e+000 150 2 16
-2.018496e+000 -2.873739e+000 -1.072750e+001 37 31 33
-2.003044e+000 -3.006026e+000 -1.073339e+001 37 31 33
-1.536121e+000 -2.203841e+000 -8.798054e+000 39 33 35
-5.389270e-001 6.764022e-001 -8.039860e+000 191 41 42
-1.009765e-001 6.276280e-001 -7.371252e+000 206 197 188
-4.622452e-001 4.286302e-001 -7.941068e+000 208 194 184
-2.034706e-001 4.501425e-001 -7.491567e+000 202 194 183
4.381884e-001 2.814791e-001 -7.005784e+000 141 133 122
1.075902e-001 9.875519e-002 -6.932701e+000 155 145 136
-8.923015e-001 -1.755104e-001 -6.424787e+000 39 24 28
-2.222014e-001 -1.482606e-001 -6.852522e+000 182 160 154
4.144522e-001 -3.415746e-003 -6.748245e+000 220 216 210
4.144522e-001 -3.415746e-003 -6.748245e+000 220 216 210
2.329951e-001 -1.292186e-001 -6.873307e+000 255 252 244
5.766116e-001 -4.745739e-002 -6.658690e+000 188 179 172
6.173075e-001 -1.635837e-002 -6.648869e+000 213 205 196
6.956437e-001 -5.255994e-002 -6.623332e+000 180 172 160
6.959880e-001 -5.265025e-002 -6.624292e+000 180 172 160
4.971268e-001 -1.482009e-001 -6.744793e+000 226 221 217
4.971268e-001 -1.482009e-001 -6.744793e+000 226 221 217
1.047503e+000 -4.931053e-001 -6.356675e+000 229 58 69
-1.980120e+000 -2.800154e+000 -1.073665e+001 24 18 20
-1.933143e+000 -2.892128e+000 -1.064963e+001 20 14 16
-1.858845e+000 -3.027600e+000 -1.055386e+001 29 23 25
5.830649e-001 9.938122e-001 -6.789334e+000 199 40 48
-2.117872e-001 9.395676e-001 -7.708764e+000 191 41 48
-1.204580e-001 6.958877e-001 -7.372417e+000 177 168 159
-6.683890e-002 7.132684e-001 -7.347797e+000 218 211 201
6.476060e-001 7.371433e-001 -6.614216e+000 189 43 49
-5.355592e-001 4.880978e-001 -8.062117e+000 38 24 21
-1.467059e-001 4.303774e-001 -7.461464e+000 145 133 122
1.084884e-001 3.671528e-001 -7.102613e+000 188 175 166
3.383984e-001 3.242550e-001 -7.038227e+000 170 162 149
5.960315e-001 1.396265e-001 -6.823291e+000 155 145 134
-9.349412e-001 -2.055132e-001 -6.462474e+000 168 147 100
-9.349412e-001 -2.055132e-001 -6.462474e+000 168 147 100
-8.661104e-001 -1.972482e-001 -6.477835e+000 151 127 81
6.153114e-001 -1.561879e-002 -6.640478e+000 213 205 196
1.082302e+000 -6.057900e-002 -6.300459e+000 247 80 90
4.290157e-001 -5.119304e-001 -6.908098e+000 81 64 37
5.450751e-001 -5.638518e-001 -6.780113e+000 204 191 182
1.192343e+000 -3.513670e-001 -6.200573e+000 163 139 91
3.871371e-001 -1.142775e+000 -7.342901e+000 41 28 23
-1.773403e+000 -2.991197e+000 -1.056492e+001 68 64 65
-1.473831e-001 8.903030e-001 -7.383430e+000 220 197 200
4.946604e-001 5.530200e-001 -6.924525e+000 210 201 194
7.649525e-002 4.282842e-001 -7.170631e+000 153 141 129
3.095084e-001 4.528629e-001 -7.111409e+000 178 169 160
-2.819326e-002 3.739989e-001 -7.293573e+000 140 130 118
6.292983e-002 2.029809e-001 -7.042458e+000 128 116 106
1.304151e-001 1.943827e-001 -6.986506e+000 201 194 184
4.367368e-001 2.921633e-001 -7.019716e+000 151 143 132
7.078174e-001 2.279269e-001 -6.661497e+000 249 245 240
7.500572e-002 -2.804054e-002 -6.896871e+000 127 117 107
-7.516054e-001 -1.908145e-001 -6.544104e+000 155 66 34
-2.273252e-002 -2.904783e-001 -6.926076e+000 244 241 236
7.021072e-001 -1.245802e-001 -6.567701e+000 133 119 108
6.208463e-001 -2.562268e-001 -6.687225e+000 234 230 221
4.809246e-001 9.764752e-001 -6.893436e+000 207 41 48
-4.088468e-001 3.221911e-001 -7.894606e+000 37 29 27
9.000391e-001 5.206938e-001 -6.406688e+000 17 7 8
-4.202236e-001 -8.230672e-002 -6.713213e+000 87 27 18
1.837521e-001 -4.777814e-001 -6.925409e+000 63 35 24
1.001694e+000 -2.139974e-001 -6.387982e+000 108 27 33
6.656145e-001 -4.023011e-001 -6.563645e+000 222 197 140
8.914857e-001 -3.162885e-001 -6.408000e+000 175 151 103
8.749109e-001 -5.238554e-001 -6.486407e+000 227 214 206
2.878868e-001 6.816599e-001 -6.930221e+000 230 221 214
5.479656e-001 6.374063e-001 -6.830720e+000 215 208 200
3.903306e-001 4.795774e-001 -6.965947e+000 211 204 196
3.931554e-001 4.792870e-001 -6.972697e+000 211 204 196
7.303653e-001 3.023858e-001 -6.635023e+000 174 159 147
3.445317e-001 1.168583e-001 -6.857718e+000 178 168 159
1.006089e+000 -3.670411e-001 -6.344065e+000 108 88 50
2.835275e-002 6.968410e-001 -7.259022e+000 217 208 201
-2.810482e-002 4.953795e-001 -7.350460e+000 186 176 167
1.953734e-002 3.546793e-001 -7.199678e+000 131 121 111
8.314426e-001 2.952883e-001 -6.497027e+000 249 248 244
7.041717e-001 -2.245127e-001 -6.563637e+000 247 240 234
3.555769e-001 -1.086506e+000 -7.401965e+000 140 121 72
1.040011e-001 1.017026e+000 -7.272317e+000 210 201 196
3.601784e-001 5.885292e-001 -6.968091e+000 233 224 217
-3.145322e-001 -9.782081e-002 -6.763862e+000 76 21 19
5.012317e-001 1.038438e-001 -6.775502e+000 138 126 114
5.314175e-001 -4.384037e-001 -6.804667e+000 170 148 100
-3.136328e-001 5.508807e-001 -7.876687e+000 215 206 197
-7.103468e-002 -6.706956e-001 -6.998028e+000 39 31 29
6.765639e-001 4.050941e-001 -6.656329e+000 243 242 237
-2.665046e-001 1.211230e-002 -6.892655e+000 73 25 18
-3.593775e-002 1.697526e-002 -6.931632e+000 142 132 122
-2.167350e-001 -3.631066e-001 -6.839990e+000 172 159 150
-2.876698e-001 -3.898029e-001 -6.783508e+000 171 161 150
2.165428e-001 6.658550e-001 -7.234445e+000 175 166 157
2.223549e-001 2.123300e-001 -6.993236e+000 124 113 103
-1.816432e-001 -1.841943e-002 -6.886961e+000 149 136 128
-3.024646e-001 -3.070378e-001 -6.811590e+000 168 150 139
7.252437e-001 8.195106e-001 -6.614283e+000 122 32 33
-1.613952e-001 4.813958e-001 -7.484599e+000 164 156 145
-5.547158e-001 -8.730505e-002 -6.742569e+000 108 35 15
-4.115314e-001 -3.587055e-001 -6.628199e+000 168 149 148
1.103208e+000 5.065317e-002 -6.254035e+000 180 41 48
4.122324e-001 -1.226761e-001 -6.814060e+000 253 250 245
-1.929666e-001 -4.314551e-001 -6.940589e+000 240 237 230
5.927281e-001 -7.522906e-001 -6.866323e+000 181 39 35
8.006941e-001 6.235313e-001 -6.540400e+000 189 34 42
6.850263e-001 5.950762e-001 -6.613636e+000 249 64 78
9.935770e-001 2.137031e-001 -6.381032e+000 227 60 68
1.072897e+000 5.615546e-002 -6.271636e+000 121 11 20
-8.118803e+000 -5.934101e+000 -1.866745e+001 106 97 95
-4.447329e-001 8.839746e-001 -7.915751e+000 25 18 16
1.783576e-001 3.960469e-001 -7.112431e+000 134 124 111
-3.865867e-002 1.092183e+000 -7.404758e+000 181 36 41
1.209743e+000 -1.900718e-001 -6.160930e+000 190 165 111
1.209743e+000 -1.900718e-001 -6.160930e+000 190 165 111
1.277268e-001 3.252741e-002 -6.896280e+000 132 120 108
-6.421920e-001 -1.353353e-001 -6.694024e+000 69 22 15
5.041810e-001 6.861855e-002 -7.200201e+000 142 132 120
5.622430e-001 6.227560e-001 -6.796043e+000 194 186 177
-1.601514e-001 1.349494e-001 -6.905598e+000 102 88 79
-7.340169e-001 -1.474015e-001 -6.992340e+000 114 51 31
-5.040924e-001 -2.336227e-001 -6.699658e+000 186 45 12
2.035786e-001 8.634107e-001 -7.220871e+000 195 186 181
-9.359330e-001 -1.779781e-001 -6.396049e+000 140 113 65
-9.091516e-001 -3.524581e-001 -6.686892e+000 51 37 33
-5.272611e-001 -2.164754e-001 -6.623743e+000 146 24 8
-6.775721e-001 -3.359874e-001 -6.567447e+000 220 167 124
-6.505529e-001 -2.974148e-001 -6.529167e+000 82 29 13
-6.505529e-001 -2.974148e-001 -6.529167e+000 82 29 13
2.169344e-001 6.714923e-001 -6.937423e+000 209 200 191
5.537486e-001 7.569653e-001 -6.677566e+000 187 177 171
-2.311337e-001 2.200349e-002 -6.892508e+000 89 32 21
-7.130924e-001 -3.485822e-001 -6.612234e+000 252 220 167
-6.748802e-001 -3.152768e-001 -6.561911e+000 253 210 175
-6.135531e-001 -2.994155e-001 -6.739647e+000 160 51 24
-5.685367e-001 -2.899662e-001 -6.715927e+000 239 157 124
-3.175443e-001 -1.854813e-001 -6.683250e+000 218 101 62
3.506599e-001 1.023284e+000 -7.006826e+000 227 214 213
6.550697e-001 6.269225e-001 -6.638053e+000 208 52 57
5.909314e-001 5.509775e-001 -6.986771e+000 150 140 128
-9.041251e-001 -1.955707e-001 -6.493085e+000 46 31 24
-2.861267e-001 -1.780303e-001 -6.657859e+000 99 24 18
-6.385362e-001 -3.306392e-001 -6.596063e+000 237 191 148
-8.538420e-001 -1.834485e-001 -6.416191e+000 140 117 76
5.151670e-001 1.062692e+000 -6.849222e+000 196 44 50
-6.831247e-001 -3.341260e-001 -6.568997e+000 232 174 132
-8.640674e-001 -1.537541e-001 -6.587382e+000 137 59 23
-3.382915e-001 -2.188438e-001 -6.637601e+000 227 105 57
2.609758e-001 8.136679e-001 -7.103972e+000 153 142 134
-2.021038e-001 6.373751e-001 -7.657242e+000 171 163 153
-1.982718e+000 -2.570237e+000 -1.063824e+001 58 49 50
8.287485e-001 5.592199e-001 -6.523997e+000 200 52 59
6.568297e-001 -8.931416e-001 -6.774802e+000 230 98 105
1.832256e-001 -4.814025e-001 -6.939893e+000 63 35 24
4.235271e-001 1.163442e+000 -6.906462e+000 174 44 51
5.457558e-002 6.386866e-001 -7.195462e+000 216 207 198
6.639355e-001 7.734033e-001 -6.559323e+000 188 44 48
-1.883893e-001 3.657692e-001 -7.432570e+000 152 140 128
2.961043e-001 2.283165e-001 -6.955642e+000 121 109 94
1.932303e-001 1.430637e-001 -6.845380e+000 191 178 169
-3.302280e-001 -1.344262e-001 -6.740751e+000 84 16 7
-4.406944e-001 -2.471706e-001 -6.637766e+000 167 86 64
4.196011e-001 -9.033626e-002 -6.735751e+000 214 209 202
4.241904e-001 -1.187392e-001 -6.773670e+000 223 217 211
-2.660322e-002 6.497801e-001 -7.334371e+000 205 198 190
7.297536e-001 7.851500e-001 -6.596236e+000 82 12 15
6.592815e-001 7.617491e-001 -6.486867e+000 206 47 61
3.248623e-002 2.243587e-001 -7.036047e+000 152 142 133
-4.424792e-001 -4.058887e-002 -6.799891e+000 118 50 32
-4.424792e-001 -4.058887e-002 -6.799891e+000 118 50 32
-6.127723e-002 4.335621e-002 -6.949378e+000 164 151 143
-2.837152e-001 -6.871142e-002 -6.851958e+000 84 17 11
1.948857e-001 -1.367495e-001 -6.857950e+000 254 254 249
-1.757826e+000 -3.609436e+000 -1.048927e+001 45 39 41
2.932594e-001 1.237044e+000 -7.079533e+000 200 48 52
3.692912e-001 1.080429e+000 -7.075882e+000 214 51 52
3.555118e-001 1.077337e+000 -6.999580e+000 214 51 52
-4.274534e-001 8.888969e-001 -7.914311e+000 20 20 18
-1.847312e-001 8.391763e-001 -7.647783e+000 203 196 186
-2.232712e-001 5.614346e-001 -7.680934e+000 180 171 162
-1.085960e-001 4.426949e-001 -7.382968e+000 180 172 162
-2.285464e-001 4.183563e-002 -6.909418e+000 135 120 113
1.046748e+000 -3.407779e-001 -6.295756e+000 170 147 95
1.061925e+000 -3.265905e-001 -6.291069e+000 164 139 85
7.328602e-001 5.559547e-001 -6.555993e+000 245 68 80
6.933016e-002 1.607769e-001 -6.966902e+000 162 152 142
6.095453e-001 2.074530e-001 -6.837287e+000 172 163 152
6.437474e-001 -2.740681e-001 -6.680436e+000 229 225 216
-6.268574e+000 -7.468604e+000 -1.784048e+001 31 32 36
-4.578708e+000 -6.530594e+000 -1.521811e+001 131 127 141
-4.345271e+000 -6.802310e+000 -1.530516e+001 21 19 22
-5.820361e+000 -8.635208e+000 -1.707985e+001 110 109 122
3.294836e-001 1.220063e+000 -7.034388e+000 204 47 54
3.736527e-001 1.185930e+000 -6.965757e+000 194 38 42
-1.588059e-001 4.920966e-001 -7.471581e+000 165 155 145
6.921551e-001 5.659710e-001 -6.616630e+000 250 245 244
6.939985e-002 -7.451809e-002 -6.866751e+000 160 146 135
2.446920e-001 -2.239352e-001 -6.923551e+000 218 209 202
2.446920e-001 -2.239352e-001 -6.923551e+000 218 209 202
3.709993e-001 -2.784989e-001 -6.921997e+000 217 210 200
1.105212e+000 -1.265571e-001 -6.276272e+000 25 9 12
7.926324e-001 -7.592422e-001 -6.677680e+000 210 205 196
8.943970e-001 -7.547133e-001 -6.551706e+000 250 75 86
1.044875e+000 -8.229928e-001 -6.474068e+000 250 86 94
1.044875e+000 -8.229928e-001 -6.474068e+000 250 86 94
-4.413217e+000 -6.773675e+000 -1.514953e+001 134 131 146
-5.344620e+000 -8.504467e+000 -1.710462e+001 51 51 59
9.935618e-002 -4.126201e-001 -6.920231e+000 44 28 15
1.212086e+000 -1.844819e-001 -6.150747e+000 204 174 122
1.212086e+000 -1.844819e-001 -6.150747e+000 204 174 122
1.031526e+000 -8.067293e-001 -6.455993e+000 250 78 90
1.031526e+000 -8.067293e-001 -6.455993e+000 250 78 90
9.717551e-001 3.586634e-001 -6.365103e+000 218 54 65
-2.697427e-002 -5.201121e-001 -7.054088e+000 43 34 30
1.036887e+000 -1.616182e-001 -6.371249e+000 228 64 75
5.063787e-001 8.668130e-001 -6.857019e+000 230 219 215
2.099985e-001 5.913380e-001 -7.182745e+000 139 126 117
5.568442e-001 2.369062e-001 -6.879392e+000 209 202 194
-7.837532e-002 -3.373836e-001 -6.917081e+000 125 108 78
-6.087160e+000 -7.574882e+000 -1.755413e+001 115 112 119
-6.003922e+000 -7.942013e+000 -1.731505e+001 133 131 142
-6.003922e+000 -7.942013e+000 -1.731505e+001 133 131 142
5.099220e-001 8.583970e-001 -6.854938e+000 229 221 218
1.877557e-001 -4.881515e-001 -6.956058e+000 66 33 26
-4.668001e+000 -6.624948e+000 -1.573684e+001 167 169 184
-6.099297e+000 -6.275597e+000 -1.824907e+001 19 17 22
-3.126176e-001 5.527938e-001 -7.868862e+000 213 204 195
1.902347e-001 6.805460e-001 -7.334513e+000 177 170 162
7.572800e-001 7.687542e-001 -6.575823e+000 109 22 20
-2.081730e-001 1.083916e-001 -7.000102e+000 107 93 84
-1.733388e-001 7.731583e-002 -6.923329e+000 145 130 123
-4.343076e-001 -6.279377e-002 -6.824201e+000 87 19 8
-1.291880e-001 1.266038e-002 -6.873160e+000 128 114 109
-5.251405e-001 -1.371208e-001 -6.712488e+000 125 31 14
-7.842937e-001 -2.122649e-001 -6.526236e+000 87 29 14
-4.719279e+000 -6.160212e+000 -1.526991e+001 95 90 100
9.758973e-001 -6.572268e-001 -6.384911e+000 243 85 83
-1.556248e-001 8.543336e-001 -7.582923e+000 183 176 168
-5.118833e-001 5.643742e-001 -8.022654e+000 206 40 46
-1.967075e-001 5.883969e-001 -7.649520e+000 166 157 148
3.163363e-001 2.239230e-001 -7.096377e+000 144 130 119
-2.491834e-001 4.555935e-002 -6.917731e+000 79 33 28
-4.767025e-001 -6.911126e-002 -6.776725e+000 139 61 39
-6.460393e-001 -1.546774e-001 -6.678372e+000 74 17 10
2.912080e-001 -3.347993e-001 -6.933474e+000 126 110 95
6.068716e-001 -1.029289e-001 -6.624200e+000 218 214 205
6.068716e-001 -1.029289e-001 -6.624200e+000 218 214 205
-5.567838e+000 -8.695482e+000 -1.693880e+001 156 161 183
7.183150e-001 7.877156e-001 -6.617239e+000 76 7 10
1.042683e-001 1.936019e-001 -6.986380e+000 199 191 180
7.521282e-001 4.936217e-001 -6.621870e+000 207 201 195
9.607632e-001 3.474662e-001 -6.372335e+000 234 67 77
-3.172824e-001 -2.004182e-001 -6.734930e+000 214 102 65
7.821421e-001 -9.197595e-001 -6.766588e+000 226 78 79
-1.387174e+000 -2.689441e+000 -8.796421e+000 25 19 21
-5.546412e-001 5.437437e-001 -8.109825e+000 217 58 56
-1.821185e-001 3.451723e-001 -7.386698e+000 140 127 118
-1.030194e-001 4.185451e-001 -7.375242e+000 140 130 117
5.870457e-001 5.947115e-001 -6.788950e+000 166 156 146
2.551252e-001 2.586000e-001 -7.010930e+000 119 104 94
-3.035498e-001 4.033217e-002 -6.935223e+000 61 12 11
4.239466e-001 1.907989e-001 -6.899768e+000 120 108 94
-3.342797e-001 -7.923699e-002 -6.839051e+000 78 23 16
9.929603e-001 2.147132e-001 -6.381413e+000 242 73 82
-2.302390e-001 -3.823142e-001 -6.866570e+000 169 148 135
-4.821963e+000 -6.494103e+000 -1.514836e+001 9 8 14
-1.454765e+000 -4.822533e+000 -1.053506e+001 46 40 42
3.908936e-001 1.405385e-001 -6.843577e+000 203 195 185
7.143095e-001 6.642507e-002 -6.695993e+000 194 185 178
9.993337e-001 -3.994522e-001 -6.330932e+000 110 86 48
-4.777821e+000 -6.633203e+000 -1.518396e+001 155 153 167
-4.754066e+000 -6.590964e+000 -1.511812e+001 155 153 167
-5.878025e+000 -8.677213e+000 -1.699169e+001 130 131 149
-2.144159e-001 8.117276e-001 -7.656357e+000 202 193 185
4.181066e-001 6.942819e-001 -6.982198e+000 168 157 153
4.181066e-001 6.942819e-001 -6.982198e+000 168 157 153
5.700260e-001 3.140724e-001 -6.835517e+000 194 185 176
8.755266e-001 -1.004756e+000 -6.680337e+000 231 66 80
8.755266e-001 -1.004756e+000 -6.680337e+000 231 66 80
5.769448e-001 9.916362e-001 -6.769568e+000 209 45 56
8.086053e-001 -2.953615e-001 -6.505190e+000 91 74 54
8.467821e-001 -1.126645e-001 -6.530485e+000 164 151 143
8.832914e-001 -3.001450e-001 -6.372811e+000 182 157 108
-4.395441e+000 -6.821517e+000 -1.474625e+001 161 161 173
-5.365713e+000 -7.986093e+000 -1.666505e+001 10 8 12
-5.350582e+000 -7.954178e+000 -1.661646e+001 10 8 12
1.123714e+000 -1.502641e-001 -6.252653e+000 37 26 27
-5.713220e+000 -8.666665e+000 -1.710206e+001 168 173 195
-2.424155e-001 2.318243e-001 -7.552807e+000 122 28 31
-1.811845e-001 1.167619e-001 -6.806554e+000 142 129 120
-2.018876e-001 -5.319495e-002 -6.825664e+000 109 37 21
-1.756570e-001 -2.510163e-001 -6.871014e+000 240 229 226
3.988194e-001 -1.239195e-001 -6.819737e+000 238 235 228
-3.117538e-001 1.022568e+000 -7.753773e+000 29 19 19
-2.378182e-001 8.176738e-001 -7.710064e+000 203 194 185
2.298084e-001 7.042326e-001 -7.194649e+000 190 181 174
2.352631e-001 6.961412e-001 -7.233970e+000 190 181 174
1.493924e-001 2.238632e-001 -6.921449e+000 157 141 126
-4.890387e-001 -7.092320e-002 -6.746577e+000 144 65 43
-1.326111e-001 4.720182e-002 -6.957194e+000 131 116 109
-8.519209e-001 -2.407192e-001 -6.471890e+000 91 24 17
-5.537004e-001 -2.135540e-001 -6.639622e+000 251 139 101
-1.856547e-001 -3.580285e-001 -6.851411e+000 191 183 174
-1.776022e+000 -3.543554e+000 -1.049357e+001 41 35 37
8.202130e-001 -2.673078e-001 -6.528724e+000 139 122 110
4.551219e-001 -1.106678e+000 -7.302329e+000 241 221 182
-1.886580e-002 1.257254e+000 -7.351233e+000 186 39 40
-3.018451e-001 -2.651226e-002 -7.912685e+000 35 27 26
-3.018451e-001 -2.651226e-002 -7.912685e+000 35 27 26
-5.705724e-001 -4.181692e-002 -6.860558e+000 69 16 8
-5.705724e-001 -4.181692e-002 -6.860558e+000 69 16 8
8.043949e-001 5.311612e-001 -6.577463e+000 214 57 66
-6.568876e-001 -1.742297e-001 -6.566471e+000 147 63 39
4.120731e-001 4.773574e-002 -6.839300e+000 131 119 107
-6.376225e-002 -2.260562e-001 -6.852443e+000 253 250 243
7.926772e-002 -1.990864e-001 -6.894814e+000 232 225 219
-7.079736e-001 -3.307137e-001 -6.559323e+000 43 35 33
-2.362262e-001 -4.050252e-001 -6.845068e+000 232 225 221
3.653458e-001 -4.379950e-001 -6.891526e+000 196 183 131
-1.688286e+000 -3.660424e+000 -1.053626e+001 53 47 47
2.659833e-002 1.120824e+000 -7.335851e+000 203 42 49
-3.176350e-001 -1.936060e-001 -6.718180e+000 227 116 77
-9.091012e-002 -2.004917e-001 -6.825862e+000 227 224 219
-4.609313e-001 4.287994e-001 -7.861806e+000 213 200 191
7.881964e-001 5.048557e-001 -6.583084e+000 174 33 44
4.268250e-002 -5.114665e-002 -6.885614e+000 159 149 140
4.023204e-002 -4.354107e-002 -6.867041e+000 159 149 140
-1.906911e-001 -4.023264e-001 -6.887818e+000 242 236 232
9.958895e-001 1.610177e-001 -6.370915e+000 195 35 45
9.958895e-001 1.610177e-001 -6.370915e+000 195 35 45
4.512332e-001 -3.215810e-001 -6.900024e+000 244 237 231
1.072532e+000 2.104275e-002 -6.250981e+000 229 83 91
6.928496e-001 -8.278531e-001 -6.742624e+000 219 47 59
2.441235e-001 9.033854e-001 -7.226634e+000 223 217 213
-4.858243e-001 -2.113054e-001 -6.698939e+000 249 132 87
5.974522e-001 -5.842678e-001 -6.736422e+000 229 217 208
-6.037534e-001 -1.508634e-001 -6.706673e+000 94 33 26
3.453073e-001 5.224012e-002 -6.829528e+000 199 190 181
4.621864e-001 2.775787e-002 -6.730875e+000 146 134 120
4.621864e-001 2.775787e-002 -6.730875e+000 146 134 120
4.839111e-001 -1.699250e-002 -6.675702e+000 214 207 199
5.221653e-001 -4.227019e-001 -6.725642e+000 178 156 106
9.451491e-002 1.236225e+000 -7.260488e+000 203 48 54
-2.042892e-001 2.432733e-001 -7.561894e+000 184 174 162
-2.910763e-001 4.626633e-002 -7.404076e+000 220 212 205
-1.399552e-001 6.087920e-001 -7.527170e+000 168 162 150
-1.399552e-001 6.087920e-001 -7.527170e+000 168 162 150
5.036384e-001 -7.822006e-001 -6.912130e+000 251 250 245
-6.528158e-001 -1.553111e-001 -6.760163e+000 65 17 12
6.232561e-001 -3.641000e-001 -6.663312e+000 100 85 64
7.246186e-001 -9.231781e-001 -6.713238e+000 50 36 36
-4.111267e-001 2.284529e-001 -7.688411e+000 38 27 27
-3.246123e-001 -1.073691e-001 -6.792818e+000 66 11 8
3.082703e-001 -1.493793e-001 -6.889409e+000 245 242 234
3.088798e-001 -1.484600e-001 -6.887050e+000 245 242 234
-4.359807e-002 -6.736869e-001 -7.030318e+000 35 30 27
-8.799911e+000 -1.028186e+001 -2.353265e+001 23 19 20
-1.918617e+000 -3.286969e+000 -1.070925e+001 38 32 34
6.611579e-001 -1.489851e-001 -6.570186e+000 228 220 210
-4.274283e+000 -6.575071e+000 -1.529927e+001 30 28 33
-4.360452e+000 -6.622988e+000 -1.521495e+001 165 161 175
-5.965183e+000 -8.285775e+000 -1.706240e+001 9 7 10
-5.194461e-002 2.179034e-001 -7.139140e+000 145 132 123
-4.886316e-001 -9.331223e-002 -6.745910e+000 121 37 16
-4.772986e-001 -1.307287e-001 -6.699240e+000 129 34 14
8.065882e-001 -9.891276e-001 -6.780118e+000 48 30 30
3.681261e-001 1.094501e+000 -7.033559e+000 214 50 57
5.653560e-001 5.946865e-001 -6.826901e+000 204 194 185
-6.000692e+000 -7.229599e+000 -1.817198e+001 84 84 92
-5.719570e+000 -8.886373e+000 -1.695819e+001 12 10 16
8.401081e-002 1.112766e+000 -7.252285e+000 232 192 168
1.816111e-001 6.521961e-001 -7.255342e+000 181 174 164
3.089737e-001 1.088611e+000 -7.059511e+000 203 32 40
-5.418296e-002 5.045202e-001 -7.339373e+000 208 197 191
-5.418296e-002 5.045202e-001 -7.339373e+000 208 197 191
7.499988e-002 5.606632e-001 -7.209997e+000 176 167 154
5.318634e-001 5.885634e-001 -6.877590e+000 187 181 170
-8.635313e-002 2.213360e-001 -7.229101e+000 145 135 125
1.790151e-001 2.587229e-001 -7.018227e+000 122 108 97
-4.901648e-001 -7.453144e-002 -6.754244e+000 144 65 43
-2.593175e-001 -5.534410e-002 -6.859697e+000 90 21 15
-6.106779e+000 -7.746601e+000 -1.798751e+001 79 79 80
-4.768635e+000 -6.221635e+000 -1.525265e+001 101 99 108
-4.646686e+000 -6.963095e+000 -1.532247e+001 156 154 168
-3.921076e+000 -7.375097e+000 -1.505993e+001 84 87 96
-1.564849e+000 -4.315689e+000 -1.046191e+001 50 44 48
-1.962696e-001 8.550614e-001 -7.669851e+000 161 147 139
-7.615635e-002 2.477104e-001 -7.226727e+000 130 118 106
2.435238e-001 2.676287e-001 -7.088592e+000 127 115 102
-5.979224e+000 -7.558431e+000 -1.755523e+001 80 79 84
-2.149512e+000 -3.181466e+000 -1.089500e+001 55 50 54
-5.359673e+000 -8.641454e+000 -1.711798e+001 120 121 139
-1.518550e+000 -4.416299e+000 -1.041679e+001 53 48 52
5.621999e-001 5.598494e-001 -6.864414e+000 153 143 133
-2.952316e-001 -1.769760e-002 -6.859190e+000 70 20 17
8.208378e-001 3.693047e-001 -6.471557e+000 252 81 93
7.673872e-001 7.281901e-001 -6.547324e+000 21 1 4
-5.929181e-001 6.313541e-001 -8.162483e+000 38 24 20
2.414265e-001 1.523532e-002 -6.858354e+000 244 240 231
5.552846e-001 9.248120e-002 -6.778913e+000 189 175 165
-4.628064e+000 -6.638543e+000 -1.542701e+001 142 138 153
-4.050560e+000 -7.663193e+000 -1.508023e+001 11 7 14
-5.587436e+000 -7.392039e+000 -1.711230e+001 10 10 12
5.939189e-001 9.922696e-001 -6.728242e+000 186 44 53
-5.980418e+000 -7.410724e+000 -1.750152e+001 80 77 84
-1.593646e-001 1.224592e-001 -6.991578e+000 108 94 83
-1.472547e-001 5.311997e-002 -6.915968e+000 162 147 140
-1.472547e-001 5.311997e-002 -6.915968e+000 162 147 140
-4.225146e+000 -6.332742e+000 -1.530507e+001 47 45 48
2.743648e-001 2.145609e-001 -6.923676e+000 143 130 114
-4.951260e-001 -1.414004e-001 -6.714805e+000 126 37 16
-5.251211e-001 -2.386911e-001 -6.671830e+000 144 27 9
-5.372926e+000 -8.889518e+000 -1.695027e+001 116 124 147
5.094558e-001 -3.990912e-001 -6.796491e+000 147 133 108
9.639745e-001 -2.730760e-001 -6.406190e+000 141 114 76
-5.896521e+000 -7.275586e+000 -1.799156e+001 66 66 74
-4.582513e+000 -6.117362e+000 -1.543275e+001 136 136 146
-2.106849e+000 -2.615869e+000 -1.077281e+001 40 36 37
6.505027e-001 4.793582e-001 -6.678660e+000 235 232 223
6.618715e-001 4.964433e-001 -6.657993e+000 236 231 227
-4.381848e-001 -1.281714e-001 -6.753757e+000 90 20 11
-5.864632e+000 -8.773504e+000 -1.696354e+001 3 4 8
4.282038e-001 -4.174523e-002 -6.733011e+000 199 192 174
-1.722372e+000 -3.763787e+000 -1.059159e+001 28 22 24
4.408364e-001 -1.132000e+000 -7.318194e+000 42 29 20
-1.380778e+000 -5.352270e+000 -1.019715e+001 22 15 17
-1.169633e-001 1.144143e+000 -7.524816e+000 142 21 30
-1.991768e-002 1.283341e+000 -7.310931e+000 33 14 15
-2.453124e-001 4.852391e-001 -7.720256e+000 192 184 173
4.969859e-001 1.106143e+000 -6.856749e+000 185 40 45
8.035440e-002 3.629684e-001 -7.160516e+000 136 124 112
-5.778836e+000 -7.113055e+000 -1.799720e+001 66 66 78
-2.135493e+000 -2.471799e+000 -1.073784e+001 36 30 30
-4.796783e+000 -6.198697e+000 -1.546006e+001 130 130 139
-4.715248e+000 -6.379357e+000 -1.506630e+001 122 120 130
-4.587655e+000 -6.453404e+000 -1.527313e+001 137 137 149
-3.906361e-001 -2.839714e-002 -6.843249e+000 56 15 9
-8.177255e-001 -2.218067e-001 -6.513899e+000 136 109 66
9.970944e-002 2.866682e-002 -6.902180e+000 170 160 148
-5.861288e+000 -8.461392e+000 -1.696179e+001 105 103 115
-2.225167e-001 -2.506783e-001 -6.898838e+000 233 209 149
-1.914322e+000 -3.294779e+000 -1.070691e+001 40 34 38
-1.869588e+000 -3.409366e+000 -1.066551e+001 44 40 41
-4.681510e-001 -4.002460e-001 -6.684296e+000 164 143 123
-3.255242e-001 -4.219095e-001 -6.760036e+000 234 229 225
-2.903051e-001 -4.367998e-001 -6.799527e+000 251 251 246
5.731773e-001 -7.079454e-001 -6.846883e+000 174 161 141
8.060356e-001 -9.590922e-001 -6.822509e+000 235 82 88
-1.331732e+000 -5.341820e+000 -1.020986e+001 111 101 102
-1.332756e+000 -5.346062e+000 -1.021291e+001 111 101 102
3.163378e-001 1.255232e+000 -6.986114e+000 27 10 13
-2.965946e-001 7.866886e-002 -6.960351e+000 78 42 41
-5.976944e+000 -8.011258e+000 -1.701845e+001 11 9 17
-4.804897e+000 -6.442209e+000 -1.534686e+001 118 116 128
-2.300638e-001 -4.352940e-002 -6.892797e+000 112 43 32
-4.497271e+000 -6.721283e+000 -1.506268e+001 109 109 117
-1.953880e+000 -3.148153e+000 -1.070936e+001 49 44 46
-3.165645e-001 -1.977886e-001 -6.724889e+000 228 115 76
-8.894601e-002 -4.564345e-001 -6.967346e+000 40 33 25
5.645596e-002 -2.566971e-001 -6.886358e+000 199 189 179
1.034817e+000 2.946053e-001 -6.331911e+000 32 10 16
1.096336e+000 1.353132e-001 -6.278508e+000 32 18 19
-1.435298e+000 -4.737263e+000 -1.039032e+001 52 46 48
-1.382855e+000 -4.791327e+000 -1.027106e+001 45 40 44
-1.339271e+000 -4.783457e+000 -1.014622e+001 49 43 43
6.686819e-001 -9.114620e-001 -6.805765e+000 234 96 96
-3.960815e-001 6.896470e-001 -7.879206e+000 194 172 166
-1.904274e-001 3.452938e-001 -7.379169e+000 126 114 102
-1.904274e-001 3.452938e-001 -7.379169e+000 126 114 102
4.318684e-001 5.466874e-001 -6.971851e+000 184 177 167
4.318684e-001 5.466874e-001 -6.971851e+000 184 177 167
-5.411831e-001 -1.900138e-001 -6.707278e+000 180 74 42
3.721047e-001 -2.836781e-001 -6.928989e+000 216 210 197
3.744086e-001 -5.054742e-001 -6.920966e+000 251 251 241
-1.318300e+000 -5.276075e+000 -1.025783e+001 19 9 10
-2.302908e-001 1.623357e-002 -7.751925e+000 89 8 9
-5.652098e-001 -2.604818e-001 -6.710719e+000 212 107 66
1.115044e+000 -3.482786e-002 -6.276523e+000 32 11 18
-1.399137e+000 -5.178800e+000 -1.018043e+001 62 51 49
4.362631e-001 1.133849e+000 -6.912658e+000 211 51 56
-1.855083e-001 4.897758e-001 -7.666215e+000 203 195 184
-2.428624e-001 1.166702e-001 -7.840526e+000 132 17 24
5.811717e-001 -7.674180e-001 -6.805233e+000 45 34 32
1.037735e-001 2.976837e-001 -7.079348e+000 132 117 106
-3.883268e+000 -7.541571e+000 -1.534516e+001 15 13 18
9.174884e-001 2.834639e-001 -6.444488e+000 226 61 70
1.796003e-001 -4.990328e-001 -6.970822e+000 71 45 31
1.776629e-001 -4.917140e-001 -6.963843e+000 71 45 31
8.924912e-001 -3.009046e-001 -6.394932e+000 199 176 122
-2.094403e-001 1.068282e+000 -7.616495e+000 201 50 57
1.990776e-001 5.951479e-001 -7.176382e+000 140 128 116
4.692021e-001 -3.605487e-001 -6.860998e+000 99 84 64
7.023392e-001 -2.480157e-001 -6.598937e+000 255 252 247
-3.278637e-001 -1.569023e-001 -7.064141e+000 120 52 33
1.411576e-001 1.014807e+000 -7.247913e+000 219 212 206
8.392985e-001 1.451329e-001 -6.481128e+000 225 214 208
7.406781e-002 1.119430e+000 -7.279033e+000 219 54 62
2.151771e-001 7.186882e-001 -7.172246e+000 200 193 185
7.601887e-002 5.935702e-001 -7.258988e+000 161 147 136
-1.373632e-001 1.782074e-001 -7.154758e+000 140 127 113
5.255377e-001 5.205460e-001 -6.835413e+000 140 128 115
-1.644282e-001 3.661988e-002 -6.958813e+000 125 111 102
-1.331041e-001 1.463395e-002 -6.903258e+000 135 120 112
-9.073662e-001 -2.793930e-001 -6.639703e+000 141 75 51
-3.228370e-001 -1.039168e-001 -6.832986e+000 93 35 28
-8.199008e-001 -2.301701e-001 -6.501444e+000 77 23 21
-7.547893e-001 -2.476997e-001 -6.536622e+000 114 28 9
-3.128685e-001 -4.065884e-001 -6.781311e+000 183 174 167
-8.210171e-003 -3.979198e-001 -6.907442e+000 196 180 165
4.998552e-001 -3.050563e-001 -6.780302e+000 161 145 128
-1.253193e-001 4.337248e-001 -7.456968e+000 164 153 143
5.804824e-002 6.360612e-001 -7.268665e+000 222 212 203
2.439192e-001 6.909330e-001 -7.176955e+000 190 181 172
-7.451384e-001 -1.823030e-001 -7.099898e+000 141 63 46
2.880825e-001 3.218672e-001 -7.037003e+000 162 150 138
7.530613e-001 5.016206e-001 -6.606233e+000 209 201 191
-1.709822e+000 -3.831024e+000 -1.061246e+001 29 25 26
-7.360869e-001 -3.352588e-001 -6.559680e+000 224 114 84
8.779680e-001 -6.873116e-001 -6.488936e+000 249 96 104
-2.130346e-001 9.542122e-001 -7.719473e+000 171 28 35
-2.748409e-001 -7.485119e-002 -6.861288e+000 84 20 11
-8.462187e-001 -3.325359e-001 -6.583704e+000 255 163 129
-3.011246e-001 -1.489104e-001 -6.746043e+000 116 44 32
-3.011246e-001 -1.489104e-001 -6.746043e+000 116 44 32
-1.536985e-001 -2.833047e-001 -6.889130e+000 240 231 226
-1.481311e-001 -1.958673e-001 -6.836795e+000 227 222 216
-6.069845e-002 -1.753049e-001 -6.825764e+000 253 248 242
2.008068e-001 -9.072793e-002 -6.844952e+000 221 214 206
8.533116e-001 5.903219e-001 -6.480906e+000 203 58 66
-4.017378e-001 -3.937363e-001 -6.679412e+000 198 194 187
-4.374950e-002 -4.931354e-001 -7.010977e+000 36 27 22
3.971823e-001 -6.586480e-001 -6.968229e+000 252 252 240
-1.390776e-002 1.249375e+000 -7.377125e+000 190 39 46
5.577618e-001 5.346390e-001 -6.811017e+000 171 159 145
6.883009e-001 5.705265e-001 -6.606626e+000 248 249 240
-3.730755e-001 -3.856362e-001 -6.695667e+000 222 213 207
7.833494e-001 4.202962e-001 -6.541254e+000 184 169 156
4.975881e-001 5.610782e-002 -6.692993e+000 191 181 168
4.314010e-001 -1.219665e-001 -6.719240e+000 217 210 200
5.795485e-001 -7.278077e-001 -6.789076e+000 56 42 40
5.795485e-001 -7.278077e-001 -6.789076e+000 56 42 40
-4.830105e-001 -2.741583e-002 -7.064005e+000 44 12 13
7.194629e-001 7.859789e-001 -6.624740e+000 88 7 15
-5.175772e-001 -3.525720e-001 -6.688785e+000 247 188 154
-6.280309e-002 -1.301855e-001 -6.813139e+000 239 232 229
-1.029592e-001 -3.164319e-001 -6.892769e+000 66 47 26
4.797177e-001 -1.281436e-001 -6.699594e+000 230 226 217
-4.360253e-001 8.086221e-001 -7.973955e+000 195 39 46
4.342521e-001 2.834090e-001 -7.000360e+000 141 129 119
7.764946e-001 6.854789e-001 -6.529386e+000 237 81 90
-8.074008e-001 -1.859387e-001 -6.510330e+000 74 22 10
-1.818705e-001 -9.718102e-002 -6.831448e+000 207 188 180
7.334312e-001 5.345800e-001 -6.596707e+000 253 253 251
-5.443308e-001 -3.460442e-001 -6.732950e+000 247 184 142
-3.880566e-001 -3.901131e-001 -6.700454e+000 190 178 171
-3.412205e-001 -3.260235e-001 -6.719686e+000 167 144 133
4.096876e-001 -3.899167e-001 -6.807772e+000 254 252 203
9.971410e-001 1.897221e-001 -6.356734e+000 207 45 57
-1.717227e-001 3.826065e-001 -7.521525e+000 133 121 109
3.145674e-001 4.470900e-001 -7.117712e+000 187 177 168
4.314105e-001 2.880744e-001 -6.994907e+000 141 130 119
6.905083e-001 7.202215e-001 -6.565464e+000 243 82 92
8.853798e-001 -5.264443e-001 -6.505327e+000 244 230 198
8.467482e-002 1.288270e+000 -7.324359e+000 14 3 9
-4.640930e-001 5.493449e-001 -7.994714e+000 188 177 168
-3.834342e-001 2.647084e-001 -7.975201e+000 42 31 29
1.558737e-001 5.014740e-001 -7.165360e+000 231 222 216
5.108973e-001 -7.701197e-001 -6.889030e+000 254 255 247
1.053146e+000 1.467347e-001 -6.311929e+000 221 60 68
9.985548e-001 -2.166277e-001 -6.389343e+000 77 11 15
-1.426788e-001 6.427088e-001 -7.444085e+000 169 160 145
-1.453241e-001 6.487607e-001 -7.430721e+000 169 160 145
3.315550e-001 -3.763647e-001 -6.927338e+000 80 62 41
8.171533e-001 3.119861e-001 -6.476898e+000 255 251 246
9.254083e-001 -6.150289e-001 -6.490608e+000 172 35 40
5.399318e-001 5.227162e-001 -6.780442e+000 136 122 111
-3.233841e-002 -4.834204e-002 -6.899871e+000 136 119 111
-3.322924e-001 -3.747958e-001 -6.765046e+000 169 151 137
3.300500e-001 -5.242000e-001 -6.854170e+000 254 255 246
9.456133e-001 -6.969173e-002 -6.432699e+000 233 226 218
-6.606157e-001 -1.663197e-001 -6.786496e+000 63 22 19
6.766254e-001 5.049307e-001 -6.610624e+000 255 255 251
-4.511140e-002 2.439084e-002 -7.379588e+000 118 104 93
-4.054070e-001 1.548907e-001 -7.876279e+000 39 30 28
1.965400e-001 -2.612062e-001 -6.940529e+000 243 234 225
-7.131097e+000 -6.259775e+000 -2.234377e+001 135 124 120
-4.482409e+000 -6.688152e+000 -1.502915e+001 111 109 122
-4.732262e+000 -6.559438e+000 -1.507405e+001 165 163 172
-4.287220e-001 -4.358741e-002 -6.821847e+000 117 51 38
-1.277235e-001 1.017654e-002 -6.881451e+000 131 116 109
-1.938807e+000 -3.221157e+000 -1.071337e+001 41 35 39
6.223962e-001 2.145757e-001 -6.771754e+000 184 176 165
1.009499e+000 1.313643e-001 -6.363369e+000 227 69 77
1.009417e+000 1.295273e-001 -6.364792e+000 227 69 77
-5.175227e+000 -1.245426e+001 -1.790017e+001 43 59 116
5.553887e-001 5.670179e-001 -6.844642e+000 157 147 136
3.358640e-001 1.772364e-001 -7.023495e+000 131 115 100
1.064288e+000 1.794231e-001 -6.284411e+000 207 52 57
2.202771e-001 9.621278e-001 -7.208345e+000 203 196 188
2.193310e-001 9.628797e-001 -7.205442e+000 203 196 188
-2.245145e-001 1.255782e-001 -7.097299e+000 129 115 104
-1.851968e-001 6.764885e-002 -6.923202e+000 126 112 103
-1.851968e-001 6.764885e-002 -6.923202e+000 126 112 103
1.603441e-001 1.519421e-001 -6.910557e+000 197 187 175
6.214812e-003 6.173981e-001 -7.311796e+000 210 201 191
2.896713e-001 1.096370e+000 -7.125187e+000 209 42 51
-2.750567e-001 1.144068e-002 -6.933211e+000 108 90 76
-2.752290e-001 1.461719e-002 -6.930215e+000 108 90 76
8.494820e-001 5.907351e-001 -6.477753e+000 203 58 65
-2.143266e-001 8.138637e-001 -7.713005e+000 209 200 191
-1.794123e-001 9.133803e-001 -7.603216e+000 187 175 163
-1.597669e-001 4.776798e-001 -7.444480e+000 157 147 137
-2.603478e-001 -2.032559e-001 -7.675721e+000 202 195 182
-2.182699e-001 1.568551e-001 -7.224136e+000 120 106 95
7.516421e-001 7.854219e-001 -6.582173e+000 122 32 36
-6.741099e-001 -2.836144e-001 -6.549856e+000 49 19 16
8.067944e-001 5.400828e-002 -6.793868e+000 239 233 221
5.513310e-001 -5.953558e-001 -6.833035e+000 246 233 178
-5.970123e-001 5.652034e-001 -8.167565e+000 185 42 46
2.267403e-002 1.287984e+000 -7.328397e+000 81 18 27
-1.388428e-001 6.332144e-001 -7.426650e+000 168 159 145
-2.086831e+000 -2.785743e+000 -1.084142e+001 45 39 41
-1.990886e-001 4.367070e-001 -7.598572e+000 173 165 152
-2.885827e-001 -1.286807e-002 -7.845197e+000 107 58 49
-1.949138e-001 3.305681e-001 -7.477710e+000 156 146 134
2.435206e-001 6.594893e-001 -7.266856e+000 219 215 206
5.137919e-001 1.087068e+000 -6.821606e+000 200 52 61
-2.953853e-001 -1.971482e-001 -7.703794e+000 176 169 155
-2.321683e-001 1.596006e-001 -7.239907e+000 152 138 127
-1.746954e+000 -3.673007e+000 -1.048693e+001 62 56 58
-1.743830e+000 -3.821148e+000 -1.060601e+001 64 58 60
-2.508229e-001 1.368784e-001 -6.980180e+000 101 84 76
-5.970408e-001 -7.492530e-002 -6.751870e+000 104 43 33
-9.218468e-001 -2.875068e-001 -6.635290e+000 48 16 11
-1.591737e-001 5.478817e-002 -6.883801e+000 139 127 116
3.529997e-001 1.790059e-001 -7.043518e+000 150 137 120
5.355436e-001 5.301714e-001 -6.790653e+000 126 114 99
-5.866744e-002 -1.787687e-001 -6.830006e+000 252 247 243
-1.539498e+000 -4.520752e+000 -1.017842e+001 45 41 38
3.968436e-001 8.794343e-002 -6.825900e+000 180 168 154
-1.463652e+000 -4.847802e+000 -1.021983e+001 62 54 52
8.063049e-001 5.142665e-001 -6.560444e+000 166 31 38
1.038769e+000 -4.870582e-001 -6.318469e+000 227 95 99
-2.683110e-001 4.949401e-001 -7.725133e+000 224 217 207
1.213585e-001 9.788504e-001 -7.259078e+000 212 205 197
1.213585e-001 9.788504e-001 -7.259078e+000 212 205 197
-2.095260e+000 -3.017014e+000 -1.063368e+001 60 54 54
-2.392027e-001 2.192372e-001 -7.685037e+000 207 189 185
-1.729559e+000 -3.615244e+000 -1.051665e+001 25 19 21
-3.396711e-002 2.405633e-001 -7.137836e+000 121 112 98
-1.685148e+000 -3.699022e+000 -1.055235e+001 53 49 50
-1.679924e+000 -3.635181e+000 -1.047744e+001 53 49 50
-1.879707e-001 9.751166e-002 -7.042264e+000 154 138 127
4.878429e-001 5.062091e-001 -6.915331e+000 160 150 138
7.230988e-001 8.185373e-001 -6.611221e+000 159 45 49
-3.881936e-001 -1.658765e-001 -6.706887e+000 122 30 17
1.781796e-001 2.605305e-002 -6.866654e+000 194 184 175
8.086049e-001 5.496521e-001 -6.532775e+000 217 71 78
-1.239983e+000 -5.307796e+000 -1.023423e+001 73 68 71
1.038119e+000 -4.439714e-001 -6.305340e+000 153 33 37
-2.965312e-001 1.728490e-001 -7.894240e+000 215 73 82
-1.916933e-001 2.438162e-001 -7.394467e+000 174 161 145
-5.033425e-002 4.255314e-001 -7.280548e+000 148 136 124
-2.345280e-001 -1.399555e-001 -7.682035e+000 174 166 153
-4.528277e-001 3.272096e-003 -7.072165e+000 92 38 33
4.625964e-002 -5.485149e-002 -6.899154e+000 164 154 144
4.625964e-002 -5.485149e-002 -6.899154e+000 164 154 144
4.979790e-001 2.093099e-002 -6.699971e+000 198 188 179
5.296841e-001 2.015114e-002 -6.704213e+000 173 161 149
3.370932e-001 -4.470414e-001 -6.911323e+000 119 102 62
-1.610700e-001 4.344745e-001 -7.542826e+000 148 138 126
-3.102097e-001 2.524009e-002 -6.945286e+000 68 23 18
-7.640243e-001 -2.162049e-001 -6.534924e+000 163 82 52
2.004781e-001 5.757161e-002 -6.868781e+000 171 159 147
5.673092e-001 4.427275e-003 -6.686268e+000 197 187 177
4.353964e-001 -1.086270e+000 -7.295463e+000 245 230 171
4.287739e-001 -5.154866e-001 -6.910373e+000 78 60 27
8.019458e-001 2.028350e-001 -6.501298e+000 254 254 246
-1.625298e-001 2.652982e-001 -7.332576e+000 131 117 101
5.509658e-001 1.562173e-001 -6.891916e+000 158 150 139
4.860911e-001 -4.485974e-001 -6.825365e+000 114 96 56
9.264143e-001 2.506673e-001 -6.455455e+000 232 71 79
3.456480e-001 1.021966e+000 -7.001899e+000 240 236 232
5.478628e-001 8.990218e-001 -6.814932e+000 217 57 64
9.981480e-001 -7.686117e-001 -6.490808e+000 244 88 99
-7.724496e-002 1.241357e+000 -7.460214e+000 24 17 18
1.613871e-001 2.707676e-001 -7.049243e+000 136 124 110
5.666054e-001 -5.336907e-001 -6.802193e+000 232 215 159
5.487703e-001 -5.030620e-001 -6.771466e+000 232 215 159
-1.394427e-001 1.048399e+000 -7.490521e+000 144 26 31
-5.405186e-002 7.301550e-001 -7.321144e+000 222 218 209
-5.405186e-002 7.301550e-001 -7.321144e+000 222 218 209
2.607171e-001 8.244544e-001 -7.092056e+000 155 146 131
6.282293e-001 -1.929120e-001 -6.666299e+000 251 248 243
9.297288e-001 -4.242304e-001 -6.442718e+000 216 197 138
9.832702e-003 1.273279e+000 -7.370160e+000 81 15 23
-1.850368e-001 9.623941e-001 -7.444996e+000 178 159 153
-1.452196e-001 8.355433e-001 -7.412787e+000 198 191 181
-2.058194e-001 3.686431e-001 -7.581344e+000 212 201 189
-1.493627e-001 4.784394e-001 -7.516508e+000 165 153 138
-2.383196e-001 -1.525371e-002 -7.753325e+000 159 85 79
-7.734698e-001 -2.922751e-001 -7.059141e+000 38 28 28
-1.787846e-001 1.019310e-001 -7.107217e+000 107 90 80
-5.144397e-001 -2.161609e-001 -6.700593e+000 236 131 101
-5.227929e-001 -2.446617e-001 -6.663131e+000 126 21 1
-4.413460e-001 -1.213352e-001 -6.693378e+000 120 29 12
2.441239e-002 -2.261318e-002 -6.908168e+000 190 177 168
7.569856e-002 -7.965922e-002 -6.940942e+000 170 157 147
-4.965449e-001 -3.842946e-001 -6.692126e+000 95 90 90
-4.644563e-001 -3.860022e-001 -6.675259e+000 212 200 178
-3.162862e-001 -3.738930e-001 -6.761104e+000 175 150 146
-1.223899e-001 -2.937295e-001 -6.857086e+000 163 146 127
9.592914e-002 -5.324577e-001 -7.055989e+000 155 138 120
3.582774e-001 -7.450634e-002 -6.807464e+000 254 250 241
5.495646e-001 7.976264e-002 -6.764513e+000 192 180 166
2.660634e-001 -4.175658e-001 -6.772887e+000 225 219 207
2.660634e-001 -4.175658e-001 -6.772887e+000 225 219 207
4.918865e-001 -1.120136e-001 -6.717015e+000 222 217 211
-1.111522e-001 7.679991e-001 -7.544347e+000 217 210 200
-1.123651e-001 6.778506e-001 -7.414237e+000 164 153 141
-1.142548e-001 4.359120e-001 -7.437605e+000 168 156 147
-2.232991e-001 -1.905657e-002 -7.720095e+000 155 125 114
-1.852893e-001 3.296825e-001 -7.453461e+000 163 151 141
-3.210371e-001 1.118599e-001 -6.957592e+000 121 63 51
-2.953516e-001 7.509226e-002 -6.982296e+000 83 42 40
-3.058234e-001 2.754241e-002 -6.927052e+000 67 27 25
8.493865e-003 2.679174e-001 -6.988163e+000 161 149 136
-1.302466e-001 4.784912e-002 -6.935030e+000 133 120 110
-9.092990e-002 6.044869e-002 -6.928510e+000 137 124 114
-9.686849e-001 -2.342180e-001 -6.523568e+000 146 128 79
-9.686849e-001 -2.342180e-001 -6.523568e+000 146 128 79
-2.912584e-001 -1.552239e-001 -6.775434e+000 114 54 44
-1.772297e-001 -2.813880e-001 -6.896755e+000 87 68 37
1.520629e-002 -3.152900e-002 -6.924735e+000 140 123 116
-7.341636e-001 -3.335466e-001 -6.562615e+000 213 115 70
3.891069e-001 1.050766e-001 -6.844160e+000 166 150 136
-2.923959e-001 -4.092819e-001 -6.772622e+000 252 250 246
-3.206266e-001 -4.075847e-001 -6.744442e+000 229 220 215
3.658087e-001 -2.360784e-001 -6.926362e+000 254 255 247
4.067851e-001 -9.815546e-002 -6.797291e+000 235 231 222
5.250270e-001 7.397856e-002 -6.731435e+000 185 176 161
4.946329e-001 -4.769224e-001 -6.981791e+000 155 139 123
3.929494e-001 -5.527938e-001 -6.935880e+000 229 225 211
3.658404e-001 -5.068235e-001 -6.892553e+000 229 225 211
5.355743e-001 -4.631890e-001 -6.869084e+000 179 172 146
4.792170e-001 -2.559090e-001 -6.805223e+000 177 171 159
9.782029e-001 4.061599e-001 -6.399232e+000 214 70 78
1.019390e+000 3.862935e-001 -6.379982e+000 75 69 66
9.894365e-001 3.580605e-001 -6.348486e+000 239 89 101
7.782440e-001 -1.759369e-001 -6.159895e+000 205 186 130
1.102592e+000 5.361953e-002 -6.258531e+000 226 85 101
1.111905e+000 1.266509e-001 -6.215568e+000 80 71 72
1.111905e+000 1.266509e-001 -6.215568e+000 80 71 72
1.000483e+000 -4.144459e-001 -6.332750e+000 169 147 98
-2.897536e-002 1.082834e+000 -7.361492e+000 210 201 197
-2.133285e-001 6.097110e-001 -7.600717e+000 168 157 144
2.935410e-001 1.184757e+000 -7.086393e+000 222 62 70
2.935410e-001 1.184757e+000 -7.086393e+000 222 62 70
-9.265262e-001 -2.669195e-001 -6.651381e+000 33 9 12
-2.329692e-001 4.520484e-002 -6.905471e+000 131 119 108
2.542639e-001 2.999163e-001 -6.966046e+000 149 135 124
2.542639e-001 2.999163e-001 -6.966046e+000 149 135 124
-9.349361e-001 -1.823153e-001 -6.459459e+000 117 93 57
-9.071728e-001 -2.184356e-001 -6.511448e+000 55 27 11
5.577166e-001 6.057149e-001 -6.812363e+000 209 204 190
-8.234066e-001 -1.866580e-001 -6.478548e+000 187 159 114
-3.150548e-001 -1.912251e-001 -6.729251e+000 238 123 103
-3.150548e-001 -1.912251e-001 -6.729251e+000 238 123 103
-1.519126e-001 -2.871313e-001 -6.892684e+000 243 236 228
-1.439183e-001 -2.031310e-001 -6.847042e+000 226 221 216
-9.197631e-002 -4.261177e-001 -6.953122e+000 248 241 231
-1.033291e-001 -2.961401e-001 -6.876385e+000 71 53 29
7.409195e-001 6.910079e-001 -6.448041e+000 195 43 55
8.938722e-001 4.940047e-001 -6.630149e+000 181 35 45
8.878636e-001 4.971164e-001 -6.415033e+000 17 7 18
5.571496e-001 -6.784613e-001 -6.804779e+000 177 159 139
6.488026e-001 -3.481325e-001 -6.692775e+000 158 147 129
9.328179e-001 2.025214e-001 -6.433205e+000 232 68 73
9.740191e-001 -5.416719e-001 -6.336157e+000 180 33 44
1.263337e+000 5.728664e-001 -6.002286e+000 71 62 63
-1.409044e-001 1.181826e+000 -7.490068e+000 208 70 75
-2.185646e-001 3.614960e-001 -7.576420e+000 198 190 178
-1.718040e-001 4.427007e-001 -7.463925e+000 177 165 153
-2.291699e-001 -1.230019e-001 -7.521696e+000 194 188 174
-2.102781e-001 -4.802106e-002 -6.858568e+000 145 111 102
2.178350e-001 -1.804586e-001 -6.875031e+000 224 218 206
