ply
format ascii 1.0
element face 0
property list uchar int vertex_indices
element vertex 867
property float x
property float y
property float z
property uchar diffuse_red
property uchar diffuse_green
property uchar diffuse_blue
end_header
-4.741350e-001 7.352069e-001 -7.969744e+000 178 38 48
-3.421297e-002 1.321101e+000 -7.382429e+000 200 53 55
1.207189e-001 5.973921e-001 -7.182212e+000 149 137 121
4.154978e-001 7.091201e-001 -6.953659e+000 252 245 237
7.714803e-001 8.964915e-001 -6.613928e+000 40 26 27
6.888286e-001 -6.769979e-001 -6.740512e+000 213 202 182
8.961413e-001 2.085133e-001 -6.465892e+000 175 157 145
9.503898e-001 -2.244732e-001 -6.437910e+000 216 202 193
1.311349e+000 -2.486623e-001 -6.134490e+000 250 242 186
8.955249e-001 8.809209e-002 -6.540779e+000 230 224 212
-2.531820e-001 -3.610459e-001 -7.708852e+000 238 231 220
6.666037e-001 7.649478e-001 -6.730361e+000 216 209 198
-5.661459e-001 -8.848543e-002 -6.727033e+000 117 27 18
8.963360e-001 -2.853900e-001 -6.442167e+000 85 70 54
-2.078152e-001 9.444478e-001 -7.667603e+000 174 158 147
7.192811e-001 5.358567e-001 -6.596494e+000 254 251 244
-2.824094e-001 -1.303532e-001 -7.808587e+000 208 201 185
1.156781e+000 -6.564244e-002 -6.273011e+000 180 46 54
-2.055995e-001 7.366456e-001 -7.637512e+000 224 217 207
-2.059426e-001 4.547926e-002 -7.676300e+000 124 59 57
-1.680230e-001 5.112272e-001 -7.484243e+000 181 168 152
-8.397345e-001 -3.024690e-001 -7.029972e+000 210 139 115
-9.720084e-001 -3.666884e-001 -6.718676e+000 218 193 173
-9.693330e-001 -3.469650e-001 -6.728780e+000 130 47 25
-3.229785e-001 1.079828e-001 -7.056137e+000 81 40 31
2.201688e-001 1.347789e+000 -7.139868e+000 182 42 51
-7.489896e-001 -2.991785e-001 -6.501825e+000 45 15 13
-7.435503e-001 -2.942322e-001 -6.486885e+000 163 160 148
1.960261e-001 1.293799e-001 -6.911422e+000 183 171 156
1.960261e-001 1.293799e-001 -6.911422e+000 183 171 156
3.520493e-001 -3.664101e-002 -6.772168e+000 254 245 236
6.550645e-001 -1.253716e+000 -7.080042e+000 127 126 122
5.095916e-001 -4.715476e-001 -6.901142e+000 154 137 115
7.198873e-001 -1.529542e+000 -7.070133e+000 157 159 156
7.777682e-001 -1.505567e+000 -6.980586e+000 174 176 175
7.995884e-001 7.414811e-001 -6.540354e+000 250 75 85
1.015910e+000 -1.767649e+000 -6.783088e+000 183 183 185
1.106381e+000 -3.033386e+000 -6.798381e+000 162 157 163
1.106381e+000 -3.033386e+000 -6.798381e+000 162 157 163
1.044954e+000 -1.808934e+000 -6.738253e+000 182 181 187
1.003961e+000 -1.163616e+000 -6.659953e+000 171 166 170
9.263565e-001 6.616040e-001 -6.486546e+000 81 68 68
9.988769e-001 -4.421062e-003 -6.317020e+000 232 92 100
1.356343e+000 -6.085935e-001 -6.117268e+000 155 149 153
-3.322106e-001 6.547359e-001 -7.790908e+000 237 233 222
-1.277360e-001 8.280063e-001 -7.431210e+000 212 202 193
-2.487780e-001 -1.438028e-001 -7.634381e+000 178 165 150
1.268669e-001 1.023613e+000 -7.288814e+000 217 210 200
4.828295e-002 6.740886e-001 -7.278246e+000 237 229 218
-9.870351e-001 -3.677536e-001 -6.728033e+000 39 17 15
-2.391492e-001 1.538325e-001 -7.086243e+000 140 124 111
-3.468218e-002 -3.788831e+000 -8.357954e+000 184 192 194
-4.376110e-001 -8.769048e-002 -6.813841e+000 82 18 14
-4.375139e-001 -5.297297e-002 -6.801664e+000 87 23 13
-3.656249e-001 -4.688586e-002 -6.934569e+000 53 13 13
-5.227724e-001 -2.224790e-001 -6.675653e+000 250 148 120
3.193351e-001 2.451874e-001 -6.984853e+000 159 142 126
3.776490e-001 -5.353385e-001 -6.950614e+000 168 148 111
6.590015e-001 9.984068e-001 -6.683816e+000 216 73 82
9.022340e-001 -2.306386e+000 -6.929056e+000 170 170 172
9.035438e-001 -1.365449e+000 -6.880523e+000 169 169 169
6.730408e-001 -3.083053e-001 -6.639141e+000 183 171 159
9.935741e-001 -1.848713e+000 -6.848043e+000 153 154 156
8.507881e-001 7.504241e-001 -6.515339e+000 76 63 64
1.216642e+000 -2.461657e+000 -6.519645e+000 167 165 168
1.038115e+000 -4.387292e-001 -6.300906e+000 191 168 118
1.302333e+000 -2.265873e-001 -6.092807e+000 149 140 141
1.350355e+000 -1.752850e-001 -6.119706e+000 142 138 138
-3.704218e-001 2.881825e-001 -8.029623e+000 56 47 42
-3.302509e-001 6.736136e-002 -7.855307e+000 153 25 32
-1.664346e-001 5.874617e-001 -7.623942e+000 204 194 182
-2.885071e-002 1.130494e+000 -7.425886e+000 223 207 194
4.310577e-003 1.341427e+000 -7.373671e+000 75 8 16
-2.089927e-001 5.271681e-001 -7.459505e+000 147 134 119
3.808031e-002 6.193591e-001 -7.293919e+000 214 205 194
-8.436707e-001 -2.401055e-001 -6.461775e+000 47 11 17
4.858776e-001 1.250839e+000 -6.932151e+000 72 58 55
7.198438e-001 -1.577122e+000 -7.145353e+000 158 163 157
5.499718e-001 -3.297719e-001 -6.833132e+000 180 169 149
6.702804e-001 -1.104922e+000 -7.014956e+000 154 153 149
5.399198e-001 -3.217781e-001 -6.784487e+000 254 250 238
7.317653e-001 9.205448e-001 -6.645728e+000 213 70 78
7.730832e-001 8.817496e-001 -6.598182e+000 23 14 17
9.795184e-001 -1.865171e+000 -6.826039e+000 179 180 182
9.591172e-001 -1.739800e+000 -6.808234e+000 190 190 192
7.157252e-001 -3.925126e-001 -6.498564e+000 231 211 155
1.146106e+000 6.076043e-003 -6.218292e+000 229 103 110
-2.330980e-001 2.834003e-001 -7.392506e+000 177 165 149
3.133721e-001 1.257657e+000 -7.074216e+000 209 49 61
6.092468e-001 -4.977592e-001 -6.832394e+000 214 209 190
8.049716e-001 -7.275366e-001 -6.653867e+000 254 253 249
-5.924448e-001 5.708400e-001 -8.176081e+000 230 75 79
-1.150066e-001 7.470466e-001 -7.477488e+000 136 123 110
-1.168556e-001 7.943088e-001 -7.400602e+000 169 155 143
-4.669609e-001 -1.364854e-001 -7.237011e+000 124 117 119
-4.801068e-001 -1.386252e-002 -7.091994e+000 90 38 25
-4.836337e-001 -8.724058e-003 -7.088206e+000 90 38 25
3.350900e-001 1.295941e+000 -7.041340e+000 229 73 86
-8.521425e-001 -2.444092e-001 -6.506239e+000 51 22 10
1.324623e-001 -5.018580e-002 -6.846142e+000 254 255 243
4.758689e-001 3.623642e-001 -6.977391e+000 211 201 192
6.968490e-001 -9.186514e-001 -6.805389e+000 169 51 49
8.390099e-001 -1.762789e+000 -6.920781e+000 156 158 157
8.324538e-001 -7.552058e-001 -6.627342e+000 220 211 196
1.341527e+000 -4.971096e-001 -6.144235e+000 127 123 124
-2.130200e-001 3.818708e-001 -7.587254e+000 147 134 117
-5.519833e-001 -1.357198e-001 -7.241502e+000 129 127 126
-6.906366e-001 -2.517259e-001 -6.612514e+000 149 70 48
3.594971e-001 1.086071e+000 -7.016489e+000 249 241 239
6.560424e-002 -1.562308e-002 -6.912645e+000 141 128 115
6.560424e-002 -1.562308e-002 -6.912645e+000 141 128 115
4.381804e-001 7.782209e-001 -6.994288e+000 249 245 236
4.013706e-001 -6.410262e-001 -6.878920e+000 228 222 210
5.078966e-001 -2.495587e-001 -6.749192e+000 253 246 236
6.954937e-001 -8.354761e-001 -6.732061e+000 248 237 228
6.797829e-001 -8.141788e-001 -6.722409e+000 248 237 228
6.862753e-001 -1.278439e-001 -6.582319e+000 245 241 232
1.076047e+000 -5.879857e-001 -6.349473e+000 178 35 39
1.154028e+000 3.900190e-002 -6.243892e+000 125 15 24
1.154028e+000 3.900190e-002 -6.243892e+000 125 15 24
1.331876e+000 -4.264008e-001 -6.139990e+000 255 251 205
-3.010138e-001 -3.826626e-001 -7.835988e+000 223 216 205
-2.536002e-001 -1.044232e-001 -6.825623e+000 94 33 32
-3.234569e-001 -2.200201e-001 -6.658670e+000 112 25 18
-3.129743e-001 5.726893e-001 -7.764084e+000 229 222 212
-6.059831e-001 -3.026711e-001 -6.648224e+000 246 208 163
-1.564339e-001 -1.497362e-001 -6.822688e+000 253 246 240
1.376733e-001 2.062374e-001 -6.993659e+000 222 214 203
-4.777864e-001 8.932760e-001 -7.956674e+000 215 62 67
-5.264443e-001 5.603898e-001 -8.041504e+000 194 184 172
-6.215979e-001 6.613691e-001 -8.111964e+000 202 46 50
-2.295644e-001 1.295773e-001 -7.646711e+000 88 17 24
-2.295644e-001 1.295773e-001 -7.646711e+000 88 17 24
-1.589429e-001 9.229672e-001 -7.422620e+000 229 222 212
5.358353e-001 6.085626e-001 -6.926620e+000 233 226 216
1.260075e+000 -3.273817e-001 -6.179586e+000 255 251 203
5.000922e-001 1.220047e-001 -6.750227e+000 154 141 123
9.438938e-001 6.943501e-002 -6.495561e+000 253 246 240
-3.940758e-001 1.040299e+000 -7.911435e+000 21 12 15
1.482370e-001 1.320657e+000 -7.467496e+000 16 7 10
-3.670115e-001 6.341332e-001 -7.824743e+000 226 220 208
-1.387356e+000 -1.197119e+001 -1.089180e+001 96 98 111
7.683082e-001 6.007233e-001 -6.585949e+000 244 76 87
-8.053020e-002 8.139205e-001 -7.606611e+000 222 214 203
-7.158149e-002 3.595225e-001 -7.315029e+000 145 132 115
-1.825820e-001 6.681811e-001 -7.476680e+000 168 155 141
1.052119e+000 -1.022943e+000 -6.578261e+000 142 141 139
5.974104e-001 5.510050e-001 -6.822112e+000 170 158 142
-2.601930e-001 -2.335102e-001 -7.762995e+000 178 166 150
-2.226477e-001 2.823744e-001 -7.580975e+000 175 163 151
-1.228883e-001 7.839184e-001 -7.435415e+000 187 175 161
2.074814e-001 1.173630e+000 -7.221502e+000 216 61 69
1.201927e-001 -3.766090e+000 -8.200317e+000 179 188 183
-6.181545e-001 -7.489760e-002 -6.755323e+000 83 19 10
-3.160100e-001 1.577013e-003 -6.942048e+000 63 23 19
7.248843e-001 -1.617489e+000 -7.122155e+000 116 122 118
-6.578513e-001 6.328764e-001 -8.227968e+000 44 33 30
-4.114104e-001 7.784590e-001 -7.861237e+000 169 155 139
-2.212843e-001 1.459775e-001 -7.226521e+000 152 136 121
-2.212843e-001 1.459775e-001 -7.226521e+000 152 136 121
-2.158641e-001 1.562527e-001 -7.235910e+000 121 105 90
2.387642e-001 2.976402e-001 -7.037586e+000 145 131 118
3.097514e-001 2.532898e-001 -6.984267e+000 159 142 126
6.516475e-001 -8.928920e-002 -6.637727e+000 239 231 220
1.028046e+000 -2.990596e+000 -6.916084e+000 164 162 165
8.687509e-001 5.897837e-001 -6.519957e+000 192 49 57
1.023469e+000 -2.605321e-001 -6.404696e+000 139 113 100
-1.514401e-001 6.047491e-001 -7.612394e+000 191 179 165
-1.988460e-001 3.556364e-001 -7.467572e+000 172 158 145
4.645703e-001 2.211992e-003 -6.723714e+000 177 166 147
8.901208e-001 -2.817457e-001 -6.481985e+000 158 141 129
9.692060e-001 -3.785776e-001 -6.324304e+000 227 205 154
1.037732e+000 -6.461182e-001 -6.339452e+000 235 106 111
8.247154e-002 6.121435e-001 -7.229787e+000 158 145 129
5.166645e-001 5.271882e-001 -6.923494e+000 166 157 144
6.294455e-001 7.649822e-001 -6.788180e+000 193 183 174
1.764438e+000 -1.098546e+001 -6.570797e+000 99 102 133
1.446140e+000 -1.043502e+001 -6.635816e+000 108 113 143
-4.945302e-001 7.551488e-001 -7.946254e+000 179 40 48
2.727288e-001 1.188806e+000 -7.126359e+000 217 62 68
-5.097297e-001 5.598554e-001 -8.043703e+000 195 185 173
2.764040e-001 8.636049e-001 -7.111668e+000 156 144 130
-4.294208e-001 9.912132e-001 -7.831423e+000 177 41 54
-1.748805e-001 -2.185703e+000 -8.300130e+000 153 160 152
-1.845149e-001 1.241373e-001 -7.705545e+000 140 35 37
-8.302028e-001 -3.027846e-001 -7.045249e+000 102 34 16
-3.146519e-002 1.343446e+000 -7.358193e+000 175 36 46
-8.070715e-001 -2.878637e-001 -7.023112e+000 160 166 153
-7.963715e-001 -2.042256e-001 -7.036057e+000 172 80 53
-2.820291e-001 1.285359e-001 -7.285718e+000 123 106 94
-1.361349e-001 1.549843e-001 -7.167628e+000 119 103 88
-7.796705e-002 2.294656e-001 -7.161229e+000 153 137 122
-3.425908e-001 2.543893e-002 -6.907485e+000 107 79 68
-1.988538e-001 8.071260e-002 -6.934670e+000 156 140 127
-5.684542e-002 3.067341e-002 -6.935130e+000 182 168 156
-3.796720e-002 2.574044e-002 -6.912500e+000 143 130 117
2.886270e-002 -2.012539e-001 -6.842158e+000 212 199 184
7.060775e-001 -1.961227e+000 -7.195419e+000 137 137 139
7.558836e-001 -1.988745e+000 -7.189590e+000 132 133 135
6.637861e-001 -1.600237e+000 -7.116286e+000 183 183 183
6.024984e-001 -7.093283e-001 -6.815729e+000 236 219 199
9.160422e-001 -4.995446e-001 -6.600191e+000 172 152 126
1.029288e+000 4.729620e-001 -6.573224e+000 218 75 79
1.108331e+000 -5.477093e-001 -6.313697e+000 203 124 111
1.437788e+000 -1.147709e+000 -6.135300e+000 143 137 137
1.387651e+000 -5.507948e-001 -6.123153e+000 167 161 161
-5.905986e-001 5.932700e-001 -8.089774e+000 238 75 81
-2.622265e-001 -6.846238e-003 -7.786483e+000 169 95 86
-2.244975e-001 -2.481574e+000 -8.423642e+000 155 162 155
-1.554225e-001 -1.646487e+000 -8.167997e+000 165 169 163
-1.580567e-001 -8.842334e-001 -8.041204e+000 140 140 132
-1.580567e-001 -8.842334e-001 -8.041204e+000 140 140 132
-1.706281e-001 5.698373e-001 -7.579788e+000 169 156 140
-1.246525e-001 8.229797e-001 -7.501753e+000 209 199 187
-2.396027e-001 -1.535860e-001 -7.456664e+000 246 242 229
-5.097157e-001 -5.214221e-002 -7.026862e+000 82 41 36
-2.210669e-001 1.971494e-001 -7.177236e+000 155 137 124
1.468287e-001 9.972571e-001 -7.287821e+000 214 205 196
1.445651e-001 9.999520e-001 -7.286176e+000 214 205 196
-1.034377e+000 -2.591879e-001 -6.496882e+000 177 159 132
-2.454342e-001 1.350097e-001 -6.988718e+000 113 95 83
1.905738e-001 2.591535e-001 -7.043881e+000 133 117 101
3.189857e-001 1.289088e+000 -7.060386e+000 201 47 54
3.383393e-001 2.085402e-001 -6.975536e+000 137 119 104
7.307445e-001 -2.652144e+000 -7.308470e+000 188 186 187
1.007727e+000 -2.644083e+000 -6.929118e+000 159 157 162
7.347054e-001 -6.559586e-001 -6.725203e+000 255 255 210
6.862684e-001 6.456810e-001 -6.641428e+000 155 132 116
8.458696e-001 1.034110e-001 -6.599499e+000 247 240 230
1.044062e+000 -1.129645e+000 -6.655934e+000 141 139 142
7.881864e-001 1.004564e+000 -6.555106e+000 67 55 55
8.911591e-001 5.568719e-001 -6.524037e+000 221 74 80
9.792168e-001 -3.884432e-001 -6.332151e+000 226 209 157
9.938693e-001 4.787498e-001 -6.376836e+000 227 75 88
1.099231e+000 -4.875586e-001 -6.268205e+000 175 43 49
1.557861e+000 -1.264436e+000 -6.092171e+000 130 126 125
1.431496e+000 -7.501902e-001 -6.092104e+000 168 164 163
1.271696e+000 -3.040000e-001 -6.098959e+000 155 144 141
1.505110e+000 -1.183082e+000 -6.049351e+000 121 117 114
-2.466050e-001 -2.204925e+000 -8.351791e+000 202 208 204
-1.795718e-001 7.132197e-001 -7.553875e+000 155 146 131
-9.919062e-001 -3.570926e-001 -6.701382e+000 34 8 3
2.069739e-001 9.126373e-001 -7.221462e+000 215 206 196
9.819477e-002 2.901601e-001 -7.025157e+000 145 127 107
1.307460e-001 -9.818826e-002 -6.837224e+000 219 210 194
4.611757e-001 -5.321691e-001 -6.916175e+000 203 186 139
5.018154e-001 -4.372206e-001 -6.800834e+000 145 122 78
8.112559e-001 -1.016425e+000 -6.779825e+000 132 123 124
7.310077e-001 -7.496511e-001 -6.532614e+000 138 136 141
7.771081e-001 -6.894834e-001 -6.638398e+000 253 253 244
8.148547e-001 -6.470177e-001 -6.628695e+000 254 243 184
1.635894e+000 -7.432252e+000 -6.282695e+000 56 54 65
1.057461e+000 -4.693901e-001 -6.290546e+000 252 230 176
1.159219e+000 5.689737e-002 -6.203284e+000 186 118 116
1.393472e+000 -5.312364e-001 -6.101028e+000 169 163 161
1.427453e+000 -7.623028e-001 -6.059113e+000 148 142 142
1.427453e+000 -7.623028e-001 -6.059113e+000 148 142 142
-3.443922e-001 2.235128e-002 -7.900930e+000 78 55 49
-2.275796e-001 1.146155e+000 -7.593452e+000 200 59 64
-2.995013e-001 2.773915e-001 -7.680224e+000 215 196 182
-1.800846e-001 -1.887686e+000 -8.331406e+000 154 159 153
-1.520394e-001 1.315537e-001 -7.724521e+000 130 15 23
-8.266500e-001 -3.215032e-001 -6.989994e+000 169 164 148
-7.975819e-001 -1.726150e-001 -6.974568e+000 97 29 16
-2.084629e-001 1.710637e-001 -7.326619e+000 122 105 94
6.026969e-002 1.189471e+000 -7.307687e+000 229 72 78
-1.033742e+000 -2.499693e-001 -6.513720e+000 62 27 13
-5.972061e-001 -2.673217e-001 -6.648909e+000 196 111 76
-2.246420e-001 -1.356665e-001 -6.822870e+000 95 25 19
4.462732e-001 -5.418864e-001 -6.861225e+000 132 111 77
4.851539e-001 -5.854019e-001 -6.883922e+000 132 111 77
7.162061e-001 7.539639e-001 -6.690492e+000 194 41 51
3.408885e+000 -1.121742e+001 -6.396842e+000 73 71 84
3.000785e+000 -9.220629e+000 -5.914707e+000 91 92 110
1.445331e+000 -7.649895e-001 -6.139099e+000 133 127 127
1.292762e+000 -1.336275e-001 -6.170689e+000 158 153 150
-1.910802e-001 1.081885e+000 -7.655558e+000 191 51 54
-2.004025e-001 4.458935e-001 -7.679377e+000 168 154 135
-2.436372e-001 -1.564168e-001 -6.800616e+000 246 244 229
2.675897e-001 -6.223726e-001 -6.902684e+000 248 247 236
2.675897e-001 -6.223726e-001 -6.902684e+000 248 247 236
7.128144e-001 -1.098199e+000 -6.958620e+000 169 167 169
8.967573e-001 -7.430966e-001 -6.510614e+000 249 242 236
1.059343e+000 4.935481e-001 -6.398132e+000 92 83 81
2.516464e+000 -1.077982e+001 -5.960682e+000 111 112 140
2.977483e+000 -9.403403e+000 -6.078866e+000 17 14 23
3.064942e+000 -9.652185e+000 -5.999482e+000 78 77 91
1.225931e+000 -1.162457e-001 -6.213192e+000 157 145 143
2.977143e+000 -1.029675e+001 -5.776044e+000 91 94 116
3.098394e+000 -1.029965e+001 -5.750719e+000 19 16 26
3.142644e+000 -1.016154e+001 -5.733604e+000 101 105 130
-4.894644e-001 5.168438e-001 -7.926014e+000 185 170 157
-2.766855e-001 5.148280e-001 -7.758669e+000 200 190 178
-2.146590e-001 3.374828e-001 -7.657959e+000 219 212 193
-1.425384e-001 7.182685e-001 -7.604344e+000 198 189 174
-4.170646e-001 -2.535468e-001 -6.689497e+000 144 29 20
4.619886e-001 4.364338e-001 -6.960094e+000 196 184 172
5.615393e-001 1.802336e-001 -6.870850e+000 169 157 143
1.322637e+000 -3.136760e-001 -6.101005e+000 160 153 154
-2.254257e-001 -1.216151e-001 -7.603543e+000 196 185 167
-7.565173e-001 -1.203598e-001 -7.135748e+000 80 23 13
-9.571700e-001 -2.913406e-001 -6.633054e+000 211 122 87
1.676771e-001 3.649780e-001 -7.083090e+000 210 202 187
8.662605e-002 -5.005480e-001 -6.897233e+000 255 255 245
4.544963e-001 1.204523e+000 -6.905794e+000 222 69 74
4.502256e-001 -4.642290e-001 -6.829293e+000 254 251 203
9.482428e-001 4.743475e-001 -6.375549e+000 232 85 86
-8.537863e-002 7.570097e-001 -7.360293e+000 233 225 214
2.443839e-001 -3.052734e-001 -6.864617e+000 101 79 56
-2.352236e-001 1.019352e+000 -7.699745e+000 200 53 60
-1.977695e-001 8.698479e-001 -7.542838e+000 229 221 208
1.299519e-001 5.739459e-002 -6.890909e+000 157 145 129
8.730307e-001 1.920585e-001 -6.547958e+000 252 251 241
-6.080390e-001 6.460886e-001 -8.131286e+000 207 52 56
-1.916595e-001 2.625337e-001 -7.670593e+000 199 187 173
-8.728270e-001 -1.788143e-001 -7.048324e+000 152 157 143
7.029467e-001 7.046822e-001 -6.628739e+000 149 35 40
8.055154e-001 6.896085e-001 -6.542487e+000 242 76 86
1.545831e-001 6.289768e-001 -7.212060e+000 155 140 126
-3.016444e-001 -5.121861e-002 -6.855854e+000 93 34 29
2.794891e-001 8.625735e-001 -7.117261e+000 156 142 129
8.375356e-001 5.195443e-001 -6.469970e+000 152 25 33
-2.817534e-001 1.292397e-001 -7.861410e+000 135 15 28
1.003890e+000 -4.178063e-002 -6.449249e+000 243 236 226
3.751334e-001 5.990773e-001 -7.053841e+000 230 222 211
4.571270e-001 8.727376e-001 -6.895798e+000 241 234 228
-1.176254e-001 1.304830e+000 -7.579141e+000 29 20 23
9.909150e-001 6.875735e-001 -6.579077e+000 83 69 66
-6.488921e-003 9.066924e-001 -7.037299e+000 216 208 195
-1.912230e-001 9.782942e-001 -7.670804e+000 214 207 190
-2.123486e-001 3.127834e-001 -7.507437e+000 163 151 137
-3.468159e-001 7.648716e-001 -7.837286e+000 211 200 188
-9.280710e-001 -3.742735e-001 -6.742581e+000 154 152 151
-1.971910e-001 1.691982e-001 -7.219820e+000 121 105 92
-5.978521e-001 -6.621192e-002 -6.742017e+000 144 70 54
5.864585e-001 7.389405e-001 -6.761451e+000 204 190 178
7.376774e-001 8.283467e-001 -6.551644e+000 167 54 60
1.369787e+000 -1.143719e+000 -6.236164e+000 135 131 132
1.095376e+000 9.888272e-002 -6.345428e+000 224 83 90
-1.697062e-001 6.241250e-001 -7.673857e+000 165 154 138
4.293013e-002 6.784701e-001 -7.277353e+000 229 221 210
-4.028569e-001 -2.030885e-001 -6.678625e+000 132 41 27
1.143398e+000 -8.848767e-001 -6.405665e+000 133 127 128
9.130790e-001 2.328661e-001 -6.473799e+000 249 239 232
-5.522024e-001 -2.217795e-001 -7.272743e+000 58 18 19
-5.522024e-001 -2.217795e-001 -7.272743e+000 58 18 19
4.671051e-001 5.269444e-001 -6.936641e+000 206 194 180
5.181934e-001 5.215669e-001 -6.971667e+000 171 161 149
6.369502e-001 -3.638378e-001 -6.714537e+000 177 165 146
6.775127e-001 8.048403e-001 -6.711688e+000 210 63 73
-3.964079e-001 3.212492e-001 -8.000082e+000 70 56 56
-3.112453e-001 -3.842760e-001 -7.928961e+000 98 88 85
-2.253700e-001 1.061730e-001 -7.083877e+000 110 92 80
-4.701421e-001 -4.164359e-001 -6.650240e+000 110 26 26
6.333979e-001 -8.413482e-001 -6.781253e+000 164 40 44
9.403272e-001 1.706173e-001 -6.440561e+000 246 237 228
9.754559e-001 2.634979e-001 -6.427088e+000 234 90 97
1.345966e+000 -2.682194e-001 -6.135124e+000 255 243 193
-9.333234e-002 4.712440e-001 -7.403402e+000 200 189 179
8.830027e-001 -8.772455e-001 -6.613620e+000 247 238 229
7.405475e-001 -2.998803e-001 -6.590349e+000 248 242 231
-2.317401e-002 1.177919e+000 -7.411477e+000 196 46 48
-9.844951e-001 -3.399460e-001 -6.694719e+000 114 59 47
-7.032992e-001 -2.647540e-001 -6.604100e+000 125 57 35
5.706943e-001 -6.898431e-001 -6.862634e+000 154 137 111
2.745954e+000 -9.376945e+000 -6.231698e+000 17 16 22
1.232161e+000 -9.420512e-002 -6.186014e+000 158 154 153
5.287259e-001 1.129926e+000 -6.835878e+000 216 71 74
1.115594e+000 -4.454740e-001 -6.285893e+000 135 118 82
1.441713e-001 8.272074e-001 -7.239455e+000 236 229 221
6.993695e-001 7.087890e-001 -6.628478e+000 138 38 36
-8.287354e-001 -3.050584e-001 -7.046927e+000 102 34 16
-7.930736e-001 -2.471009e-001 -7.016328e+000 123 32 23
5.081218e-001 1.103188e+000 -6.859112e+000 232 78 85
8.051632e-001 8.833500e-002 -6.629058e+000 240 232 220
1.095958e+000 -5.780639e-001 -6.319852e+000 178 144 145
-3.320697e-001 1.056216e+000 -7.766759e+000 171 32 39
4.294742e-001 2.127047e-001 -6.914308e+000 138 124 108
5.297053e-001 5.548402e-001 -6.844963e+000 146 134 118
8.364887e-001 5.697210e-001 -6.532761e+000 230 85 92
8.794321e-001 -2.796193e-001 -6.484184e+000 158 144 125
1.361731e+000 -1.137643e+000 -6.236331e+000 124 120 119
8.079022e-001 1.007252e+000 -6.541280e+000 63 51 51
1.033011e+000 2.199264e-001 -6.347655e+000 239 90 96
2.539265e+000 -9.209998e+000 -6.201313e+000 73 71 84
-1.985044e-001 1.109903e+000 -7.457648e+000 145 117 104
3.080080e+000 -9.193698e+000 -5.858034e+000 71 72 84
3.463841e-001 3.440002e-001 -7.040777e+000 194 180 167
2.896612e-001 1.174819e+000 -7.130758e+000 217 60 67
-2.900551e-001 -2.342351e-001 -7.813721e+000 213 201 189
-2.519492e-001 -2.659134e-001 -7.776867e+000 209 197 183
-1.903266e-001 -5.754172e-002 -7.683767e+000 131 103 92
7.590994e-002 1.134491e+000 -7.407975e+000 206 43 54
4.299362e-001 -4.504207e-001 -6.844869e+000 209 194 142
8.469445e-001 6.592017e-001 -6.512491e+000 197 53 62
-4.112103e-001 -3.488388e-002 -6.831171e+000 67 19 17
2.395675e-001 -9.997837e-003 -7.276491e+000 166 153 137
-3.365265e-001 7.110723e-001 -7.695753e+000 230 223 213
-2.676565e-001 1.054199e+000 -7.766452e+000 177 33 40
-3.297907e-001 1.127159e-001 -7.046590e+000 78 36 30
2.221847e+000 -9.599869e+000 -6.901264e+000 47 45 50
2.970734e+000 -9.191097e+000 -5.853290e+000 45 44 57
1.148183e+000 -2.678520e-002 -6.214640e+000 168 48 46
-2.162383e-001 6.174954e-001 -7.682698e+000 172 160 148
8.253310e-001 4.447491e-001 -6.514154e+000 185 163 149
3.292956e+000 -9.078099e+000 -5.613570e+000 59 55 64
-5.395734e-001 -1.024848e-001 -6.692733e+000 121 43 32
2.660754e+000 -9.383443e+000 -6.098433e+000 74 77 87
2.926459e+000 -1.018757e+001 -5.769132e+000 87 92 115
2.878878e+000 -9.636887e+000 -6.053531e+000 32 28 42
-2.913392e-001 3.074000e-001 -7.817872e+000 210 198 186
-2.536726e-001 -1.838635e-001 -7.816795e+000 191 179 163
-2.536726e-001 -1.838635e-001 -7.816795e+000 191 179 163
-2.784516e-001 1.346216e+000 -7.169008e+000 215 55 61
-1.160589e-001 5.276912e-001 -7.404505e+000 182 172 160
4.555228e-001 -9.495659e-003 -6.722358e+000 178 165 146
-8.147107e-001 -2.940596e-001 -7.004885e+000 126 28 21
4.617792e-001 5.273941e-001 -6.937695e+000 206 194 180
3.173874e+000 -1.073389e+001 -5.363188e+000 243 247 253
2.987161e+000 -1.087415e+001 -5.633367e+000 25 24 29
2.727342e-001 -3.389755e+000 -8.006176e+000 186 185 183
1.395144e-001 -1.714988e+000 -7.902743e+000 170 169 167
-2.036370e-001 3.652465e-001 -7.678960e+000 216 204 191
4.157511e-001 -2.946615e+000 -7.737943e+000 166 164 167
-7.772676e-002 -4.312110e-001 -7.564340e+000 182 131 86
-1.207012e-001 5.404068e-001 -7.368445e+000 196 186 174
-9.718505e-001 -2.761240e-001 -6.598928e+000 178 112 88
-3.320120e-001 1.169622e-001 -7.051814e+000 82 39 32
2.486414e+000 -9.337928e+000 -6.344817e+000 32 30 41
4.740541e-001 -2.203633e-001 -6.759026e+000 222 214 201
4.318517e-001 -8.751295e-002 -6.735766e+000 224 216 205
1.095373e+000 -1.702726e+000 -6.620363e+000 145 139 139
1.447012e+000 -1.127902e+000 -6.076225e+000 156 158 157
-5.393373e-001 8.031221e-001 -8.096126e+000 15 13 23
-2.086009e-001 -9.826922e-002 -7.730446e+000 198 186 170
-2.249759e-001 3.080532e-001 -7.522379e+000 153 141 127
4.857196e-001 -2.770105e+000 -7.636327e+000 139 137 140
-2.272773e-001 1.681153e-001 -7.251639e+000 146 129 115
-2.161259e-001 1.334838e-001 -6.993606e+000 152 135 121
4.923938e-002 2.197832e-001 -7.056280e+000 165 151 138
1.500133e-001 9.808602e-001 -7.267007e+000 199 192 182
6.569133e-002 9.527199e-002 -6.959105e+000 199 192 176
-6.289238e-001 5.831758e-001 -8.251688e+000 198 56 54
-6.317806e-001 5.851420e-001 -8.249577e+000 198 56 54
-1.968562e-001 6.516325e-001 -7.678240e+000 212 203 190
-3.598152e-001 9.849381e-002 -7.034202e+000 79 48 44
-5.490819e-001 -7.586158e-002 -6.719117e+000 149 62 44
-2.390026e-001 1.712473e-002 -6.875355e+000 192 178 167
-2.037931e-001 7.030180e-002 -6.916011e+000 135 121 108
3.647081e-001 2.346574e-001 -6.958082e+000 128 112 97
3.789040e-001 1.325354e+000 -7.028321e+000 76 64 62
4.800332e-001 -4.642685e-002 -6.688113e+000 184 171 152
9.437673e-001 -1.067681e-001 -6.484170e+000 242 237 230
8.636663e-001 5.526918e-001 -6.557227e+000 233 90 99
-2.519301e-001 -1.584603e-001 -7.542604e+000 166 151 132
-7.579084e-001 -1.592079e-001 -7.015590e+000 118 51 33
-1.102928e-001 7.662140e-001 -7.543632e+000 161 149 137
-3.418009e-001 1.051048e-001 -7.015018e+000 70 21 17
-7.895503e-003 3.913363e-002 -6.930490e+000 197 188 173
2.334546e-001 4.889690e-002 -6.840374e+000 235 230 215
1.990049e-001 1.374959e+000 -7.300251e+000 64 55 56
2.689568e+000 -9.264250e+000 -6.205437e+000 19 18 22
3.760255e-001 1.016683e+000 -6.985564e+000 210 202 186
5.747267e-001 9.353730e-001 -6.815847e+000 230 81 91
-3.060923e-001 5.848573e-001 -7.755965e+000 231 223 212
-2.419548e-001 3.556341e-001 -7.531616e+000 205 196 182
2.146086e-001 5.676066e-001 -7.146394e+000 227 223 211
2.762217e-001 1.809057e-001 -6.887854e+000 208 200 183
4.603476e-001 5.118156e-001 -6.995122e+000 237 229 218
-2.241502e-001 5.550447e-001 -7.663721e+000 218 210 197
-2.248954e-001 2.796503e-001 -7.427582e+000 177 164 148
-2.248954e-001 2.796503e-001 -7.427582e+000 177 164 148
-1.607922e-001 6.137729e-001 -7.444094e+000 136 119 103
2.686655e+000 -1.039692e+001 -5.872782e+000 85 90 112
-2.429767e-001 8.070603e-001 -7.680018e+000 143 124 110
-2.024253e-001 4.239915e-001 -7.575294e+000 143 127 111
-1.807262e-001 8.642632e-001 -7.554446e+000 215 207 194
-1.552368e-001 8.478395e-001 -7.564102e+000 215 207 194
-2.220785e-001 -8.356001e-002 -7.736781e+000 208 200 183
-1.887934e-001 2.672540e-001 -7.677518e+000 198 181 166
-4.687840e-002 5.499195e-001 -7.352053e+000 201 191 179
-4.222412e-002 5.478725e-001 -7.355743e+000 201 191 179
-1.946524e-002 7.379214e-001 -7.322883e+000 219 210 201
6.338978e-001 2.979616e-001 -6.803587e+000 236 228 215
-3.525474e-001 8.248451e-002 -7.839434e+000 149 31 31
-2.434669e-001 -2.457866e-001 -7.746829e+000 167 155 140
-8.171478e-001 -2.533526e-001 -6.926795e+000 89 22 15
2.210948e-001 6.781508e-001 -7.224841e+000 203 194 185
3.264002e+000 -1.070348e+001 -5.589677e+000 100 93 90
9.238942e-001 -7.029953e-001 -6.477683e+000 170 52 45
2.145268e+000 -1.089702e+001 -5.993655e+000 137 132 133
1.130989e+000 -1.843425e+000 -6.694991e+000 148 146 148
3.521537e+000 -8.936189e+000 -5.197741e+000 25 22 29
1.662044e+000 -4.036481e-001 -5.683331e+000 136 133 140
-3.113165e-001 1.294656e-001 -7.051734e+000 100 82 72
5.810518e-002 1.326171e-001 -6.953016e+000 217 207 192
5.050473e-001 -1.475083e-002 -6.664548e+000 216 208 197
4.577560e+000 -1.158430e+001 -3.357212e+000 226 238 245
-1.331736e-001 1.238351e+000 -7.564616e+000 203 67 75
-2.134140e-003 8.925419e-001 -7.326220e+000 189 177 165
-1.069515e-003 8.916686e-001 -7.326431e+000 189 177 165
6.581196e-001 7.200068e-001 -6.732900e+000 190 176 167
-2.102750e-001 2.653101e-001 -7.592038e+000 157 140 125
-1.598388e-001 4.106406e-001 -7.629889e+000 133 120 104
1.275146e-001 4.971864e-002 -6.910468e+000 130 117 101
3.089504e+000 -1.028004e+001 -5.757848e+000 16 15 18
4.301947e+000 -9.107382e+000 -3.138997e+000 102 98 116
-4.885663e-001 7.419236e-001 -7.970064e+000 171 38 43
-1.712470e-001 1.016002e+000 -7.574405e+000 163 145 131
4.154622e+000 -8.226341e+000 -3.466341e+000 77 75 86
-5.853231e-001 7.069964e-001 -8.120604e+000 189 49 52
-2.255063e-001 8.675236e-001 -7.735092e+000 155 139 126
3.164898e+000 -1.074039e+001 -5.313870e+000 236 244 247
4.062414e+000 -9.062671e+000 -3.827311e+000 90 87 108
-5.579008e-001 6.041317e-001 -8.173748e+000 194 51 57
-9.644555e-001 -2.161196e-001 -6.508371e+000 40 19 12
2.758598e-001 8.648916e-001 -7.112319e+000 147 133 120
6.111254e-001 5.233553e-001 -6.799834e+000 128 112 97
-3.506000e-001 8.448967e-001 -7.798004e+000 217 61 70
4.357855e-001 -9.029308e-002 -6.753600e+000 251 244 233
-1.946937e-001 2.903131e-001 -7.213675e+000 144 129 113
-3.236736e-001 -1.033819e-002 -6.923970e+000 99 65 58
-1.329421e-001 1.203743e+000 -7.571648e+000 140 15 24
3.066699e+000 -1.066178e+001 -4.992962e+000 253 254 255
-2.057698e-001 2.894341e-001 -7.500753e+000 119 104 89
-3.006161e-001 1.660374e-001 -7.088425e+000 124 107 97
2.035937e+000 -1.073934e+001 -6.039034e+000 126 120 120
2.131179e+000 -9.392044e+000 -6.878214e+000 41 40 46
-1.602420e-001 4.662724e-001 -7.539523e+000 134 118 103
-5.644341e-001 5.514995e-001 -8.091405e+000 193 162 133
-2.641894e-002 -6.054968e-001 -7.686768e+000 241 92 97
-7.656074e-001 -2.054091e-001 -7.070283e+000 106 29 15
-3.575920e-001 3.933626e-001 -7.459472e+000 154 141 122
-2.466983e-001 1.333589e-001 -7.285997e+000 110 92 78
-1.127875e-001 2.080318e-001 -7.121691e+000 152 139 121
9.296101e-001 -6.975626e-001 -6.494524e+000 193 184 157
1.375201e+000 -1.299678e+000 -6.211664e+000 139 137 140
8.666986e-001 3.659421e-001 -6.439125e+000 236 80 92
-1.922001e-001 -1.816720e+000 -8.212908e+000 174 170 171
-2.442468e-001 -1.551335e+000 -8.135485e+000 177 173 176
-9.063462e-002 -1.694739e+000 -8.035570e+000 182 178 177
-3.043036e-001 -4.317888e-001 -7.895200e+000 130 118 112
-8.942473e-001 -3.653156e-001 -6.776611e+000 129 48 20
-2.803253e-001 1.108880e+000 -7.654189e+000 153 22 27
-1.498657e-001 4.763142e-001 -7.439693e+000 154 141 125
4.741126e-001 -4.550613e-001 -6.810065e+000 223 202 145
1.066045e+000 -4.256498e-001 -6.252119e+000 160 157 156
1.409888e+000 -7.573551e-001 -6.068323e+000 147 145 148
1.379120e+000 -7.095326e-001 -6.126942e+000 134 129 135
1.694994e+000 -1.176984e+000 -5.790785e+000 152 147 153
8.329462e-001 6.759233e-001 -6.508098e+000 191 57 62
8.843978e-001 6.258930e-001 -6.481232e+000 166 37 42
-1.168997e-002 -2.005784e+000 -8.014548e+000 96 92 91
-1.247832e-002 -1.956908e+000 -7.910364e+000 182 178 179
-3.882559e-001 3.205605e-001 -7.970813e+000 211 81 81
-3.046794e-001 2.139535e-001 -7.909042e+000 197 63 66
-6.559323e-002 -5.486570e-001 -7.691799e+000 149 38 43
-7.766615e-002 -4.996030e-001 -7.678731e+000 232 171 124
-3.242228e-001 1.032653e+000 -7.830518e+000 152 31 38
-2.092909e-001 3.068212e-001 -7.582550e+000 145 132 113
-2.111332e-001 6.655302e-001 -7.693139e+000 160 152 133
-9.600581e-001 -3.274021e-001 -6.665088e+000 147 67 38
-4.306595e-001 -3.948720e-003 -7.077358e+000 46 12 11
-2.625567e-001 1.293882e-001 -7.270256e+000 141 125 110
-9.835989e-001 -3.130476e-001 -6.577053e+000 41 13 11
-5.433434e-001 -4.784697e-002 -6.894185e+000 44 4 2
-6.343698e-001 -1.426177e-001 -6.727311e+000 68 18 13
-3.460666e-001 1.113237e-001 -6.959620e+000 94 31 26
-2.768937e-001 4.437384e-002 -6.912881e+000 68 24 15
3.807288e-002 6.192998e-001 -7.294013e+000 201 192 174
4.890330e-002 1.188534e+000 -7.306128e+000 212 67 70
7.690680e-001 -8.477633e-001 -6.680550e+000 238 98 99
1.657608e+000 -1.056230e+000 -5.849045e+000 145 143 148
1.532248e+000 -4.137752e-001 -5.903609e+000 177 170 175
-5.957415e-001 5.654322e-001 -8.182782e+000 226 76 81
-3.201960e-001 1.755137e-001 -7.950196e+000 210 79 84
-9.831980e-002 -4.928750e-001 -7.713838e+000 173 47 44
-2.647310e-001 5.068155e-001 -7.767948e+000 185 176 162
-2.155028e-001 3.452525e-001 -7.604304e+000 202 189 176
-7.789097e-001 -2.104111e-001 -6.972223e+000 85 26 17
-9.406534e-001 -3.179645e-001 -6.738151e+000 114 41 21
3.072471e+000 -9.007964e+000 -5.677967e+000 29 26 35
-5.395824e-002 4.225264e-001 -7.354327e+000 150 138 122
-1.246993e-001 8.271142e-001 -7.501833e+000 199 190 173
-9.949927e-001 -2.051214e-001 -6.443612e+000 64 37 25
7.677208e-001 -3.234141e-001 -6.591838e+000 234 226 209
6.226047e-001 6.217697e-001 -6.791570e+000 169 157 137
2.991255e+000 -9.436997e+000 -6.216471e+000 34 31 38
-1.173034e-001 4.057960e-001 -7.383443e+000 186 173 156
-9.052530e-001 -2.087276e-001 -6.429605e+000 63 37 23
-4.102443e-001 -2.571918e-001 -6.667576e+000 136 32 24
-8.933967e-002 2.700496e-002 -6.905171e+000 123 107 94
2.211907e-001 2.556206e-001 -6.985756e+000 187 171 160
7.783781e-001 -7.145114e-001 -6.671443e+000 240 232 215
3.924530e-001 4.908341e-002 -6.766636e+000 156 143 124
5.862135e-001 2.784549e-001 -6.838343e+000 226 217 202
6.767173e-001 -1.155482e-001 -6.580720e+000 234 222 205
7.208464e-001 -1.299416e-001 -6.540751e+000 148 130 106
1.315947e+000 -2.997287e-001 -6.104506e+000 166 151 163
7.023384e-001 9.273001e-001 -6.649544e+000 194 60 64
9.126608e-001 4.798718e-001 -6.383428e+000 221 86 92
-3.223885e-001 -3.705495e-001 -7.917440e+000 116 105 101
-4.856780e-001 -7.755664e-003 -7.085355e+000 86 36 25
1.142673e-001 5.650000e-001 -7.162001e+000 216 207 190
1.217347e-001 7.042959e-001 -7.262054e+000 228 216 202
1.718148e-001 4.096951e-001 -7.108190e+000 148 135 118
3.337333e-001 1.239780e-001 -6.815940e+000 209 198 180
6.804187e-001 7.167297e-002 -6.722234e+000 145 132 113
1.162921e+000 -4.993958e-001 -6.225440e+000 164 157 164
4.898540e-001 1.197763e+000 -6.837071e+000 57 58 53
1.496741e+000 -2.966723e-001 -6.158309e+000 14 10 10
1.165309e+000 1.699575e-001 -6.232076e+000 163 152 158
1.120514e+000 2.752852e-001 -6.261302e+000 153 142 146
-1.013036e+000 -3.087134e-001 -6.689366e+000 172 91 79
9.442500e-004 5.650228e-001 -7.299640e+000 207 198 183
-4.088857e-002 5.661369e-002 -6.945503e+000 183 173 155
4.182293e-002 3.759658e-003 -6.878674e+000 149 136 117
3.342670e-001 4.661295e-001 -7.124635e+000 184 172 158
2.363505e-001 9.636381e-001 -7.206874e+000 230 222 211
6.617900e-001 -4.833765e-001 -6.631718e+000 254 241 186
5.744686e-001 2.367511e-001 -6.908941e+000 222 213 199
1.103289e+000 -4.281152e-001 -6.287008e+000 100 85 61
1.224340e+000 -2.329207e-001 -6.163451e+000 254 243 203
1.066976e+000 1.384116e-001 -6.299931e+000 211 76 81
-3.028867e-001 -3.856861e-001 -7.836330e+000 217 210 191
-1.111786e-001 6.503229e-001 -7.379051e+000 208 199 184
4.479133e-002 6.609211e-001 -7.305798e+000 222 213 196
9.437896e-001 -7.757267e-001 -6.546410e+000 221 214 198
6.979631e-001 -5.765631e-002 -6.578601e+000 162 147 127
9.237726e-001 2.906049e-001 -6.469750e+000 237 228 213
7.053422e-001 9.352280e-001 -6.690631e+000 200 63 70
1.004278e+000 2.027517e-001 -6.380416e+000 187 53 57
-2.609242e-001 1.977460e-001 -7.825983e+000 124 17 23
7.185111e-002 1.361731e+000 -7.337927e+000 21 9 14
3.321037e-001 7.301696e-001 -7.060367e+000 237 228 211
1.248654e+000 -3.201034e-001 -6.179458e+000 246 227 184
-1.860713e-001 1.315632e-001 -7.490533e+000 143 126 108
2.737709e-002 8.790953e-001 -7.313000e+000 180 167 151
1.720340e-001 6.170691e-001 -7.215193e+000 145 130 111
5.525867e-001 -1.092223e-001 -6.602023e+000 244 237 221
7.127211e-001 7.177428e-001 -6.636708e+000 124 22 26
2.700403e-001 -4.825367e-002 -6.773728e+000 238 232 213
9.738204e-001 1.517153e-003 -6.466876e+000 242 236 220
3.258721e-001 6.318472e-001 -7.040332e+000 213 204 187
3.024163e-001 6.479958e-001 -7.039560e+000 213 204 187
-3.415562e-001 5.861822e-001 -7.850840e+000 214 207 191
-5.141433e-002 1.252547e+000 -7.623625e+000 17 11 13
-4.626035e-001 -1.839739e-001 -6.982554e+000 79 26 18
2.501161e-001 7.836961e-001 -7.162737e+000 194 182 165
4.304861e-001 -1.876165e+000 -7.456540e+000 118 114 111
-2.699027e-001 -2.261679e-001 -7.773621e+000 181 166 149
-2.167339e-001 -8.773065e-002 -7.728969e+000 198 187 167
2.400068e-001 -8.648583e-001 -7.621937e+000 134 126 124
-7.870052e-002 2.777838e-001 -7.084821e+000 152 139 122
7.196946e-001 -4.598842e-001 -6.551336e+000 175 154 111
1.108944e+000 -6.090891e-001 -6.315892e+000 171 165 169
4.112423e-001 -1.494992e+000 -7.524333e+000 149 146 139
6.402784e-001 -1.992037e+000 -7.360540e+000 156 153 149
-2.005971e-001 -6.850113e-002 -7.650903e+000 135 115 98
-7.738038e-001 -3.290548e-001 -7.009351e+000 123 35 19
-8.586147e-002 2.608383e-001 -7.238670e+000 126 110 94
-1.654918e-001 1.187727e+000 -7.580264e+000 147 26 30
8.320875e-001 -7.477351e-001 -6.629352e+000 211 197 182
8.320875e-001 -7.477351e-001 -6.629352e+000 211 197 182
8.462699e-001 -6.885048e-001 -6.581250e+000 238 230 212
1.029928e+000 -6.447549e-001 -6.332549e+000 159 149 154
7.822225e-001 7.290370e-002 -6.650127e+000 187 179 160
-7.761982e-001 -2.089909e-001 -7.089878e+000 160 79 51
-3.730987e-001 7.603821e-001 -7.820178e+000 167 152 133
-3.848917e-001 7.649710e-001 -7.817283e+000 167 152 133
-1.327339e-001 8.292361e-001 -7.430731e+000 196 188 167
3.684813e-001 6.012923e-001 -6.964260e+000 195 188 172
6.187650e-001 3.696245e-002 -6.659989e+000 156 141 120
5.014268e-001 -1.853394e+000 -7.425310e+000 120 116 115
5.014268e-001 -1.853394e+000 -7.425310e+000 120 116 115
4.802721e-001 -1.730844e+000 -7.431572e+000 147 146 142
-2.333868e-001 2.197078e-001 -7.725628e+000 192 171 154
-4.432521e-001 -1.612193e-001 -7.236532e+000 51 19 14
-5.836698e-004 -3.581380e-001 -7.446150e+000 228 204 154
-3.898317e-001 6.571123e-002 -7.118593e+000 62 18 17
1.116117e+000 -6.842995e-002 -6.243180e+000 240 94 104
9.609296e-002 2.512257e-001 -6.996467e+000 212 205 186
3.826659e-001 -2.492959e-003 -6.757369e+000 218 209 192
-2.248167e-001 3.696699e-001 -7.762667e+000 196 187 170
8.765077e-001 -7.274348e-001 -6.544988e+000 226 217 200
9.480187e-001 -7.122981e-001 -6.340268e+000 166 159 167
8.872729e-001 -3.882897e-001 -6.398362e+000 254 236 196
4.847068e-001 1.122635e-001 -6.739754e+000 150 135 116
7.525338e-002 -2.612416e-001 -6.704536e+000 214 201 184
-1.483176e-001 1.246919e-002 -8.004149e+000 129 22 27
-6.648255e+000 -7.008258e+000 -2.513367e+001 91 83 80
-1.044138e+000 -1.237036e+001 -1.050641e+001 95 100 119
4.940023e-001 -1.807968e+000 -7.401174e+000 108 106 103
-2.696361e-001 2.179810e-001 -7.714623e+000 165 43 47
2.456189e-001 -1.451368e+000 -7.682923e+000 105 101 97
-2.502063e-001 -2.574298e-001 -7.758422e+000 186 173 154
-9.541134e-001 -3.620830e-001 -6.662440e+000 160 85 62
-5.936702e-001 -9.341179e-002 -6.740685e+000 119 49 39
-3.567777e-001 -3.411497e-002 -6.894085e+000 78 42 41
-8.339006e-001 -4.005487e-001 -6.764541e+000 155 136 120
1.355687e+000 -1.124513e+000 -6.233480e+000 139 137 140
-3.286279e-001 2.412034e-001 -7.885366e+000 186 55 60
-4.235519e-001 -1.427954e-001 -7.214128e+000 92 65 59
-1.766827e-001 5.423369e-001 -7.445755e+000 166 151 132
6.671337e-002 7.236596e-002 -6.934342e+000 190 179 160
1.116411e+000 -5.119320e-001 -6.240875e+000 176 171 172
1.906371e-001 2.121609e-001 -6.946673e+000 167 156 138
7.776257e-001 5.952444e-002 -6.693089e+000 196 188 169
4.637152e-001 6.838567e-001 -6.966759e+000 233 225 212
3.014176e-001 1.310590e+000 -7.088935e+000 199 63 66
2.502579e-001 1.009300e+000 -7.215813e+000 211 203 190
3.325743e-001 1.292208e+000 -7.044062e+000 211 68 71
3.411178e-001 1.329712e+000 -7.127103e+000 50 30 31
3.155469e-001 1.329922e+000 -7.058368e+000 71 38 38
5.169710e+000 -6.760402e+000 -1.538195e+000 79 74 80
1.102387e+000 -7.921572e-001 -6.359824e+000 162 151 157
9.740725e-001 -2.281911e-001 -6.449104e+000 206 198 179
3.762768e-001 1.244686e+000 -6.983635e+000 207 64 70
1.251431e-001 3.731665e-001 -7.102133e+000 190 177 162
6.004710e-001 9.406675e-001 -6.812563e+000 210 71 78
-5.346774e-001 4.579333e-001 -7.915332e+000 210 192 171
-7.950020e-002 -4.686291e-001 -7.582818e+000 170 106 60
-7.950020e-002 -4.686291e-001 -7.582818e+000 170 106 60
-6.704597e-002 -4.574140e-001 -7.567063e+000 219 166 119
8.336786e-002 -6.212647e-001 -7.545850e+000 92 25 6
-7.649675e-001 -3.132772e-001 -7.023963e+000 136 49 26
2.087562e-002 -4.157553e-001 -7.470223e+000 117 67 28
-1.964761e-002 -3.781412e-001 -7.441638e+000 254 236 179
-9.672176e-001 -3.365839e-001 -6.594814e+000 62 24 14
-9.689174e-001 -3.161886e-001 -6.612955e+000 141 63 37
-5.412142e-001 -6.815540e-002 -6.824255e+000 88 33 26
-3.035748e-001 2.177752e-003 -6.932011e+000 68 31 22
1.464815e+000 -1.716475e+000 -6.234251e+000 152 152 150
4.786875e-001 -1.137928e-001 -6.720199e+000 233 226 208
-5.694904e-002 1.133209e+000 -7.440761e+000 208 50 58
8.983314e-001 -4.258221e-001 -6.525393e+000 175 160 138
8.915680e-001 -4.228992e-001 -6.526998e+000 175 160 138
-3.657539e-002 1.327330e+000 -7.429348e+000 91 13 17
1.345387e+000 -1.116037e+000 -6.087793e+000 184 179 183
9.081927e-001 -4.280812e-001 -6.296660e+000 188 170 172
1.295987e+000 -1.762945e-001 -6.112093e+000 70 60 49
1.154292e+000 9.897918e-002 -6.224602e+000 152 134 136
1.120484e+000 2.399620e-001 -6.265483e+000 150 137 133
-6.119343e-001 5.879091e-001 -8.270270e+000 72 40 43
-6.502760e-001 -3.714492e-001 -7.141086e+000 153 57 26
-5.165131e-001 -2.580641e-001 -7.316709e+000 255 240 185
-2.066286e-001 -2.391645e-002 -7.677881e+000 139 110 94
-7.754106e-001 -1.813671e-001 -7.132736e+000 145 70 49
-7.724506e-001 -1.827484e-001 -7.133463e+000 145 70 49
-7.239135e-001 -3.296703e-001 -6.948197e+000 93 22 12
-5.109541e-001 -1.650145e-001 -7.214111e+000 114 85 81
-1.000530e+000 -3.707173e-001 -6.713017e+000 131 135 126
-8.808313e-001 -3.776033e-001 -6.778973e+000 127 53 33
-8.251572e-001 -3.788716e-001 -6.781724e+000 110 46 22
-4.369278e-001 9.983067e-001 -7.819462e+000 173 40 54
-3.909788e-001 1.005351e+000 -7.820030e+000 162 40 43
-3.357852e-001 -1.399997e-002 -7.187330e+000 82 58 48
-1.403999e-001 6.301710e-001 -7.610077e+000 153 142 124
-1.332692e-001 6.295172e-001 -7.610205e+000 153 142 124
-3.750150e-001 3.673301e-001 -7.221458e+000 137 121 105
1.429897e-002 3.743556e-001 -7.488641e+000 145 132 113
-2.005967e-001 5.056394e-001 -7.485545e+000 139 124 105
-9.394742e-001 -2.263947e-001 -6.459850e+000 180 161 137
-9.394742e-001 -2.263947e-001 -6.459850e+000 180 161 137
-1.963266e-001 1.056056e+000 -7.697465e+000 159 28 33
-8.694901e-001 -2.329203e-001 -6.460517e+000 137 115 96
-2.312407e-001 9.457877e-003 -6.872061e+000 186 172 152
-3.139510e-001 1.147302e+000 -7.633486e+000 157 30 34
6.946530e-001 -3.495367e-001 -6.625356e+000 157 143 122
1.654615e-001 9.624887e-001 -7.263924e+000 187 181 164
1.536155e+000 -1.197810e+000 -6.048825e+000 143 138 142
1.521275e+000 -1.195071e+000 -5.989929e+000 190 185 189
1.635228e+000 -1.306679e+000 -5.912581e+000 175 170 176
1.716604e+000 -1.361152e+000 -5.897214e+000 175 170 176
1.571853e+000 -1.177684e+000 -5.892443e+000 194 189 195
1.596083e+000 -4.566761e-001 -5.858849e+000 141 136 142
8.368339e-001 3.966834e-001 -6.457368e+000 225 207 189
1.921322e+000 -6.833235e-001 -5.530154e+000 147 144 150
1.784406e+000 -4.689798e-001 -5.667370e+000 140 133 141
6.225262e-001 1.300444e+000 -6.776221e+000 85 76 74
2.794563e+000 -1.501645e+000 -4.635096e+000 185 183 188
1.972678e+000 -3.287319e-001 -5.423799e+000 151 145 149
-2.321613e-001 1.210082e-001 -8.007457e+000 17 16 17
-3.193975e-001 2.859421e-002 -7.862775e+000 206 76 78
-2.635154e-001 2.079575e-001 -8.003792e+000 202 72 74
-7.842742e-001 -2.563545e-001 -7.076598e+000 181 89 58
-7.924536e-001 -1.951380e-001 -7.090653e+000 171 97 65
-1.620495e-002 -3.561997e-001 -7.475864e+000 243 223 166
-2.140440e-001 6.493173e-001 -7.652675e+000 162 151 133
-3.474250e-001 6.686505e-003 -6.923003e+000 89 55 48
-3.509426e-001 9.418286e-002 -7.037807e+000 81 50 40
-2.963605e-001 8.991142e-002 -7.045997e+000 77 30 22
-2.633320e-001 1.191786e-001 -7.015118e+000 100 82 72
-7.841702e-001 -2.821907e-001 -6.460582e+000 71 49 28
6.694156e-001 -6.167271e-001 -6.668053e+000 238 235 223
7.060429e-002 5.893240e-001 -7.226802e+000 180 167 150
4.975101e-001 1.425654e-001 -6.834090e+000 141 126 107
1.586216e+000 -1.188886e+000 -5.961337e+000 136 131 136
1.344693e+000 -8.023085e-001 -6.225012e+000 163 157 161
1.031992e+000 -4.533607e-001 -6.302970e+000 243 221 180
8.971198e-001 -2.197454e-001 -6.476769e+000 156 143 124
1.278864e+000 -4.380221e-001 -6.137187e+000 145 138 146
1.424360e+000 -4.558800e-001 -6.171316e+000 211 192 149
9.625619e-001 2.691630e-001 -6.425972e+000 230 96 94
1.190958e+000 4.853622e-002 -6.203454e+000 159 146 155
7.696572e-001 5.937453e-001 -6.594306e+000 222 202 188
7.696572e-001 5.937453e-001 -6.594306e+000 222 202 188
2.752137e+000 -1.361704e+000 -4.658270e+000 187 184 191
-3.429785e-001 2.960320e-001 -7.993325e+000 210 78 82
-5.121246e-001 -2.736139e-001 -7.293183e+000 74 22 12
-4.183114e-001 -1.369304e-001 -7.248281e+000 107 87 76
-4.231580e-001 -1.328582e-001 -7.247717e+000 107 87 76
-3.524765e-001 1.035107e+000 -7.817610e+000 157 34 36
-5.486292e-001 -4.493578e-002 -6.893064e+000 45 6 6
4.131780e-002 6.766408e-001 -7.287799e+000 222 214 203
2.878607e-001 4.028237e-002 -6.814926e+000 181 170 150
2.932179e-001 3.279612e-001 -7.051111e+000 151 140 122
3.671737e-001 3.154946e-001 -7.027642e+000 187 176 158
8.032546e-001 -3.561101e-001 -6.557215e+000 93 78 57
2.726048e-001 7.130192e-001 -7.152072e+000 188 178 160
2.612207e-001 7.146962e-001 -7.147437e+000 188 178 160
2.467215e-001 9.171368e-001 -7.202807e+000 154 145 130
1.889418e+000 -4.773275e-001 -5.463696e+000 162 156 160
-5.004015e-001 -3.329373e-001 -7.272453e+000 253 247 185
1.303799e-001 -4.385893e-001 -7.523034e+000 64 5 8
-4.198732e-001 -1.767052e-001 -7.239054e+000 61 23 21
-2.065007e-001 3.053899e-001 -7.582183e+000 144 129 110
-8.161672e-001 -4.318470e-001 -6.739512e+000 116 41 30
-3.242325e-001 -2.489625e-002 -7.255461e+000 102 85 74
-3.894521e-001 -5.461306e-002 -7.137269e+000 42 10 11
-2.772604e-001 1.710818e-002 -6.939752e+000 123 105 91
-2.846574e-001 2.330876e-002 -6.939908e+000 123 105 91
1.153805e+000 -6.453086e-001 -6.346116e+000 159 36 43
5.711843e-001 6.659224e-003 -6.652143e+000 198 190 171
3.728181e-001 1.187882e+000 -6.998478e+000 220 79 80
8.228357e-001 5.405469e-001 -6.557424e+000 176 41 45
4.721446e-001 1.230033e+000 -6.886144e+000 66 45 50
1.996147e+000 -4.631715e-001 -5.457315e+000 177 171 175
-7.264994e-002 3.430603e-001 -7.293449e+000 178 164 145
3.637881e-001 4.546082e-001 -7.123237e+000 180 171 155
-6.628010e-002 1.134051e+000 -7.452266e+000 181 47 48
1.370986e+000 -2.272443e-001 -6.160155e+000 18 8 8
1.217433e+000 8.408194e-002 -6.130669e+000 142 136 140
5.745336e-001 6.579988e-001 -6.854030e+000 227 220 204
9.786934e-001 2.502659e-001 -6.459465e+000 234 227 213
-2.451521e-001 1.998948e-001 -7.823065e+000 128 19 24
-6.417135e-001 -2.942730e-001 -6.598517e+000 92 34 18
-2.826534e-001 -3.660534e-002 -6.860992e+000 68 23 20
-4.832565e-001 -2.628188e-001 -6.612036e+000 143 141 142
-1.622288e-001 9.263777e-001 -7.139782e+000 210 201 184
-5.832695e+000 -8.415287e+000 -1.685088e+001 106 105 113
-3.820939e+000 -6.982001e+000 -1.459536e+001 78 77 87
-8.538726e+000 -9.198779e+000 -2.236361e+001 97 90 82
-8.538726e+000 -9.198779e+000 -2.236361e+001 97 90 82
-6.687072e-001 5.513591e-002 -6.650016e+000 84 20 12
-8.081748e-001 -2.074881e-001 -6.934786e+000 106 46 35
-2.083437e-001 3.126822e-001 -7.502438e+000 153 140 123
-1.313399e-001 9.551226e-001 -7.686357e+000 218 180 164
1.792983e+000 -1.360850e+000 -5.697871e+000 168 163 170
2.334564e-001 -1.401430e+000 -7.672991e+000 151 148 141
3.110415e-001 -1.063775e+000 -7.595363e+000 156 156 148
-7.388653e-002 -4.653262e-001 -7.684320e+000 143 46 23
-3.849959e-001 9.266255e-002 -7.848967e+000 143 28 29
-3.709364e-001 8.517287e-001 -7.792130e+000 217 58 58
1.694354e+000 -1.149981e+000 -5.808615e+000 194 189 195
1.472803e+000 -5.871209e-001 -5.996733e+000 171 167 171
-3.981488e-001 7.662928e-001 -7.868409e+000 161 146 127
