ply
format ascii 1.0
element face 0
property list uchar int vertex_indices
element vertex 870
property float x
property float y
property float z
property uchar diffuse_red
property uchar diffuse_green
property uchar diffuse_blue
end_header
-8.482958e-002 2.540111e-002 -6.895105e+000 122 107 102
1.038870e+000 9.802932e-003 -6.305062e+000 233 78 82
-1.914619e-001 -8.162138e-002 -6.816991e+000 115 33 22
-1.779061e-001 -1.029295e-001 -6.809183e+000 149 67 49
-1.779444e-001 -1.030054e-001 -6.809184e+000 149 67 49
2.772902e-002 -1.700882e-001 -6.863799e+000 206 201 197
1.320543e-001 -1.672498e-001 -6.852768e+000 234 227 221
2.077159e-001 -1.409874e-001 -6.880776e+000 238 235 229
9.287737e-001 -1.723907e-001 -6.437016e+000 161 38 46
-5.828436e-001 -2.456566e-001 -6.630667e+000 154 52 29
4.009415e-001 -3.011591e-001 -6.901576e+000 211 204 195
-4.572557e-001 -3.232848e-001 -6.668975e+000 50 50 69
-2.822593e-001 -3.544009e-001 -6.756338e+000 163 155 150
-2.325063e-001 -3.526632e-001 -6.802887e+000 174 164 161
-2.324309e-001 -3.528251e-001 -6.810834e+000 174 164 161
-1.607027e-001 -3.361343e-001 -6.875857e+000 185 178 170
2.460302e-001 -4.566788e-001 -6.961009e+000 156 144 127
1.173733e+000 -3.738906e-001 -6.211522e+000 239 225 177
4.525915e-001 -5.665781e-001 -6.807697e+000 158 145 125
5.665323e-001 -6.773063e-001 -6.834755e+000 246 231 218
3.510587e-001 -1.046488e+000 -7.346990e+000 165 149 102
4.295575e-001 -1.022204e+000 -7.261763e+000 233 219 164
2.163954e-002 1.016978e+000 -7.344206e+000 202 190 185
6.882816e-001 7.860305e-001 -6.640887e+000 18 3 6
6.875241e-001 7.142441e-001 -6.578279e+000 167 39 45
8.159021e-001 5.650644e-001 -6.510774e+000 18 7 11
2.600520e-001 6.290443e-001 -7.130171e+000 184 177 167
7.124135e-001 4.937177e-001 -6.569368e+000 222 53 59
-1.190495e-001 4.759600e-001 -7.396445e+000 170 161 154
3.637234e-001 1.111346e-001 -6.829280e+000 154 141 132
-2.664586e-001 3.881456e-002 -6.955693e+000 72 27 22
-1.842940e-001 -2.865715e-002 -6.841780e+000 142 119 110
-4.231506e-001 -6.882089e-002 -6.758302e+000 86 18 7
-2.077948e-001 -9.100918e-002 -6.810860e+000 165 80 59
-5.531906e-001 -2.221447e-001 -6.733395e+000 134 33 10
-2.481190e-001 -2.816517e-001 -6.856067e+000 113 94 79
4.815337e-001 -2.869968e-001 -6.857381e+000 172 163 148
-3.143572e-001 -3.484244e-001 -6.714247e+000 181 172 170
-2.669159e-001 -3.727157e-001 -6.772388e+000 253 254 249
3.713493e-001 -5.097386e-001 -6.925991e+000 229 226 218
3.713493e-001 -5.097386e-001 -6.925991e+000 229 226 218
9.304861e-001 -6.263408e-001 -6.422185e+000 18 1 7
7.167123e-001 7.043457e-001 -6.584995e+000 196 55 61
-3.943847e-001 8.281049e-001 -7.840252e+000 30 16 16
8.063642e-001 5.475389e-001 -6.514249e+000 176 42 37
6.646669e-002 5.431005e-001 -7.210003e+000 186 177 168
4.387884e-001 4.863669e-001 -6.939747e+000 166 157 150
2.556236e-001 3.024062e-001 -7.055528e+000 123 110 99
1.002116e+000 2.029664e-001 -6.346487e+000 25 5 9
1.031846e-002 1.683480e-001 -7.038927e+000 178 169 160
1.031846e-002 1.683480e-001 -7.038927e+000 178 169 160
3.078461e-001 1.679034e-001 -6.846281e+000 142 129 113
6.486344e-001 8.658413e-002 -6.721958e+000 195 188 178
1.731874e-001 3.143004e-002 -6.851200e+000 192 182 172
1.744436e-001 2.580228e-004 -6.855895e+000 203 194 187
1.051144e+000 1.435964e-002 -6.311438e+000 243 79 98
-1.391060e-001 -3.300190e-002 -6.835412e+000 183 173 164
1.036115e+000 -1.386573e-001 -6.360612e+000 249 79 93
-8.917025e-001 -2.151482e-001 -6.553853e+000 135 113 67
-2.897132e+000 -6.173078e-001 -1.126316e+001 44 39 39
-4.742489e-001 -2.731252e-001 -6.699535e+000 188 105 67
4.986500e-001 -2.800542e-001 -6.804617e+000 243 240 231
5.910377e-001 -2.786897e-001 -6.700723e+000 172 158 147
7.461918e-001 -2.647272e-001 -6.557995e+000 158 145 134
-3.370510e-001 -3.652340e-001 -6.714113e+000 236 232 229
-6.142044e-002 -4.154301e-001 -7.015585e+000 255 254 249
7.949720e-001 -4.384720e-001 -6.495605e+000 182 159 106
8.194585e-001 -5.397384e-001 -6.565922e+000 169 147 134
4.108680e-001 -1.041060e+000 -7.269050e+000 45 32 34
7.787754e-001 -9.091202e-001 -6.757102e+000 253 82 93
3.404012e-001 9.518308e-001 -6.991716e+000 219 212 209
-8.506307e-003 1.014131e+000 -7.374131e+000 192 35 44
7.296305e-001 7.478948e-001 -6.627390e+000 16 12 9
7.838496e-001 5.810861e-001 -6.536966e+000 203 42 57
-2.947616e-001 7.248734e-001 -7.689753e+000 206 191 183
4.144050e-001 5.063282e-001 -6.959290e+000 181 174 166
-1.207315e-001 5.072250e-001 -7.372984e+000 208 199 190
9.158167e-001 3.454991e-001 -6.392083e+000 214 49 60
8.939285e-001 2.455811e-001 -6.444906e+000 235 64 73
9.877845e-001 1.822350e-001 -6.339780e+000 229 58 64
6.106809e-001 1.336845e-001 -6.779760e+000 170 163 153
-1.513823e-002 7.024610e-002 -6.952431e+000 179 168 162
7.417341e-003 4.667242e-002 -6.922630e+000 182 171 165
1.001050e+000 2.837813e-002 -6.285440e+000 204 53 62
1.061468e+000 5.364936e-002 -6.301871e+000 29 12 20
5.775990e-001 2.549418e-002 -6.684458e+000 162 150 138
9.834846e-001 2.488554e-003 -6.298799e+000 169 29 40
3.017396e-001 -3.361304e-002 -6.796888e+000 204 194 185
3.655825e-002 -1.110299e-001 -6.844776e+000 177 166 162
4.099420e-001 -1.190806e-001 -6.748877e+000 224 221 214
-6.927801e-001 -1.880765e-001 -6.539506e+000 145 60 38
-1.444759e-001 -2.256656e-001 -6.842873e+000 238 235 230
6.164006e-002 -2.326093e-001 -6.882058e+000 205 191 182
6.164006e-002 -2.326093e-001 -6.882058e+000 205 191 182
8.168469e-001 -1.976176e-001 -6.515391e+000 164 149 141
-1.244015e-001 -2.694692e-001 -6.899778e+000 241 240 237
2.694505e-001 -2.923774e-001 -6.936225e+000 215 208 200
-4.462054e-001 -3.251197e-001 -6.669446e+000 46 42 53
-2.045532e-001 -3.368526e-001 -6.832696e+000 159 143 131
3.622679e-001 -4.773303e-001 -6.930393e+000 254 255 250
4.447086e-001 -4.640583e-001 -6.849012e+000 151 132 94
5.719190e-001 -5.167192e-001 -6.714214e+000 239 233 224
3.789880e-001 -6.263265e-001 -6.982038e+000 254 255 250
8.325666e-001 -7.897611e-001 -6.617876e+000 28 11 12
3.085604e-001 -1.082620e+000 -7.414865e+000 208 191 147
3.242597e-001 1.007902e+000 -7.038660e+000 196 34 40
3.745300e-001 9.665333e-001 -6.968399e+000 206 37 44
7.326753e-001 6.776173e-001 -6.576517e+000 17 1 8
-3.671600e-001 8.590343e-001 -7.765383e+000 193 36 43
5.776829e-001 6.173708e-001 -6.745065e+000 148 124 116
5.675477e-001 5.838381e-001 -6.751880e+000 221 212 203
-1.135126e-001 5.467179e-001 -7.378353e+000 150 141 131
3.854739e-001 2.962379e-001 -7.024466e+000 142 132 119
9.627877e-001 2.498337e-001 -6.366541e+000 232 58 71
3.753523e-001 1.361043e-001 -6.841963e+000 194 184 174
3.814163e-001 4.390394e-002 -6.792457e+000 146 136 127
7.004365e-001 8.037294e-002 -6.671223e+000 188 181 171
-2.161412e-001 2.317173e-002 -6.892459e+000 77 20 13
-1.803718e-001 5.069817e-003 -6.873981e+000 156 144 132
5.019722e-001 2.831315e-002 -6.709556e+000 160 150 141
5.826990e-001 -9.388482e-003 -6.653854e+000 209 200 193
-2.857192e-001 -2.674035e-001 -6.765876e+000 169 145 135
3.634029e-001 -3.011111e-001 -6.907796e+000 227 220 210
6.170366e-001 -2.692608e-001 -6.663513e+000 177 166 154
-5.057274e-002 -4.535976e-001 -7.042766e+000 50 39 37
-4.212480e-001 -4.696043e-001 -6.849722e+000 40 34 25
4.015303e-001 -5.178095e-001 -6.908440e+000 254 253 249
8.510192e-001 -7.565772e-001 -6.614357e+000 250 255 249
2.333312e-001 8.470898e-001 -7.171255e+000 221 215 212
7.356582e-001 6.329214e-001 -6.566278e+000 227 55 67
4.104334e-001 6.965508e-001 -6.979284e+000 228 223 217
6.223346e-001 5.926442e-001 -6.644950e+000 219 53 65
-1.963658e-001 6.999393e-001 -7.602467e+000 156 143 134
1.090954e-001 6.249044e-001 -7.230665e+000 221 214 208
4.065125e-001 5.992218e-001 -6.973946e+000 240 233 227
3.396172e-002 5.954998e-001 -7.255300e+000 207 198 193
7.278515e-001 4.303031e-001 -6.602569e+000 215 204 198
3.711785e-002 4.898918e-001 -7.237515e+000 204 193 187
7.584959e-001 3.927941e-001 -6.540551e+000 213 45 54
-4.189387e-001 3.996994e-001 -7.806664e+000 212 202 193
1.829103e-001 3.147002e-001 -7.069864e+000 180 169 163
6.763921e-002 1.937916e-001 -6.997766e+000 138 125 116
8.119290e-001 1.794795e-001 -6.521907e+000 158 143 136
2.745999e-001 1.612464e-001 -6.905115e+000 198 190 179
1.009575e+000 1.059370e-001 -6.327731e+000 207 45 51
9.515679e-003 1.072769e-001 -6.989002e+000 129 119 109
6.388999e-002 1.080580e-001 -6.961602e+000 214 207 201
1.040916e+000 -2.281695e-002 -6.307673e+000 16 7 3
6.084530e-001 -3.804998e-002 -6.634815e+000 161 149 137
1.246711e-001 -1.392944e-001 -6.874455e+000 195 188 180
-7.866269e-001 -2.221173e-001 -6.530724e+000 122 56 50
1.004778e+000 -1.749193e-001 -6.361768e+000 122 23 36
-4.189489e-001 -2.392451e-001 -6.681492e+000 142 25 26
5.435302e-001 -2.906469e-001 -6.768015e+000 163 151 137
-4.833623e-001 -3.111390e-001 -6.701785e+000 239 188 141
4.988937e-001 -3.935301e-001 -6.760060e+000 161 138 94
4.001553e-001 -5.201131e-001 -6.906864e+000 255 254 250
8.544446e-001 -4.438396e-001 -6.461132e+000 230 217 208
4.069767e-001 -6.728687e-001 -6.997307e+000 225 222 215
6.741827e-001 -8.717917e-001 -6.842799e+000 44 28 34
4.045077e-001 8.891913e-001 -6.932145e+000 223 217 213
-3.912325e-002 9.498627e-001 -7.388549e+000 195 185 176
9.824353e-002 8.661680e-001 -7.279461e+000 206 199 193
5.998852e-001 6.777105e-001 -6.756911e+000 203 197 189
1.692661e-001 2.509837e-001 -7.045621e+000 126 113 104
8.979668e-001 1.797214e-001 -6.445432e+000 192 37 42
2.814818e-001 2.715893e-002 -6.833117e+000 160 152 141
1.294631e-001 -5.380188e-002 -6.861037e+000 255 254 250
2.053546e-001 -5.690336e-002 -6.860552e+000 209 198 192
6.618439e-001 -1.090278e-001 -6.582812e+000 145 131 120
1.008020e+000 -1.134232e-001 -6.319448e+000 241 66 78
-7.197204e-001 -2.049418e-001 -6.513694e+000 119 50 49
-6.827453e-001 -1.647597e-001 -6.552012e+000 149 68 39
-1.620805e-001 -2.915575e-001 -6.918552e+000 50 37 18
-1.622136e-001 -2.939111e-001 -6.934299e+000 50 37 18
-4.018393e-001 -3.208457e-001 -6.683308e+000 170 71 60
1.992851e-001 -3.874278e-001 -6.960532e+000 254 245 190
3.837357e-001 -3.382546e-001 -6.896562e+000 112 94 80
6.042707e-001 -4.822384e-001 -6.686038e+000 144 126 78
6.999984e-001 -4.444592e-001 -6.591349e+000 199 174 118
5.183992e-001 -5.971826e-001 -6.844799e+000 145 127 104
9.633350e-001 -7.460753e-001 -6.510939e+000 254 86 97
9.687578e-001 -7.512498e-001 -6.530348e+000 254 86 97
2.517270e-001 7.560429e-001 -7.102703e+000 163 154 145
1.533114e-001 7.232971e-001 -7.228121e+000 219 211 208
7.530770e-001 4.568681e-001 -6.508333e+000 162 31 39
8.290579e-001 4.252922e-001 -6.423393e+000 234 64 75
1.687495e-001 4.819666e-001 -7.138365e+000 214 205 198
8.609131e-001 1.568946e-001 -6.489829e+000 219 210 205
-2.081687e-001 -5.956943e-002 -6.823023e+000 85 24 16
1.878160e-001 -1.438750e-001 -6.860842e+000 254 255 250
1.005548e+000 -8.742112e-002 -6.343416e+000 243 67 77
9.439532e-001 -1.831403e-001 -6.399826e+000 135 32 35
-8.467845e-001 -2.670762e-001 -6.515276e+000 38 28 32
2.566365e-001 -2.584921e-001 -6.919531e+000 231 228 221
6.828829e-001 -2.987131e-001 -6.588667e+000 122 104 81
6.330425e-001 -3.728759e-001 -6.603210e+000 210 186 131
4.580784e-001 -5.071555e-001 -6.870312e+000 110 87 62
1.023095e+000 -4.177845e-001 -6.367640e+000 24 9 8
9.554325e-001 -6.474069e-001 -6.432789e+000 21 9 12
8.004283e-001 -8.819628e-001 -6.660429e+000 230 64 74
8.019233e-001 -8.844119e-001 -6.666294e+000 230 64 74
4.300614e-002 7.807092e-001 -7.258854e+000 170 157 151
4.332377e-002 7.807778e-001 -7.258372e+000 170 157 151
3.685234e-002 6.505403e-001 -7.230308e+000 208 199 194
2.918630e-001 6.427473e-001 -7.024413e+000 228 221 214
9.837439e-001 1.445367e-001 -6.346203e+000 216 46 55
9.335549e-001 5.201939e-002 -6.373464e+000 131 15 23
-7.492101e-001 -2.818249e-001 -6.566224e+000 246 124 75
6.279531e-002 -4.534961e-001 -6.984971e+000 255 255 253
7.983920e-001 -3.938069e-001 -6.498315e+000 154 132 86
5.656379e-001 -7.659727e-001 -6.899371e+000 22 12 13
8.100254e-001 -7.343466e-001 -6.625684e+000 255 255 253
1.054476e+000 -1.238322e-001 -6.273239e+000 42 30 32
-3.416760e-001 -4.193177e-001 -6.794338e+000 233 232 230
8.538206e-001 -5.779416e-001 -6.524385e+000 182 38 45
3.354736e-001 -1.002054e+000 -7.344350e+000 144 123 80
1.311980e-002 -3.008682e-002 -6.895927e+000 132 119 110
-9.993795e-002 -1.678807e-001 -6.859383e+000 248 244 242
6.402989e-001 4.525118e-001 -6.651495e+000 255 255 253
8.672209e-001 -2.522424e-002 -6.540906e+000 230 225 221
3.092865e-001 -5.973667e-001 -7.025396e+000 254 254 252
1.084884e+000 -2.811109e-001 -6.279254e+000 198 173 117
1.086387e+000 -2.809204e-001 -6.281040e+000 198 173 117
7.370390e-001 -6.466762e-001 -6.701007e+000 238 231 225
1.111908e+000 4.296813e-002 -6.353650e+000 46 34 34
4.138331e-003 9.950248e-001 -7.368574e+000 199 198 186
6.566513e-001 6.899055e-001 -6.536926e+000 219 51 60
6.687065e-001 6.418814e-001 -6.424699e+000 231 69 82
-2.109171e-001 7.799705e-001 -7.652765e+000 173 157 153
6.804803e-002 5.727417e-001 -7.230292e+000 178 165 159
1.050837e+000 7.870914e-002 -6.314403e+000 30 7 14
-3.693058e-002 5.875215e-002 -6.941602e+000 122 107 100
1.067534e+000 2.006950e-002 -6.301557e+000 22 12 11
-1.460100e-001 -2.084404e-002 -6.837974e+000 172 156 148
-1.873917e-001 -6.727135e-002 -6.825706e+000 162 69 54
-4.344316e-001 -1.621402e-001 -6.677664e+000 228 113 68
-2.796394e-001 -1.108968e-001 -6.683709e+000 75 18 11
-7.500746e-001 -1.758460e-001 -6.423865e+000 54 23 1
-1.696426e-001 -2.300705e-001 -6.902288e+000 124 102 57
-6.365897e-001 -2.421216e-001 -6.448095e+000 162 49 30
-4.360404e-001 -3.377806e-001 -6.650708e+000 47 35 45
-2.425420e-001 -3.543237e-001 -6.779096e+000 214 209 203
-2.420225e-001 -3.532909e-001 -6.776789e+000 214 209 203
-4.554538e-001 -4.387387e-001 -6.781267e+000 227 116 60
-1.420850e-001 -3.933927e-001 -6.844604e+000 45 34 30
1.393992e-001 8.981663e-001 -7.248343e+000 188 185 178
7.620984e-001 4.866859e-001 -6.577717e+000 168 32 38
-5.463937e-002 2.552400e-001 -7.219422e+000 157 147 137
1.409449e-002 2.080053e-001 -7.037014e+000 156 146 136
1.072605e-001 2.546021e-001 -6.947957e+000 148 134 122
-2.842575e-001 1.127195e-001 -6.854130e+000 114 55 46
-2.842575e-001 1.127195e-001 -6.854130e+000 114 55 46
-1.593926e-001 -2.122381e-001 -6.822207e+000 229 216 214
-6.571598e-001 -2.877820e-001 -6.487751e+000 217 106 79
-5.863403e-001 -2.705678e-001 -6.524086e+000 91 38 22
-2.095944e-001 -2.765964e-001 -6.813902e+000 46 30 11
-2.138035e-001 -3.112301e-001 -6.832113e+000 144 126 115
8.307465e-001 -2.558639e-001 -6.448235e+000 155 133 91
-2.810785e-001 -3.525007e-001 -6.738314e+000 163 155 150
-1.786324e-001 -3.573951e-001 -6.807314e+000 192 189 184
-1.786324e-001 -3.573951e-001 -6.807314e+000 192 189 184
3.042835e-001 1.007255e+000 -7.050832e+000 200 41 45
1.765263e-001 8.674320e-001 -7.212492e+000 225 218 212
9.067459e-001 3.934635e-001 -6.421219e+000 193 34 51
-1.008954e-001 4.334825e-001 -7.185836e+000 193 184 177
-3.076780e-001 1.050853e-001 -7.000986e+000 42 30 30
-1.629325e-001 -2.649584e-002 -6.832033e+000 102 37 22
-2.330044e-001 -1.737485e-001 -6.621527e+000 176 90 69
-6.317716e-001 -2.805744e-001 -6.558524e+000 167 47 36
-2.470227e-001 -2.805908e-001 -6.843684e+000 113 94 79
-6.790742e-001 -3.350044e-001 -6.583615e+000 210 94 65
-8.615938e-002 -4.159575e-001 -6.934378e+000 52 41 37
1.007275e+000 -4.596172e-001 -6.417087e+000 248 66 76
3.584583e-001 1.142597e+000 -7.005831e+000 28 16 22
-4.255622e-001 3.966320e-001 -7.828433e+000 219 206 198
8.735018e-001 1.626020e-001 -6.460322e+000 209 192 183
8.835481e-001 1.247720e-001 -6.444622e+000 192 178 168
-2.485012e-001 1.169637e-001 -7.099851e+000 37 25 20
-2.632566e-001 7.493267e-002 -6.986468e+000 47 28 22
5.635931e-001 -6.158468e-002 -6.641075e+000 222 215 209
-1.826449e-001 -2.041298e-001 -6.820232e+000 80 58 21
-5.707209e-001 -3.417234e-001 -6.735460e+000 48 29 27
-3.143679e-001 -3.466149e-001 -6.703204e+000 180 170 168
-1.646515e-001 4.190569e-001 -7.375588e+000 209 202 192
-3.768770e-002 2.945842e-001 -7.128466e+000 166 156 146
-3.768770e-002 2.945842e-001 -7.128466e+000 166 156 146
4.601094e-001 -8.160658e-002 -6.740172e+000 195 190 184
-8.273477e-001 -1.696567e-001 -6.367477e+000 190 163 108
7.797492e-001 -1.756925e-001 -6.559982e+000 195 188 182
3.825282e-001 -4.046981e-001 -6.885590e+000 183 163 112
8.354803e-001 -4.289569e-001 -6.515543e+000 178 154 106
2.211983e-001 -6.975429e-001 -7.355636e+000 72 62 35
5.537773e-001 9.260499e-001 -6.768822e+000 202 42 51
-1.069879e-001 5.428504e-001 -7.329575e+000 150 141 131
1.075177e-001 3.314908e-001 -6.926834e+000 181 168 159
-7.468733e-001 -1.219844e-001 -6.472299e+000 146 69 42
-2.963767e-001 -2.220236e-001 -6.644007e+000 121 73 56
-2.963767e-001 -2.220236e-001 -6.644007e+000 121 73 56
1.030477e-001 -3.831642e-001 -6.917278e+000 47 30 18
4.671949e-001 -4.035296e-001 -6.954493e+000 102 84 47
4.288231e-001 -4.928361e-001 -7.022215e+000 85 66 41
8.211981e-001 -5.420278e-001 -6.593191e+000 180 158 145
8.280549e-001 -9.459700e-001 -6.696456e+000 224 60 67
8.280549e-001 -9.459700e-001 -6.696456e+000 224 60 67
8.000960e-001 1.779056e-001 -6.484807e+000 158 143 136
5.309085e-001 -4.088095e-002 -6.643799e+000 191 184 175
-6.336156e-001 -3.186270e-001 -6.580911e+000 255 211 172
6.266376e-001 7.984332e-001 -6.638386e+000 194 34 44
8.328036e-001 4.810292e-001 -6.397113e+000 19 0 9
-1.993031e-001 6.304290e-001 -7.617664e+000 223 216 209
2.122638e-001 5.427783e-001 -7.076967e+000 149 139 129
3.902677e-001 4.503846e-001 -6.893188e+000 222 213 208
-3.741531e-001 -7.126418e-002 -6.606992e+000 87 23 15
9.990159e-001 -5.334746e-002 -6.311777e+000 248 77 87
5.989259e-001 -1.085214e-001 -6.627697e+000 241 241 233
7.649361e-001 -2.710697e-001 -6.533602e+000 111 91 67
8.557715e-001 -2.937891e-001 -6.515522e+000 165 141 95
7.553209e-001 -3.388073e-001 -6.555390e+000 188 166 113
5.154163e-001 -5.207646e-001 -6.792696e+000 205 195 184
5.183219e-001 5.835577e-001 -6.728562e+000 209 202 194
-2.257365e-001 -1.878419e-001 -6.930532e+000 93 66 37
4.120078e-001 -2.625558e-001 -6.894627e+000 247 245 241
1.746314e-001 -4.457189e-001 -6.950780e+000 61 39 25
9.216303e-001 -6.359686e-001 -6.525157e+000 255 78 92
2.928492e-001 6.431849e-001 -7.030195e+000 228 221 214
3.425722e-001 -1.019182e+000 -7.415031e+000 144 123 80
-5.464221e-001 -4.469076e-001 -6.896887e+000 45 33 33
1.020017e+000 -5.343804e-001 -6.404979e+000 24 8 11
-8.673677e-002 1.074917e+000 -7.467451e+000 148 23 29
-7.007414e-002 7.141814e-001 -7.365059e+000 212 206 197
6.937641e-001 7.286952e-001 -6.587857e+000 98 12 21
8.258631e-002 5.614250e-001 -7.258266e+000 155 145 135
7.668208e-001 6.208043e-001 -6.546451e+000 188 53 56
-1.179575e-001 4.193275e-001 -7.380215e+000 151 141 131
3.014821e-001 2.193939e-001 -6.970861e+000 143 129 118
-1.302500e-001 4.685604e-002 -6.880692e+000 135 120 113
-4.722428e-002 6.603604e-002 -6.957956e+000 122 110 103
-3.366655e-002 3.633899e-002 -6.928706e+000 153 143 133
1.470384e-001 4.317409e-002 -6.737780e+000 156 146 137
-5.780205e-001 -1.655366e-001 -6.722353e+000 156 71 47
-5.780205e-001 -1.655366e-001 -6.722353e+000 156 71 47
-4.931428e-001 -1.284367e-001 -6.705827e+000 176 90 62
-4.995059e-001 -1.330315e-001 -6.747097e+000 176 90 62
-2.747007e-001 -1.473667e-001 -6.730657e+000 145 58 35
-3.040350e-001 -1.684361e-001 -6.675288e+000 196 88 56
4.248563e-001 -3.232437e-002 -6.713439e+000 197 189 181
-5.589466e-001 -2.481867e-001 -6.771875e+000 187 84 56
-5.172060e-001 -2.391924e-001 -6.772259e+000 191 72 37
4.080842e-002 -2.335006e-001 -6.905968e+000 242 236 231
-8.781365e-002 -2.952282e-001 -6.960086e+000 44 33 15
-4.236891e-001 -3.416537e-001 -6.668566e+000 201 179 160
1.243056e-001 -3.416534e-001 -6.947297e+000 141 120 74
3.977493e-001 -5.772028e-001 -6.939137e+000 241 238 228
5.823813e-001 -7.397361e-001 -6.916075e+000 229 79 86
9.197366e-001 -5.882034e-001 -6.396487e+000 180 21 31
9.131646e-001 -6.078990e-001 -6.381570e+000 23 4 1
-3.246944e-001 6.938240e-001 -7.767421e+000 195 186 185
7.322703e-001 6.998749e-001 -6.579431e+000 18 6 10
6.453438e-002 5.970953e-001 -7.246347e+000 212 206 200
6.309722e-002 5.961112e-001 -7.228331e+000 212 206 200
6.596310e-001 5.087240e-001 -6.633721e+000 234 229 226
6.615724e-001 5.084461e-001 -6.642669e+000 234 229 226
1.177630e-001 2.527844e-001 -6.966179e+000 136 120 107
-1.818020e-002 2.088637e-001 -7.110883e+000 152 139 130
-3.456595e-002 9.133309e-002 -6.970018e+000 128 114 105
2.856219e-001 1.872795e-001 -6.938465e+000 140 127 111
-1.513666e-001 6.390058e-002 -6.902274e+000 123 110 102
-1.513666e-001 6.390058e-002 -6.902274e+000 123 110 102
-9.142736e-002 1.408567e-002 -6.874030e+000 147 134 126
1.927988e-002 -2.256182e-002 -6.878419e+000 125 112 104
2.845751e-002 -5.465575e-003 -6.879443e+000 169 160 151
-2.882858e-001 -1.123721e-001 -6.747188e+000 65 4 1
-2.884498e-001 -1.125958e-001 -6.747673e+000 65 4 1
-1.859574e-001 -6.708380e-002 -6.825724e+000 172 87 71
-1.866278e-001 -1.120642e-001 -6.801164e+000 207 180 171
-6.746722e-001 -2.636278e-001 -6.549706e+000 230 112 81
-6.746722e-001 -2.636278e-001 -6.549706e+000 230 112 81
-5.232023e-001 -3.053593e-001 -6.783104e+000 66 24 20
-4.354692e-001 -3.318810e-001 -6.650221e+000 57 54 68
-2.347861e-001 -3.305395e-001 -6.810386e+000 179 166 158
3.584404e-001 -2.132047e-001 -6.889728e+000 230 227 220
-6.521434e-002 -4.076630e-001 -6.964858e+000 254 252 247
-4.910715e-002 -4.442664e-001 -7.051341e+000 46 35 29
6.557648e-001 -4.667056e-001 -6.584614e+000 211 186 130
1.110841e+000 -3.553406e-001 -6.292200e+000 198 175 121
2.024828e-001 -8.385697e-001 -7.147626e+000 41 31 23
3.739807e-001 -9.656025e-001 -7.263198e+000 150 128 79
9.332740e-001 -5.620736e-001 -6.414849e+000 211 46 55
4.936808e-001 1.034861e+000 -6.930387e+000 182 43 46
-3.105752e-001 6.733838e-001 -7.730493e+000 156 140 131
6.363661e-001 7.409543e-001 -6.600143e+000 113 9 17
-4.796562e-001 4.662766e-001 -7.981176e+000 34 24 16
-1.837128e-001 5.679257e-001 -7.633311e+000 205 198 188
-2.314389e-001 4.685907e-001 -7.673179e+000 217 210 200
-1.743728e-001 3.756508e-001 -7.445345e+000 144 131 120
-6.426301e-002 3.663806e-001 -7.326377e+000 172 162 152
6.285219e-001 4.640704e-001 -6.671643e+000 229 226 221
6.289589e-001 4.639376e-001 -6.674095e+000 229 226 221
1.126368e-001 2.036798e-001 -6.988734e+000 175 165 156
-1.765124e-001 1.176929e-001 -6.998868e+000 138 124 115
-4.568574e-002 2.596740e-002 -6.923536e+000 115 102 93
5.586136e-003 7.143203e-003 -6.907476e+000 123 113 104
-1.713148e-001 -9.561422e-002 -6.872984e+000 184 161 155
1.628700e-001 -3.982366e-002 -6.856276e+000 206 197 188
-7.395560e-001 -1.663917e-001 -6.526315e+000 77 22 2
-7.184348e-001 -1.857710e-001 -6.485459e+000 54 5 8
-2.816687e-001 -1.695182e-001 -6.710427e+000 219 97 66
-1.883130e-001 -2.046561e-001 -6.885532e+000 93 69 26
-5.981293e-001 -2.683958e-001 -6.635277e+000 225 183 143
-1.520797e-001 -2.569071e-001 -6.888583e+000 97 79 41
-2.114688e-001 -2.975311e-001 -6.850897e+000 203 193 181
-1.899105e-001 -4.108492e-001 -6.911222e+000 45 36 31
-3.287755e-001 -4.739565e-001 -6.869270e+000 234 233 229
9.982357e-001 -2.997373e-001 -6.334054e+000 152 124 77
4.864693e-001 -5.949359e-001 -6.812124e+000 160 147 126
5.602019e-001 -6.952083e-001 -6.864124e+000 174 33 33
9.034398e-001 -5.637547e-001 -6.401719e+000 214 52 58
-5.492736e-002 9.948021e-001 -7.392776e+000 173 35 41
-2.102911e-001 9.165857e-001 -7.649345e+000 195 44 52
-2.102911e-001 9.165857e-001 -7.649345e+000 195 44 52
-3.034917e-001 7.596517e-001 -7.691435e+000 210 44 53
-1.659852e-001 7.737726e-001 -7.615214e+000 203 195 185
-1.655204e-001 7.740550e-001 -7.617672e+000 203 195 185
-3.325995e-001 7.193461e-001 -7.779684e+000 183 34 41
-3.398335e-001 6.155560e-001 -7.773547e+000 178 166 154
2.105152e-001 6.456022e-001 -7.204082e+000 213 204 198
4.802387e-002 5.555381e-001 -7.241399e+000 195 185 177
2.425637e-001 6.186365e-001 -7.158994e+000 208 201 195
-1.131470e-001 4.487301e-001 -7.377761e+000 193 184 175
7.664963e-001 5.079759e-001 -6.565743e+000 203 45 53
7.838279e-001 5.455926e-001 -6.547990e+000 171 26 33
-2.683793e-001 1.674012e-001 -7.820389e+000 203 52 59
-6.892265e-002 1.970340e-001 -7.146210e+000 124 111 102
-2.715522e-002 1.515300e-001 -7.078345e+000 122 114 103
-2.387705e-001 5.078746e-002 -6.936563e+000 130 108 100
6.320465e-001 9.691303e-002 -6.748284e+000 188 179 170
-8.639335e-001 -1.690314e-001 -6.468938e+000 158 135 82
9.719694e-001 1.213652e-001 -6.450224e+000 222 55 65
4.549585e-001 -7.898755e-002 -6.709045e+000 202 197 191
-7.752742e-001 -2.285111e-001 -6.508779e+000 98 31 28
-4.030529e-001 -2.715078e-001 -6.678125e+000 143 9 18
4.786657e-001 -2.867941e-001 -6.850097e+000 165 151 141
4.497960e-001 -3.796814e-001 -6.826116e+000 91 74 38
5.705844e-001 -3.070119e-001 -6.721725e+000 165 152 135
5.384300e-001 -3.364231e-001 -6.721502e+000 148 138 123
8.562784e-001 -2.340551e-001 -6.449069e+000 83 65 39
8.470710e-001 -2.291687e-001 -6.424108e+000 83 65 39
1.008948e+000 -1.908370e-001 -6.334108e+000 140 118 71
8.432632e-001 -4.765387e-001 -6.501839e+000 197 167 159
1.177818e+000 -3.476544e-001 -6.199366e+000 27 14 14
5.857994e-001 -7.369805e-001 -6.752492e+000 39 28 23
7.244427e-001 -7.561809e-001 -6.679493e+000 224 57 65
-3.450009e+000 8.885562e-001 -1.185285e+001 11 7 8
2.272138e-001 7.827464e-001 -7.173504e+000 192 179 173
6.431526e-001 8.128031e-001 -6.670583e+000 183 29 39
-5.196699e-002 5.077956e-001 -7.273714e+000 183 173 163
4.289272e-001 3.684633e-001 -6.944603e+000 183 175 163
-2.431734e-001 2.303063e-001 -7.727184e+000 168 33 38
1.975335e-001 6.390771e-002 -6.883273e+000 159 144 137
-3.513936e-001 -3.381494e-002 -6.825080e+000 123 51 35
3.684603e-001 7.819700e-002 -6.815054e+000 179 171 160
-8.614441e-001 -2.307739e-001 -6.535577e+000 32 23 24
-5.058293e-001 -1.686965e-001 -6.712107e+000 234 122 84
-4.894073e-001 -1.966398e-001 -6.700062e+000 166 35 18
-4.701727e-002 -1.159838e-001 -6.807627e+000 241 236 233
1.009956e+000 5.982319e-002 -6.301661e+000 119 10 23
-4.431517e-001 -3.754945e-001 -6.740466e+000 161 144 133
-2.294942e-001 -4.027760e-001 -6.850887e+000 211 204 198
7.985807e-001 -2.430449e-001 -6.533598e+000 147 129 119
7.841479e-001 -2.796406e-001 -6.455612e+000 174 151 101
5.830624e-001 -5.360749e-001 -6.669252e+000 194 185 174
8.248443e-001 -4.252944e-001 -6.474318e+000 175 151 105
1.166707e+000 -3.672290e-001 -6.208650e+000 206 183 115
1.166707e+000 -3.672290e-001 -6.208650e+000 206 183 115
7.401143e-001 -6.453653e-001 -6.648255e+000 208 200 189
3.288376e-001 -1.019085e+000 -7.366228e+000 134 114 69
4.368303e-001 -9.836865e-001 -7.250932e+000 13 5 8
9.147337e-001 -5.450441e-001 -6.413061e+000 150 2 16
-1.931330e+000 -2.748854e+000 -1.056336e+001 37 31 33
-1.919197e+000 -2.879942e+000 -1.057812e+001 37 31 33
-1.445554e+000 -2.073565e+000 -8.682898e+000 39 33 35
-4.938289e-001 6.316017e-001 -7.967896e+000 191 41 42
-8.148166e-002 5.856869e-001 -7.347174e+000 206 197 188
-4.219699e-001 4.001853e-001 -7.870710e+000 208 194 184
-1.789743e-001 4.213236e-001 -7.451251e+000 202 194 183
4.186014e-001 2.649307e-001 -6.996470e+000 141 133 122
1.112210e-001 9.652951e-002 -6.925546e+000 155 145 136
-8.140785e-001 -1.514343e-001 -6.443089e+000 39 24 28
-1.952578e-001 -1.313014e-001 -6.847891e+000 182 160 154
3.956559e-001 3.223715e-003 -6.750296e+000 220 216 210
3.956559e-001 3.223715e-003 -6.750296e+000 220 216 210
2.273208e-001 -1.152398e-001 -6.870281e+000 255 252 244
5.458699e-001 -3.886120e-002 -6.669133e+000 188 179 172
5.847347e-001 -9.316699e-003 -6.660375e+000 213 205 196
6.573660e-001 -4.380063e-002 -6.638328e+000 180 172 160
6.580721e-001 -4.425956e-002 -6.640510e+000 180 172 160
4.726931e-001 -1.327462e-001 -6.750806e+000 226 221 217
4.726931e-001 -1.327462e-001 -6.750806e+000 226 221 217
9.836152e-001 -4.520505e-001 -6.389360e+000 229 58 69
-1.884807e+000 -2.656264e+000 -1.052981e+001 24 18 20
-1.846179e+000 -2.759680e+000 -1.047845e+001 20 14 16
-1.775338e+000 -2.887805e+000 -1.038518e+001 29 23 25
5.554042e-001 9.269331e-001 -6.796101e+000 199 40 48
-1.863369e-001 8.766237e-001 -7.658777e+000 191 41 48
-1.005711e-001 6.501859e-001 -7.339836e+000 177 168 159
-5.057334e-002 6.663154e-001 -7.317283e+000 218 211 201
6.142492e-001 6.889184e-001 -6.630011e+000 189 43 49
-4.915824e-001 4.552467e-001 -7.992030e+000 38 24 21
-1.260367e-001 4.029067e-001 -7.421339e+000 145 133 122
1.126538e-001 3.448106e-001 -7.086689e+000 188 175 166
3.252808e-001 3.052218e-001 -7.022458e+000 170 162 149
5.658116e-001 1.335236e-001 -6.827033e+000 155 145 134
-8.540115e-001 -1.793949e-001 -6.478077e+000 168 147 100
-8.540115e-001 -1.793949e-001 -6.478077e+000 168 147 100
-7.909482e-001 -1.726129e-001 -6.495523e+000 151 127 81
5.828589e-001 -9.429958e-003 -6.654409e+000 213 205 196
1.016476e+000 -5.035306e-002 -6.338187e+000 247 80 90
4.097292e-001 -4.724947e-001 -6.906017e+000 81 64 37
5.163760e-001 -5.194121e-001 -6.783368e+000 204 191 182
1.118576e+000 -3.199296e-001 -6.244833e+000 163 139 91
3.673335e-001 -1.063399e+000 -7.309958e+000 41 28 23
-1.693717e+000 -2.852815e+000 -1.039518e+001 68 64 65
-1.250973e-001 8.309257e-001 -7.348811e+000 220 197 200
4.718590e-001 5.173225e-001 -6.920912e+000 210 201 194
8.250866e-002 4.015609e-001 -7.149802e+000 153 141 129
2.992680e-001 4.240216e-001 -7.095461e+000 178 169 160
-1.562000e-002 3.488672e-001 -7.272393e+000 140 130 118
6.969946e-002 1.928608e-001 -7.029014e+000 128 116 106
1.318328e-001 1.851944e-001 -6.974064e+000 201 194 184
4.171417e-001 2.748163e-001 -7.008996e+000 151 143 132
6.693481e-001 2.161819e-001 -6.675372e+000 249 245 240
7.997637e-002 -2.219936e-002 -6.893678e+000 127 117 107
-6.843465e-001 -1.665590e-001 -6.555374e+000 155 66 34
-1.081247e-002 -2.644012e-001 -6.917093e+000 244 241 236
6.633803e-001 -1.103577e-001 -6.586426e+000 133 119 108
5.873832e-001 -2.330303e-001 -6.697169e+000 234 230 221
4.601223e-001 9.105091e-001 -6.892274e+000 207 41 48
-3.722953e-001 3.010527e-001 -7.827013e+000 37 29 27
8.527712e-001 4.878296e-001 -6.446615e+000 17 7 8
-3.780435e-001 -6.841842e-002 -6.715683e+000 87 27 18
1.804991e-001 -4.392169e-001 -6.917493e+000 63 35 24
9.420829e-001 -1.904714e-001 -6.416802e+000 108 27 33
6.288558e-001 -3.679444e-001 -6.581504e+000 222 197 140
8.387754e-001 -2.876619e-001 -6.436971e+000 175 151 103
8.232741e-001 -4.810677e-001 -6.510219e+000 227 214 206
2.802082e-001 6.372715e-001 -6.926207e+000 230 221 214
5.217530e-001 5.958839e-001 -6.833919e+000 215 208 200
3.746590e-001 4.492311e-001 -6.958732e+000 211 204 196
3.772585e-001 4.489090e-001 -6.965404e+000 211 204 196
6.902740e-001 2.853923e-001 -6.649981e+000 174 159 147
3.314341e-001 1.130983e-001 -6.856493e+000 178 168 159
9.452556e-001 -3.335288e-001 -6.376281e+000 108 88 50
3.733238e-002 6.507227e-001 -7.230258e+000 217 208 201
-1.450562e-002 4.649690e-001 -7.310387e+000 186 176 167
3.023784e-002 3.280837e-001 -7.196779e+000 131 121 111
7.841801e-001 2.791727e-001 -6.521554e+000 249 248 244
6.649651e-001 -2.030140e-001 -6.582077e+000 247 240 234
3.379234e-001 -1.011497e+000 -7.365971e+000 140 121 72
1.093156e-001 9.483837e-001 -7.245961e+000 210 201 196
3.469918e-001 5.504632e-001 -6.961607e+000 233 224 217
-2.803835e-001 -8.365550e-002 -6.764438e+000 76 21 19
4.773973e-001 1.039874e-001 -6.774330e+000 138 126 114
5.038909e-001 -4.028928e-001 -6.806578e+000 170 148 100
-2.831731e-001 5.140368e-001 -7.815619e+000 215 206 197
-5.703961e-002 -6.182157e-001 -6.983146e+000 39 31 29
6.407646e-001 3.806662e-001 -6.670879e+000 243 242 237
-2.361025e-001 1.738678e-002 -6.885464e+000 73 25 18
-2.226679e-002 2.092524e-002 -6.923904e+000 142 132 122
-1.907980e-001 -3.307671e-001 -6.835832e+000 172 159 150
-2.564189e-001 -3.548624e-001 -6.782107e+000 171 161 150
2.131933e-001 6.218810e-001 -7.211585e+000 175 166 157
2.179518e-001 2.013405e-001 -6.983480e+000 124 113 103
-1.574191e-001 -1.116323e-002 -6.880454e+000 149 136 128
-2.700725e-001 -2.782547e-001 -6.809033e+000 168 150 139
6.868795e-001 7.651190e-001 -6.631627e+000 122 32 33
-1.396826e-001 4.503640e-001 -7.443736e+000 164 156 145
-5.030191e-001 -7.311589e-002 -6.743242e+000 108 35 15
-3.704610e-001 -3.244800e-001 -6.636005e+000 168 149 148
1.036026e+000 5.296570e-002 -6.295133e+000 180 41 48
3.936994e-001 -1.092220e-001 -6.814923e+000 253 250 245
-1.693606e-001 -3.950604e-001 -6.929937e+000 240 237 230
5.601198e-001 -6.954413e-001 -6.863555e+000 181 39 35
7.565704e-001 5.830493e-001 -6.563837e+000 189 34 42
6.494993e-001 5.584770e-001 -6.627929e+000 249 64 78
9.369078e-001 2.018034e-001 -6.422746e+000 227 60 68
1.007238e+000 5.827289e-002 -6.310194e+000 121 11 20
-8.235723e+000 -6.023723e+000 -1.881924e+001 106 97 95
-4.045176e-001 8.249631e-001 -7.850480e+000 25 18 16
1.777125e-001 3.708678e-001 -7.098079e+000 134 124 111
-2.354174e-002 1.018807e+000 -7.371385e+000 181 36 41
1.134866e+000 -1.700493e-001 -6.208471e+000 190 165 111
1.134866e+000 -1.700493e-001 -6.208471e+000 190 165 111
1.296717e-001 3.494489e-002 -6.891124e+000 132 120 108
-5.840549e-001 -1.171015e-001 -6.697561e+000 69 22 15
4.790288e-001 6.595893e-002 -7.178254e+000 142 132 120
5.349771e-001 5.823689e-001 -6.801264e+000 194 186 177
-1.372013e-001 1.316922e-001 -6.895128e+000 102 88 79
-6.709405e-001 -1.293886e-001 -6.974324e+000 114 51 31
-4.562221e-001 -2.085575e-001 -6.702700e+000 186 45 12
2.029237e-001 8.052180e-001 -7.206933e+000 195 186 181
-8.537173e-001 -1.524778e-001 -6.412999e+000 140 113 65
-8.319348e-001 -3.167369e-001 -6.685782e+000 51 37 33
-4.769775e-001 -1.910907e-001 -6.628254e+000 146 24 8
-6.162746e-001 -3.010042e-001 -6.574629e+000 220 167 124
-5.908592e-001 -2.650164e-001 -6.538975e+000 82 29 13
-5.908592e-001 -2.650164e-001 -6.538975e+000 82 29 13
2.141165e-001 6.280072e-001 -6.931196e+000 209 200 191
5.276978e-001 7.073239e-001 -6.691067e+000 187 177 171
-2.043287e-001 2.341908e-002 -6.891744e+000 89 32 21
-6.495324e-001 -3.129523e-001 -6.616397e+000 252 220 167
-6.136694e-001 -2.817669e-001 -6.569487e+000 253 210 175
-5.579301e-001 -2.686766e-001 -6.736444e+000 160 51 24
-5.160186e-001 -2.598365e-001 -6.714377e+000 239 157 124
-2.829573e-001 -1.634634e-001 -6.685216e+000 218 101 62
3.387621e-001 9.544444e-001 -6.995513e+000 227 214 213
6.194011e-001 5.852400e-001 -6.652505e+000 208 52 57
5.616588e-001 5.148488e-001 -6.981969e+000 150 140 128
-8.251081e-001 -1.696452e-001 -6.504095e+000 46 31 24
-2.537142e-001 -1.564878e-001 -6.661683e+000 99 24 18
-5.802777e-001 -2.963934e-001 -6.601642e+000 237 191 148
-7.778762e-001 -1.579363e-001 -6.432268e+000 140 117 76
4.916998e-001 9.908462e-001 -6.848490e+000 196 44 50
-6.214230e-001 -2.992777e-001 -6.576063e+000 232 174 132
-7.885869e-001 -1.317799e-001 -6.592893e+000 137 59 23
-3.020545e-001 -1.940781e-001 -6.642610e+000 227 105 57
2.549512e-001 7.596183e-001 -7.087443e+000 153 142 134
-1.779785e-001 5.950556e-001 -7.609208e+000 171 163 153
-1.892361e+000 -2.453454e+000 -1.046767e+001 58 49 50
7.822076e-001 5.238283e-001 -6.546957e+000 200 52 59
6.199812e-001 -8.265167e-001 -6.779072e+000 230 98 105
1.800499e-001 -4.428998e-001 -6.931896e+000 63 35 24
4.070905e-001 1.084442e+000 -6.902799e+000 174 44 51
6.262963e-002 5.970683e-001 -7.173884e+000 216 207 198
6.282155e-001 7.229545e-001 -6.575603e+000 188 44 48
-1.649514e-001 3.429871e-001 -7.395433e+000 152 140 128
2.864016e-001 2.161262e-001 -6.948092e+000 121 109 94
1.910990e-001 1.379386e-001 -6.844181e+000 191 178 169
-2.949695e-001 -1.174123e-001 -6.742743e+000 84 16 7
-3.971308e-001 -2.207400e-001 -6.644791e+000 167 86 64
4.009426e-001 -7.874578e-002 -6.742238e+000 214 209 202
4.050881e-001 -1.054812e-001 -6.777953e+000 223 217 211
-1.192342e-002 6.067866e-001 -7.307018e+000 205 198 190
6.905941e-001 7.333625e-001 -6.613467e+000 82 12 15
6.251683e-001 7.121142e-001 -6.510639e+000 206 47 61
4.154323e-002 2.127356e-001 -7.023018e+000 152 142 133
-3.991930e-001 -3.030165e-002 -6.797360e+000 118 50 32
-3.991930e-001 -3.030165e-002 -6.797360e+000 118 50 32
-4.571970e-002 4.592040e-002 -6.939878e+000 164 151 143
-2.521055e-001 -5.720905e-002 -6.847170e+000 84 17 11
1.919461e-001 -1.219784e-001 -6.855596e+000 254 254 249
-1.684931e+000 -3.450160e+000 -1.033538e+001 45 39 41
2.862460e-001 1.153430e+000 -7.063137e+000 200 48 52
3.564050e-001 1.007254e+000 -7.062605e+000 214 51 52
3.439219e-001 1.004569e+000 -6.990438e+000 214 51 52
-3.887373e-001 8.297911e-001 -7.852402e+000 20 20 18
-1.610730e-001 7.830995e-001 -7.600691e+000 203 196 186
-1.980135e-001 5.242205e-001 -7.631745e+000 180 171 162
-9.050189e-002 4.136633e-001 -7.351719e+000 180 172 162
-2.008569e-001 4.486471e-002 -6.901731e+000 135 120 113
9.833810e-001 -3.104401e-001 -6.333621e+000 170 147 95
9.975059e-001 -2.972531e-001 -6.329196e+000 164 139 85
6.930495e-001 5.209593e-001 -6.575897e+000 245 68 80
7.576300e-002 1.540657e-001 -6.957487e+000 162 152 142
5.778533e-001 1.965627e-001 -6.839037e+000 172 163 152
6.088267e-001 -2.497474e-001 -6.691389e+000 229 225 216
-6.356284e+000 -7.563082e+000 -1.797787e+001 31 32 36
-4.549485e+000 -6.469983e+000 -1.514236e+001 131 127 141
-4.320974e+000 -6.741806e+000 -1.523350e+001 21 19 22
-5.894468e+000 -8.716634e+000 -1.718168e+001 110 109 122
3.194597e-001 1.137233e+000 -7.020909e+000 204 47 54
3.606313e-001 1.105409e+000 -6.957722e+000 194 38 42
-1.372438e-001 4.602626e-001 -7.433373e+000 165 155 145
6.553090e-001 5.301010e-001 -6.632550e+000 250 245 244
7.553048e-002 -6.386039e-002 -6.863257e+000 160 146 135
2.378927e-001 -2.036871e-001 -6.917511e+000 218 209 202
2.378927e-001 -2.036871e-001 -6.917511e+000 218 209 202
3.551989e-001 -2.548043e-001 -6.916746e+000 217 210 200
1.037623e+000 -1.114451e-001 -6.315385e+000 25 9 12
7.467253e-001 -7.017326e-001 -6.689349e+000 210 205 196
8.417861e-001 -6.971390e-001 -6.572469e+000 250 75 86
9.816866e-001 -7.606362e-001 -6.500065e+000 250 86 94
9.816866e-001 -7.606362e-001 -6.500065e+000 250 86 94
-4.389274e+000 -6.716349e+000 -1.508524e+001 134 131 146
-5.401278e+000 -8.560654e+000 -1.717600e+001 51 51 59
1.024027e-001 -3.786363e-001 -6.913341e+000 44 28 15
1.137049e+000 -1.648588e-001 -6.198761e+000 204 174 122
1.137049e+000 -1.648588e-001 -6.198761e+000 204 174 122
9.692353e-001 -7.452322e-001 -6.483034e+000 250 78 90
9.692353e-001 -7.452322e-001 -6.483034e+000 250 78 90
9.144735e-001 3.382979e-001 -6.398750e+000 218 54 65
-1.575256e-002 -4.792353e-001 -7.038144e+000 43 34 30
9.768934e-001 -1.453012e-001 -6.407921e+000 228 64 75
4.813814e-001 8.109100e-001 -6.847694e+000 230 219 215
2.070190e-001 5.526821e-001 -7.162668e+000 139 126 117
5.276397e-001 2.290217e-001 -6.866527e+000 209 202 194
-6.250151e-002 -3.081032e-001 -6.909519e+000 125 108 78
-6.161489e+000 -7.653477e+000 -1.766584e+001 115 112 119
-6.073477e+000 -8.014695e+000 -1.741229e+001 133 131 142
-6.073477e+000 -8.014695e+000 -1.741229e+001 133 131 142
4.867211e-001 8.010793e-001 -6.855402e+000 229 221 218
1.842658e-001 -4.494845e-001 -6.947408e+000 66 33 26
-4.655978e+000 -6.591876e+000 -1.569566e+001 167 169 184
-6.170411e+000 -6.350385e+000 -1.836768e+001 19 17 22
-2.820852e-001 5.162064e-001 -7.806194e+000 213 204 195
1.883681e-001 6.353866e-001 -7.304801e+000 177 170 162
7.161454e-001 7.182894e-001 -6.594813e+000 109 22 20
-1.826309e-001 1.045590e-001 -6.990066e+000 107 93 84
-1.495091e-001 7.717565e-002 -6.916305e+000 145 130 123
-3.916780e-001 -5.144249e-002 -6.821213e+000 87 19 8
-1.085619e-001 1.737822e-002 -6.868854e+000 128 114 109
-4.763600e-001 -1.199771e-001 -6.716033e+000 125 31 14
-7.150431e-001 -1.870946e-001 -6.539808e+000 87 29 14
-4.680571e+000 -6.095044e+000 -1.517938e+001 95 90 100
9.172843e-001 -6.047952e-001 -6.415857e+000 243 85 83
-1.339747e-001 7.976084e-001 -7.536645e+000 183 176 168
-4.691317e-001 5.268928e-001 -7.952654e+000 206 40 46
-1.731256e-001 5.495646e-001 -7.600899e+000 166 157 148
3.052229e-001 2.111236e-001 -7.081698e+000 144 130 119
-2.208078e-001 4.991201e-002 -6.904249e+000 79 33 28
-4.309591e-001 -5.723007e-002 -6.777207e+000 139 61 39
-5.878558e-001 -1.357379e-001 -6.684492e+000 74 17 10
2.809346e-001 -3.072444e-001 -6.927573e+000 126 110 95
5.749769e-001 -9.044990e-002 -6.639046e+000 218 214 205
5.749769e-001 -9.044990e-002 -6.639046e+000 218 214 205
-5.633688e+000 -8.766425e+000 -1.702848e+001 156 161 183
6.823023e-001 7.377530e-001 -6.633880e+000 76 7 10
1.083083e-001 1.841857e-001 -6.976611e+000 199 191 180
7.109086e-001 4.628395e-001 -6.638062e+000 207 201 195
9.038919e-001 3.280806e-001 -6.404574e+000 234 67 77
-2.830246e-001 -1.789388e-001 -6.737820e+000 214 102 65
7.369390e-001 -8.522932e-001 -6.772918e+000 226 78 79
-1.309722e+000 -2.537582e+000 -8.689550e+000 25 19 21
-5.093933e-001 5.079807e-001 -8.032763e+000 217 58 56
-1.589774e-001 3.238715e-001 -7.352977e+000 140 127 118
-8.514241e-002 3.922102e-001 -7.341198e+000 140 130 117
5.567152e-001 5.568264e-001 -6.791925e+000 166 156 146
2.485375e-001 2.440683e-001 -7.000481e+000 119 104 94
-2.707272e-001 4.334028e-002 -6.925662e+000 61 12 11
4.054958e-001 1.810669e-001 -6.897399e+000 120 108 94
-2.983606e-001 -6.590865e-002 -6.834004e+000 78 23 16
9.339504e-001 2.047267e-001 -6.413974e+000 242 73 82
-2.034300e-001 -3.492169e-001 -6.861606e+000 169 148 135
-4.793760e+000 -6.441119e+000 -1.508483e+001 9 8 14
-1.407614e+000 -4.638073e+000 -1.040930e+001 46 40 42
3.746588e-001 1.350540e-001 -6.843450e+000 203 195 185
6.753343e-001 6.557187e-002 -6.708497e+000 194 185 178
9.391615e-001 -3.648517e-001 -6.365838e+000 110 86 48
-4.752627e+000 -6.581540e+000 -1.512379e+001 155 153 167
-4.718761e+000 -6.522679e+000 -1.503326e+001 155 153 167
-5.950062e+000 -8.754816e+000 -1.708817e+001 130 131 149
-1.908494e-001 7.531873e-001 -7.617673e+000 202 193 185
4.013225e-001 6.486572e-001 -6.974161e+000 168 157 153
4.013225e-001 6.486572e-001 -6.974161e+000 168 157 153
5.414288e-001 2.956070e-001 -6.837526e+000 194 185 176
8.238755e-001 -9.311056e-001 -6.692270e+000 231 66 80
8.238755e-001 -9.311056e-001 -6.692270e+000 231 66 80
5.500598e-001 9.256766e-001 -6.775736e+000 209 45 56
7.621603e-001 -2.688814e-001 -6.528326e+000 91 74 54
7.975873e-001 -9.973014e-002 -6.552353e+000 164 151 143
8.313672e-001 -2.725239e-001 -6.404517e+000 182 157 108
-4.358164e+000 -6.739434e+000 -1.465467e+001 161 161 173
-5.399780e+000 -8.009323e+000 -1.669632e+001 10 8 12
-5.388563e+000 -7.985627e+000 -1.666030e+001 10 8 12
1.053541e+000 -1.320832e-001 -6.290877e+000 37 26 27
-5.779541e+000 -8.735339e+000 -1.718722e+001 168 173 195
-2.163519e-001 2.184510e-001 -7.506498e+000 122 28 31
-1.563281e-001 1.148423e-001 -6.805572e+000 142 129 120
-1.760446e-001 -4.314772e-002 -6.823596e+000 109 37 21
-1.524240e-001 -2.273378e-001 -6.866144e+000 240 229 226
3.814338e-001 -1.103402e-001 -6.820711e+000 238 235 228
-2.795895e-001 9.543873e-001 -7.701073e+000 29 19 19
-2.100280e-001 7.648549e-001 -7.653708e+000 203 194 185
2.255638e-001 6.578174e-001 -7.172821e+000 190 181 174
2.259436e-001 6.565585e-001 -7.186258e+000 190 181 174
1.503578e-001 2.127618e-001 -6.915195e+000 157 141 126
-4.422831e-001 -5.800884e-002 -6.747132e+000 144 65 43
-1.120465e-001 4.923254e-002 -6.947189e+000 131 116 109
-7.776680e-001 -2.138911e-001 -6.490319e+000 91 24 17
-5.019741e-001 -1.902226e-001 -6.648077e+000 251 139 101
-1.618952e-001 -3.267505e-001 -6.847815e+000 191 183 174
-1.702303e+000 -3.389590e+000 -1.034274e+001 41 35 37
7.730143e-001 -2.429891e-001 -6.550398e+000 139 122 110
4.309502e-001 -1.029522e+000 -7.273034e+000 241 221 182
-4.292356e-003 1.172536e+000 -7.322697e+000 186 39 40
-2.742040e-001 -2.420029e-002 -7.846507e+000 35 27 26
-2.742040e-001 -2.420029e-002 -7.846507e+000 35 27 26
-5.185317e-001 -3.135610e-002 -6.853289e+000 69 16 8
-5.185317e-001 -3.135610e-002 -6.853289e+000 69 16 8
7.598814e-001 4.974573e-001 -6.597584e+000 214 57 66
-5.971141e-001 -1.530534e-001 -6.579352e+000 147 63 39
3.940411e-001 4.897345e-002 -6.839228e+000 131 119 107
-4.840315e-002 -2.042326e-001 -6.849123e+000 253 250 243
8.429940e-002 -1.797484e-001 -6.889379e+000 232 225 219
-6.450291e-001 -2.983033e-001 -6.572473e+000 43 35 33
-2.089460e-001 -3.703881e-001 -6.841810e+000 232 225 221
3.495900e-001 -4.027266e-001 -6.887592e+000 196 183 131
-1.618144e+000 -3.494737e+000 -1.037378e+001 53 47 47
3.755135e-002 1.045413e+000 -7.307018e+000 203 42 49
-2.834561e-001 -1.723689e-001 -6.721730e+000 227 116 77
-7.339242e-002 -1.803887e-001 -6.824444e+000 227 224 219
-4.210266e-001 4.010377e-001 -7.798925e+000 213 200 191
7.441749e-001 4.745893e-001 -6.599237e+000 174 33 44
5.068639e-002 -4.211105e-002 -6.880620e+000 159 149 140
4.855885e-002 -3.505088e-002 -6.863521e+000 159 149 140
-1.668682e-001 -3.681391e-001 -6.881780e+000 242 236 232
9.370759e-001 1.545690e-001 -6.405011e+000 195 35 45
9.370759e-001 1.545690e-001 -6.405011e+000 195 35 45
4.320178e-001 -2.993725e-001 -6.904315e+000 244 237 231
1.007536e+000 2.557505e-002 -6.292267e+000 229 83 91
6.538539e-001 -7.657386e-001 -6.749546e+000 219 47 59
2.395083e-001 8.427454e-001 -7.204205e+000 223 217 213
-4.391634e-001 -1.887123e-001 -6.704431e+000 249 132 87
5.654889e-001 -5.386248e-001 -6.743659e+000 229 217 208
-5.488245e-001 -1.327470e-001 -6.711211e+000 94 33 26
3.321249e-001 5.333426e-002 -6.829909e+000 199 190 181
4.408128e-001 3.073022e-002 -6.738266e+000 146 134 120
4.408128e-001 3.073022e-002 -6.738266e+000 146 134 120
4.577867e-001 -6.463359e-003 -6.678326e+000 214 207 199
4.957714e-001 -3.880061e-001 -6.733353e+000 178 156 106
1.012749e-001 1.152753e+000 -7.233637e+000 203 48 54
-1.808782e-001 2.290231e-001 -7.515088e+000 184 174 162
-2.614218e-001 4.646414e-002 -7.366192e+000 220 212 205
-1.197895e-001 5.691425e-001 -7.483720e+000 168 162 150
-1.197895e-001 5.691425e-001 -7.483720e+000 168 162 150
4.774461e-001 -7.235788e-001 -6.906967e+000 251 250 245
-5.945254e-001 -1.365898e-001 -6.760349e+000 65 17 12
5.898966e-001 -3.333670e-001 -6.675529e+000 100 85 64
6.832163e-001 -8.541921e-001 -6.721682e+000 50 36 36
-3.741867e-001 2.149951e-001 -7.634209e+000 38 27 27
-2.899188e-001 -9.307287e-002 -6.792485e+000 66 11 8
2.972471e-001 -1.343036e-001 -6.885867e+000 245 242 234
2.978027e-001 -1.334526e-001 -6.883694e+000 245 242 234
-3.149166e-002 -6.221281e-001 -7.015814e+000 35 30 27
-9.294897e+000 -1.084311e+001 -2.442453e+001 23 19 20
-1.838341e+000 -3.144897e+000 -1.054850e+001 38 32 34
6.253393e-001 -1.329633e-001 -6.588642e+000 228 220 210
-4.248149e+000 -6.514480e+000 -1.522504e+001 30 28 33
-4.334532e+000 -6.563680e+000 -1.514466e+001 165 161 175
-6.035747e+000 -8.360016e+000 -1.715808e+001 9 7 10
-3.731652e-002 2.064862e-001 -7.118861e+000 145 132 123
-4.430796e-001 -7.695956e-002 -6.738953e+000 121 37 16
-4.312617e-001 -1.134613e-001 -6.703142e+000 129 34 14
7.600886e-001 -9.176076e-001 -6.786589e+000 48 30 30
3.548723e-001 1.020671e+000 -7.019994e+000 214 50 57
5.365697e-001 5.565634e-001 -6.826351e+000 204 194 185
-6.088937e+000 -7.326995e+000 -1.831806e+001 84 84 92
-5.792498e+000 -8.967363e+000 -1.705777e+001 12 10 16
9.055383e-002 1.038000e+000 -7.224461e+000 232 192 168
1.779921e-001 6.144080e-001 -7.213210e+000 181 174 164
2.999117e-001 1.015188e+000 -7.044346e+000 203 32 40
-3.954844e-002 4.725165e-001 -7.306692e+000 208 197 191
-3.954844e-002 4.725165e-001 -7.306692e+000 208 197 191
8.355037e-002 5.196710e-001 -7.201377e+000 176 167 154
5.062843e-001 5.508742e-001 -6.875252e+000 187 181 170
-6.969417e-002 2.097738e-001 -7.202474e+000 145 135 125
1.776385e-001 2.447578e-001 -7.005750e+000 122 108 97
-4.434446e-001 -6.231355e-002 -6.756101e+000 144 65 43
-2.296320e-001 -4.495355e-002 -6.854514e+000 90 21 15
-6.211755e+000 -7.871063e+000 -1.816613e+001 79 79 80
-4.745911e+000 -6.184507e+000 -1.520587e+001 101 99 108
-4.629590e+000 -6.918157e+000 -1.527274e+001 156 154 168
-3.907881e+000 -7.318873e+000 -1.500824e+001 84 87 96
-1.506219e+000 -4.137150e+000 -1.032385e+001 50 44 48
-1.721092e-001 7.988124e-001 -7.615974e+000 161 147 139
-6.103418e-002 2.376020e-001 -7.191131e+000 130 118 106
2.374793e-001 2.524906e-001 -7.072372e+000 127 115 102
-6.062097e+000 -7.654479e+000 -1.769193e+001 80 79 84
-2.061898e+000 -3.049745e+000 -1.073219e+001 55 50 54
-5.441719e+000 -8.748439e+000 -1.725704e+001 120 121 139
