ply
format ascii 1.0
element face 0
property list uchar int vertex_indices
element vertex 865
property float x
property float y
property float z
property uchar diffuse_red
property uchar diffuse_green
property uchar diffuse_blue
end_header
-5.494696e-001 -4.256686e-001 -7.003669e+000 254 227 176
-1.834184e-001 -2.690087e-001 -7.654676e+000 159 149 132
-9.096233e-001 -3.623292e-001 -6.580597e+000 255 159 120
-2.091487e-001 1.556309e-001 -7.302934e+000 121 109 95
-1.967401e-002 3.701569e-001 -7.200016e+000 146 134 118
3.767593e-001 1.000191e+000 -6.989033e+000 210 203 192
-1.708642e-001 2.584052e-001 -7.669499e+000 189 177 168
-9.665211e-001 -2.535763e-001 -6.638243e+000 191 91 43
-3.113704e-001 -1.228330e-001 -7.860050e+000 211 205 193
-1.922386e-001 -2.329463e-001 -7.755257e+000 177 167 155
4.468203e-003 -5.374413e-001 -7.177020e+000 224 222 210
-7.928986e-001 -3.232126e-001 -6.915398e+000 186 63 29
-2.389019e-001 7.663483e-002 -7.487297e+000 149 125 113
-7.562083e-001 -2.956429e-001 -7.075320e+000 206 91 47
3.184432e-001 1.152406e+000 -7.084458e+000 204 56 56
6.105319e-001 1.563943e+000 -7.190663e+000 204 55 56
6.648685e-001 1.096925e+000 -6.721148e+000 40 29 27
1.462456e+001 9.344514e+000 9.259259e+000 55 54 51
-1.943833e-001 -7.176656e-002 -7.687141e+000 170 164 148
-4.903900e-001 -4.762001e-001 -7.020765e+000 159 68 40
-3.850685e-001 -3.132231e-001 -7.229451e+000 186 177 170
-8.437468e-001 -4.025913e-001 -6.730250e+000 199 96 63
-9.791665e-001 -3.572973e-001 -6.667338e+000 74 24 19
-9.730779e-001 -3.330217e-001 -6.624849e+000 179 75 44
-8.416384e-001 -3.308057e-001 -6.798260e+000 155 69 48
-8.327900e-001 -3.323155e-001 -6.823885e+000 139 48 30
3.799126e-001 1.106133e+000 -6.996854e+000 217 49 50
-2.686554e-001 -2.488032e-001 -7.797730e+000 209 202 188
-1.791294e-001 5.795252e-001 -7.594387e+000 145 137 124
-1.695732e-001 1.210799e+000 -7.596443e+000 212 52 56
6.987944e-001 -8.403209e-001 -6.724776e+000 240 69 65
1.352216e-001 -6.881783e-001 -7.632051e+000 235 56 69
4.234486e-001 -5.002018e-001 -7.331881e+000 162 25 37
3.957529e-002 -5.210486e-001 -7.549153e+000 255 226 176
4.074218e-002 -5.328108e-001 -7.566051e+000 254 172 151
-1.112393e-001 -4.486214e-001 -7.000608e+000 225 225 216
-1.591387e-001 -4.466021e-001 -7.429187e+000 210 69 57
-1.591387e-001 -4.466021e-001 -7.429187e+000 210 69 57
-7.697075e-002 -4.322409e-001 -7.415017e+000 251 219 170
-7.269349e-001 -4.245740e-001 -6.655596e+000 41 25 24
-7.253634e-001 -4.229186e-001 -6.739405e+000 199 142 97
-6.344643e-001 -3.971919e-001 -7.114571e+000 148 119 106
-7.715436e-001 -3.507450e-001 -6.958150e+000 206 80 40
-5.191497e-001 -3.108629e-001 -7.216730e+000 101 83 68
-2.441255e-001 -2.570557e-001 -7.759281e+000 193 185 174
-2.267771e-001 -2.293288e-001 -7.772608e+000 169 156 150
-8.865795e-001 -3.055396e-001 -6.508325e+000 123 42 28
-7.985732e-001 -3.434155e-001 -6.929978e+000 225 106 70
-7.985732e-001 -3.434155e-001 -6.929978e+000 225 106 70
-7.694611e-001 -3.410763e-001 -6.996877e+000 225 108 64
-3.981471e-001 -1.098706e-001 -7.235965e+000 50 20 15
-2.203652e-001 3.238638e-003 -7.384193e+000 71 8 5
2.479889e-001 -8.048045e-001 -7.397296e+000 207 184 130
-5.335362e-001 -5.334140e-001 -6.843639e+000 248 142 92
-3.002373e-002 -4.535717e-001 -7.342319e+000 203 147 100
-1.118403e-001 -4.146679e-001 -7.320223e+000 255 255 250
-1.638628e-001 -4.335075e-001 -7.444498e+000 148 39 33
-3.490441e-001 -3.642881e-001 -7.148437e+000 73 49 27
-1.587841e-002 -3.139464e-001 -7.502177e+000 76 9 8
-8.967018e-001 -4.268006e-001 -6.690382e+000 210 90 55
-9.311090e-001 -3.874223e-001 -6.712345e+000 199 101 69
-5.254319e-001 -3.002742e-001 -7.229139e+000 103 53 39
-9.666325e-001 -3.882187e-001 -6.630418e+000 254 146 102
-9.831317e-001 -3.755774e-001 -6.680460e+000 215 122 99
-7.956521e-001 -3.202432e-001 -7.018698e+000 176 53 19
-6.980397e-001 -3.275266e-001 -7.090891e+000 225 101 67
-7.571423e-001 -3.025917e-001 -7.097238e+000 167 46 15
-7.571423e-001 -3.025917e-001 -7.097238e+000 167 46 15
-9.956513e-001 -2.885207e-001 -6.588053e+000 97 62 47
-2.026311e-001 1.144212e-001 -7.548642e+000 161 134 125
2.927746e-001 -8.399192e-001 -7.397042e+000 180 165 117
1.062510e+000 -4.871374e-001 -6.288735e+000 218 45 51
1.050740e+000 -5.183264e-001 -6.358574e+000 253 52 61
4.427585e-001 -6.272356e-001 -6.893219e+000 238 234 218
8.079073e-001 -3.327888e-001 -6.535494e+000 162 149 132
1.635362e-001 -5.146092e-001 -7.445120e+000 188 158 108
-1.834345e-001 -3.810814e-001 -7.100295e+000 153 138 119
-5.597693e-001 -3.542665e-001 -7.167470e+000 126 61 38
-3.539563e-001 -3.241442e-001 -7.197732e+000 162 153 144
-9.359310e-001 -3.802283e-001 -6.685939e+000 192 66 30
-9.482294e-001 -3.876103e-001 -6.694161e+000 192 66 30
-8.149097e-001 -3.855441e-001 -6.767079e+000 159 55 31
-5.618257e-001 -2.887551e-001 -7.243516e+000 95 20 7
-2.147463e-001 1.566803e-001 -7.258053e+000 144 132 120
-1.726089e-001 2.174128e-001 -7.332979e+000 147 137 125
-2.374287e-001 1.042569e+000 -7.697376e+000 166 26 34
-3.648697e-002 1.351274e+000 -7.365410e+000 33 24 25
1.333197e+000 -4.284824e-001 -6.095884e+000 39 30 27
7.004561e-001 -3.808456e-001 -6.605093e+000 103 92 59
6.022585e-001 -4.783551e-001 -7.532781e+000 227 37 47
-2.616129e-001 -4.617107e-001 -7.021809e+000 186 181 167
-5.163019e-002 -4.289730e-001 -7.394135e+000 178 87 42
-1.109350e-001 -4.534852e-001 -7.818240e+000 245 87 84
-1.017019e+000 -2.869311e-001 -6.582648e+000 48 43 37
-9.723051e-001 -2.741462e-001 -6.596204e+000 125 47 22
-3.784844e-001 -1.242460e-001 -7.247913e+000 88 58 56
-2.309590e-001 1.589816e-001 -7.238230e+000 117 105 93
-2.028427e-001 3.609708e-001 -7.397988e+000 160 151 142
-1.506453e-001 6.506171e-001 -7.423584e+000 197 189 178
-1.506453e-001 6.506171e-001 -7.423584e+000 197 189 178
-1.549280e-001 6.507835e-001 -7.532763e+000 130 120 110
-1.577412e-001 7.714989e-001 -7.600608e+000 174 170 158
7.554362e-001 -8.578256e-001 -6.697396e+000 255 253 254
5.068802e-001 -5.927702e-001 -6.839235e+000 186 176 154
8.285795e-001 -3.073095e-001 -6.439846e+000 134 31 33
-5.202036e-001 -4.964377e-001 -6.837226e+000 201 65 28
-5.129341e-001 -4.873124e-001 -7.066667e+000 236 225 224
-2.198640e-001 -3.884191e-001 -7.249356e+000 255 255 247
-8.236517e-001 -3.827110e-001 -6.808479e+000 164 73 41
-6.790391e-001 -3.400646e-001 -7.009619e+000 183 61 30
-1.780612e-001 3.557956e-001 -7.538431e+000 202 197 185
-2.254155e-001 6.450319e-001 -7.696353e+000 208 204 195
7.498890e-001 -8.099087e-001 -6.693810e+000 244 232 226
5.986417e-001 -5.643381e-001 -6.764591e+000 231 223 189
6.553086e-001 -4.364668e-001 -6.608121e+000 147 130 86
2.619894e-001 -5.095802e-001 -7.318807e+000 166 112 85
-1.660236e-001 -3.911564e-001 -7.152419e+000 165 153 137
-3.420306e-001 -3.804836e-001 -7.197661e+000 242 234 228
-5.628740e-001 -3.436240e-001 -7.206419e+000 72 15 13
-9.220005e-001 -2.976083e-001 -6.503712e+000 165 89 93
-6.307979e-002 2.974919e-001 -7.253762e+000 163 153 141
1.290254e-001 5.984813e-001 -7.192634e+000 169 162 152
-2.787898e-001 5.389342e-001 -7.774658e+000 215 211 203
2.763393e-001 -8.841661e-001 -7.463891e+000 151 131 80
6.792786e-001 -6.384710e-001 -6.727641e+000 204 198 184
-4.878948e-001 -5.192322e-001 -6.878020e+000 255 224 177
-6.641460e-002 -5.029083e-001 -7.680297e+000 194 129 83
-5.263724e-001 -4.573945e-001 -6.843761e+000 254 206 158
-7.431489e-001 -3.963636e-001 -6.667729e+000 253 233 196
-6.297801e-001 -3.134708e-001 -7.047558e+000 125 32 21
-4.356593e-001 4.580116e-001 -7.998696e+000 213 45 53
4.504876e-001 -7.132309e-001 -6.920971e+000 228 225 210
1.209131e+000 -2.518300e-001 -6.170321e+000 112 98 61
2.628757e-001 -5.409765e-001 -6.873356e+000 253 255 254
2.037329e-002 -5.208978e-001 -7.273550e+000 118 46 32
-6.355670e-001 -4.217763e-001 -6.858060e+000 249 195 147
-2.547108e-001 2.594572e-001 -7.438464e+000 169 162 149
-3.668194e-001 8.156887e-001 -7.797110e+000 209 206 199
1.065839e+000 -5.875758e-001 -6.299240e+000 39 30 25
-1.206306e-001 -4.452020e-001 -7.290327e+000 137 61 37
-1.879144e-001 -3.541992e-001 -7.102404e+000 86 65 46
-2.859440e-001 -8.531507e-002 -7.323172e+000 67 14 15
-1.486815e-001 3.725499e-002 -7.242487e+000 107 88 81
-2.029715e-001 1.360007e-001 -7.529306e+000 145 131 122
-3.219762e-001 1.057776e-002 -7.919490e+000 8 5 6
-7.978465e-002 -4.975214e-001 -7.202283e+000 245 245 238
-6.866828e-001 -3.215684e-001 -7.135724e+000 202 85 50
-1.009516e+000 -2.389777e-001 -6.561978e+000 50 42 40
-2.280053e-001 2.334469e-001 -7.787255e+000 134 10 21
-2.613599e-002 -3.377028e-001 -7.487006e+000 55 6 5
-6.264490e-001 6.017619e-001 -8.170598e+000 193 33 41
-6.264490e-001 6.017619e-001 -8.170598e+000 193 33 41
2.979232e-001 -8.177120e-001 -7.445354e+000 254 255 208
-3.780973e-002 -4.793216e-001 -7.506070e+000 254 223 171
-1.986823e-001 5.228906e-002 -7.659792e+000 88 6 14
-8.453088e-002 4.021732e-001 -7.077197e+000 226 223 216
-8.581690e-001 -5.223054e-002 -6.920106e+000 42 32 30
1.916904e+001 1.030146e+001 1.311326e+001 62 62 62
1.869228e+001 9.692352e+000 1.200745e+001 54 55 60
1.869228e+001 9.692352e+000 1.200745e+001 54 55 60
1.166493e+000 -5.662264e-001 -6.323336e+000 201 39 44
9.424464e-001 -6.291845e-001 -6.521469e+000 204 191 182
-4.667297e-001 -5.208816e-001 -7.005613e+000 127 23 22
-5.643559e-002 -4.693039e-001 -7.263533e+000 219 64 79
-6.465708e-001 -3.474710e-001 -7.094923e+000 196 116 93
-8.255266e-001 -3.428321e-001 -6.817997e+000 188 84 56
-6.766097e-001 -2.662016e-001 -7.208878e+000 125 64 47
-3.842968e-001 7.746222e-001 -7.880762e+000 163 153 144
-3.848511e-001 -3.488515e-001 -7.209403e+000 169 162 152
-1.073061e-001 -2.373519e-001 -7.554439e+000 157 145 131
-7.294603e-002 -2.192104e-001 -7.549929e+000 157 145 131
3.551748e-001 1.098980e+000 -7.023635e+000 202 186 179
2.992745e-001 1.139143e+000 -7.112361e+000 218 204 202
-4.179003e-001 -3.491043e-001 -7.140393e+000 110 96 86
6.247263e-002 5.549542e-001 -7.247645e+000 211 203 194
-2.041929e-001 6.662331e-001 -7.666590e+000 202 198 187
3.157986e-001 1.220362e+000 -7.120950e+000 210 44 51
-2.948259e-001 6.250743e-001 -7.796615e+000 212 208 199
1.623825e-001 -1.135541e+000 -7.738670e+000 40 33 31
1.135872e+000 -4.999515e-001 -6.423832e+000 212 43 34
4.419071e-001 -6.193118e-001 -6.913559e+000 228 226 213
2.924759e-001 -7.199451e-001 -7.364756e+000 238 78 84
-4.883870e-001 -5.146540e-001 -6.838201e+000 212 110 66
-5.949026e-001 -4.779724e-001 -7.138972e+000 154 147 141
-2.227402e-001 -3.665485e-001 -7.084208e+000 92 73 47
-8.147208e-001 -4.070019e-001 -6.736814e+000 208 100 72
-9.201565e-001 -3.942981e-001 -6.646210e+000 245 122 80
-9.201565e-001 -3.942981e-001 -6.646210e+000 245 122 80
-9.482240e-001 -3.676536e-001 -6.661278e+000 213 88 40
-1.062134e-001 -1.721898e-001 -7.562369e+000 178 173 161
-1.062134e-001 -1.721898e-001 -7.562369e+000 178 173 161
-7.920776e-001 -2.897023e-001 -7.055523e+000 187 80 44
-4.537003e-001 9.892925e-001 -7.881334e+000 30 18 11
2.919691e-001 -6.285960e-001 -7.367984e+000 218 65 70
-4.947406e-001 -4.505362e-001 -6.672723e+000 125 14 18
-7.360467e-001 -4.171646e-001 -6.643137e+000 253 224 168
-7.360467e-001 -4.171646e-001 -6.643137e+000 253 224 168
-3.595758e-001 -3.173881e-001 -7.260463e+000 179 165 155
-9.152343e-001 -4.009511e-001 -6.639237e+000 203 74 35
-9.317560e-001 -3.794309e-001 -6.645603e+000 220 88 46
-8.293788e-001 -3.203856e-001 -6.850437e+000 131 42 22
-8.293788e-001 -3.203856e-001 -6.850437e+000 131 42 22
-7.512461e-001 -3.097805e-001 -7.058487e+000 177 57 20
-6.702653e-001 -2.629393e-001 -7.210518e+000 123 61 47
-8.113371e-001 -2.524953e-001 -7.055239e+000 141 47 16
1.301755e+000 -4.435524e-001 -6.112373e+000 37 26 24
6.906017e-001 -5.788480e-001 -6.724133e+000 200 194 179
3.296306e-001 -5.446001e-001 -7.324069e+000 147 18 28
3.202405e-001 -5.975350e-001 -7.342835e+000 119 4 13
2.845293e-001 -5.706417e-001 -7.350237e+000 106 5 12
7.890392e-001 -2.119634e-001 -6.502825e+000 228 224 215
-1.916969e-001 -4.620802e-001 -7.017665e+000 246 242 236
-3.648233e-002 -4.609744e-001 -7.303956e+000 211 163 115
-1.331624e-001 -4.291729e-001 -7.212347e+000 204 198 184
-7.569279e-002 -4.364819e-001 -7.620395e+000 122 4 13
-7.070802e-001 -4.166422e-001 -6.707056e+000 235 186 141
-1.853144e-001 4.682917e-001 -7.509718e+000 172 162 152
-5.303836e-001 8.127047e-001 -8.069607e+000 180 38 45
-5.028370e-001 -4.848372e-001 -6.797277e+000 253 136 82
-8.253695e-002 -4.493980e-001 -7.571034e+000 234 186 140
-5.635483e-001 -3.908454e-001 -6.670920e+000 252 217 161
-2.562884e-001 -3.919729e-001 -7.281459e+000 224 221 215
-5.851579e-001 7.585783e-001 -8.153186e+000 31 13 19
-2.052536e-001 1.735605e-001 -7.283725e+000 112 100 87
-7.809068e-001 -3.266882e-001 -7.013638e+000 190 69 37
-2.035167e-001 -2.815267e-002 -7.722442e+000 197 189 179
-1.279747e-001 7.626133e-001 -7.540310e+000 152 142 132
-2.662278e-001 3.984126e-002 -7.392253e+000 141 127 118
1.102889e-002 -4.861742e-001 -7.326966e+000 253 207 157
-2.937212e-001 -3.358051e-001 -7.317942e+000 117 99 87
-1.966619e-001 3.180429e-001 -7.485792e+000 126 114 99
-1.911307e-001 9.450453e-001 -7.683719e+000 171 160 152
-2.448331e-001 9.920692e-001 -7.721114e+000 191 40 47
-3.181300e-001 1.134184e+000 -7.771376e+000 25 19 19
-4.741176e-001 4.872843e-001 -8.050672e+000 11 5 5
1.846157e-001 -6.226568e-001 -7.478456e+000 163 139 91
-1.932424e-002 -4.648453e-001 -7.499408e+000 253 219 166
-1.039805e-001 9.735923e-001 -7.381930e+000 208 201 192
-2.603824e-001 -9.492835e-002 -7.872624e+000 202 198 187
-2.008177e-001 -2.439685e-001 -7.760223e+000 182 172 160
-4.175742e-001 1.297873e-001 -8.048460e+000 21 9 9
1.049387e+000 -4.616178e-001 -6.283883e+000 150 129 90
4.522333e-001 -5.810716e-001 -6.904397e+000 254 252 247
-4.944047e-001 -4.166538e-001 -6.647805e+000 114 34 28
-5.133999e-001 -5.180610e-001 -6.840526e+000 238 141 91
-7.228583e-001 -4.148379e-001 -6.667837e+000 253 210 173
-6.579747e-001 -4.460797e-001 -6.950039e+000 249 195 146
-2.965468e-001 -3.573817e-001 -7.106691e+000 87 68 36
-3.033238e-001 -3.411530e-001 -7.122681e+000 115 99 65
-3.000131e-001 -3.736740e-001 -7.181750e+000 250 248 235
-9.073984e-002 -4.391149e-001 -7.698376e+000 182 30 33
-8.757390e-001 -4.151436e-001 -6.680013e+000 211 97 65
-7.706304e-001 -4.206421e-001 -6.739388e+000 212 149 98
-8.541136e-001 -2.835105e-001 -6.491421e+000 101 12 4
-9.039237e-001 -3.029818e-001 -6.499505e+000 111 31 25
-8.978255e-001 -4.033324e-001 -6.663151e+000 231 115 78
-5.127879e-001 -3.452879e-001 -7.191679e+000 134 118 109
-9.470045e-001 -3.538715e-001 -6.729189e+000 176 96 66
-7.749155e-001 -3.337582e-001 -7.008978e+000 162 41 7
-1.019793e+000 -2.450083e-001 -6.475903e+000 59 41 6
-7.564345e-001 -3.030065e-001 -7.050155e+000 204 94 58
-7.669230e-001 -3.218719e-001 -7.061545e+000 159 45 11
1.143710e+000 -5.253423e-001 -6.330858e+000 255 75 80
9.440470e-001 -6.127183e-001 -6.532782e+000 204 195 186
7.182723e-001 -3.883748e-001 -6.577082e+000 137 119 79
7.378884e-001 -2.807303e-001 -6.555715e+000 213 209 201
1.141359e+000 2.526454e-002 -6.213228e+000 192 53 55
-3.710076e-002 -5.139582e-001 -7.102314e+000 242 241 233
-5.306364e-001 -3.843533e-001 -6.645229e+000 49 36 42
-7.837692e-001 -4.191967e-001 -6.747984e+000 198 77 46
-8.377914e-001 -4.023997e-001 -6.802942e+000 144 53 26
-9.429623e-001 -3.623114e-001 -6.659198e+000 204 71 33
-9.924037e-001 -2.876362e-001 -6.588322e+000 122 67 51
-7.725960e-001 -3.062711e-001 -7.001468e+000 166 49 16
-7.243067e-001 -2.956573e-001 -7.136072e+000 157 50 18
-8.247905e-001 -2.644887e-001 -7.059866e+000 135 46 16
-2.383868e-001 2.499853e-001 -7.698336e+000 169 159 149
-1.754126e-001 9.018454e-001 -7.725884e+000 177 168 159
9.716440e-001 -5.096849e-001 -6.466956e+000 253 252 250
3.442922e-001 -8.506732e-001 -7.366448e+000 16 4 2
2.853606e-001 -7.290662e-001 -7.315695e+000 108 8 17
2.950424e-001 -6.264189e-001 -7.366375e+000 196 56 57
1.551937e-001 -7.381162e-001 -7.582320e+000 232 78 87
2.361203e-001 -6.268434e-001 -7.380774e+000 87 25 11
6.533486e-001 -8.134358e-002 -6.607162e+000 168 160 149
6.533486e-001 -8.134358e-002 -6.607162e+000 168 160 149
-1.021092e-001 -4.798674e-001 -7.168480e+000 254 254 246
-2.218590e-001 -3.980236e-001 -7.019123e+000 149 141 122
-3.128218e-001 -3.431382e-001 -7.141431e+000 61 45 25
-8.131804e-001 -4.165318e-001 -6.727213e+000 196 84 54
-6.647269e-001 -4.380854e-001 -6.955927e+000 166 52 27
-3.608286e-001 -3.484355e-001 -7.194048e+000 164 159 147
-8.731429e-001 -3.973766e-001 -6.725372e+000 200 100 74
-7.262357e-001 -3.636054e-001 -6.887946e+000 228 106 58
-9.232771e-001 -3.673936e-001 -6.717546e+000 136 42 16
-5.420562e-001 -2.789573e-001 -7.240722e+000 92 16 6
-5.420562e-001 -2.789573e-001 -7.240722e+000 92 16 6
-7.833989e-001 -2.056224e-001 -7.103900e+000 111 25 8
1.026279e-001 6.131822e-001 -7.194746e+000 210 207 200
-1.994278e-001 9.057013e-001 -7.719763e+000 199 192 182
-2.905849e-001 -3.919596e-001 -7.054825e+000 214 218 210
-2.120553e-001 -3.900822e-001 -7.250158e+000 254 254 246
-6.687198e-001 -3.704752e-001 -6.897879e+000 235 167 122
-9.324100e-001 -3.758352e-001 -6.684315e+000 180 55 23
-8.520692e-001 -4.045914e-001 -6.732971e+000 206 103 76
-9.364215e-001 -2.511391e-001 -6.488400e+000 247 230 176
-6.591106e-001 -3.327479e-001 -7.142809e+000 108 17 5
-1.135345e-001 6.889440e-001 -7.397677e+000 195 189 180
-2.953938e-001 1.092922e+000 -7.767932e+000 193 46 52
1.252497e+000 -3.709427e-001 -6.159793e+000 124 109 74
9.855990e-001 -5.102165e-001 -6.396087e+000 253 111 121
1.007269e+000 -1.251535e-001 -6.386273e+000 240 227 227
3.294550e-001 -5.243831e-001 -7.309393e+000 80 5 12
-2.222903e-001 -3.805676e-001 -7.033169e+000 30 22 5
-1.299937e-001 -4.263515e-001 -7.252409e+000 190 181 170
-4.752696e-001 -4.745777e-001 -7.056922e+000 216 215 208
-2.399517e-001 -3.729835e-001 -7.219270e+000 248 245 244
-9.475379e-001 -3.491940e-001 -6.623189e+000 242 126 78
-1.012713e+000 -2.866764e-001 -6.538962e+000 56 36 19
-7.721841e-001 -2.124633e-001 -7.122927e+000 173 82 45
-3.222984e-001 1.136664e-003 -7.876030e+000 236 65 73
1.163419e-001 8.296283e-001 -7.208152e+000 218 215 210
4.187332e-001 -7.202367e-001 -6.991096e+000 255 254 249
-2.331966e-001 -4.080922e-001 -7.001138e+000 153 145 130
-5.225565e-001 -3.905437e-001 -6.632995e+000 43 31 31
-7.908324e-001 -3.096813e-001 -6.981522e+000 232 127 82
3.306254e-001 -8.598709e-001 -7.447600e+000 146 126 75
8.961741e-001 -3.981062e-001 -6.415188e+000 108 97 65
1.145860e+000 -1.404796e-001 -6.267176e+000 234 64 73
6.971863e-001 -4.352421e-001 -6.605427e+000 128 113 70
-7.463922e-002 -4.079214e-001 -7.295691e+000 75 33 27
-6.099507e-001 -3.999164e-001 -6.779750e+000 187 58 26
-3.200747e-001 -3.637755e-001 -7.187612e+000 236 235 224
-7.248691e-001 -3.623299e-001 -6.939009e+000 193 61 26
-7.466393e-001 -2.258083e-001 -7.098786e+000 84 16 6
1.323392e+000 -2.067566e-001 -6.127007e+000 108 99 61
1.323392e+000 -2.067566e-001 -6.127007e+000 108 99 61
1.164913e+000 -1.840353e-001 -6.216170e+000 39 30 28
2.928988e-001 -4.963136e-001 -7.319271e+000 154 103 75
-6.536261e-001 -3.745783e-001 -6.954988e+000 251 195 146
-6.201157e-001 -4.144919e-001 -6.852770e+000 237 187 139
-5.320131e-001 -3.838887e-001 -7.148639e+000 106 95 86
-2.576809e-001 9.578036e-002 -7.771667e+000 205 38 44
-2.014166e-001 5.383531e-001 -7.685515e+000 193 189 177
3.370801e-001 -8.057006e-001 -7.407133e+000 255 255 209
4.163384e-002 -6.532800e-001 -7.749169e+000 20 7 7
-6.632077e-001 -3.085017e-001 -7.131015e+000 191 79 45
-4.409366e-001 -5.068511e-001 -7.004794e+000 133 29 27
-1.254186e-001 7.388892e-001 -7.452231e+000 130 122 111
-2.138033e-001 -3.028000e-001 -7.401466e+000 115 88 71
-5.319469e-001 -3.587989e-001 -6.842432e+000 238 186 138
-5.319469e-001 -3.587989e-001 -6.842432e+000 238 186 138
-3.981297e-001 2.941336e-001 -7.281162e+000 179 172 162
-3.634259e-001 -3.503743e-001 -7.269973e+000 190 179 169
-8.990441e-001 -3.984436e-001 -6.698580e+000 200 86 51
-1.082508e-001 -1.787548e-001 -7.548851e+000 174 168 152
1.757662e-001 -7.282141e-001 -7.566431e+000 90 13 16
-1.248187e-001 -4.376937e-001 -7.226847e+000 190 182 169
-1.694570e-001 -4.327573e-001 -7.420299e+000 218 227 222
-1.954231e-001 4.260413e-001 -7.656219e+000 203 196 185
-1.502017e-001 -4.668369e-001 -6.990892e+000 227 227 219
-5.575023e-001 -3.538865e-001 -7.186792e+000 161 83 57
-7.689635e-001 -3.399175e-001 -6.982110e+000 229 110 70
1.159572e+000 7.550933e-003 -6.187954e+000 35 26 21
-5.203668e-001 -4.113869e-001 -6.948853e+000 180 84 30
-8.214430e-001 -4.037173e-001 -6.736618e+000 200 95 66
-9.008623e-001 -3.827102e-001 -6.698938e+000 163 53 22
-1.328613e-002 -4.550464e-001 -7.367028e+000 189 131 83
-1.892247e-001 -5.822329e-002 -7.690514e+000 157 148 133
-3.039832e-001 -3.600138e-003 -7.863767e+000 230 60 68
-2.353862e-001 2.694269e-001 -7.528941e+000 133 123 113
-7.465537e-001 -2.253541e-001 -7.098011e+000 84 16 6
1.012672e+000 -5.112759e-001 -6.439187e+000 243 55 61
3.188630e-001 -1.063085e+000 -7.349762e+000 117 104 62
3.039196e-001 -6.845836e-001 -7.309954e+000 141 26 33
-1.645370e-001 -3.682538e-001 -7.100892e+000 145 130 111
-1.268456e-001 -4.425463e-001 -7.407017e+000 226 73 65
-3.627095e-001 -3.279969e-001 -7.249675e+000 118 109 100
-8.786297e-001 -3.768430e-001 -6.593411e+000 243 132 104
-9.305350e-001 -2.011514e-001 -6.417061e+000 156 134 88
-8.366581e-001 -3.386404e-001 -6.808615e+000 164 75 51
-8.366581e-001 -3.386404e-001 -6.808615e+000 164 75 51
-7.973444e-001 -3.418829e-001 -6.804565e+000 194 84 50
-9.566013e-001 -2.105755e-001 -6.425400e+000 49 37 24
-1.038286e+000 -2.647197e-001 -6.502969e+000 221 201 148
-9.695740e-001 -2.605149e-001 -6.520815e+000 55 36 6
-7.868359e-001 -2.946463e-001 -7.024366e+000 164 66 30
-2.788245e-001 2.382570e-001 -7.765445e+000 181 144 130
-1.656301e-002 9.300992e-001 -7.331094e+000 194 189 183
6.787982e-001 -8.902176e-001 -6.912584e+000 210 59 72
1.201340e+000 -1.814988e-001 -6.280118e+000 111 60 45
2.877765e-001 -7.224169e-001 -7.366499e+000 228 61 67
3.970841e-001 -4.968533e-001 -7.335407e+000 136 28 31
1.496605e-001 -7.163098e-001 -7.550884e+000 128 98 55
1.623577e-001 -7.105967e-001 -7.577698e+000 214 48 56
-8.958121e-002 -4.362149e-001 -7.409245e+000 255 214 165
-7.227927e-001 -3.390044e-001 -6.541837e+000 61 14 11
-2.625040e-001 -3.260798e-001 -7.129895e+000 64 46 26
-6.369757e-001 -3.438680e-001 -6.724527e+000 182 49 18
-9.820177e-001 -3.183891e-001 -6.569975e+000 142 52 47
-7.646965e-001 -2.904412e-001 -7.044192e+000 162 48 17
-2.897689e-001 -2.687285e-001 -7.795423e+000 188 181 171
3.358784e-001 -1.229952e+000 -7.484577e+000 255 253 198
3.145131e-001 -1.227134e+000 -7.502380e+000 18 7 11
-9.636179e-001 -2.368589e-001 -6.531809e+000 45 39 28
-7.822237e-001 -3.125802e-001 -7.002158e+000 170 54 26
2.988441e-001 9.839882e-001 -7.215689e+000 199 196 189
-3.210182e-001 1.063142e+000 -7.771644e+000 186 48 48
4.855141e-001 -1.149561e+000 -7.317852e+000 234 222 173
1.140957e+000 2.161030e-001 -6.266267e+000 218 52 59
-2.064529e-001 -4.025177e-001 -7.055075e+000 166 158 139
-4.170343e-002 -5.463374e-001 -7.657810e+000 239 192 151
-1.197411e-001 -3.768841e-001 -7.217131e+000 164 151 134
-6.831399e-001 -3.655269e-001 -6.853018e+000 244 188 142
-9.174773e-001 -2.948825e-001 -6.491347e+000 160 89 85
-9.387832e-001 -2.846692e-001 -6.512758e+000 118 27 29
3.681431e-001 1.317569e+000 -7.040892e+000 211 50 56
-3.589764e-001 5.862003e-001 -7.787637e+000 191 184 175
1.094433e+000 2.719047e-001 -6.299319e+000 224 60 64
1.618314e-001 -5.125582e-001 -7.515020e+000 163 130 81
-1.643520e-001 -3.914803e-001 -7.153093e+000 162 150 134
-8.901106e-002 -4.172845e-001 -7.626105e+000 251 210 158
-6.641470e-001 -3.413269e-001 -7.114554e+000 247 143 107
-9.987386e-001 -2.233547e-001 -6.443182e+000 143 124 80
-9.987386e-001 -2.233547e-001 -6.443182e+000 143 124 80
2.172651e-002 1.273483e+000 -7.306132e+000 201 50 59
-7.486901e-002 1.115102e+000 -7.390356e+000 200 47 50
1.028759e+000 -5.372568e-001 -6.453473e+000 215 43 49
6.321027e-001 -5.388187e-001 -6.798230e+000 163 158 134
3.053167e-001 -8.305656e-001 -7.354210e+000 20 6 6
7.360927e-001 -2.011096e-001 -6.590750e+000 226 224 212
1.040625e+000 2.285903e-001 -6.372477e+000 199 45 47
-6.532168e-001 -3.745714e-001 -6.733764e+000 195 71 38
-7.950622e-001 -3.463705e-001 -6.821955e+000 191 72 38
-8.075998e-001 -2.127771e-001 -6.928281e+000 119 51 32
4.634999e-001 -1.122464e+000 -7.292964e+000 38 28 26
-4.613595e-002 -4.622543e-001 -7.276733e+000 86 34 31
-5.322903e-001 -4.255617e-001 -6.791399e+000 197 73 37
-5.322903e-001 -4.255617e-001 -6.791399e+000 197 73 37
-9.712932e-001 -3.471191e-001 -6.696416e+000 97 33 21
-2.187562e-001 1.179577e-002 -7.748503e+000 103 11 17
-3.739673e-001 1.051262e+000 -7.783059e+000 28 18 19
-4.227685e-001 9.895982e-001 -7.841550e+000 194 36 42
-1.761460e-001 -3.629120e-001 -7.186915e+000 81 15 19
8.982064e-001 -4.681115e-001 -6.497475e+000 88 75 43
2.920434e-002 -4.782564e-001 -7.334560e+000 241 199 146
-6.194535e-001 -4.138644e-001 -6.852763e+000 238 185 138
-2.596032e-001 -4.356158e-001 -7.855480e+000 224 222 214
4.278265e-001 -8.965391e-001 -7.287064e+000 22 10 12
-2.990876e-001 -3.152700e-001 -7.976463e+000 18 6 10
3.773914e-001 -1.123467e+000 -7.416508e+000 142 124 78
4.183594e-001 -5.700635e-001 -7.312148e+000 98 8 15
-7.520770e-003 -4.764622e-001 -7.336889e+000 215 163 112
3.048860e-001 -7.468470e-001 -7.301375e+000 101 12 18
-3.677901e-001 8.603852e-001 -7.792224e+000 215 50 52
4.978961e-001 1.202234e-001 -4.510654e+000 73 68 72
-7.994379e-001 -3.432425e-001 -6.816481e+000 184 67 32
-7.994379e-001 -3.432425e-001 -6.816481e+000 184 67 32
-8.082472e-001 -3.251555e-001 -6.848290e+000 195 99 74
-8.082472e-001 -3.251555e-001 -6.848290e+000 195 99 74
7.121640e-001 -9.546178e-001 -6.777289e+000 136 12 19
4.259902e-001 -5.616980e-001 -6.921085e+000 220 214 192
4.224583e-001 -5.531795e-001 -6.938760e+000 255 255 253
3.571045e-001 -4.947032e-001 -7.337854e+000 122 10 16
4.506820e-001 -1.599154e-001 -6.765343e+000 234 232 221
-9.398410e-001 -3.676978e-001 -6.666970e+000 196 69 30
-9.541938e-001 -3.549174e-001 -6.661114e+000 224 127 86
-9.108223e-001 -3.667599e-001 -6.737111e+000 119 36 14
4.875365e-001 -1.147566e+000 -7.297352e+000 36 23 15
-3.077241e-001 -1.685641e+000 -8.396133e+000 76 65 70
-3.077241e-001 -1.685641e+000 -8.396133e+000 76 65 70
-5.947260e-001 -3.723955e-001 -6.810729e+000 210 139 91
1.179411e+000 2.119329e-002 -6.178210e+000 35 29 26
-2.039051e-001 -1.814764e-001 -7.742803e+000 166 158 147
1.120933e+000 2.711908e-001 -6.253009e+000 44 28 28
-8.499419e-001 -3.703896e-001 -6.775988e+000 204 163 122
9.606289e-001 -6.328358e-001 -6.488902e+000 150 37 34
1.023349e+000 -9.886007e-002 -6.346589e+000 232 61 67
6.279520e-001 -3.768434e-001 -6.680442e+000 163 151 129
1.177620e+000 2.203759e-001 -6.234488e+000 44 22 18
-4.555664e-001 -4.188167e-001 -6.629046e+000 207 64 69
-4.932267e-001 -4.391380e-001 -6.736042e+000 224 161 114
-3.808684e-002 -4.753451e-001 -7.273315e+000 115 63 29
-6.948816e-001 -3.385905e-001 -6.531274e+000 150 91 92
-3.155964e-001 -3.785251e-001 -7.197458e+000 220 217 208
-3.640278e-001 -2.943070e-001 -7.238889e+000 100 90 78
-8.075066e-001 -3.380525e-001 -6.822666e+000 200 95 61
-7.953517e-001 -3.206735e-001 -6.873504e+000 154 40 16
-9.889561e-001 -2.835365e-001 -6.555537e+000 199 175 129
-8.098978e-001 -3.195352e-001 -6.860186e+000 127 35 12
-5.192129e-001 4.881744e-001 -7.988961e+000 190 160 152
6.380036e-001 -3.801224e-001 -6.642360e+000 164 154 134
1.409284e-001 -1.147165e+000 -7.737130e+000 38 29 30
6.717278e-001 -2.486302e-001 -6.635356e+000 252 249 240
1.772840e-001 -7.239526e-001 -7.566467e+000 97 5 7
4.628285e-001 -4.923709e-002 -6.723124e+000 189 184 172
1.390050e-002 -5.307615e-001 -7.188459e+000 239 237 230
4.039902e-003 -4.775588e-001 -7.351478e+000 213 163 114
8.860893e-003 -4.789191e-001 -7.362511e+000 212 160 110
-2.119178e-002 -4.491324e-001 -7.340183e+000 195 141 95
4.716582e-002 -5.219902e-001 -7.580531e+000 202 31 35
-1.565429e-001 -4.250425e-001 -7.445521e+000 131 25 18
-7.184580e-002 -4.123662e-001 -7.551703e+000 165 116 81
-8.961732e-001 -2.932809e-001 -6.515090e+000 137 36 29
-9.204239e-001 -3.762038e-001 -6.629787e+000 237 117 78
-2.722786e-001 -2.913580e-001 -7.711800e+000 187 179 166
-7.440932e-001 -2.488224e-001 -7.156611e+000 118 50 41
-2.405970e-001 6.534623e-001 -7.687876e+000 178 176 164
7.062919e-001 -8.700224e-001 -6.902905e+000 216 77 77
3.125003e-001 -1.239652e+000 -7.484453e+000 252 255 205
1.749262e-001 -7.255503e-001 -7.550615e+000 125 101 57
-2.546866e-002 -4.518978e-001 -7.302747e+000 200 151 110
-8.939812e-001 -3.905905e-001 -6.673379e+000 179 56 23
-7.776865e-001 -1.757847e-001 -7.091819e+000 176 81 50
-7.874960e-001 -2.118601e-001 -7.104594e+000 112 29 13
1.640714e-001 -5.842623e-001 -7.578553e+000 215 34 41
-8.523655e-001 -3.526095e-001 -6.788593e+000 110 33 15
-6.445691e-001 -2.992797e-001 -7.050054e+000 146 85 64
-1.366250e-001 -2.307742e-001 -7.551662e+000 192 186 172
-4.329091e-002 1.306197e+000 -7.486682e+000 168 43 47
1.018968e+000 -5.023924e-001 -6.388259e+000 254 108 121
6.933181e-001 -5.480093e-001 -6.712611e+000 171 165 145
6.721430e-001 -5.434318e-001 -6.747008e+000 223 222 209
5.053345e-001 -2.300690e-001 -6.758855e+000 227 221 205
4.745343e-001 -1.870352e-001 -6.756717e+000 255 255 252
-5.008743e-001 -4.543238e-001 -7.020552e+000 255 208 162
-4.539796e-001 -4.594438e-001 -7.057060e+000 212 208 204
-4.622877e-001 -4.670677e-001 -7.057314e+000 212 208 204
-8.494480e-001 -3.931474e-001 -6.695732e+000 149 42 20
-8.494480e-001 -3.931474e-001 -6.695732e+000 149 42 20
-7.649376e-001 -2.096293e-001 -7.122638e+000 160 72 35
-2.974991e-001 -2.063865e-001 -7.874615e+000 189 182 172
-7.691071e-001 -1.187495e-001 -7.159608e+000 202 49 47
3.621937e-001 -5.728167e-001 -6.926157e+000 254 255 224
-5.128701e-001 -4.551101e-001 -7.018994e+000 255 217 165
-5.103677e-001 -4.518436e-001 -7.018144e+000 255 217 165
-8.052192e-001 -3.239271e-001 -6.979308e+000 245 132 88
-7.506556e-001 -2.292072e-001 -7.097842e+000 89 19 7
-8.386214e-002 7.776276e-001 -7.354728e+000 216 213 204
-1.785096e-001 8.719173e-001 -7.646792e+000 151 139 127
-5.128560e-001 -4.521397e-001 -6.759660e+000 253 212 163
-5.184656e-001 -4.480896e-001 -7.016110e+000 253 222 167
-5.932564e-002 -3.964164e-001 -7.813427e+000 224 60 69
-6.329803e-001 -3.700756e-001 -7.134610e+000 118 45 32
-1.644441e-001 9.745196e-001 -7.437820e+000 206 202 193
1.123323e+000 -1.382677e-001 -6.265350e+000 244 63 74
-2.367636e-001 1.249631e-001 -7.764880e+000 203 41 49
-2.341471e-001 2.444116e-001 -7.765197e+000 119 11 17
1.186604e+000 -1.689823e-001 -6.195448e+000 40 30 29
-7.729618e-001 -3.999973e-001 -6.776005e+000 143 44 22
4.598416e-001 -7.607580e-001 -6.968670e+000 227 225 214
4.438359e-001 -7.714338e-001 -6.971156e+000 227 225 214
-9.522906e-001 -2.326825e-001 -6.469752e+000 141 119 76
-2.449260e-001 -1.543339e-001 -7.433865e+000 183 180 167
-2.810211e-001 -4.401305e-001 -7.849542e+000 224 221 212
-8.357043e-001 -2.567496e-001 -6.428519e+000 44 37 34
5.208026e-001 -4.890459e-001 -6.776402e+000 120 104 68
5.208026e-001 -4.890459e-001 -6.776402e+000 120 104 68
-2.850680e-001 -1.047418e-001 -7.886294e+000 191 187 176
-5.306502e-001 1.095400e-001 -7.303488e+000 226 223 214
-4.070795e-001 1.044495e+000 -7.575356e+000 36 22 22
-7.024566e-001 1.520351e-001 -6.959018e+000 34 26 24
4.316844e-001 -4.321310e-001 -6.931649e+000 255 255 253
4.316844e-001 -4.321310e-001 -6.931649e+000 255 255 253
8.251212e-001 -8.333456e-001 -6.862790e+000 165 28 36
1.167463e+000 3.748330e-002 -6.201036e+000 206 51 57
3.629677e-001 -1.194141e+000 -7.435464e+000 140 122 79
4.556157e-001 -1.178019e+000 -7.489006e+000 23 10 3
1.118719e+000 1.998009e-001 -6.264010e+000 230 55 62
9.790381e-001 2.098029e-001 -6.422925e+000 230 218 208
6.540211e-001 -9.480385e-002 -6.626594e+000 237 233 224
3.460629e-001 -8.694500e-001 -7.378673e+000 159 141 87
2.284637e-001 -6.078459e-001 -7.557048e+000 124 87 50
-1.180052e-001 -4.733337e-001 -6.974170e+000 235 234 230
-4.895789e-001 -4.444906e-001 -6.676267e+000 46 30 39
-3.051151e-001 -3.643563e-001 -7.104111e+000 75 55 28
-8.266602e-001 -3.815335e-001 -6.558876e+000 207 93 67
-7.285315e-001 -3.387695e-001 -6.607240e+000 22 12 7
-8.278317e-001 -4.015383e-001 -6.636118e+000 165 77 44
-9.423434e-001 -4.266466e-001 -6.703157e+000 159 50 19
-8.114228e-001 -3.787067e-001 -6.789903e+000 134 33 15
-9.932890e-001 -2.880973e-001 -6.556859e+000 239 216 163
-7.087174e-001 -3.096346e-001 -6.920124e+000 219 92 49
-6.483761e-001 -3.850829e-001 -7.095335e+000 214 123 100
-9.583000e-001 -3.599806e-001 -6.735209e+000 177 99 64
-7.341370e-001 -2.656817e-001 -7.057970e+000 194 86 51
9.112998e-001 -6.505530e-001 -6.522892e+000 194 179 170
7.638824e-001 -8.521166e-001 -6.716598e+000 241 169 163
8.669521e-001 -6.873619e-001 -6.629470e+000 219 216 202
9.800961e-001 -2.323210e-001 -6.403167e+000 206 190 174
9.800961e-001 -2.323210e-001 -6.403167e+000 206 190 174
4.077421e-001 -1.175072e+000 -7.478910e+000 139 123 74
6.455611e-001 -4.030806e-001 -6.594059e+000 99 84 46
5.607415e-001 -5.576712e-001 -6.836137e+000 200 194 180
6.605824e-001 -8.164853e-002 -6.606522e+000 176 172 161
6.404640e-001 -1.643547e-001 -6.625458e+000 234 231 224
6.404640e-001 -1.643547e-001 -6.625458e+000 234 231 224
-4.747579e-001 -4.577835e-001 -6.648408e+000 227 62 63
-6.313989e-001 -4.036217e-001 -6.732295e+000 222 130 83
-7.831138e-001 -4.243209e-001 -6.749535e+000 192 72 42
-8.140515e-001 -3.541312e-001 -6.792435e+000 124 30 4
-6.580525e-001 -3.066947e-001 -7.080685e+000 142 13 16
-4.291348e-001 -3.013801e-001 -7.442362e+000 154 148 138
-5.325463e-001 -2.534677e-001 -7.301216e+000 76 16 8
-2.391954e-001 2.700393e-001 -7.711043e+000 163 153 144
-1.706164e-001 3.909198e-001 -7.764628e+000 153 142 131
-2.100128e-001 9.159238e-001 -7.691197e+000 170 164 150
4.676163e-001 -1.525437e-001 -6.690088e+000 252 248 240
2.856627e-001 -6.351513e-001 -7.368204e+000 204 55 60
1.979128e-001 -8.458125e-001 -7.552074e+000 159 136 88
4.393187e-001 -2.242068e-002 -6.721195e+000 154 147 134
8.809674e-001 5.911637e-001 -6.460407e+000 193 55 52
8.803743e-001 6.524495e-001 -6.485980e+000 215 61 65
2.085660e-001 -1.261812e-001 -6.817137e+000 254 255 250
-6.901135e-001 -3.196591e-001 -6.578941e+000 35 28 31
-8.186790e-001 -3.805454e-001 -6.588994e+000 178 67 37
-8.564577e-001 -4.115037e-001 -6.682346e+000 208 97 74
-6.117529e-001 -3.896923e-001 -6.937833e+000 253 216 161
-6.600042e-001 -3.440855e-001 -6.910735e+000 188 99 64
-9.194802e-001 -3.827703e-001 -6.708318e+000 182 84 55
-5.982556e-001 -2.724363e-001 -7.215740e+000 126 57 42
-5.982556e-001 -2.724363e-001 -7.215740e+000 126 57 42
1.014016e+000 -2.017325e-001 -6.397578e+000 216 203 193
5.094099e-001 2.391591e-002 -6.647503e+000 254 251 242
7.813462e-002 -5.019463e-001 -7.403046e+000 83 44 19
7.151272e-002 -5.029545e-001 -7.400139e+000 83 44 19
9.318401e-002 -4.990521e-001 -7.469269e+000 231 181 133
1.098820e-001 -4.844618e-001 -7.470737e+000 231 181 133
-5.166548e-001 -5.040612e-001 -6.859030e+000 213 121 71
-6.388327e-002 -4.220517e-001 -7.416624e+000 255 215 165
-9.963826e-001 -3.171378e-001 -6.578095e+000 43 13 3
-9.503569e-001 -3.582737e-001 -6.629507e+000 237 126 84
-9.376951e-001 -3.448688e-001 -6.721374e+000 190 100 65
-9.376951e-001 -3.448688e-001 -6.721374e+000 190 100 65
-7.097933e-001 -3.402541e-001 -6.998725e+000 206 88 48
-5.536901e-001 -2.961605e-001 -7.225488e+000 144 64 41
-4.651874e-001 5.533171e-001 -7.940902e+000 160 155 142
1.044297e+000 -4.899299e-001 -6.384812e+000 254 100 108
1.143592e+000 7.118172e-002 -6.212211e+000 38 24 23
1.062923e+000 1.601185e-001 -6.334174e+000 203 40 47
4.449778e-001 -5.182216e-001 -6.878019e+000 160 141 98
5.437170e-001 -1.041105e-001 -6.652733e+000 187 183 172
5.004105e-001 -2.337439e-001 -6.759029e+000 227 220 204
3.171155e-001 -7.670823e-001 -7.421356e+000 166 145 92
8.414214e-001 4.469002e-001 -6.384385e+000 220 55 70
-5.783730e-001 -3.227784e-001 -6.866908e+000 241 190 139
-1.000861e+000 -2.764631e-001 -6.533158e+000 52 35 26
-6.700783e-001 -3.228970e-001 -7.007559e+000 159 45 22
-5.708822e-001 -3.421188e-001 -7.203948e+000 82 22 16
-6.713074e-001 -2.576946e-001 -7.204325e+000 106 48 31
-1.022470e-001 8.094036e-001 -7.536942e+000 149 141 130
6.991206e-003 1.377899e+000 -7.391004e+000 181 40 41
8.511017e-001 -7.453865e-001 -6.627114e+000 205 196 185
1.125555e+000 -3.469129e-001 -6.273525e+000 88 78 51
8.642079e-001 3.953332e-001 -6.455788e+000 230 223 215
8.247988e-001 5.505636e-001 -6.551027e+000 213 52 57
4.955256e-002 -2.674993e-001 -6.866015e+000 195 184 167
-1.891162e-001 -4.647643e-001 -6.989343e+000 245 245 235
-3.511346e-001 -5.654068e-001 -6.955494e+000 186 182 173
1.077662e-001 -4.767838e-001 -7.521776e+000 86 9 9
-5.345654e-001 -4.302550e-001 -6.722510e+000 240 183 133
-2.863828e-001 -4.425409e-001 -7.029781e+000 46 37 19
-2.863828e-001 -4.425409e-001 -7.029781e+000 46 37 19
-3.362609e-001 -4.353420e-001 -7.054935e+000 209 207 196
-3.362609e-001 -4.353420e-001 -7.054935e+000 209 207 196
-2.390428e-001 -3.510513e-001 -7.092044e+000 71 54 33
-2.907021e-001 -3.228675e-001 -7.137966e+000 60 43 23
-8.270415e-002 -4.281881e-001 -7.562573e+000 189 135 99
-3.399814e-001 8.617471e-001 -7.799603e+000 200 187 181
6.802222e-001 -8.873130e-001 -6.956509e+000 21 11 10
4.701338e-001 -2.593013e-002 -6.698446e+000 194 189 170
2.698780e-002 -5.050743e-001 -7.268315e+000 128 64 41
-4.915273e-001 -5.241528e-001 -6.876208e+000 254 215 163
-3.211962e-002 -4.102040e-001 -7.390217e+000 64 39 16
-9.232584e-001 -2.792350e-001 -6.522008e+000 122 34 28
-9.058094e-001 -3.439825e-001 -6.743903e+000 97 30 14
-6.920417e-001 -2.942711e-001 -7.031673e+000 213 101 63
-1.723478e-001 9.803705e-001 -7.655645e+000 190 175 168
5.731535e-001 -3.124032e-001 -6.765640e+000 248 242 233
-6.405868e-001 -3.330849e-001 -6.851528e+000 169 59 31
-6.307280e-001 -3.159300e-001 -7.056203e+000 104 27 17
-2.434128e-001 1.188511e-001 -7.762215e+000 195 32 38
-4.330411e-002 -4.871011e-001 -7.662417e+000 240 194 145
3.600137e-001 -6.237223e-001 -6.956355e+000 250 250 243
7.847589e-001 2.109754e-001 -6.519751e+000 251 249 243
3.092053e-001 -5.167699e-001 -7.487506e+000 120 92 53
-7.020315e-002 -4.874523e-001 -7.193006e+000 238 237 233
-7.171581e-002 -4.902493e-001 -7.193333e+000 238 237 233
-1.555540e-001 -3.987054e-001 -7.349415e+000 254 255 250
-1.555540e-001 -3.987054e-001 -7.349415e+000 254 255 250
-3.167880e-001 -1.140045e-001 -7.915732e+000 187 180 172
-2.189032e-001 5.263458e-001 -7.571035e+000 150 142 131
-2.954143e-001 -2.961396e-001 -7.972704e+000 16 6 7
8.595870e-001 -1.420669e-001 -6.458673e+000 231 228 219
3.922868e-001 -1.117144e+000 -7.417609e+000 143 125 78
6.874260e-001 -9.571366e-001 -6.876656e+000 13 4 5
8.802510e-001 2.024835e-001 -6.254765e+000 37 26 24
-4.453544e-001 -2.369432e-001 -7.262398e+000 100 84 70
-4.453544e-001 -2.369432e-001 -7.262398e+000 100 84 70
-2.588813e-001 -2.930360e-001 -7.782080e+000 167 161 147
-2.052795e-001 -3.767866e-001 -7.035299e+000 28 19 3
-7.049346e-001 -3.319116e-001 -6.517368e+000 160 90 91
-2.506526e-001 -3.514866e-001 -7.094597e+000 92 74 48
-2.675499e-001 -3.557334e-001 -7.193400e+000 242 251 234
-9.090794e-002 -4.322696e-001 -7.563850e+000 171 121 84
-9.224947e-001 -2.211105e-001 -6.436239e+000 130 107 65
-8.998884e-001 -3.949961e-001 -6.705821e+000 169 62 30
-1.789300e-001 -2.329148e-001 -7.573258e+000 182 176 164
-1.044340e-001 -1.404084e-001 -7.602274e+000 183 179 167
-7.690131e-001 -2.877034e-001 -7.027236e+000 182 77 45
-7.667239e-001 -2.838042e-001 -7.026700e+000 182 77 45
-7.867375e-002 -4.806285e-001 -7.031211e+000 231 231 223
-3.676832e-001 -3.133840e-001 -7.218910e+000 105 96 87
-1.896352e-001 2.988789e-001 -7.704066e+000 165 155 146
-5.952568e-001 -3.727266e-001 -6.810410e+000 210 140 90
-2.901580e-001 -2.481024e-001 -7.824539e+000 191 185 173
-4.957998e-001 5.050447e-001 -7.933682e+000 165 151 140
4.842387e-001 -1.439582e-001 -6.690094e+000 252 246 235
-1.247211e-001 -1.097085e-001 -7.673206e+000 206 202 190
9.647975e-001 1.483575e-001 -6.442008e+000 236 232 221
-5.320652e-001 -4.366465e-001 -6.937462e+000 207 134 81
2.625089e-001 -7.203439e-001 -7.405906e+000 82 59 28
-3.336661e-001 -1.383580e-001 -7.906976e+000 187 180 172
7.348163e-001 -8.499155e-001 -6.731655e+000 242 156 156
1.138129e+000 8.824872e-002 -6.243250e+000 205 48 50
2.874305e-001 -1.246024e+000 -7.296103e+000 157 145 97
-8.311237e-001 -3.437372e-001 -6.534456e+000 232 113 81
-8.294377e-002 -5.159424e-001 -7.677706e+000 189 128 87
-8.745597e-001 -4.102490e-001 -6.641085e+000 215 98 65
-8.745597e-001 -4.102490e-001 -6.641085e+000 215 98 65
-7.494370e-001 -3.368587e-001 -6.848894e+000 212 80 36
-7.233370e-001 -3.563606e-001 -6.897385e+000 227 102 56
-7.763475e-001 -3.418378e-001 -6.923728e+000 174 57 21
-6.873568e-001 -2.943704e-001 -7.054900e+000 194 87 54
-2.657860e-002 1.310201e+000 -7.443006e+000 166 36 41
1.049710e+000 -4.421494e-001 -6.271589e+000 88 77 45
7.039375e-001 -8.257045e-001 -6.713299e+000 247 246 231
5.819094e-001 -9.177895e-001 -6.942396e+000 17 2 9
4.676593e-001 -7.051794e-002 -6.709383e+000 222 219 202
3.968795e-001 -1.126784e-001 -6.765727e+000 233 230 223
7.450005e-001 5.644846e-001 -6.631497e+000 235 234 229
7.450005e-001 5.644846e-001 -6.631497e+000 235 234 229
-1.740399e-001 -4.197612e-001 -7.120960e+000 134 125 112
6.140225e-002 -4.822202e-001 -7.500961e+000 249 197 151
-9.007175e-001 -2.450217e-001 -6.461729e+000 33 23 12
-9.007175e-001 -2.450217e-001 -6.461729e+000 33 23 12
-7.198323e-001 -2.159213e-001 -7.167842e+000 92 39 30
-5.638251e-001 4.200510e-001 -7.968477e+000 168 142 135
9.137236e-001 -3.010150e-001 -6.435567e+000 86 75 46
-1.288954e-001 -3.765463e-001 -7.277876e+000 250 249 240
-8.514526e-001 -2.851401e-001 -6.491498e+000 95 23 22
-8.647409e-001 -3.641940e-001 -6.562269e+000 217 99 70
-9.657870e-001 -3.631728e-001 -6.704531e+000 102 26 22
-7.522325e-001 -2.839557e-001 -7.074513e+000 181 74 38
-7.558457e-001 -2.756401e-001 -7.111907e+000 165 76 43
-3.056839e-001 1.527852e-002 -7.883312e+000 226 72 78
7.135356e-001 -9.484840e-001 -6.783037e+000 112 13 24
9.108862e-001 6.190248e-001 -6.457036e+000 190 52 55
-7.967884e-001 -3.967939e-001 -6.672289e+000 112 67 61
-1.205088e-001 -1.597786e-001 -7.627518e+000 201 195 178
-1.396029e-001 1.135067e+000 -7.501290e+000 139 34 34
8.465890e-001 -5.244507e-001 -6.563104e+000 221 213 200
7.946602e-001 5.686790e-001 -6.597233e+000 254 254 250
4.813978e-001 -1.123088e+000 -7.295172e+000 43 28 29
2.745722e-001 -5.198893e-001 -7.327000e+000 152 101 74
1.026237e+000 -2.318083e-001 -6.377044e+000 86 70 45
-6.293534e-001 -3.657599e-001 -6.740795e+000 198 75 39
-6.087250e-001 5.353610e-001 -8.140648e+000 209 45 54
7.669425e-001 -8.450983e-001 -6.690875e+000 253 254 249
-8.335988e-001 -3.098351e-001 -6.519874e+000 235 117 69
-3.867561e-001 8.784657e-001 -7.880642e+000 182 35 41
1.192769e+000 -4.078939e-001 -6.326168e+000 254 91 98
-4.838269e-001 -5.103367e-001 -6.806377e+000 190 84 58
-4.431147e-001 -4.866234e-001 -7.010618e+000 109 37 26
-3.069843e-001 -9.423362e-002 -7.926320e+000 178 174 163
5.692750e-001 -2.803607e-001 -6.698696e+000 247 245 232
-5.492315e-001 -4.098035e-001 -6.698575e+000 244 190 138
-9.701272e-001 -2.512239e-001 -6.472885e+000 139 118 71
-9.701272e-001 -2.512239e-001 -6.472885e+000 139 118 71
-4.784707e-001 -6.411340e-001 -6.609215e+000 33 24 21
2.902150e-001 -6.681816e-001 -7.327267e+000 141 15 19
2.571260e-001 -6.276433e-001 -7.874777e+000 36 22 19
1.957131e-001 -5.726506e-001 -6.919051e+000 254 255 250
1.957131e-001 -5.726506e-001 -6.919051e+000 254 255 250
6.225009e-001 -1.010971e+000 -6.775564e+000 126 12 20
6.017506e-001 -8.218136e-001 -6.842022e+000 201 128 122
4.008983e-001 -6.783218e-001 -6.986359e+000 255 255 251
4.031515e-001 -1.182621e+000 -7.473677e+000 202 187 151
2.953327e-001 -4.723913e-001 -6.878773e+000 84 75 55
2.953327e-001 -4.723913e-001 -6.878773e+000 84 75 55
3.061670e-001 -1.143309e-001 -6.797018e+000 254 254 249
-3.629499e-001 -5.028980e-001 -6.809043e+000 251 251 249
-1.898640e-001 -4.618905e-001 -6.952244e+000 218 217 213
-2.145456e-001 -3.872240e-001 -7.020063e+000 141 131 117
1.662909e-001 -4.592694e-001 -7.518853e+000 125 79 48
-7.339676e-001 -3.151916e-001 -6.503064e+000 131 65 67
-7.339676e-001 -3.151916e-001 -6.503064e+000 131 65 67
-7.135041e-001 -3.147615e-001 -6.501000e+000 140 85 80
-6.395711e-001 -3.862296e-001 -6.691348e+000 254 132 81
-6.395711e-001 -3.862296e-001 -6.691348e+000 254 132 81
-9.325899e-002 -3.368733e-001 -7.242869e+000 53 34 20
-8.548256e-001 -3.764939e-001 -6.523756e+000 234 124 96
-7.077255e-001 -4.120990e-001 -6.670365e+000 223 160 136
-8.636495e-001 -3.687339e-001 -6.549659e+000 178 60 35
-8.363754e-001 -4.181241e-001 -6.625546e+000 251 203 160
-3.655566e-001 -3.523046e-001 -7.197306e+000 145 144 134
-9.494804e-001 -2.372373e-001 -6.470943e+000 197 175 126
-9.705920e-001 -2.823386e-001 -6.485021e+000 104 83 34
-9.227882e-001 -2.946539e-001 -6.503352e+000 108 28 29
-9.615124e-001 -3.173996e-001 -6.554385e+000 116 30 28
-8.640287e-001 -4.333795e-001 -6.719874e+000 159 62 40
-7.749113e-001 -3.624373e-001 -6.828331e+000 208 93 55
-1.825978e-001 -3.281511e-001 -7.554971e+000 175 165 155
-8.001370e-001 -3.611036e-001 -6.882219e+000 215 105 64
-7.558197e-001 -3.654275e-001 -6.932368e+000 172 53 19
-9.903115e-001 -3.805613e-001 -6.699832e+000 80 13 4
-8.442132e-001 -3.079942e-001 -6.839330e+000 127 63 47
-7.582448e-001 -3.176291e-001 -6.968354e+000 204 89 54
-5.293478e-001 -2.500805e-001 -7.301567e+000 61 20 8
-2.060548e-001 -2.379475e-001 -7.712723e+000 182 175 165
-8.260304e-001 -2.726084e-001 -6.944496e+000 78 21 12
-7.439811e-001 -2.750256e-001 -7.131959e+000 79 2 0
-6.864989e-001 -3.164953e-001 -7.171801e+000 101 18 3
-1.159086e-001 -4.700078e-001 -6.973588e+000 220 219 215
-4.904421e-001 -4.430481e-001 -6.675480e+000 51 31 46
-1.450944e-001 -3.638210e-001 -7.153675e+000 148 143 127
-6.251374e-001 -3.439773e-001 -6.665384e+000 252 140 93
-2.461014e-001 -3.506989e-001 -7.107840e+000 52 35 19
-7.187717e-001 -3.559327e-001 -6.621555e+000 88 44 40
-8.091853e-001 -3.988464e-001 -6.655274e+000 43 38 34
-9.603009e-001 -2.614173e-001 -6.458794e+000 68 48 14
-1.044449e+000 -2.740243e-001 -6.502805e+000 221 203 145
-1.044449e+000 -2.740243e-001 -6.502805e+000 221 203 145
-8.681700e-001 -3.687479e-001 -6.782225e+000 89 22 6
-7.694029e-001 -3.593975e-001 -6.874449e+000 172 55 23
-6.425153e-001 -3.747899e-001 -7.094673e+000 185 109 85
-2.516861e-001 -1.024986e-001 -7.417329e+000 132 130 118
-6.564928e-001 -2.686454e-001 -7.059025e+000 53 3 3
-6.822248e-001 -3.378026e-001 -7.073367e+000 117 7 6
-5.397528e-001 -2.953442e-001 -7.247813e+000 109 33 22
-5.522826e-001 -2.841318e-001 -7.255716e+000 142 61 47
-5.937421e-001 -1.825060e-001 -7.250201e+000 197 199 198
-5.972959e-001 -2.116545e-001 -7.255740e+000 75 31 22
-2.452556e-001 2.109864e-001 -7.677820e+000 158 150 142
6.345603e-001 -7.903843e-001 -6.823880e+000 235 216 206
4.860862e-002 -3.029960e-001 -6.885429e+000 253 251 245
-4.688787e-001 -4.208888e-001 -6.650335e+000 78 5 11
-5.359050e-001 -3.946653e-001 -6.653138e+000 33 44 40
-5.049337e-001 -4.860083e-001 -6.803250e+000 223 107 69
-5.117882e-001 -2.144728e-001 -6.636824e+000 32 26 28
-3.889527e-001 -4.817023e-001 -7.000050e+000 131 120 112
-1.177150e-001 -3.745823e-001 -7.219117e+000 169 157 149
-8.470251e-001 -2.913322e-001 -6.470406e+000 143 56 55
-6.637652e-001 -3.959640e-001 -6.686223e+000 209 88 52
-6.537265e-001 -3.386606e-001 -6.734563e+000 170 89 52
-4.020831e-001 -3.566128e-001 -7.160868e+000 195 192 187
-7.355934e-001 -4.578442e-001 -6.877927e+000 198 121 90
-6.480475e-001 -3.826855e-001 -7.114181e+000 112 36 18
-6.319130e-001 -3.980157e-001 -7.110305e+000 105 53 40
-5.791780e-001 -3.613470e-001 -7.195491e+000 72 18 12
-5.799308e-001 -3.310100e-001 -7.218414e+000 123 56 39
-1.973508e-001 -1.641324e-002 -7.721106e+000 167 169 156
4.430569e-001 -5.478744e-001 -6.924947e+000 217 211 199
1.988686e-001 -1.935835e-001 -6.887070e+000 255 254 250
-3.928782e-001 -4.331687e-001 -6.670981e+000 36 25 23
