ply
format ascii 1.0
element face 0
property list uchar int vertex_indices
element vertex 870
property float x
property float y
property float z
property uchar diffuse_red
property uchar diffuse_green
property uchar diffuse_blue
end_header
3.746424e-001 1.148950e+000 -7.038948e+000 214 50 57
5.834042e-001 6.219274e-001 -6.822689e+000 204 194 185
-5.909809e+000 -7.103908e+000 -1.800059e+001 84 84 92
-5.638590e+000 -8.758799e+000 -1.682034e+001 12 10 16
7.571626e-002 1.167140e+000 -7.269920e+000 232 192 168
1.792570e-001 6.823677e-001 -7.272167e+000 181 174 164
3.125302e-001 1.142267e+000 -7.067376e+000 203 32 40
-6.804658e-002 5.267500e-001 -7.360540e+000 208 197 191
-6.804658e-002 5.267500e-001 -7.360540e+000 208 197 191
6.766612e-002 5.844304e-001 -7.227171e+000 176 167 154
5.477888e-001 6.157083e-001 -6.875238e+000 187 181 170
-1.014992e-001 2.290640e-001 -7.244267e+000 145 135 125
1.772688e-001 2.680324e-001 -7.023917e+000 122 108 97
-5.266408e-001 -8.554743e-002 -6.749045e+000 144 65 43
-2.833531e-001 -6.425267e-002 -6.859314e+000 90 21 15
-6.005364e+000 -7.600669e+000 -1.779673e+001 79 79 80
-4.762196e+000 -6.200410e+000 -1.523407e+001 101 99 108
-4.632448e+000 -6.935830e+000 -1.529802e+001 156 154 168
-3.903484e+000 -7.342666e+000 -1.502859e+001 84 87 96
-1.602688e+000 -4.427418e+000 -1.055575e+001 50 44 48
-2.174894e-001 8.951286e-001 -7.707685e+000 161 147 139
-9.076363e-002 2.565912e-001 -7.242402e+000 130 118 106
2.450775e-001 2.779414e-001 -7.097126e+000 127 115 102
-5.893883e+000 -7.434990e+000 -1.739772e+001 80 79 84
-2.204837e+000 -3.255241e+000 -1.099002e+001 55 50 54
-5.267152e+000 -8.481724e+000 -1.693376e+001 120 121 139
-1.550314e+000 -4.503300e+000 -1.047610e+001 53 48 52
5.798556e-001 5.855538e-001 -6.861403e+000 153 143 133
-3.212640e-001 -2.484091e-002 -6.858968e+000 70 20 17
8.534765e-001 3.842316e-001 -6.448806e+000 252 81 93
8.028848e-001 7.563411e-001 -6.537980e+000 21 1 4
-6.313983e-001 6.598354e-001 -8.221411e+000 38 24 20
2.417221e-001 2.298511e-002 -6.848427e+000 244 240 231
5.734197e-001 9.335344e-002 -6.772182e+000 189 175 165
-4.614596e+000 -6.610565e+000 -1.540167e+001 142 138 153
-4.029079e+000 -7.623241e+000 -1.504087e+001 11 7 14
-5.521316e+000 -7.290965e+000 -1.698860e+001 10 10 12
6.136121e-001 1.041349e+000 -6.719318e+000 186 44 53
-5.897442e+000 -7.288971e+000 -1.734335e+001 80 77 84
-1.780481e-001 1.227055e-001 -6.998821e+000 108 94 83
-1.653019e-001 5.011144e-002 -6.918324e+000 162 147 140
-1.653019e-001 5.011144e-002 -6.918324e+000 162 147 140
-4.214273e+000 -6.305675e+000 -1.527988e+001 47 45 48
2.780125e-001 2.208480e-001 -6.925909e+000 143 130 114
-5.316919e-001 -1.571081e-001 -6.709337e+000 126 37 16
-5.630899e-001 -2.589358e-001 -6.663072e+000 144 27 9
-5.285055e+000 -8.735564e+000 -1.678068e+001 116 124 147
5.257370e-001 -4.228835e-001 -6.790650e+000 147 133 108
1.004249e+000 -2.913233e-001 -6.379490e+000 141 114 76
-5.805470e+000 -7.143366e+000 -1.781147e+001 66 66 74
-4.572977e+000 -6.090253e+000 -1.540668e+001 136 136 146
-2.166369e+000 -2.680507e+000 -1.087249e+001 40 36 37
6.738823e-001 5.000131e-001 -6.667634e+000 235 232 223
6.854218e-001 5.182521e-001 -6.644990e+000 236 231 227
-4.715443e-001 -1.420603e-001 -6.748752e+000 90 20 11
-5.773028e+000 -8.625031e+000 -1.679753e+001 3 4 8
4.400947e-001 -4.885806e-002 -6.725134e+000 199 192 174
-1.763093e+000 -3.840386e+000 -1.066238e+001 28 22 24
4.540607e-001 -1.184615e+000 -7.334227e+000 42 29 20
-1.405237e+000 -5.436457e+000 -1.023405e+001 22 15 17
-1.350599e-001 1.199595e+000 -7.558434e+000 142 21 30
-3.473877e-002 1.347554e+000 -7.327756e+000 33 14 15
-2.679785e-001 5.046255e-001 -7.761532e+000 192 184 173
5.111976e-001 1.161332e+000 -6.854873e+000 185 40 45
7.340897e-002 3.775219e-001 -7.173278e+000 136 124 112
-5.692142e+000 -6.986406e+000 -1.782278e+001 66 66 78
-2.197268e+000 -2.533755e+000 -1.083834e+001 36 30 30
-4.786055e+000 -6.170129e+000 -1.543160e+001 130 130 139
-4.709775e+000 -6.358792e+000 -1.504743e+001 122 120 130
-4.570189e+000 -6.410874e+000 -1.522438e+001 137 137 149
-4.213905e-001 -3.671534e-002 -6.842837e+000 56 15 9
-8.723450e-001 -2.432274e-001 -6.498092e+000 136 109 66
9.422164e-002 2.533959e-002 -6.902484e+000 170 160 148
-5.775013e+000 -8.323940e+000 -1.680424e+001 105 103 115
-2.438616e-001 -2.689665e-001 -6.899889e+000 233 209 149
-1.963224e+000 -3.366174e+000 -1.078747e+001 40 34 38
-1.916636e+000 -3.484851e+000 -1.074779e+001 44 40 41
-5.024556e-001 -4.283326e-001 -6.675990e+000 164 143 123
-3.520253e-001 -4.500277e-001 -6.754971e+000 234 229 225
-3.148168e-001 -4.652292e-001 -6.796213e+000 251 251 246
5.927160e-001 -7.455096e-001 -6.842599e+000 174 161 141
8.370032e-001 -1.007195e+000 -6.815863e+000 235 82 88
-1.356430e+000 -5.443169e+000 -1.026284e+001 111 101 102
-1.355532e+000 -5.408227e+000 -1.023100e+001 111 101 102
3.195511e-001 1.318771e+000 -6.988328e+000 27 10 13
-3.224406e-001 7.602232e-002 -6.966652e+000 78 42 41
-5.895412e+000 -7.886387e+000 -1.686920e+001 11 9 17
-4.792755e+000 -6.412211e+000 -1.531613e+001 118 116 128
-2.524528e-001 -5.152767e-002 -6.893633e+000 112 43 32
-4.480289e+000 -6.679603e+000 -1.501593e+001 109 109 117
-2.004920e+000 -3.219104e+000 -1.079496e+001 49 44 46
-3.434021e-001 -2.154989e-001 -6.719023e+000 228 115 76
-1.027018e-001 -4.842298e-001 -6.971675e+000 40 33 25
4.956350e-002 -2.748855e-001 -6.886772e+000 199 189 179
1.079860e+000 3.053479e-001 -6.301790e+000 32 10 16
1.144501e+000 1.377045e-001 -6.245082e+000 32 18 19
-1.463483e+000 -4.815128e+000 -1.043592e+001 52 46 48
-1.411146e+000 -4.887582e+000 -1.033076e+001 45 40 44
-1.368861e+000 -4.891362e+000 -1.021426e+001 49 43 43
6.929635e-001 -9.580785e-001 -6.798777e+000 234 96 96
-4.262335e-001 7.208195e-001 -7.926578e+000 194 172 166
-2.105121e-001 3.584984e-001 -7.403953e+000 126 114 102
-2.105121e-001 3.584984e-001 -7.403953e+000 126 114 102
4.428590e-001 5.710992e-001 -6.975221e+000 184 177 167
4.428590e-001 5.710992e-001 -6.975221e+000 184 177 167
-5.797791e-001 -2.073885e-001 -6.700415e+000 180 74 42
3.810156e-001 -3.011302e-001 -6.929283e+000 216 210 197
3.844780e-001 -5.328837e-001 -6.921097e+000 251 251 241
-1.340567e+000 -5.341342e+000 -1.028137e+001 19 9 10
-2.505252e-001 1.497902e-002 -7.791290e+000 89 8 9
-6.051299e-001 -2.823864e-001 -6.704966e+000 212 107 66
1.163953e+000 -4.108578e-002 -6.242601e+000 32 11 18
-1.425029e+000 -5.264755e+000 -1.022118e+001 62 51 49
4.471122e-001 1.190419e+000 -6.913851e+000 211 51 56
-2.053493e-001 5.116485e-001 -7.701639e+000 203 195 184
-2.640982e-001 1.211357e-001 -7.881570e+000 132 17 24
6.011569e-001 -8.079662e-001 -6.798840e+000 45 34 32
9.781018e-002 3.087422e-001 -7.087902e+000 132 117 106
-3.854139e+000 -7.480340e+000 -1.528080e+001 15 13 18
9.557023e-001 2.937824e-001 -6.420468e+000 226 61 70
1.792896e-001 -5.269090e-001 -6.973276e+000 71 45 31
1.773718e-001 -5.200771e-001 -6.966878e+000 71 45 31
9.295848e-001 -3.216210e-001 -6.368964e+000 199 176 122
-2.327130e-001 1.120312e+000 -7.647496e+000 201 50 57
1.977554e-001 6.222806e-001 -7.189371e+000 140 128 116
4.902119e-001 -3.979092e-001 -6.874526e+000 99 84 64
7.300106e-001 -2.658979e-001 -6.585085e+000 255 252 247
-3.543277e-001 -1.708457e-001 -7.074895e+000 120 52 33
1.456548e-001 1.052801e+000 -7.288714e+000 219 212 206
8.735343e-001 1.474320e-001 -6.460052e+000 225 214 208
6.647587e-002 1.173264e+000 -7.302279e+000 219 54 62
2.228423e-001 7.423542e-001 -7.206810e+000 200 193 185
6.198618e-002 6.278835e-001 -7.261627e+000 161 147 136
-1.554922e-001 1.841501e-001 -7.165289e+000 140 127 113
5.418498e-001 5.433367e-001 -6.832336e+000 140 128 115
-1.838635e-001 3.431535e-002 -6.960881e+000 125 111 102
-1.517926e-001 1.410858e-002 -6.899050e+000 135 120 112
-9.659317e-001 -3.028686e-001 -6.630122e+000 141 75 51
-3.503191e-001 -1.144769e-001 -6.829745e+000 93 35 28
-8.747765e-001 -2.506421e-001 -6.483265e+000 77 23 21
-8.054804e-001 -2.693872e-001 -6.521591e+000 114 28 9
-3.388670e-001 -4.329041e-001 -6.776211e+000 183 174 167
-1.811714e-002 -4.222273e-001 -6.907967e+000 196 180 165
5.160652e-001 -3.252997e-001 -6.775001e+000 161 145 128
-1.427016e-001 4.529300e-001 -7.482052e+000 164 153 143
4.592188e-002 6.686752e-001 -7.279014e+000 222 212 203
2.419569e-001 7.252347e-001 -7.184178e+000 190 181 172
-7.931122e-001 -1.957810e-001 -7.108902e+000 141 63 46
2.914293e-001 3.352778e-001 -7.042054e+000 162 150 138
7.869033e-001 5.187058e-001 -6.597715e+000 209 201 191
-1.749316e+000 -3.904058e+000 -1.067826e+001 29 25 26
-7.856452e-001 -3.604958e-001 -6.544328e+000 224 114 84
9.158869e-001 -7.294037e-001 -6.470789e+000 249 96 104
-2.342851e-001 9.976166e-001 -7.765666e+000 171 28 35
-2.995931e-001 -8.432779e-002 -6.860355e+000 84 20 11
-9.015975e-001 -3.575993e-001 -6.569501e+000 255 163 129
-3.274995e-001 -1.624740e-001 -6.739066e+000 116 44 32
-3.274995e-001 -1.624740e-001 -6.739066e+000 116 44 32
-1.716382e-001 -3.022658e-001 -6.888549e+000 240 231 226
-1.661281e-001 -2.109104e-001 -6.833903e+000 227 222 216
-7.388666e-002 -1.898335e-001 -6.823280e+000 253 248 242
2.007689e-001 -9.992559e-002 -6.842261e+000 221 214 206
8.884587e-001 6.167873e-001 -6.459571e+000 203 58 66
-4.324919e-001 -4.206303e-001 -6.670205e+000 198 194 187
-5.528920e-002 -5.210828e-001 -7.015641e+000 36 27 22
4.077531e-001 -6.929114e-001 -6.969630e+000 252 252 240
-2.565078e-002 1.309354e+000 -7.409090e+000 190 39 46
5.760600e-001 5.578410e-001 -6.807251e+000 171 159 145
7.137611e-001 5.959300e-001 -6.591780e+000 248 249 240
-4.025250e-001 -4.118176e-001 -6.686774e+000 222 213 207
8.110763e-001 4.418544e-001 -6.517341e+000 184 169 156
5.130869e-001 5.402434e-002 -6.682916e+000 191 181 168
4.437648e-001 -1.334178e-001 -6.710923e+000 217 210 200
5.996659e-001 -7.666215e-001 -6.782480e+000 56 42 40
5.996659e-001 -7.666215e-001 -6.782480e+000 56 42 40
-5.180283e-001 -3.418061e-002 -7.073269e+000 44 12 13
7.459894e-001 8.239179e-001 -6.609641e+000 88 7 15
-5.545789e-001 -3.777162e-001 -6.680281e+000 247 188 154
-7.624020e-002 -1.425476e-001 -6.810096e+000 239 232 229
-1.181568e-001 -3.369780e-001 -6.892417e+000 66 47 26
4.947357e-001 -1.400206e-001 -6.690427e+000 230 226 217
-4.674628e-001 8.436273e-001 -8.032563e+000 195 39 46
4.459032e-001 2.937873e-001 -7.005471e+000 141 129 119
8.112839e-001 7.144753e-001 -6.515910e+000 237 81 90
-8.616224e-001 -2.050752e-001 -6.494048e+000 74 22 10
-2.016188e-001 -1.080023e-001 -6.829414e+000 207 188 180
7.614244e-001 5.580499e-001 -6.581343e+000 253 253 251
-5.826050e-001 -3.706179e-001 -6.726592e+000 247 184 142
-4.182730e-001 -4.164663e-001 -6.691746e+000 190 178 171
-3.691453e-001 -3.489051e-001 -6.711770e+000 167 144 133
4.211711e-001 -4.139032e-001 -6.803395e+000 254 252 203
1.040030e+000 1.947662e-001 -6.328085e+000 207 45 57
-1.911560e-001 3.993954e-001 -7.549266e+000 133 121 109
3.174477e-001 4.686162e-001 -7.124431e+000 187 177 168
4.422549e-001 2.998960e-001 -6.997822e+000 141 130 119
7.163290e-001 7.540624e-001 -6.548697e+000 243 82 92
9.223882e-001 -5.584620e-001 -6.485863e+000 244 230 198
7.685042e-002 1.351880e+000 -7.349973e+000 14 3 9
-4.963700e-001 5.725075e-001 -8.049173e+000 188 177 168
-4.113323e-001 2.761275e-001 -8.022896e+000 42 31 29
1.491166e-001 5.190799e-001 -7.176471e+000 231 222 216
5.273665e-001 -8.099287e-001 -6.886745e+000 254 255 247
1.099873e+000 1.488684e-001 -6.281614e+000 221 60 68
1.041807e+000 -2.333625e-001 -6.363424e+000 77 11 15
-1.640298e-001 6.780465e-001 -7.456913e+000 169 160 145
3.389080e-001 -3.990854e-001 -6.928560e+000 80 62 41
8.554375e-001 3.198228e-001 -6.461440e+000 255 251 246
9.644532e-001 -6.513138e-001 -6.470193e+000 172 35 40
5.804993e-001 5.248507e-001 -6.803644e+000 136 122 111
-4.644821e-002 -5.328983e-002 -6.896676e+000 136 119 111
-3.594617e-001 -3.996872e-001 -6.759181e+000 169 151 137
3.378458e-001 -5.551021e-001 -6.852663e+000 254 255 246
9.858345e-001 -7.868112e-002 -6.408983e+000 233 226 218
-7.055401e-001 -1.821843e-001 -6.783356e+000 63 22 19
7.176509e-001 5.160195e-001 -6.611106e+000 255 255 251
-5.789146e-002 2.435310e-002 -7.398889e+000 118 104 93
-4.342489e-001 1.596230e-001 -7.921456e+000 39 30 28
1.966486e-001 -2.782366e-001 -6.942158e+000 243 234 225
-6.953108e+000 -6.076679e+000 -2.199009e+001 135 124 120
-4.486191e+000 -6.693048e+000 -1.504873e+001 111 109 122
-4.739850e+000 -6.568005e+000 -1.509975e+001 165 163 172
-4.614999e-001 -5.294821e-002 -6.820678e+000 117 51 38
-1.450250e-001 6.914327e-003 -6.879795e+000 131 116 109
-1.988844e+000 -3.291942e+000 -1.079584e+001 41 35 39
6.440860e-001 2.213848e-001 -6.765260e+000 184 176 165
1.053866e+000 1.339150e-001 -6.335530e+000 227 69 77
1.052657e+000 1.316490e-001 -6.336304e+000 227 69 77
-5.015542e+000 -1.208734e+001 -1.757005e+001 43 59 116
5.771033e-001 5.887506e-001 -6.848858e+000 157 147 136
3.424276e-001 1.825207e-001 -7.029365e+000 131 115 100
1.110983e+000 1.840691e-001 -6.251449e+000 207 52 57
2.199044e-001 1.008210e+000 -7.225038e+000 203 196 188
2.191852e-001 1.008808e+000 -7.222814e+000 203 196 188
-2.465913e-001 1.272590e-001 -7.107778e+000 129 115 104
-2.053442e-001 6.563447e-002 -6.925779e+000 126 112 103
-2.014701e-001 5.887982e-002 -6.936573e+000 126 112 103
1.579503e-001 1.549876e-001 -6.911731e+000 197 187 175
-4.428669e-003 6.440406e-001 -7.335211e+000 210 201 191
2.933065e-001 1.149774e+000 -7.139222e+000 209 42 51
-2.989542e-001 8.527482e-003 -6.935639e+000 108 90 76
-2.987441e-001 9.897414e-003 -6.934573e+000 108 90 76
8.839202e-001 6.176694e-001 -6.455508e+000 203 58 65
-2.365862e-001 8.519602e-001 -7.752175e+000 209 200 191
-1.993694e-001 9.551476e-001 -7.642092e+000 187 175 163
-1.781964e-001 4.969262e-001 -7.473131e+000 157 147 137
-2.818280e-001 -2.141933e-001 -7.708895e+000 202 195 182
-2.431097e-001 1.582936e-001 -7.237586e+000 120 106 95
7.801881e-001 8.233301e-001 -6.565471e+000 122 32 36
-7.201830e-001 -3.071995e-001 -6.535473e+000 49 19 16
8.388369e-001 5.214257e-002 -6.788995e+000 239 233 221
5.698650e-001 -6.279809e-001 -6.828888e+000 246 233 178
-6.359180e-001 5.905182e-001 -8.226028e+000 185 42 46
2.175532e-002 1.343449e+000 -7.377333e+000 81 18 27
-1.566757e-001 6.604546e-001 -7.454791e+000 168 159 145
-2.143885e+000 -2.847444e+000 -1.092989e+001 45 39 41
-2.196820e-001 4.555707e-001 -7.631158e+000 173 165 152
-3.124680e-001 -1.352708e-002 -7.883984e+000 107 58 49
-2.140530e-001 3.399873e-001 -7.509973e+000 156 146 134
2.452406e-001 6.890135e-001 -7.286378e+000 219 215 206
5.306341e-001 1.140064e+000 -6.820942e+000 200 52 61
-3.182405e-001 -2.080827e-001 -7.738901e+000 176 169 155
-2.519909e-001 1.542184e-001 -7.263911e+000 152 138 127
-1.790005e+000 -3.747789e+000 -1.055484e+001 62 56 58
-1.784386e+000 -3.889397e+000 -1.066594e+001 64 58 60
-2.654595e-001 1.206853e-001 -7.013504e+000 101 84 76
-6.388007e-001 -8.684430e-002 -6.747698e+000 104 43 33
-9.809736e-001 -3.133165e-001 -6.627384e+000 48 16 11
-1.725091e-001 4.130722e-002 -6.897277e+000 139 127 116
3.609466e-001 1.834916e-001 -7.051384e+000 150 137 120
5.528006e-001 5.528727e-001 -6.786017e+000 126 114 99
-7.142377e-002 -1.939430e-001 -6.828342e+000 252 247 243
-1.574079e+000 -4.613625e+000 -1.023760e+001 45 41 38
4.072679e-001 8.710535e-002 -6.823352e+000 180 168 154
-1.493853e+000 -4.941753e+000 -1.027513e+001 62 54 52
8.385664e-001 5.364758e-001 -6.543280e+000 166 31 38
1.084763e+000 -5.181659e-001 -6.289441e+000 227 95 99
-2.922949e-001 5.169644e-001 -7.763215e+000 224 217 207
1.166241e-001 1.024923e+000 -7.280894e+000 212 205 197
1.167740e-001 1.020711e+000 -7.282458e+000 212 205 197
-2.152749e+000 -3.086594e+000 -1.071884e+001 60 54 54
-2.614208e-001 2.269654e-001 -7.720913e+000 207 189 185
-1.772321e+000 -3.688967e+000 -1.058569e+001 25 19 21
-4.625126e-002 2.479122e-001 -7.150413e+000 121 112 98
-1.725727e+000 -3.772180e+000 -1.061963e+001 53 49 50
-1.721520e+000 -3.711312e+000 -1.054804e+001 53 49 50
-2.077020e-001 9.658116e-002 -7.051346e+000 154 138 127
5.056365e-001 5.242975e-001 -6.922145e+000 160 150 138
7.541427e-001 8.554292e-001 -6.600846e+000 159 45 49
-4.187550e-001 -1.815203e-001 -6.699436e+000 122 30 17
1.768499e-001 2.244407e-002 -6.865432e+000 194 184 175
8.414839e-001 5.734835e-001 -6.514703e+000 217 71 78
-1.262219e+000 -5.370052e+000 -1.025616e+001 73 68 71
1.083404e+000 -4.722716e-001 -6.274825e+000 153 33 37
-3.197224e-001 1.777425e-001 -7.941575e+000 215 73 82
-2.111866e-001 2.511997e-001 -7.419926e+000 174 161 145
-6.348310e-002 4.422812e-001 -7.300722e+000 148 136 124
-2.547130e-001 -1.482878e-001 -7.716328e+000 174 166 153
-4.859535e-001 -2.881930e-003 -7.083066e+000 92 38 33
3.629994e-002 -5.864862e-002 -6.895488e+000 164 154 144
3.629994e-002 -5.864862e-002 -6.895488e+000 164 154 144
5.135721e-001 1.695820e-002 -6.690435e+000 198 188 179
5.467687e-001 1.631523e-002 -6.694560e+000 173 161 149
3.440622e-001 -4.716309e-001 -6.910000e+000 119 102 62
-1.804624e-001 4.506346e-001 -7.574737e+000 148 138 126
-3.364809e-001 2.048500e-002 -6.949455e+000 68 23 18
-8.175816e-001 -2.328935e-001 -6.515184e+000 163 82 52
2.009596e-001 5.527648e-002 -6.868638e+000 171 159 147
5.870935e-001 -9.117778e-004 -6.676732e+000 197 187 177
4.479777e-001 -1.135650e+000 -7.309456e+000 245 230 171
4.409743e-001 -5.440537e-001 -6.909955e+000 78 60 27
8.387139e-001 2.014274e-001 -6.486515e+000 254 254 246
-1.810081e-001 2.741156e-001 -7.354458e+000 131 117 101
5.694113e-001 1.593135e-001 -6.892415e+000 158 150 139
5.012526e-001 -4.746577e-001 -6.821207e+000 114 96 56
9.636661e-001 2.593034e-001 -6.431117e+000 232 71 79
3.521374e-001 1.071540e+000 -7.008807e+000 240 236 232
5.656824e-001 9.420371e-001 -6.811916e+000 217 57 64
1.036806e+000 -8.078990e-001 -6.466329e+000 244 88 99
-9.237246e-002 1.301240e+000 -7.495360e+000 24 17 18
1.685999e-001 2.665635e-001 -7.075862e+000 136 124 110
5.863313e-001 -5.644607e-001 -6.797487e+000 232 215 159
5.723023e-001 -5.414642e-001 -6.772114e+000 232 215 159
-1.564021e-001 1.093614e+000 -7.527489e+000 144 26 31
-6.780390e-002 7.624448e-001 -7.344880e+000 222 218 209
-6.780390e-002 7.624448e-001 -7.344880e+000 222 218 209
2.634645e-001 8.622545e-001 -7.104530e+000 155 146 131
6.334070e-001 -1.801134e-001 -6.633316e+000 251 248 243
9.555973e-001 -4.329304e-001 -6.403918e+000 216 197 138
1.962271e-003 1.332967e+000 -7.406319e+000 81 15 23
-2.025072e-001 1.002728e+000 -7.485626e+000 178 159 153
-1.609569e-001 8.696732e-001 -7.449032e+000 198 191 181
-2.238154e-001 3.790003e-001 -7.621459e+000 212 201 189
-1.649600e-001 4.945837e-001 -7.553747e+000 165 153 138
-2.590806e-001 -1.781902e-002 -7.790867e+000 159 85 79
-8.228055e-001 -3.107664e-001 -7.066797e+000 38 28 28
-1.979252e-001 1.016333e-001 -7.119026e+000 107 90 80
-5.511521e-001 -2.347901e-001 -6.693743e+000 236 131 101
-5.603507e-001 -2.640613e-001 -6.653540e+000 126 21 1
-4.743808e-001 -1.358066e-001 -6.686685e+000 120 29 12
1.494056e-002 -2.799256e-002 -6.908470e+000 190 177 168
6.879739e-002 -8.717798e-002 -6.942138e+000 170 157 147
-5.332129e-001 -4.075563e-001 -6.680856e+000 95 90 90
-4.993526e-001 -4.098277e-001 -6.663555e+000 212 200 178
-3.432618e-001 -3.961759e-001 -6.753179e+000 175 150 146
-1.391777e-001 -3.118441e-001 -6.854007e+000 163 146 127
8.981185e-002 -5.576459e-001 -7.058811e+000 155 138 120
3.654215e-001 -8.137972e-002 -6.801484e+000 254 250 241
5.662939e-001 8.083257e-002 -6.756104e+000 192 180 166
2.689984e-001 -4.410142e-001 -6.764969e+000 225 219 207
2.689984e-001 -4.410142e-001 -6.764969e+000 225 219 207
5.061464e-001 -1.210822e-001 -6.706697e+000 222 217 211
-1.269053e-001 8.015663e-001 -7.580221e+000 217 210 200
-1.279374e-001 7.097099e-001 -7.442597e+000 164 153 141
-1.305589e-001 4.519645e-001 -7.460242e+000 168 156 147
-2.419680e-001 -2.295436e-002 -7.758622e+000 155 125 114
-2.038608e-001 3.403912e-001 -7.483557e+000 163 151 141
-3.480075e-001 1.111318e-001 -6.962911e+000 121 63 51
-3.208591e-001 7.286072e-002 -6.988416e+000 83 42 40
-3.320501e-001 2.307355e-002 -6.930080e+000 67 27 25
-1.639311e-003 2.760450e-001 -6.994219e+000 161 149 136
-1.471688e-001 4.456318e-002 -6.938422e+000 133 120 110
-1.061510e-001 5.831529e-002 -6.930918e+000 137 124 114
-1.032868e+000 -2.493028e-001 -6.502070e+000 146 128 79
-1.032868e+000 -2.493028e-001 -6.502070e+000 146 128 79
-3.170125e-001 -1.683156e-001 -6.769860e+000 114 54 44
-1.966834e-001 -2.989697e-001 -6.895758e+000 87 68 37
1.472088e-003 -2.710595e-002 -6.917935e+000 140 123 116
-7.846022e-001 -3.544255e-001 -6.544263e+000 213 115 70
3.975894e-001 1.072174e-001 -6.840047e+000 166 150 136
-3.179061e-001 -4.333256e-001 -6.765359e+000 252 250 246
-3.477004e-001 -4.317415e-001 -6.735859e+000 229 220 215
3.727612e-001 -2.489364e-001 -6.924433e+000 254 255 247
4.163379e-001 -1.059816e-001 -6.790564e+000 235 231 222
5.413999e-001 7.357909e-002 -6.722648e+000 185 176 161
5.071571e-001 -4.986683e-001 -6.980202e+000 155 139 123
4.032977e-001 -5.826149e-001 -6.936424e+000 229 225 211
3.729223e-001 -5.318377e-001 -6.888310e+000 229 225 211
5.508146e-001 -4.859016e-001 -6.863423e+000 179 172 146
4.922316e-001 -2.705580e-001 -6.798015e+000 177 171 159
1.023270e+000 4.200779e-001 -6.376017e+000 214 70 78
1.067445e+000 3.986312e-001 -6.356202e+000 75 69 66
1.036355e+000 3.682606e-001 -6.323510e+000 239 89 101
8.166378e-001 -1.998543e-001 -6.128206e+000 205 186 130
1.153610e+000 4.943284e-002 -6.226405e+000 226 85 101
1.170098e+000 1.201149e-001 -6.186479e+000 80 71 72
1.170098e+000 1.201149e-001 -6.186479e+000 80 71 72
1.048322e+000 -4.466774e-001 -6.308043e+000 169 147 98
-3.905760e-002 1.131504e+000 -7.395599e+000 210 201 197
-2.208986e-001 6.154891e-001 -7.675459e+000 168 157 144
2.990141e-001 1.242092e+000 -7.101638e+000 222 62 70
2.990141e-001 1.242092e+000 -7.101638e+000 222 62 70
-9.873895e-001 -2.831780e-001 -6.636381e+000 33 9 12
-2.548467e-001 4.024953e-002 -6.908762e+000 131 119 108
2.561705e-001 3.110698e-001 -6.969287e+000 149 135 124
2.561705e-001 3.110698e-001 -6.969287e+000 149 135 124
-9.978176e-001 -1.957606e-001 -6.435370e+000 117 93 57
-9.679980e-001 -2.335020e-001 -6.490059e+000 55 27 11
5.892386e-001 6.210780e-001 -6.823700e+000 209 204 190
-8.762288e-001 -2.111843e-001 -6.466128e+000 187 159 114
-3.414848e-001 -2.073579e-001 -6.722710e+000 238 123 103
-3.414848e-001 -2.073579e-001 -6.722710e+000 238 123 103
-1.701174e-001 -3.048520e-001 -6.891349e+000 243 236 228
-1.618309e-001 -2.175688e-001 -6.844213e+000 226 221 216
-1.070840e-001 -4.488642e-001 -6.953235e+000 248 241 231
-1.191057e-001 -3.142121e-001 -6.874148e+000 71 53 29
7.715637e-001 7.214287e-001 -6.426907e+000 195 43 55
9.300757e-001 5.159894e-001 -6.615683e+000 181 35 45
9.273970e-001 5.163443e-001 -6.392413e+000 17 7 18
5.802939e-001 -7.202976e-001 -6.804468e+000 177 159 139
6.661581e-001 -3.619651e-001 -6.675209e+000 158 147 129
9.748767e-001 2.049435e-001 -6.411780e+000 232 68 73
1.020278e+000 -5.803676e-001 -6.311670e+000 180 33 44
1.346046e+000 5.823857e-001 -5.969742e+000 71 62 63
-1.428583e-001 1.224441e+000 -7.563524e+000 208 70 75
-2.371876e-001 3.713972e-001 -7.616415e+000 198 190 178
-1.907911e-001 4.602516e-001 -7.492893e+000 177 165 153
-2.488863e-001 -1.329985e-001 -7.551712e+000 194 188 174
-2.316740e-001 -5.581490e-002 -6.857493e+000 145 111 102
2.187337e-001 -1.934742e-001 -6.873529e+000 224 218 206
4.111673e-001 -3.564604e-001 -6.891610e+000 98 81 61
5.416079e-001 -3.235788e-001 -6.791642e+000 253 248 240
5.416079e-001 -3.235788e-001 -6.791642e+000 253 248 240
6.148465e-001 -4.962716e-001 -6.843605e+000 202 196 174
1.094463e+000 -7.135494e-003 -6.224496e+000 181 47 54
1.175224e+000 5.128645e-003 -6.237050e+000 224 90 94
-2.313252e-001 2.762570e-001 -7.726135e+000 154 140 129
-1.978896e-001 4.094291e-001 -7.647628e+000 218 211 197
-1.328885e-001 7.040730e-001 -7.404969e+000 133 119 110
3.253469e-001 1.287233e+000 -7.028175e+000 226 64 74
-2.459152e-001 -1.639752e-001 -7.740533e+000 176 166 154
-6.416177e-001 -2.709928e-001 -6.702931e+000 138 43 34
-9.236879e-001 -2.069816e-001 -6.433438e+000 154 114 87
-9.236879e-001 -2.069816e-001 -6.433438e+000 154 114 87
-6.089000e-001 -3.512538e-001 -6.672323e+000 45 35 34
-1.046744e-001 -3.056941e-001 -6.902435e+000 250 250 243
8.926939e-001 5.112571e-001 -6.377861e+000 243 81 94
1.041766e+000 1.727110e-001 -6.344753e+000 203 52 57
1.011990e+000 -4.457169e-001 -6.374271e+000 204 181 131
-3.311250e-002 1.311575e+000 -7.382740e+000 190 42 46
-1.748863e-001 3.289382e-001 -7.661681e+000 145 133 121
-1.748863e-001 3.289382e-001 -7.661681e+000 145 133 121
-2.043530e-001 3.111155e-001 -7.479473e+000 127 115 103
3.470834e-001 5.668929e-001 -7.375233e+000 205 197 186
-3.852464e-001 -4.048874e-002 -6.864344e+000 53 11 13
-2.388393e-001 -1.712350e-001 -6.820740e+000 209 194 183
-2.388393e-001 -1.712350e-001 -6.820740e+000 209 194 183
-2.875410e-001 -2.327063e-001 -6.749732e+000 102 25 19
4.868962e-001 -4.499372e-001 -6.799561e+000 132 110 69
6.019827e-001 -6.992877e-001 -6.768263e+000 229 217 203
7.864240e-001 -8.086133e-001 -6.666534e+000 255 254 249
1.032013e+000 -2.491748e-001 -6.304018e+000 196 171 115
-5.650592e-001 5.103234e-001 -8.102541e+000 43 31 31
-3.960520e-002 1.317812e+000 -7.366642e+000 192 43 49
-1.851226e-001 1.009100e+000 -7.462546e+000 139 121 111
-1.821153e-001 9.987017e-001 -7.474623e+000 139 121 111
-2.188673e-001 5.248602e-001 -7.659028e+000 213 205 194
-1.539346e-001 6.024811e-001 -7.447105e+000 139 125 114
-1.723276e-001 8.845935e-002 -6.975934e+000 126 109 99
6.338508e-001 9.816119e-001 -6.680759e+000 215 63 71
-4.445385e-001 -1.713586e-001 -6.646267e+000 134 30 21
-8.166210e-002 -2.574872e-001 -6.803313e+000 62 39 29
1.019318e+000 2.107464e-001 -6.162022e+000 221 67 75
1.107649e+000 1.265975e-001 -6.241447e+000 221 67 75
-2.799841e-001 1.690826e-001 -7.557020e+000 76 4 11
-2.312466e-001 2.544145e-001 -7.454765e+000 181 169 157
-1.911372e-001 1.827866e-001 -7.290568e+000 120 106 97
-9.231277e-001 -1.632351e-001 -6.458232e+000 34 11 6
-9.231277e-001 -1.632351e-001 -6.458232e+000 34 11 6
8.101768e-001 7.929260e-002 -6.610908e+000 224 217 209
5.620718e-001 -7.610244e-001 -6.734488e+000 116 106 111
5.654742e-001 -7.692579e-001 -6.739744e+000 116 106 111
6.752756e-001 -4.832645e-001 -6.621096e+000 254 254 203
8.509417e-001 -3.199866e-001 -6.490566e+000 84 67 47
1.113044e+000 -9.333769e-002 -6.260976e+000 249 94 102
-5.036862e-001 5.628188e-001 -8.038240e+000 189 179 167
-7.985135e-002 1.233305e+000 -7.480246e+000 175 38 46
-2.709817e-002 -1.974730e-001 -6.835075e+000 231 223 220
4.742253e-001 -5.574098e-001 -6.810270e+000 145 125 91
1.119560e+000 1.257818e-001 -6.296986e+000 228 73 81
9.435879e-001 -6.335307e-001 -6.451802e+000 166 35 40
-2.324526e-001 9.406620e-001 -7.628191e+000 167 153 140
-1.507502e-001 8.760467e-001 -7.486959e+000 218 214 205
-5.628327e-001 -1.148184e-001 -6.750667e+000 125 32 14
3.538485e-001 -5.994614e-001 -6.905544e+000 228 224 210
7.938646e-001 -1.764980e-001 -6.498775e+000 238 233 227
-1.366495e-001 -2.470909e-001 -6.897086e+000 241 238 233
8.425225e-001 4.912816e-001 -6.480872e+000 148 26 33
-3.647478e-001 -6.924075e-001 -7.051073e+000 161 25 25
3.712300e-001 2.124252e-001 -7.019995e+000 122 109 93
1.024185e+000 7.761027e-002 -6.166514e+000 193 56 64
-3.468710e-001 -1.652150e-001 -7.080268e+000 56 14 15
-1.564231e-001 1.071664e+000 -6.550025e+000 209 200 194
-2.149130e-001 1.798280e-001 -7.171589e+000 137 127 117
-4.527645e+000 -7.626427e+000 -1.571103e+001 129 128 134
-5.076588e-001 -3.925919e-001 -6.567301e+000 99 81 63
-8.558026e+000 -9.229961e+000 -2.209109e+001 110 99 97
-5.784240e-003 1.325160e+000 -7.389466e+000 78 8 14
-1.762691e-001 5.516712e-001 -7.609655e+000 155 145 133
-2.752692e-001 -4.929167e-003 -7.856994e+000 87 7 6
-2.596705e-001 -3.448868e-002 -7.899591e+000 87 7 6
-2.894637e-001 -2.337066e-001 -7.807569e+000 211 203 192
-1.793444e-001 4.383304e-002 -6.972863e+000 152 136 128
-3.344220e-001 -8.687419e-002 -6.850869e+000 85 19 7
-5.688326e-001 -2.503974e-001 -6.674837e+000 147 20 3
7.918888e-001 7.937221e-001 -6.540947e+000 221 83 87
4.096574e-001 -6.518336e-001 -6.958146e+000 227 223 210
4.033605e-001 -6.419884e-001 -6.948489e+000 227 223 210
9.416188e-001 2.858180e-001 -6.440853e+000 250 87 97
-3.267121e-001 5.482437e-002 -6.969345e+000 92 43 39
-1.238678e+000 -5.355731e+000 -1.018381e+001 14 10 13
8.897854e-001 5.901169e-001 -6.492353e+000 214 65 75
1.191210e+000 2.830081e-001 -6.189561e+000 92 85 85
8.780945e-001 -6.766733e-001 -6.435755e+000 250 105 111
-3.905216e-001 7.842614e-001 -7.857104e+000 205 189 180
-2.671872e-001 1.053479e+000 -7.748537e+000 175 28 34
-1.721582e+000 -3.739586e+000 -1.058243e+001 49 45 46
-1.735619e+000 -4.043860e+000 -1.065841e+001 59 53 57
-4.908432e-003 -2.016673e-002 -6.947672e+000 137 120 112
8.655686e-002 5.911363e-002 -6.933579e+000 200 190 178
2.980872e-001 1.318944e+000 -7.112833e+000 16 2 8
-2.556341e-001 2.217428e-001 -7.729416e+000 206 194 178
-1.061413e-001 3.111162e-001 -6.986784e+000 118 104 93
-3.268215e-001 -5.194327e-002 -6.877528e+000 73 18 22
1.015855e+000 4.940410e-001 -6.382816e+000 67 57 58
-6.983691e-002 1.143583e+000 -7.404887e+000 187 46 45
-1.423872e+000 -5.242170e+000 -1.020619e+001 89 76 67
6.812631e-001 7.827233e-001 -6.713952e+000 207 53 61
5.515386e-001 -4.039476e-001 -6.828344e+000 134 121 104
-3.733516e-001 2.479233e-001 -8.081342e+000 30 36 25
-2.053514e-001 3.075337e-001 -7.479541e+000 127 115 103
-1.222244e+000 -1.151406e+001 -1.046185e+001 57 59 72
-7.286927e-002 1.134354e+000 -7.451510e+000 200 50 59
6.294973e-001 8.539157e-001 -6.764187e+000 220 61 68
6.958785e-001 -8.314531e-001 -6.744161e+000 252 246 237
7.924605e-001 -9.370268e-001 -6.716661e+000 201 64 68
8.897102e-001 -8.113123e-001 -6.583880e+000 253 247 241
1.172656e+000 -1.612112e-001 -6.219224e+000 16 10 14
-2.805390e-001 -1.135942e-001 -7.799434e+000 213 207 195
7.018095e-001 5.296977e-001 -6.596057e+000 254 254 249
-2.962212e-001 -2.846346e-002 -7.861573e+000 171 110 93
-2.220973e-001 -7.410040e-002 -7.716745e+000 197 185 167
5.864692e-002 6.353926e-001 -7.296968e+000 193 185 174
6.715015e-002 6.417546e-001 -7.274377e+000 197 187 175
1.165597e-001 7.841854e-001 -7.149435e+000 181 174 164
-7.844092e-001 -1.849233e-001 -7.091091e+000 122 35 18
-1.465793e+000 -4.893950e+000 -1.038293e+001 29 23 26
-7.517719e-001 -2.109705e-001 -7.082370e+000 99 21 14
-1.709263e-001 1.457100e-001 -7.201440e+000 114 98 85
-9.207219e-002 5.362063e-002 -6.986534e+000 170 157 143
-5.519201e-001 -1.385611e-001 -6.694515e+000 126 31 9
-1.469857e-001 1.087629e-002 -6.877179e+000 135 118 108
2.545189e-001 1.774770e-001 -7.011276e+000 155 141 128
4.202357e-001 -6.542852e-001 -6.935352e+000 252 249 235
4.202357e-001 -6.542852e-001 -6.935352e+000 252 249 235
1.157250e+000 1.228656e-001 -6.256002e+000 32 16 19
1.019091e+000 -6.464242e-001 -6.365825e+000 163 17 27
-1.933542e+000 -3.492374e+000 -1.081556e+001 47 42 46
-1.843370e+000 -3.725010e+000 -1.071988e+001 51 46 50
-1.737016e+000 -4.017542e+000 -1.063101e+001 63 59 60
1.422918e-001 9.930807e-001 -7.299848e+000 208 201 191
5.158868e-002 6.626565e-001 -7.292360e+000 235 226 217
-2.889551e-001 1.125443e-001 -7.108686e+000 128 111 101
-1.393401e+000 -4.994568e+000 -1.034322e+001 69 61 65
-1.240983e+000 -5.317633e+000 -1.025022e+001 43 33 36
-6.537185e-002 5.379485e-002 -6.971178e+000 126 112 99
1.744008e-002 -2.516952e-001 -6.882473e+000 248 244 234
4.807512e-001 1.657978e-001 -6.928318e+000 135 122 105
3.921402e-001 7.710903e-002 -6.807488e+000 191 177 164
3.554681e-001 -4.166014e-002 -6.787070e+000 248 241 231
3.554681e-001 -4.166014e-002 -6.787070e+000 248 241 231
6.088576e-001 -7.226671e-001 -6.818308e+000 231 218 201
1.052486e+000 3.752658e-001 -6.334237e+000 26 10 15
4.077351e-001 -3.865790e+000 -7.818351e+000 179 181 193
1.116660e+000 3.172340e-002 -6.189699e+000 99 87 84
-1.655021e-002 1.345404e+000 -7.324942e+000 70 10 20
-1.645766e-001 6.396890e-001 -7.496152e+000 167 157 146
-1.275441e-001 7.098836e-001 -7.442551e+000 169 157 145
-1.694809e+000 -4.124261e+000 -1.056817e+001 55 49 52
-1.694958e+000 -4.083362e+000 -1.069366e+001 31 25 27
-2.312040e-001 1.805425e-001 -7.346239e+000 155 141 128
-6.305001e-001 -6.146285e-002 -6.901873e+000 101 41 29
-1.307137e+000 -5.352689e+000 -1.040493e+001 78 69 74
-1.357599e+000 -5.387187e+000 -1.021554e+001 124 114 116
-6.412611e-001 -1.212110e-001 -6.689168e+000 114 38 26
5.201659e-001 1.299213e-001 -6.825630e+000 146 133 117
7.358558e-001 8.359003e-001 -6.541765e+000 73 4 9
7.165630e-001 7.812986e-001 -6.536759e+000 250 96 104
6.900998e-001 -1.956659e+000 -7.164007e+000 167 173 175
2.875726e-001 1.154324e+000 -7.123012e+000 211 55 54
4.358899e-001 1.050506e+000 -6.937596e+000 237 75 85
-5.987699e-001 -1.333241e-001 -6.704742e+000 132 42 21
-5.021720e-001 -2.772619e-001 -6.663714e+000 163 22 24
7.217392e-001 7.882730e-002 -6.839621e+000 186 174 162
9.585045e-001 2.147410e-001 -6.432004e+000 253 224 210
9.563643e-001 4.840561e-001 -6.348090e+000 249 97 103
9.964455e-001 -4.362492e-002 -6.323724e+000 236 87 87
1.021298e+000 -4.467697e-001 -6.289163e+000 248 231 179
-4.318694e-001 7.227322e-001 -7.923166e+000 193 183 173
-1.346135e-001 7.154093e-001 -7.607793e+000 200 191 176
2.373734e-001 8.755849e-001 -7.205939e+000 199 191 182
2.350312e-001 8.774807e-001 -7.204023e+000 199 191 182
-3.950935e-001 -1.980729e-001 -6.697301e+000 128 37 22
1.014913e+000 2.442446e-001 -6.415496e+000 241 84 93
-2.983838e-003 1.327864e+000 -7.452481e+000 18 8 10
-1.051351e-001 7.482189e-001 -7.564439e+000 171 161 149
-1.051351e-001 7.482189e-001 -7.564439e+000 171 161 149
1.045016e+000 1.267268e-001 -6.327111e+000 228 73 81
1.607077e-002 1.184637e+000 -7.346888e+000 214 48 58
3.821660e-001 1.235556e+000 -6.984919e+000 213 51 62
3.885424e-001 9.797916e-001 -7.001061e+000 218 208 199
3.832541e-001 9.846528e-001 -6.993668e+000 218 208 199
5.720219e-001 9.340813e-001 -6.820280e+000 220 58 66
3.373332e-001 1.737699e-001 -6.859322e+000 152 139 122
7.054212e-001 9.062306e-001 -6.653877e+000 205 60 66
4.410388e-001 -3.018112e-001 -6.883752e+000 254 254 246
-9.692076e-001 -1.127779e+001 -1.019708e+001 45 43 56
1.252625e+000 -2.154673e-001 -6.123773e+000 255 245 192
-2.437382e-001 3.206919e-001 -7.558140e+000 197 184 173
-2.833610e-001 -2.624948e-001 -7.893507e+000 207 197 185
3.396456e-001 9.178508e-002 -6.812152e+000 212 203 190
-2.182192e-001 1.100592e+000 -7.713635e+000 214 63 69
9.374259e-001 4.589868e-001 -6.379450e+000 247 81 93
-4.168962e-001 2.788016e-001 -7.985870e+000 40 28 28
1.204045e+000 -2.841113e-001 -6.155954e+000 254 251 196
-3.520658e-001 5.817101e-001 -7.847090e+000 225 218 207
1.874825e-001 6.933303e-001 -7.165037e+000 197 189 180
-1.064925e+000 -4.341305e-002 -6.373194e+000 44 19 4
-3.564111e-002 1.299735e+000 -7.454371e+000 130 23 33
-9.640533e-001 -1.927968e-003 -6.283349e+000 210 134 120
-5.730468e-002 1.131002e+000 -7.699057e+000 150 26 34
-9.531639e-001 3.403862e-002 -6.315640e+000 60 25 15
-2.541401e-002 1.153205e+000 -7.423419e+000 204 45 60
3.893882e-001 1.242220e+000 -7.109304e+000 220 69 78
2.065399e-001 1.283942e+000 -6.005880e+000 63 51 51
-1.037146e-001 5.234326e-001 -7.377658e+000 190 180 168
1.917410e-001 7.094433e-001 -7.250487e+000 190 181 172
-2.456254e-001 1.656646e-001 -7.279941e+000 114 97 88
-2.446019e-001 1.670838e-001 -7.230170e+000 122 106 93
-1.652632e-001 2.112904e-001 -7.105562e+000 111 95 82
-4.104247e-004 1.773216e-001 -7.097676e+000 131 114 101
-5.278626e-001 -7.381892e-002 -6.742493e+000 151 67 46
-5.278626e-001 -7.381892e-002 -6.742493e+000 151 67 46
-1.023068e-001 9.353593e-002 -6.963899e+000 132 117 104
1.616889e-001 2.095132e-001 -6.975353e+000 167 151 135
5.802506e-001 6.547132e-001 -6.814619e+000 205 197 184
-1.494105e-002 1.322794e+000 -7.353825e+000 179 35 45
-1.435644e+000 -4.869652e+000 -1.036412e+001 67 58 61
2.340090e-001 9.987383e-001 -7.212784e+000 207 200 192
2.340090e-001 9.987383e-001 -7.212784e+000 207 200 192
-7.410259e-001 -1.203546e-001 -6.998106e+000 75 16 8
8.168572e-001 5.036776e-001 -6.546387e+000 198 52 59
3.183940e-001 1.139667e+000 -7.085860e+000 209 48 56
-1.280788e-001 2.318704e-001 -7.201654e+000 120 107 91
2.532933e-001 2.701916e-001 -7.019361e+000 123 107 92
1.051692e+000 1.385029e-001 -6.331900e+000 235 81 89
-4.830823e-001 -2.564999e-001 -6.684806e+000 239 136 95
-3.836170e-002 1.081146e+000 -7.393718e+000 214 205 198
-1.268756e+000 -5.245996e+000 -1.027281e+001 48 39 42
3.634554e-001 1.267690e+000 -7.007106e+000 175 38 44
-5.437894e-001 -4.232048e-002 -6.766374e+000 139 64 45
-1.814289e-001 1.304246e-001 -6.997197e+000 119 103 90
-6.020759e-001 -1.194668e-001 -6.690233e+000 114 28 13
-5.197851e-001 -3.782866e-002 -6.769275e+000 107 31 15
-3.644713e-001 -4.042603e-002 -6.886587e+000 48 13 12
-2.032634e-001 8.381010e-002 -6.935109e+000 150 133 125
-4.447930e-001 -1.280430e-001 -6.685369e+000 114 27 12
8.025635e-002 9.613955e-002 -6.954285e+000 211 199 187
-5.494405e-001 -3.763168e-001 -6.651353e+000 87 89 104
2.972839e-001 2.442488e-001 -6.930735e+000 133 117 101
5.971411e-001 1.070115e+000 -6.780888e+000 213 61 71
2.483023e-001 -3.282578e+000 -7.980820e+000 151 154 166
3.268440e-001 -3.567568e+000 -7.954101e+000 221 230 238
4.544373e-001 -2.770441e+000 -7.671999e+000 189 199 198
1.024449e+000 1.059139e-001 -6.341968e+000 206 68 72
1.065518e+000 -3.017139e+000 -6.898061e+000 141 142 136
-4.070834e-001 1.000911e+000 -7.815242e+000 168 36 45
-2.718276e-001 8.963385e-001 -7.766929e+000 219 62 70
-1.471633e+000 -4.736255e+000 -1.036997e+001 70 65 69
-2.018620e-001 -1.631236e-004 -7.718984e+000 146 93 82
-2.159928e-001 -5.481370e-002 -7.682678e+000 212 204 191
-1.482923e-001 4.677004e-001 -7.412112e+000 183 171 159
-6.223345e-001 -8.873988e-002 -6.716180e+000 102 20 8
-5.359961e-001 -5.926111e-002 -6.755931e+000 112 30 15
-8.606495e-002 5.789473e-002 -6.937956e+000 172 164 151
-9.370450e-001 -1.720992e-002 -6.292868e+000 197 128 114
-5.268923e-002 4.518988e-002 -6.918748e+000 137 125 113
2.776749e-001 2.215080e-001 -6.928023e+000 154 140 120
2.163427e-001 -5.947191e-001 -6.885919e+000 113 111 104
4.111835e-001 6.386147e-002 -6.805404e+000 143 130 114
4.648391e-001 -2.737184e+000 -7.637026e+000 133 142 141
7.842835e-001 1.470879e-001 -6.563702e+000 245 238 228
1.020945e+000 -1.264578e-001 -6.366314e+000 223 82 86
-3.176821e-001 1.023266e+000 -7.789367e+000 165 29 37
-2.151966e-001 6.572595e-001 -7.695237e+000 173 164 149
-1.512824e+000 -4.582216e+000 -1.037327e+001 66 61 65
-1.360564e-001 6.232878e-001 -7.594132e+000 182 170 156
-1.268978e+000 -5.271846e+000 -1.018359e+001 90 84 88
3.112948e-001 1.182923e+000 -7.108760e+000 230 75 82
-7.769210e-001 -4.917220e+000 -9.554827e+000 84 76 77
-3.490689e-001 -2.127111e-002 -6.880248e+000 77 42 36
2.812217e-001 3.411246e-001 -7.060822e+000 172 160 146
-5.988825e-001 -2.548320e-001 -6.653529e+000 198 106 65
-4.702269e-001 -1.285859e-001 -6.729752e+000 88 25 16
6.218492e-002 1.638035e-001 -6.973223e+000 166 150 137
5.265836e-001 1.215877e-001 -6.830265e+000 142 129 113
5.071556e-001 -1.892487e+000 -7.466477e+000 112 118 115
6.991177e-001 1.811524e-001 -6.770905e+000 208 200 185
7.338287e-001 7.904287e-001 -6.543937e+000 107 14 25
8.411203e-001 5.360434e-001 -6.541626e+000 167 33 42
1.139160e+000 -1.797966e+000 -6.639731e+000 178 180 175
-2.213160e-001 1.022183e+000 -7.713522e+000 169 32 39
-2.375202e-001 3.577905e-001 -7.614941e+000 206 196 184
3.727572e-001 1.129998e+000 -7.017543e+000 234 78 82
3.854501e-001 1.055656e+000 -6.992964e+000 211 178 166
-7.153514e-001 -2.985709e-001 -6.516442e+000 64 22 24
9.590165e-002 -9.615715e-002 -6.858958e+000 235 227 214
4.309094e-001 -5.795281e-001 -6.893930e+000 248 244 227
8.171548e-001 8.191748e-001 -6.578302e+000 21 11 12
6.213784e-001 -3.524932e-001 -6.710873e+000 178 165 147
1.041382e+000 1.721365e-001 -6.346436e+000 215 59 70
-4.964611e-001 4.442403e-001 -7.914982e+000 220 209 191
-1.945250e-001 4.128969e-001 -7.652216e+000 215 207 194
-2.056490e-001 4.239324e-001 -7.486487e+000 131 117 106
-3.064336e-001 2.548174e-001 -7.908027e+000 185 46 50
-2.261246e-001 2.802352e-001 -7.720948e+000 157 139 127
-2.116675e-001 2.117868e-001 -7.341508e+000 159 146 130
1.028561e-001 7.569802e-001 -7.251370e+000 182 172 162
4.422311e-001 2.953187e-001 -7.004371e+000 145 136 121
6.231508e-001 6.491500e-001 -6.743605e+000 235 226 211
7.208264e-001 8.356437e-001 -6.585080e+000 89 13 18
9.545136e-001 4.787464e-001 -6.367262e+000 234 78 88
-2.023885e-001 5.082172e-001 -7.687346e+000 228 220 209
-2.355694e-001 4.411249e-003 -7.800491e+000 75 11 16
-1.220307e-001 2.184787e-001 -7.188961e+000 123 111 96
-2.238528e-001 -1.898350e-001 -6.822713e+000 230 220 213
8.682738e-001 1.008943e-001 -6.538830e+000 229 222 211
1.029348e+000 -3.755771e-001 -6.302091e+000 174 151 101
6.786253e-001 -5.091204e-001 -6.649597e+000 254 252 203
7.893665e-001 -2.329223e-001 -6.527726e+000 245 237 228
-4.199661e-001 9.394190e-001 -7.834664e+000 211 63 69
7.656860e-002 4.246488e-001 -7.195414e+000 151 142 127
-6.710239e-001 -1.682600e-001 -6.678989e+000 74 20 18
5.026585e-001 -6.205449e-001 -6.841248e+000 145 122 98
7.958550e-001 -1.646419e-001 -6.497737e+000 231 222 213
1.567803e-001 6.168244e-001 -7.217244e+000 144 132 122
2.661649e-001 -8.863258e-002 -6.823580e+000 252 250 240
3.515069e-001 2.459653e-001 -6.995492e+000 136 123 107
-3.497370e-002 1.331917e+000 -7.398922e+000 85 13 23
-1.782868e-001 5.305933e-001 -7.482510e+000 162 148 134
-2.135219e-001 1.828483e-001 -7.165081e+000 118 103 89
1.528247e-001 7.104931e-001 -7.220931e+000 191 184 174
-6.187885e-001 -9.365156e-002 -6.755095e+000 126 56 44
-4.844963e-001 -1.538345e-001 -6.698285e+000 126 31 15
4.510406e-001 -2.658222e+000 -7.615115e+000 180 193 183
3.997625e-001 -5.738669e-001 -6.931956e+000 232 228 216
-4.150839e-001 7.764452e-001 -7.849500e+000 174 152 139
1.414248e-001 9.864881e-001 -7.279560e+000 205 198 190
-2.700149e-001 1.182707e-001 -7.302757e+000 123 109 96
-3.520993e-001 6.385372e-002 -7.108931e+000 67 24 18
-2.341349e-001 9.366938e-002 -7.060967e+000 140 124 111
-1.190776e-001 1.702466e-001 -7.136640e+000 115 99 86
-7.888878e-002 2.193177e-001 -7.077175e+000 174 165 150
-2.659539e-002 2.120885e-001 -7.149257e+000 161 148 132
-6.328375e-001 -1.168587e-001 -6.730776e+000 81 17 8
-5.853462e-001 -7.362021e-002 -6.768674e+000 86 21 12
1.407441e-001 2.412674e-001 -6.971677e+000 163 147 131
4.189207e-002 -2.583681e-001 -6.872714e+000 209 197 184
5.374887e-001 5.953595e-001 -6.750546e+000 160 148 133
4.352832e-001 -1.527222e-001 -6.766294e+000 238 232 220
4.443896e-001 -5.590150e-002 -6.731084e+000 201 192 177
7.781398e-001 -5.251413e-001 -6.507221e+000 225 212 179
1.221154e+000 -2.332533e+000 -6.504332e+000 169 167 170
-2.566354e-001 3.089672e-001 -7.784079e+000 175 163 149
-2.566354e-001 3.089672e-001 -7.784079e+000 175 163 149
-1.716425e-001 6.163132e-001 -7.557782e+000 148 136 122
-5.413919e-001 -1.008224e-001 -6.725196e+000 180 88 59
-5.413919e-001 -1.008224e-001 -6.725196e+000 180 88 59
1.239998e-001 -2.819905e-002 -6.864689e+000 179 169 156
7.121411e-001 8.650755e-002 -6.709548e+000 208 198 189
8.640059e-001 5.270246e-001 -6.575731e+000 230 84 95
9.749383e-001 4.908043e-001 -6.359556e+000 30 15 15
1.092756e+000 -4.899036e-001 -6.279437e+000 162 56 53
-3.839885e-001 8.643291e-001 -7.764007e+000 224 69 77
-9.655755e-002 2.658345e-001 -7.233880e+000 135 121 108
-2.271206e-001 1.358068e-001 -7.003401e+000 155 139 124
-5.792779e-002 1.020235e-001 -6.983373e+000 128 115 99
3.975647e-001 1.376095e-001 -6.841347e+000 197 183 170
7.303293e-001 1.079962e-001 -6.726605e+000 194 184 172
9.763821e-001 -3.963659e-001 -6.339264e+000 216 193 139
-6.145377e-003 3.340141e-002 -6.934745e+000 196 186 176
4.413050e-001 5.697835e-001 -6.976727e+000 193 181 174
5.858641e-001 -7.948721e-001 -6.827723e+000 252 252 242
9.989246e-001 -7.009173e-001 -6.376987e+000 237 98 109
1.295109e+000 -4.142693e-001 -6.128898e+000 255 246 198
1.295109e+000 -4.142693e-001 -6.128898e+000 255 246 198
-4.678766e-001 7.255863e-001 -7.965982e+000 178 38 48
-3.319487e-002 1.306843e+000 -7.383352e+000 200 53 55
1.200218e-001 5.890548e-001 -7.183980e+000 149 137 121
4.118382e-001 6.997465e-001 -6.956870e+000 252 245 237
7.641877e-001 8.854890e-001 -6.619447e+000 40 26 27
6.804491e-001 -6.731757e-001 -6.743489e+000 213 202 182
8.857007e-001 2.044605e-001 -6.471634e+000 175 157 145
9.395351e-001 -2.250079e-001 -6.443445e+000 216 202 193
1.296720e+000 -2.490924e-001 -6.141969e+000 250 242 186
8.858818e-001 8.448543e-002 -6.545866e+000 230 224 212
-2.507342e-001 -3.599714e-001 -7.705093e+000 238 231 220
6.602809e-001 7.550654e-001 -6.734953e+000 216 209 198
-5.622269e-001 -9.019284e-002 -6.733899e+000 117 27 18
8.860597e-001 -2.854496e-001 -6.447825e+000 85 70 54
-2.041824e-001 9.328247e-001 -7.666319e+000 174 158 147
7.119606e-001 5.281262e-001 -6.601950e+000 254 251 244
-2.793431e-001 -1.314233e-001 -7.804126e+000 208 201 185
1.144050e+000 -6.777001e-002 -6.279748e+000 180 46 54
-2.024516e-001 7.271115e-001 -7.635952e+000 224 217 207
-2.033779e-001 4.232703e-002 -7.673536e+000 124 59 57
-1.654802e-001 5.035515e-001 -7.484009e+000 181 168 152
-8.327571e-001 -3.024087e-001 -7.034779e+000 210 139 115
-9.646020e-001 -3.659352e-001 -6.726500e+000 218 193 173
-9.619074e-001 -3.463376e-001 -6.736543e+000 130 47 25
-3.204378e-001 1.043831e-001 -7.059570e+000 81 40 31
2.192374e-001 1.332837e+000 -7.142497e+000 182 42 51
-7.440811e-001 -2.988131e-001 -6.510946e+000 45 15 13
-7.386240e-001 -2.940663e-001 -6.496226e+000 163 160 148
1.935199e-001 1.255235e-001 -6.914865e+000 183 171 156
1.935199e-001 1.255235e-001 -6.914865e+000 183 171 156
3.476593e-001 -3.893994e-002 -6.776335e+000 254 245 236
6.469504e-001 -1.244202e+000 -7.079299e+000 127 126 122
5.034607e-001 -4.697474e-001 -6.903280e+000 154 137 115
7.106381e-001 -1.516995e+000 -7.068911e+000 157 159 156
7.680333e-001 -1.493570e+000 -6.980267e+000 174 176 175
7.916648e-001 7.319115e-001 -6.546290e+000 250 75 85
1.003309e+000 -1.753168e+000 -6.783896e+000 183 183 185
1.091526e+000 -3.005882e+000 -6.797659e+000 162 157 163
1.091526e+000 -3.005882e+000 -6.797659e+000 162 157 163
1.031972e+000 -1.794076e+000 -6.739397e+000 182 181 187
9.916255e-001 -1.154848e+000 -6.662321e+000 171 166 170
9.170952e-001 6.527243e-001 -6.492584e+000 81 68 68
9.878719e-001 -7.200339e-003 -6.323845e+000 232 92 100
1.340851e+000 -6.056711e-001 -6.124515e+000 155 149 153
-3.275835e-001 6.458156e-001 -7.788313e+000 237 233 222
-1.256142e-001 8.177107e-001 -7.431603e+000 212 202 193
-2.460918e-001 -1.451158e-001 -7.631879e+000 178 165 150
1.268972e-001 1.011295e+000 -7.290172e+000 217 210 200
4.861579e-002 6.649541e-001 -7.279496e+000 237 229 218
-9.796673e-001 -3.667500e-001 -6.735656e+000 39 17 15
-2.369902e-001 1.495161e-001 -7.089506e+000 140 124 111
-3.665039e-002 -3.750926e+000 -8.342470e+000 184 192 194
-4.346863e-001 -8.938579e-002 -6.819577e+000 82 18 14
-4.345812e-001 -5.498960e-002 -6.807546e+000 87 23 13
-3.630812e-001 -4.899998e-002 -6.939060e+000 53 13 13
-5.194747e-001 -2.228768e-001 -6.682723e+000 250 148 120
3.160226e-001 2.401211e-001 -6.987485e+000 159 142 126
3.727806e-001 -5.328967e-001 -6.952549e+000 168 148 111
6.528914e-001 9.865519e-001 -6.689045e+000 216 73 82
8.903395e-001 -2.286273e+000 -6.928176e+000 170 170 172
8.926049e-001 -1.354928e+000 -6.881018e+000 169 169 169
6.650875e-001 -3.080778e-001 -6.643452e+000 183 171 159
9.811792e-001 -1.833356e+000 -6.848185e+000 153 154 156
8.423542e-001 7.407765e-001 -6.521374e+000 76 63 64
1.201034e+000 -2.440435e+000 -6.521967e+000 167 165 168
1.026065e+000 -4.373238e-001 -6.307362e+000 191 168 118
1.287984e+000 -2.274189e-001 -6.100776e+000 149 140 141
1.335664e+000 -1.766122e-001 -6.127360e+000 142 138 138
-3.655280e-001 2.828307e-001 -8.024125e+000 56 47 42
-3.262224e-001 6.406308e-002 -7.851136e+000 153 25 32
-1.638105e-001 5.792714e-001 -7.622224e+000 204 194 182
-2.706767e-002 1.117240e+000 -7.426529e+000 223 207 194
5.986948e-003 1.326307e+000 -7.374994e+000 75 8 16
-2.062622e-001 5.194997e-001 -7.459459e+000 147 134 119
3.846252e-002 6.107334e-001 -7.294971e+000 214 205 194
