ply
format ascii 1.0
element face 0
property list uchar int vertex_indices
element vertex 870
property float x
property float y
property float z
property uchar diffuse_red
property uchar diffuse_green
property uchar diffuse_blue
end_header
-2.137489e-002 1.075779e+000 -7.402008e+000 192 35 44
7.629565e-001 7.925935e-001 -6.611743e+000 16 12 9
8.214435e-001 6.160167e-001 -6.514683e+000 203 42 57
-3.249450e-001 7.662882e-001 -7.737803e+000 206 191 183
4.289185e-001 5.359062e-001 -6.963891e+000 181 174 166
-1.388380e-001 5.367602e-001 -7.402023e+000 208 199 190
9.620579e-001 3.635907e-001 -6.362429e+000 214 49 60
9.393000e-001 2.573843e-001 -6.419267e+000 235 64 73
1.040179e+000 1.896568e-001 -6.309346e+000 229 58 64
6.386984e-001 1.391172e-001 -6.774908e+000 170 163 153
-2.686715e-002 7.018058e-002 -6.960581e+000 179 168 162
-2.640834e-003 4.522308e-002 -6.929098e+000 182 171 165
1.055972e+000 2.526122e-002 -6.254710e+000 204 53 62
1.117927e+000 5.269707e-002 -6.267669e+000 29 12 20
6.046489e-001 2.367243e-002 -6.675362e+000 162 150 138
1.035168e+000 -2.069723e-003 -6.264832e+000 169 29 40
3.105764e-001 -3.995630e-002 -6.795498e+000 204 194 185
2.864897e-002 -1.230165e-001 -6.847336e+000 177 166 162
4.258207e-001 -1.308317e-001 -6.744088e+000 224 221 214
-7.489919e-001 -2.095346e-001 -6.527493e+000 145 60 38
-1.636507e-001 -2.457079e-001 -6.846836e+000 238 235 230
5.589388e-002 -2.521051e-001 -6.887321e+000 205 191 182
5.589388e-002 -2.521051e-001 -6.887321e+000 205 191 182
8.602353e-001 -2.146564e-001 -6.498554e+000 164 149 141
-1.419371e-001 -2.918549e-001 -6.906846e+000 241 240 237
2.773861e-001 -3.145480e-001 -6.943581e+000 215 208 200
-4.853044e-001 -3.538067e-001 -6.664956e+000 46 42 53
-2.272621e-001 -3.643199e-001 -6.836647e+000 159 143 131
3.766554e-001 -5.109025e-001 -6.937447e+000 254 255 250
4.642078e-001 -4.971368e-001 -6.851550e+000 151 132 94
5.992716e-001 -5.535289e-001 -6.707978e+000 239 233 224
3.947866e-001 -6.685291e-001 -6.991142e+000 254 255 250
8.763109e-001 -8.428429e-001 -6.604319e+000 28 11 12
3.219777e-001 -1.148374e+000 -7.446396e+000 208 191 147
3.311753e-001 1.070108e+000 -7.038602e+000 196 34 40
3.862582e-001 1.026526e+000 -6.975111e+000 206 37 44
7.664295e-001 7.176336e-001 -6.558161e+000 17 1 8
-3.997522e-001 9.103262e-001 -7.811555e+000 193 36 43
6.030276e-001 6.538602e-001 -6.740521e+000 148 124 116
5.918906e-001 6.178601e-001 -6.746612e+000 221 212 203
-1.313376e-001 5.787151e-001 -7.407919e+000 150 141 131
3.999301e-001 3.114401e-001 -7.040944e+000 142 132 119
1.012848e+000 2.624058e-001 -6.335312e+000 232 58 71
3.883392e-001 1.412070e-001 -6.841784e+000 194 184 174
3.956484e-001 4.345796e-002 -6.789127e+000 146 136 127
7.345243e-001 8.005413e-002 -6.664806e+000 188 181 171
-2.409788e-001 1.884345e-002 -6.898928e+000 77 20 13
-2.027527e-001 1.736241e-004 -6.877420e+000 156 144 132
5.231829e-001 2.616424e-002 -6.701537e+000 160 150 141
6.091772e-001 -1.400478e-002 -6.642327e+000 209 200 193
-3.141891e-001 -2.911414e-001 -6.766109e+000 169 145 135
3.770447e-001 -3.235378e-001 -6.912043e+000 227 220 210
6.470942e-001 -2.916095e-001 -6.656663e+000 177 166 154
-6.218886e-002 -4.863636e-001 -7.057794e+000 50 39 37
-4.573701e-001 -5.062587e-001 -6.856438e+000 40 34 25
4.181817e-001 -5.536873e-001 -6.912901e+000 254 253 249
8.959506e-001 -8.076246e-001 -6.600673e+000 250 255 249
2.355365e-001 8.982184e-001 -7.186037e+000 221 215 212
7.699825e-001 6.700613e-001 -6.548200e+000 227 55 67
4.255252e-001 7.390494e-001 -6.988005e+000 228 223 217
6.492121e-001 6.270625e-001 -6.630268e+000 219 53 65
-2.153733e-001 7.454024e-001 -7.633520e+000 156 143 134
1.044151e-001 6.620775e-001 -7.250417e+000 221 214 208
4.200576e-001 6.345319e-001 -6.980406e+000 240 233 227
2.482246e-002 6.306966e-001 -7.277743e+000 207 198 193
7.622400e-001 4.543964e-001 -6.586575e+000 215 204 198
2.848803e-002 5.183743e-001 -7.259487e+000 204 193 187
7.948125e-001 4.142594e-001 -6.520530e+000 213 45 54
-4.533262e-001 4.232269e-001 -7.857584e+000 212 202 193
1.835502e-001 3.317431e-001 -7.082737e+000 180 169 163
6.087190e-002 2.020876e-001 -7.006858e+000 138 125 116
8.526415e-001 1.877007e-001 -6.500709e+000 158 143 136
2.812564e-001 1.679861e-001 -6.908851e+000 198 190 179
1.062623e+000 1.083802e-001 -6.295045e+000 207 45 51
-1.951295e-003 1.082571e-001 -7.000464e+000 129 119 109
5.695576e-002 1.105508e-001 -6.970081e+000 214 207 201
1.096180e+000 -2.874171e-002 -6.273859e+000 16 7 3
6.365088e-001 -4.667315e-002 -6.626285e+000 161 149 137
1.226321e-001 -1.525952e-001 -6.878385e+000 195 188 180
-8.491705e-001 -2.463374e-001 -6.520329e+000 122 56 50
1.057563e+000 -1.905864e-001 -6.331078e+000 122 23 36
-4.563977e-001 -2.625120e-001 -6.679307e+000 142 25 26
5.679899e-001 -3.128222e-001 -6.763297e+000 163 151 137
-5.248299e-001 -3.388619e-001 -6.699666e+000 239 188 141
5.214351e-001 -4.225215e-001 -6.756842e+000 161 138 94
4.170233e-001 -5.564423e-001 -6.912596e+000 255 254 250
8.991103e-001 -4.766431e-001 -6.438534e+000 230 217 208
4.247566e-001 -7.177537e-001 -7.007421e+000 225 222 215
7.088497e-001 -9.289985e-001 -6.843596e+000 44 28 34
4.168745e-001 9.425933e-001 -6.937289e+000 223 217 213
-5.360229e-002 1.007161e+000 -7.416002e+000 195 185 176
9.222491e-002 9.184173e-001 -7.300792e+000 206 199 193
6.252678e-001 7.180107e-001 -6.748993e+000 203 197 189
1.682828e-001 2.626327e-001 -7.057565e+000 126 113 104
9.426770e-001 1.872987e-001 -6.417790e+000 192 37 42
2.903857e-001 2.562960e-002 -6.835181e+000 160 152 141
1.295703e-001 -5.887399e-002 -6.860078e+000 255 254 250
2.081157e-001 -6.466039e-002 -6.862617e+000 209 198 192
6.937019e-001 -1.206163e-001 -6.567900e+000 145 131 120
1.061405e+000 -1.252727e-001 -6.286600e+000 241 66 78
-7.775842e-001 -2.278388e-001 -6.502721e+000 119 50 49
-7.386836e-001 -1.847501e-001 -6.542165e+000 149 68 39
-1.818716e-001 -3.153088e-001 -6.926632e+000 50 37 18
-1.819363e-001 -3.177796e-001 -6.943692e+000 50 37 18
-4.372480e-001 -3.499080e-001 -6.685500e+000 170 71 60
2.031209e-001 -4.157352e-001 -6.969929e+000 254 245 190
3.987409e-001 -3.630221e-001 -6.900126e+000 112 94 80
6.334393e-001 -5.168688e-001 -6.677556e+000 144 126 78
7.350881e-001 -4.770354e-001 -6.577125e+000 199 174 118
5.424936e-001 -6.379790e-001 -6.845135e+000 145 127 104
1.015040e+000 -7.967336e-001 -6.490819e+000 254 86 97
1.020891e+000 -8.020956e-001 -6.511538e+000 254 86 97
2.553330e-001 8.014821e-001 -7.114970e+000 163 154 145
1.497941e-001 7.678687e-001 -7.235571e+000 219 211 208
7.892786e-001 4.810858e-001 -6.490825e+000 162 31 39
8.697549e-001 4.485393e-001 -6.396383e+000 234 64 75
1.681380e-001 5.099369e-001 -7.153935e+000 214 205 198
9.036106e-001 1.656422e-001 -6.461017e+000 219 210 205
-2.335250e-001 -7.004660e-002 -6.824356e+000 85 24 16
1.897599e-001 -1.572904e-001 -6.863401e+000 254 255 250
1.058746e+000 -9.744263e-002 -6.311962e+000 243 67 77
9.935714e-001 -1.992391e-001 -6.372259e+000 135 32 35
-9.130773e-001 -2.944994e-001 -6.504189e+000 38 28 32
2.634483e-001 -2.785508e-001 -6.925053e+000 231 228 221
7.164519e-001 -3.220356e-001 -6.573772e+000 122 104 81
6.637828e-001 -4.010957e-001 -6.590014e+000 210 186 131
4.781774e-001 -5.424549e-001 -6.872298e+000 110 87 62
1.078185e+000 -4.488581e-001 -6.338858e+000 24 9 8
1.006436e+000 -6.926108e-001 -6.407969e+000 21 9 12
8.421084e-001 -9.401831e-001 -6.648812e+000 230 64 74
8.437451e-001 -9.428136e-001 -6.655209e+000 230 64 74
3.381822e-002 8.275361e-001 -7.278488e+000 170 157 151
3.437924e-002 8.274967e-001 -7.279714e+000 170 157 151
2.899517e-002 6.891547e-001 -7.256518e+000 208 199 194
2.982420e-001 6.808872e-001 -7.033211e+000 228 221 214
1.035038e+000 1.495106e-001 -6.314616e+000 216 46 55
9.824348e-001 5.408504e-002 -6.339992e+000 131 15 23
-8.088121e-001 -3.095268e-001 -6.557546e+000 246 124 75
5.814603e-002 -4.861711e-001 -6.995790e+000 255 255 253
8.393755e-001 -4.233541e-001 -6.477790e+000 154 132 86
5.934624e-001 -8.168399e-001 -6.903905e+000 22 12 13
8.525403e-001 -7.842632e-001 -6.613247e+000 255 255 253
1.110807e+000 -1.364910e-001 -6.237715e+000 42 30 32
-3.731305e-001 -4.528691e-001 -6.797248e+000 233 232 230
8.986996e-001 -6.187120e-001 -6.505618e+000 182 38 45
3.505740e-001 -1.064262e+000 -7.374253e+000 144 123 80
3.584474e-003 -3.662699e-002 -6.901237e+000 132 119 110
-1.163769e-001 -1.837804e-001 -6.863049e+000 248 244 242
6.689561e-001 4.780111e-001 -6.638193e+000 255 255 253
9.116659e-001 -3.054964e-002 -6.521475e+000 230 225 221
3.210045e-001 -6.380652e-001 -7.039015e+000 254 254 252
1.143403e+000 -3.037454e-001 -6.244381e+000 198 173 117
1.144980e+000 -3.035151e-001 -6.246183e+000 198 173 117
7.747923e-001 -6.908120e-001 -6.692572e+000 238 231 225
1.171345e+000 4.179532e-002 -6.321962e+000 46 34 34
-7.883240e-003 1.055164e+000 -7.394541e+000 199 198 186
6.851797e-001 7.302773e-001 -6.515502e+000 219 51 60
6.979651e-001 6.786758e-001 -6.396337e+000 231 69 82
-2.344393e-001 8.271028e-001 -7.696002e+000 173 157 153
6.105227e-002 6.064801e-001 -7.251270e+000 178 165 159
1.106391e+000 7.945570e-002 -6.280592e+000 30 7 14
-4.980750e-002 5.801791e-002 -6.949243e+000 122 107 100
1.124265e+000 1.700060e-002 -6.266930e+000 22 12 11
-1.660263e-001 -2.769707e-002 -6.840719e+000 172 156 148
-2.100200e-001 -7.735965e-002 -6.828446e+000 162 69 54
-4.734082e-001 -1.801712e-001 -6.673030e+000 228 113 68
-3.086593e-001 -1.249938e-001 -6.678728e+000 75 18 11
-8.106078e-001 -1.974195e-001 -6.404985e+000 54 23 1
-1.901963e-001 -2.501326e-001 -6.910478e+000 124 102 57
-6.894397e-001 -2.675057e-001 -6.430770e+000 162 49 30
-4.745187e-001 -3.673936e-001 -6.645471e+000 47 35 45
-2.678590e-001 -3.834216e-001 -6.780197e+000 214 209 203
-2.673490e-001 -3.823705e-001 -6.777824e+000 214 209 203
-4.941403e-001 -4.740030e-001 -6.784114e+000 227 116 60
-1.604899e-001 -4.242795e-001 -6.850216e+000 45 34 30
1.357917e-001 9.524777e-001 -7.268711e+000 188 185 178
7.982074e-001 5.143909e-001 -6.558973e+000 168 32 38
-6.832009e-002 2.684696e-001 -7.241928e+000 157 147 137
4.297098e-003 2.175474e-001 -7.049335e+000 156 146 136
1.029883e-001 2.670131e-001 -6.954658e+000 148 134 122
-3.136031e-001 1.141016e-001 -6.857457e+000 114 55 46
-3.136031e-001 1.141016e-001 -6.857457e+000 114 55 46
-1.796668e-001 -2.316325e-001 -6.825634e+000 229 216 214
-7.109282e-001 -3.159463e-001 -6.473046e+000 217 106 79
-6.354289e-001 -2.971457e-001 -6.511331e+000 91 38 22
-2.329186e-001 -3.003860e-001 -6.817349e+000 46 30 11
-2.372275e-001 -3.370463e-001 -6.835764e+000 144 126 115
8.736712e-001 -2.768229e-001 -6.424936e+000 155 133 91
-3.090696e-001 -3.819587e-001 -6.737937e+000 163 155 150
-1.996821e-001 -3.863476e-001 -6.810710e+000 192 189 184
-1.996821e-001 -3.863476e-001 -6.810710e+000 192 189 184
3.099221e-001 1.067825e+000 -7.056874e+000 200 41 45
1.752010e-001 9.197799e-001 -7.230139e+000 225 218 212
9.522400e-001 4.148148e-001 -6.393103e+000 193 34 51
-1.182745e-001 4.575764e-001 -7.204899e+000 193 184 177
-3.378467e-001 1.066875e-001 -7.012751e+000 42 30 30
-1.860955e-001 -3.500251e-002 -6.832276e+000 102 37 22
-2.590273e-001 -1.921809e-001 -6.613169e+000 176 90 69
-6.835601e-001 -3.077193e-001 -6.547973e+000 167 47 36
-2.726270e-001 -3.045668e-001 -6.848980e+000 113 94 79
-7.335160e-001 -3.656493e-001 -6.574837e+000 210 94 65
-1.005325e-001 -4.474627e-001 -6.945072e+000 52 41 37
1.061303e+000 -4.929606e-001 -6.390759e+000 248 66 76
3.670870e-001 1.212245e+000 -7.011194e+000 28 16 22
-4.602272e-001 4.202349e-001 -7.884014e+000 219 206 198
9.189688e-001 1.690280e-001 -6.437580e+000 209 192 183
9.290675e-001 1.294180e-001 -6.418852e+000 192 178 168
-2.745102e-001 1.200760e-001 -7.116983e+000 37 25 20
-2.905501e-001 7.468673e-002 -6.997580e+000 47 28 22
5.889782e-001 -6.972862e-002 -6.629192e+000 222 215 209
-2.044621e-001 -2.230919e-001 -6.823557e+000 80 58 21
-6.174086e-001 -3.714325e-001 -6.735457e+000 48 29 27
-3.446927e-001 -3.760444e-001 -6.700822e+000 180 170 168
-1.852558e-001 4.428377e-001 -7.405225e+000 209 202 192
-5.078169e-002 3.098926e-001 -7.145302e+000 166 156 146
-5.078169e-002 3.098926e-001 -7.145302e+000 166 156 146
4.793334e-001 -9.083130e-002 -6.735866e+000 195 190 184
-8.931571e-001 -1.914348e-001 -6.345339e+000 190 163 108
8.169109e-001 -1.877160e-001 -6.534442e+000 195 188 182
3.981207e-001 -4.341066e-001 -6.891495e+000 183 163 112
8.791269e-001 -4.605459e-001 -6.496583e+000 178 154 106
2.286335e-001 -7.423456e-001 -7.388951e+000 72 62 35
5.751285e-001 9.819275e-001 -6.760182e+000 202 42 51
-1.245817e-001 5.743300e-001 -7.355540e+000 150 141 131
1.029132e-001 3.487200e-001 -6.931714e+000 181 168 159
-8.071402e-001 -1.397260e-001 -6.456061e+000 146 69 42
-3.262595e-001 -2.436832e-001 -6.637421e+000 121 73 56
-3.262595e-001 -2.436832e-001 -6.637421e+000 121 73 56
1.006909e-001 -4.120238e-001 -6.926230e+000 47 30 18
4.883096e-001 -4.320301e-001 -6.963756e+000 102 84 47
4.479029e-001 -5.266553e-001 -7.035765e+000 85 66 41
8.642026e-001 -5.802585e-001 -6.578935e+000 180 158 145
8.717892e-001 -1.007792e+000 -6.687413e+000 224 60 67
8.717892e-001 -1.007792e+000 -6.687413e+000 224 60 67
8.397743e-001 1.852816e-001 -6.462065e+000 158 143 136
5.543748e-001 -4.777840e-002 -6.633227e+000 191 184 175
-6.852377e-001 -3.480923e-001 -6.571822e+000 255 211 172
6.528066e-001 8.458382e-001 -6.621766e+000 194 34 44
8.732050e-001 5.077353e-001 -6.367262e+000 19 0 9
-2.216428e-001 6.680845e-001 -7.658403e+000 223 216 209
2.140157e-001 5.744440e-001 -7.088515e+000 149 139 129
4.033054e-001 4.760438e-001 -6.894557e+000 222 213 208
-4.098068e-001 -8.357077e-002 -6.597458e+000 87 23 15
1.051752e+000 -6.136168e-002 -6.278430e+000 248 77 87
6.269816e-001 -1.196806e-001 -6.616197e+000 241 241 233
8.034476e-001 -2.926172e-001 -6.514688e+000 111 91 67
9.004128e-001 -3.166429e-001 -6.496141e+000 165 141 95
7.938489e-001 -3.647268e-001 -6.539304e+000 188 166 113
5.393538e-001 -5.574770e-001 -6.791242e+000 205 195 184
5.387005e-001 6.174284e-001 -6.719097e+000 209 202 194
-2.499397e-001 -2.051910e-001 -6.940219e+000 93 66 37
4.288145e-001 -2.817600e-001 -6.896546e+000 247 245 241
1.771916e-001 -4.780756e-001 -6.961564e+000 61 39 25
9.707100e-001 -6.799644e-001 -6.505871e+000 255 78 92
2.992153e-001 6.812518e-001 -7.038152e+000 228 221 214
3.584347e-001 -1.081926e+000 -7.449398e+000 144 123 80
-5.902918e-001 -4.821395e-001 -6.906592e+000 45 33 33
1.074813e+000 -5.724033e-001 -6.377767e+000 24 8 11
-1.043562e-001 1.139565e+000 -7.495952e+000 148 23 29
-8.579289e-002 7.568219e-001 -7.391856e+000 212 206 197
7.251143e-001 7.718806e-001 -6.571050e+000 98 12 21
7.669287e-002 5.947409e-001 -7.281757e+000 155 145 135
8.025397e-001 6.569184e-001 -6.524813e+000 188 53 56
-1.355988e-001 4.435092e-001 -7.409306e+000 151 141 131
3.097515e-001 2.303206e-001 -6.977583e+000 143 129 118
-1.493282e-001 4.450007e-002 -6.886990e+000 135 120 113
-6.074777e-002 6.586204e-002 -6.966462e+000 122 110 103
-4.634084e-002 3.408492e-002 -6.935768e+000 153 143 133
1.453841e-001 4.084939e-002 -6.733291e+000 156 146 137
-6.259619e-001 -1.839800e-001 -6.720643e+000 156 71 47
-6.259619e-001 -1.839800e-001 -6.720643e+000 156 71 47
-5.359996e-001 -1.444023e-001 -6.703842e+000 176 90 62
-5.423694e-001 -1.489318e-001 -6.746288e+000 176 90 62
-3.030698e-001 -1.635767e-001 -6.728493e+000 145 58 35
-3.345528e-001 -1.865267e-001 -6.670242e+000 196 88 56
4.412575e-001 -3.863831e-002 -6.706079e+000 197 189 181
-6.050950e-001 -2.715871e-001 -6.773428e+000 187 84 56
-5.606965e-001 -2.618610e-001 -6.773591e+000 191 72 37
3.372472e-002 -2.528106e-001 -6.911822e+000 242 236 231
-1.026482e-001 -3.187103e-001 -6.970624e+000 44 33 15
-4.613814e-001 -3.714305e-001 -6.664307e+000 201 179 160
1.230367e-001 -3.671876e-001 -6.955179e+000 141 120 74
4.143737e-001 -6.163351e-001 -6.945090e+000 241 238 228
6.110462e-001 -7.884462e-001 -6.920537e+000 229 79 86
9.685974e-001 -6.302723e-001 -6.370046e+000 180 21 31
9.618118e-001 -6.515595e-001 -6.354979e+000 23 4 1
-3.543248e-001 7.354912e-001 -7.815926e+000 195 186 185
7.656575e-001 7.411853e-001 -6.560175e+000 18 6 10
5.724673e-002 6.323789e-001 -7.267514e+000 212 206 200
5.572170e-002 6.313421e-001 -7.249230e+000 212 206 200
6.893752e-001 5.377798e-001 -6.619254e+000 234 229 226
6.915317e-001 5.375168e-001 -6.629093e+000 234 229 226
1.143085e-001 2.651348e-001 -6.974745e+000 136 120 107
-2.979698e-002 2.188063e-001 -7.126757e+000 152 139 130
-4.647696e-002 9.357264e-002 -6.980109e+000 128 114 105
2.930841e-001 1.958595e-001 -6.944695e+000 140 127 111
-1.718066e-001 6.287505e-002 -6.908485e+000 123 110 102
-1.718066e-001 6.287505e-002 -6.908485e+000 123 110 102
-1.079518e-001 9.665133e-003 -6.879801e+000 147 134 126
1.005389e-002 -2.864129e-002 -6.882484e+000 125 112 104
1.974701e-002 -1.047452e-002 -6.883550e+000 169 160 151
-3.176743e-001 -1.263458e-001 -6.746403e+000 65 4 1
-3.178005e-001 -1.263776e-001 -6.746053e+000 65 4 1
-2.083879e-001 -7.689562e-002 -6.827589e+000 172 87 71
-2.091117e-001 -1.251945e-001 -6.802331e+000 207 180 171
-7.297139e-001 -2.901122e-001 -6.540129e+000 230 112 81
-7.297139e-001 -2.901122e-001 -6.540129e+000 230 112 81
-5.669324e-001 -3.324152e-001 -6.786224e+000 66 24 20
-4.740602e-001 -3.612154e-001 -6.644985e+000 57 54 68
-2.595754e-001 -3.578193e-001 -6.812968e+000 179 166 158
3.715477e-001 -2.301553e-001 -6.893002e+000 230 227 220
-7.827447e-002 -4.379577e-001 -6.974905e+000 254 252 247
-6.069883e-002 -4.761164e-001 -7.066008e+000 46 35 29
6.880376e-001 -5.008854e-001 -6.570140e+000 211 186 130
1.171001e+000 -3.824981e-001 -6.258114e+000 198 175 121
2.082249e-001 -8.927642e-001 -7.166338e+000 41 31 23
3.909506e-001 -1.025749e+000 -7.287258e+000 150 128 79
9.828526e-001 -6.022164e-001 -6.389132e+000 211 46 55
5.110352e-001 1.097770e+000 -6.930250e+000 182 43 46
-3.393117e-001 7.138670e-001 -7.774789e+000 156 140 131
6.640246e-001 7.849407e-001 -6.584331e+000 113 9 17
-5.166292e-001 4.946158e-001 -8.039685e+000 34 24 16
-2.049118e-001 6.021808e-001 -7.674850e+000 205 198 188
-2.551907e-001 4.966135e-001 -7.717156e+000 217 210 200
-1.950669e-001 3.971425e-001 -7.478654e+000 144 131 120
-7.853747e-002 3.871239e-001 -7.354345e+000 172 162 152
6.565438e-001 4.903014e-001 -6.660067e+000 229 226 221
6.570888e-001 4.900905e-001 -6.663108e+000 229 226 221
1.089489e-001 2.130298e-001 -6.997735e+000 175 165 156
-1.983545e-001 1.206019e-001 -7.010155e+000 138 124 115
-5.893988e-002 2.279530e-002 -6.931292e+000 115 102 93
-4.528539e-003 3.051744e-003 -6.913122e+000 123 113 104
-1.925675e-001 -1.071405e-001 -6.877818e+000 184 161 155
1.623474e-001 -4.433855e-002 -6.852053e+000 206 197 188
-7.995826e-001 -1.872652e-001 -6.516513e+000 77 22 2
-7.772517e-001 -2.081268e-001 -6.473232e+000 54 5 8
-3.105654e-001 -1.873626e-001 -6.707288e+000 219 97 66
-2.102292e-001 -2.230716e-001 -6.891449e+000 93 69 26
-6.474321e-001 -2.941337e-001 -6.628994e+000 225 183 143
-1.715160e-001 -2.787823e-001 -6.895677e+000 97 79 41
-2.347539e-001 -3.223348e-001 -6.855656e+000 203 193 181
-2.111523e-001 -4.424953e-001 -6.920066e+000 45 36 31
-3.588507e-001 -5.102368e-001 -6.875891e+000 234 233 229
1.051706e+000 -3.237754e-001 -6.303567e+000 152 124 77
5.086167e-001 -6.360585e-001 -6.811437e+000 160 147 126
5.873990e-001 -7.419177e-001 -6.866330e+000 174 33 33
9.513350e-001 -6.043777e-001 -6.375821e+000 214 52 58
-7.057103e-002 1.054717e+000 -7.422401e+000 173 35 41
-2.341964e-001 9.718350e-001 -7.688470e+000 195 44 52
-2.341964e-001 9.718350e-001 -7.688470e+000 195 44 52
-3.322647e-001 8.052995e-001 -7.733638e+000 210 44 53
-1.867811e-001 8.203971e-001 -7.653343e+000 203 195 185
-1.863865e-001 8.205020e-001 -7.652855e+000 203 195 185
-3.625614e-001 7.626536e-001 -7.825851e+000 183 34 41
-3.699926e-001 6.525998e-001 -7.820027e+000 178 166 154
2.122229e-001 6.843468e-001 -7.222817e+000 213 204 198
3.980904e-002 5.882136e-001 -7.262362e+000 195 185 177
2.468612e-001 6.546186e-001 -7.181409e+000 208 201 195
-1.318778e-001 4.736865e-001 -7.407691e+000 193 184 175
8.030494e-001 5.370705e-001 -6.547156e+000 203 45 53
8.214858e-001 5.769835e-001 -6.528621e+000 171 26 33
-2.924697e-001 1.779800e-001 -7.871100e+000 203 52 59
-8.359695e-002 2.061770e-001 -7.164637e+000 124 111 102
-3.925945e-002 1.575389e-001 -7.093183e+000 122 114 103
-2.653166e-001 4.848416e-002 -6.943529e+000 130 108 100
6.614484e-001 9.985976e-002 -6.741622e+000 188 179 170
-9.324558e-001 -1.909194e-001 -6.456488e+000 158 135 82
1.022770e+000 1.252636e-001 -6.425121e+000 222 55 65
4.734007e-001 -8.823714e-002 -6.701425e+000 202 197 191
-8.374982e-001 -2.537200e-001 -6.498364e+000 98 31 28
-4.395968e-001 -2.965178e-001 -6.674048e+000 143 9 18
4.996716e-001 -3.083415e-001 -6.851295e+000 165 151 141
4.689694e-001 -4.071920e-001 -6.825465e+000 91 74 38
5.975183e-001 -3.314020e-001 -6.717538e+000 165 152 135
5.631186e-001 -3.617823e-001 -6.715117e+000 148 138 123
9.004998e-001 -2.534802e-001 -6.425031e+000 83 65 39
8.905698e-001 -2.483862e-001 -6.398124e+000 83 65 39
1.062901e+000 -2.078248e-001 -6.303326e+000 140 118 71
8.872571e-001 -5.111109e-001 -6.481537e+000 197 167 159
1.242038e+000 -3.746612e-001 -6.159607e+000 27 14 14
6.143537e-001 -7.868852e-001 -6.747916e+000 39 28 23
7.617462e-001 -8.074058e-001 -6.670613e+000 224 57 65
-3.606845e+000 9.409048e-001 -1.207199e+001 11 7 8
2.293071e-001 8.299337e-001 -7.189384e+000 192 179 173
6.713646e-001 8.603132e-001 -6.662097e+000 183 29 39
-6.618052e-002 5.372617e-001 -7.296674e+000 183 173 163
4.448233e-001 3.892137e-001 -6.948953e+000 183 175 163
-2.664462e-001 2.441381e-001 -7.774595e+000 168 33 38
1.995920e-001 6.389121e-002 -6.887372e+000 159 144 137
-3.844742e-001 -4.206799e-002 -6.828236e+000 123 51 35
3.811154e-001 7.941198e-002 -6.813499e+000 179 171 160
-9.291600e-001 -2.562623e-001 -6.527397e+000 32 23 24
-5.493600e-001 -1.873977e-001 -6.710877e+000 234 122 84
-5.325555e-001 -2.174011e-001 -6.697655e+000 166 35 18
-6.046548e-002 -1.287790e-001 -6.808379e+000 241 236 233
1.062984e+000 5.911995e-002 -6.267183e+000 119 10 23
-4.815025e-001 -4.068980e-001 -6.740214e+000 161 144 133
-2.535492e-001 -4.341998e-001 -6.855513e+000 211 204 198
8.389692e-001 -2.589468e-001 -6.508872e+000 147 129 119
8.239009e-001 -3.021835e-001 -6.432188e+000 174 151 101
6.109465e-001 -5.742460e-001 -6.659949e+000 194 185 174
8.675508e-001 -4.569186e-001 -6.452453e+000 175 151 105
1.230235e+000 -3.954123e-001 -6.169368e+000 206 183 115
1.230235e+000 -3.954123e-001 -6.169368e+000 206 183 115
7.789364e-001 -6.936022e-001 -6.642075e+000 208 200 189
3.429828e-001 -1.081164e+000 -7.394619e+000 134 114 69
4.576869e-001 -1.044882e+000 -7.274565e+000 13 5 8
9.632210e-001 -5.842796e-001 -6.387448e+000 150 2 16
-2.004958e+000 -2.856752e+000 -1.070462e+001 37 31 33
-1.989724e+000 -2.988414e+000 -1.071081e+001 37 31 33
-1.521606e+000 -2.185310e+000 -8.782766e+000 39 33 35
-5.322394e-001 6.695093e-001 -8.025817e+000 191 41 42
-9.966953e-002 6.223004e-001 -7.359168e+000 206 197 188
-4.565023e-001 4.244057e-001 -7.931786e+000 208 194 184
-2.001310e-001 4.457571e-001 -7.484124e+000 202 194 183
4.342433e-001 2.792785e-001 -7.003887e+000 141 133 122
1.076432e-001 9.869026e-002 -6.931367e+000 155 145 136
-8.796078e-001 -1.721909e-001 -6.428920e+000 39 24 28
-2.180925e-001 -1.454265e-001 -6.852015e+000 182 160 154
4.115884e-001 -2.785470e-003 -6.751287e+000 220 216 210
4.115884e-001 -2.785470e-003 -6.751287e+000 220 216 210
2.316344e-001 -1.265262e-001 -6.872779e+000 255 252 244
5.716653e-001 -4.591751e-002 -6.662291e+000 188 179 172
6.114680e-001 -1.569533e-002 -6.652665e+000 213 205 196
6.886570e-001 -5.049468e-002 -6.625726e+000 180 172 160
6.895351e-001 -5.108205e-002 -6.628088e+000 180 172 160
4.925970e-001 -1.451039e-001 -6.745681e+000 226 221 217
4.925970e-001 -1.451039e-001 -6.745681e+000 226 221 217
1.036225e+000 -4.852665e-001 -6.361825e+000 229 58 69
-1.966759e+000 -2.783474e+000 -1.071346e+001 24 18 20
-1.919975e+000 -2.874732e+000 -1.062695e+001 20 14 16
-1.846570e+000 -3.010506e+000 -1.053438e+001 29 23 25
5.769727e-001 9.829687e-001 -6.789189e+000 199 40 48
-2.086157e-001 9.296136e-001 -7.698672e+000 191 41 48
-1.180703e-001 6.886662e-001 -7.366027e+000 177 168 159
-6.506118e-002 7.058508e-001 -7.341666e+000 218 211 201
6.408440e-001 7.294768e-001 -6.616523e+000 189 43 49
-5.290070e-001 4.832031e-001 -8.049276e+000 38 24 21
-1.439850e-001 4.262317e-001 -7.455792e+000 145 133 122
1.081956e-001 3.642236e-001 -7.098126e+000 188 175 166
3.355843e-001 3.215021e-001 -7.035801e+000 170 162 149
5.905107e-001 1.388201e-001 -6.824644e+000 155 145 134
-9.217814e-001 -2.018660e-001 -6.466135e+000 168 147 100
-9.217814e-001 -2.018660e-001 -6.466135e+000 168 147 100
-8.538472e-001 -1.937056e-001 -6.481318e+000 151 127 81
6.092131e-001 -1.400074e-002 -6.642384e+000 213 205 196
1.070442e+000 -5.810613e-002 -6.306763e+000 247 80 90
4.255168e-001 -5.050625e-001 -6.907867e+000 81 64 37
5.401351e-001 -5.558361e-001 -6.780505e+000 204 191 182
1.179115e+000 -3.450903e-001 -6.207738e+000 163 139 91
3.844074e-001 -1.129337e+000 -7.337787e+000 41 28 23
-1.761634e+000 -2.974237e+000 -1.054529e+001 68 64 65
-1.447425e-001 8.809154e-001 -7.377844e+000 220 197 200
4.899014e-001 5.476006e-001 -6.923320e+000 210 201 194
7.673501e-002 4.242496e-001 -7.166514e+000 153 141 129
3.070260e-001 4.485740e-001 -7.108299e+000 178 169 160
-2.651117e-002 3.707113e-001 -7.288358e+000 140 130 118
6.347793e-002 2.015801e-001 -7.040532e+000 128 116 106
1.303748e-001 1.936250e-001 -6.984287e+000 201 194 184
4.327899e-001 2.898491e-001 -7.017571e+000 151 143 132
7.005152e-001 2.265769e-001 -6.663240e+000 249 245 240
7.584564e-002 -2.600671e-002 -6.895632e+000 127 117 107
-7.407426e-001 -1.873233e-001 -6.546734e+000 155 66 34
-2.102046e-002 -2.859810e-001 -6.924839e+000 244 241 236
6.950666e-001 -1.216060e-001 -6.570749e+000 133 119 108
6.148185e-001 -2.517218e-001 -6.688631e+000 234 230 221
4.756593e-001 9.656860e-001 -6.891400e+000 207 41 48
-4.035905e-001 3.190946e-001 -7.885701e+000 37 29 27
8.884126e-001 5.153055e-001 -6.409450e+000 17 7 8
-4.136320e-001 -8.021988e-002 -6.714219e+000 87 27 18
1.830658e-001 -4.710355e-001 -6.924181e+000 63 35 24
9.908975e-001 -2.107735e-001 -6.394025e+000 108 27 33
6.590777e-001 -3.959066e-001 -6.566475e+000 222 197 140
8.821358e-001 -3.107822e-001 -6.412839e+000 175 151 103
8.658721e-001 -5.158710e-001 -6.490147e+000 227 214 206
2.856063e-001 6.746491e-001 -6.929127e+000 230 221 214
5.424971e-001 6.309778e-001 -6.830477e+000 215 208 200
3.868553e-001 4.750093e-001 -6.964266e+000 211 204 196
3.896452e-001 4.747330e-001 -6.970943e+000 211 204 196
7.227921e-001 3.001280e-001 -6.637266e+000 174 159 147
3.417581e-001 1.166591e-001 -6.857383e+000 178 168 159
9.954678e-001 -3.609441e-001 -6.349934e+000 108 88 50
2.956201e-002 6.889838e-001 -7.257071e+000 217 208 201
-2.672712e-002 4.905085e-001 -7.344166e+000 186 176 167
1.998152e-002 3.530858e-001 -7.190888e+000 131 121 111
8.225333e-001 2.932071e-001 -6.500779e+000 249 248 244
6.970905e-001 -2.202699e-001 -6.566541e+000 247 240 234
3.530704e-001 -1.073634e+000 -7.395931e+000 140 121 72
1.037403e-001 1.006127e+000 -7.267464e+000 210 201 196
3.570732e-001 5.826658e-001 -6.966681e+000 233 224 217
-3.092648e-001 -9.557276e-002 -6.764409e+000 76 21 19
4.959111e-001 1.035920e-001 -6.775521e+000 138 126 114
5.266012e-001 -4.319034e-001 -6.804883e+000 170 148 100
-3.093308e-001 5.453636e-001 -7.864934e+000 215 206 197
-6.867575e-002 -6.618828e-001 -6.995970e+000 39 31 29
6.695577e-001 4.015542e-001 -6.658066e+000 243 242 237
-2.619272e-001 1.295673e-002 -6.891875e+000 73 25 18
-3.413446e-002 1.783318e-002 -6.930239e+000 142 132 122
-2.126412e-001 -3.577203e-001 -6.839610e+000 172 159 150
-2.826873e-001 -3.840569e-001 -6.783703e+000 171 161 150
2.150803e-001 6.590230e-001 -7.230023e+000 175 166 157
2.210014e-001 2.108803e-001 -6.991448e+000 124 113 103
-1.780711e-001 -1.718348e-002 -6.886255e+000 149 136 128
-2.973367e-001 -3.023173e-001 -6.811529e+000 168 150 139
7.174400e-001 8.108587e-001 -6.616433e+000 122 32 33
-1.585285e-001 4.766135e-001 -7.478047e+000 164 156 145
-5.465375e-001 -8.523700e-002 -6.743295e+000 108 35 15
-4.049354e-001 -3.531951e-001 -6.630070e+000 168 149 148
1.090979e+000 5.183318e-002 -6.260838e+000 180 41 48
4.087069e-001 -1.199579e-001 -6.814169e+000 253 250 245
-1.892035e-001 -4.253734e-001 -6.939147e+000 240 237 230
5.873341e-001 -7.421734e-001 -6.865716e+000 181 39 35
7.920850e-001 6.173602e-001 -6.543677e+000 189 34 42
6.776264e-001 5.888805e-001 -6.616107e+000 249 64 78
9.826929e-001 2.127517e-001 -6.386272e+000 227 60 68
1.061184e+000 5.720132e-002 -6.278401e+000 121 11 20
-8.179807e+000 -5.987768e+000 -1.877315e+001 106 97 95
-4.391417e-001 8.747291e-001 -7.904870e+000 25 18 16
1.771704e-001 3.928123e-001 -7.107752e+000 134 124 111
-3.734059e-002 1.080346e+000 -7.398067e+000 181 36 41
1.196133e+000 -1.857396e-001 -6.168567e+000 190 165 111
1.196133e+000 -1.857396e-001 -6.168567e+000 190 165 111
1.275744e-001 3.316006e-002 -6.895674e+000 132 120 108
-6.328995e-001 -1.326705e-001 -6.695238e+000 69 22 15
4.996020e-001 6.883576e-002 -7.196472e+000 142 132 120
5.566059e-001 6.165037e-001 -6.796265e+000 194 186 177
-1.568802e-001 1.344124e-001 -6.904393e+000 102 88 79
-7.239600e-001 -1.447920e-001 -6.990092e+000 114 51 31
-4.964350e-001 -2.296835e-001 -6.700638e+000 186 45 12
2.020908e-001 8.542439e-001 -7.215670e+000 195 186 181
-9.226886e-001 -1.746776e-001 -6.400735e+000 140 113 65
-8.966730e-001 -3.473172e-001 -6.688245e+000 51 37 33
-5.192756e-001 -2.127766e-001 -6.625890e+000 146 24 8
-6.677167e-001 -3.308885e-001 -6.570308e+000 220 167 124
-6.409814e-001 -2.927415e-001 -6.532504e+000 82 29 13
-6.409814e-001 -2.927415e-001 -6.532504e+000 82 29 13
2.154446e-001 6.645683e-001 -6.935601e+000 209 200 191
5.481100e-001 7.490262e-001 -6.678992e+000 187 177 171
-2.266511e-001 2.326646e-002 -6.891223e+000 89 32 21
-7.028639e-001 -3.433860e-001 -6.614572e+000 252 220 167
-6.650484e-001 -3.104132e-001 -6.564819e+000 253 210 175
-6.046525e-001 -2.948598e-001 -6.740483e+000 160 51 24
-5.601474e-001 -2.854837e-001 -6.717024e+000 239 157 124
-3.121571e-001 -1.821418e-001 -6.684766e+000 218 101 62
3.473834e-001 1.012117e+000 -7.004013e+000 227 214 213
6.483055e-001 6.206197e-001 -6.640230e+000 208 52 57
5.850534e-001 5.456135e-001 -6.985060e+000 150 140 128
-8.914117e-001 -1.921268e-001 -6.496649e+000 46 31 24
-2.811022e-001 -1.747573e-001 -6.659692e+000 99 24 18
-6.291803e-001 -3.256071e-001 -6.598569e+000 237 191 148
-8.416359e-001 -1.800846e-001 -6.420698e+000 140 117 76
5.099088e-001 1.051010e+000 -6.848484e+000 196 44 50
-6.732019e-001 -3.290453e-001 -6.571817e+000 232 174 132
-8.519599e-001 -1.508635e-001 -6.589823e+000 137 59 23
-3.326134e-001 -2.151088e-001 -6.639754e+000 227 105 57
2.588833e-001 8.050754e-001 -7.100304e+000 153 142 134
-1.989240e-001 6.308675e-001 -7.648087e+000 171 163 153
-1.969269e+000 -2.555184e+000 -1.061636e+001 58 49 50
8.198082e-001 5.538293e-001 -6.527519e+000 200 52 59
6.507352e-001 -8.813221e-001 -6.775311e+000 230 98 105
1.825587e-001 -4.746696e-001 -6.938674e+000 63 35 24
4.193958e-001 1.150533e+000 -6.905147e+000 174 44 51
5.500942e-002 6.321545e-001 -7.191022e+000 216 207 198
6.569767e-001 7.652794e-001 -6.562310e+000 188 44 48
-1.851633e-001 3.623989e-001 -7.425509e+000 152 140 128
2.938368e-001 2.267358e-001 -6.954115e+000 121 109 94
1.922655e-001 1.425358e-001 -6.845029e+000 191 178 169
-3.247200e-001 -1.316853e-001 -6.741398e+000 84 16 7
-4.337441e-001 -2.430110e-001 -6.639506e+000 167 86 64
4.160061e-001 -8.798072e-002 -6.736862e+000 214 209 202
4.205344e-001 -1.160436e-001 -6.774252e+000 223 217 211
-2.497651e-002 6.423284e-001 -7.330074e+000 205 198 190
7.219459e-001 7.769024e-001 -6.598792e+000 82 12 15
6.523168e-001 7.537387e-001 -6.490682e+000 206 47 61
3.336582e-002 2.227435e-001 -7.033547e+000 152 142 133
-4.356528e-001 -3.901292e-002 -6.799749e+000 118 50 32
-4.356528e-001 -3.901292e-002 -6.799749e+000 118 50 32
-5.954167e-002 4.547088e-002 -6.945248e+000 164 151 143
-2.788707e-001 -6.682045e-002 -6.851372e+000 84 17 11
1.939966e-001 -1.339820e-001 -6.857637e+000 254 254 249
-1.745972e+000 -3.588180e+000 -1.046886e+001 45 39 41
2.908597e-001 1.223104e+000 -7.076744e+000 200 48 52
3.658503e-001 1.068634e+000 -7.072721e+000 214 51 52
3.522102e-001 1.065483e+000 -6.997048e+000 214 51 52
-4.219493e-001 8.795826e-001 -7.901523e+000 20 20 18
-1.817995e-001 8.303505e-001 -7.637807e+000 203 196 186
-2.198463e-001 5.557839e-001 -7.671593e+000 180 171 162
-1.062615e-001 4.388302e-001 -7.375500e+000 180 172 162
-2.244263e-001 4.239146e-002 -6.908192e+000 135 120 113
1.035508e+000 -3.348609e-001 -6.302019e+000 170 147 95
1.050414e+000 -3.207893e-001 -6.297259e+000 164 139 85
7.251045e-001 5.505669e-001 -6.559091e+000 245 68 80
6.980494e-002 1.599847e-001 -6.965047e+000 162 152 142
6.035492e-001 2.062417e-001 -6.837268e+000 172 163 152
6.375190e-001 -2.694169e-001 -6.682209e+000 229 225 216
-6.292548e+000 -7.501697e+000 -1.788547e+001 31 32 36
-4.580466e+000 -6.536998e+000 -1.522522e+001 131 127 141
-4.349207e+000 -6.812850e+000 -1.531837e+001 21 19 22
-5.842227e+000 -8.672640e+000 -1.712339e+001 110 109 122
3.263693e-001 1.206479e+000 -7.031000e+000 204 47 54
3.700608e-001 1.172739e+000 -6.963383e+000 194 38 42
-1.559690e-001 4.872477e-001 -7.464300e+000 165 155 145
6.849181e-001 5.604470e-001 -6.619003e+000 250 245 244
6.998338e-002 -7.248959e-002 -6.866144e+000 160 146 135
2.432180e-001 -2.201868e-001 -6.922541e+000 218 209 202
2.432180e-001 -2.201868e-001 -6.922541e+000 218 209 202
3.680425e-001 -2.741002e-001 -6.921086e+000 217 210 200
1.092979e+000 -1.231688e-001 -6.282582e+000 25 9 12
7.848536e-001 -7.488338e-001 -6.679363e+000 210 205 196
8.853569e-001 -7.441998e-001 -6.554874e+000 250 75 86
1.033898e+000 -8.113445e-001 -6.477749e+000 250 86 94
1.033898e+000 -8.113445e-001 -6.477749e+000 250 86 94
-4.415490e+000 -6.781156e+000 -1.515819e+001 134 131 146
-5.365842e+000 -8.543492e+000 -1.715190e+001 51 51 59
9.964721e-002 -4.066743e-001 -6.919122e+000 44 28 15
1.198427e+000 -1.802216e-001 -6.158502e+000 204 174 122
1.198427e+000 -1.802216e-001 -6.158502e+000 204 174 122
1.020687e+000 -7.952485e-001 -6.459884e+000 250 78 90
1.020687e+000 -7.952485e-001 -6.459884e+000 250 78 90
9.610528e-001 3.558506e-001 -6.370584e+000 218 54 65
-2.524323e-002 -5.131102e-001 -7.051499e+000 43 34 30
1.025083e+000 -1.581270e-001 -6.376124e+000 228 64 75
5.013379e-001 8.570168e-001 -6.857062e+000 230 219 215
2.086093e-001 5.854044e-001 -7.178586e+000 139 126 117
5.515354e-001 2.351618e-001 -6.879224e+000 209 202 194
-7.599154e-002 -3.323432e-001 -6.915921e+000 125 108 78
-6.108984e+000 -7.606618e+000 -1.759591e+001 115 112 119
-6.025285e+000 -7.974946e+000 -1.735626e+001 133 131 142
-6.025285e+000 -7.974946e+000 -1.735626e+001 133 131 142
5.048437e-001 8.492487e-001 -6.854382e+000 229 221 218
1.870466e-001 -4.814099e-001 -6.954776e+000 66 33 26
-4.672850e+000 -6.635670e+000 -1.574975e+001 167 169 184
-6.121681e+000 -6.302975e+000 -1.829274e+001 19 17 22
-3.083336e-001 5.473260e-001 -7.856728e+000 213 204 195
1.890266e-001 6.735678e-001 -7.328791e+000 177 170 162
7.490863e-001 7.607191e-001 -6.578572e+000 109 22 20
-2.043573e-001 1.081563e-001 -6.997750e+000 107 93 84
-1.698984e-001 7.745372e-002 -6.921974e+000 145 130 123
-4.276200e-001 -6.096284e-002 -6.823775e+000 87 19 8
-1.262343e-001 1.361446e-002 -6.872359e+000 128 114 109
-5.172066e-001 -1.343278e-001 -6.713283e+000 125 31 14
-7.730038e-001 -2.084975e-001 -6.529081e+000 87 29 14
-4.721344e+000 -6.166971e+000 -1.527788e+001 95 90 100
9.657163e-001 -6.475840e-001 -6.389939e+000 243 85 83
-1.529526e-001 8.453149e-001 -7.574554e+000 183 176 168
-5.055226e-001 5.586480e-001 -8.010232e+000 206 40 46
-1.935547e-001 5.824355e-001 -7.640558e+000 166 157 148
3.138329e-001 2.223576e-001 -7.093402e+000 144 130 119
-2.443839e-001 4.619250e-002 -6.916949e+000 79 33 28
-4.694348e-001 -6.711694e-002 -6.776655e+000 139 61 39
-6.365975e-001 -1.516113e-001 -6.679331e+000 74 17 10
2.892376e-001 -3.297797e-001 -6.932465e+000 126 110 95
6.009718e-001 -1.002574e-001 -6.626495e+000 218 214 205
6.009718e-001 -1.002574e-001 -6.626495e+000 218 214 205
-5.588058e+000 -8.731953e+000 -1.698073e+001 156 161 183
7.086933e-001 7.795840e-001 -6.616622e+000 76 7 10
1.043102e-001 1.924062e-001 -6.984373e+000 199 191 180
7.441618e-001 4.890309e-001 -6.624170e+000 207 201 195
9.501182e-001 3.448241e-001 -6.377541e+000 234 67 77
-3.119261e-001 -1.968733e-001 -6.735639e+000 214 102 65
7.746760e-001 -9.077620e-001 -6.767464e+000 226 78 79
-1.373951e+000 -2.666650e+000 -8.780567e+000 25 19 21
-5.478501e-001 5.384304e-001 -8.094982e+000 217 58 56
-1.789179e-001 3.420159e-001 -7.380370e+000 140 127 118
-1.007593e-001 4.145996e-001 -7.368701e+000 140 130 117
5.813596e-001 5.885206e-001 -6.790021e+000 166 156 146
2.533289e-001 2.566587e-001 -7.008700e+000 119 104 94
-2.985245e-001 4.090283e-002 -6.933621e+000 61 12 11
4.201801e-001 1.897176e-001 -6.898978e+000 120 108 94
-3.287869e-001 -7.719543e-002 -6.838534e+000 78 23 16
9.820798e-001 2.137184e-001 -6.386696e+000 242 73 82
-2.260131e-001 -3.767143e-001 -6.865850e+000 169 148 135
-4.823450e+000 -6.499920e+000 -1.515446e+001 9 8 14
-1.445838e+000 -4.798568e+000 -1.051917e+001 46 40 42
3.875301e-001 1.400901e-001 -6.843332e+000 203 195 185
7.075735e-001 6.632411e-002 -6.698921e+000 194 185 178
9.886593e-001 -3.928120e-001 -6.336613e+000 110 86 48
-4.779898e+000 -6.639962e+000 -1.519133e+001 155 153 167
-4.756801e+000 -6.599082e+000 -1.512782e+001 155 153 167
-5.899589e+000 -8.713998e+000 -1.703392e+001 130 131 149
-2.111403e-001 8.032716e-001 -7.646166e+000 202 193 185
4.142777e-001 6.870637e-001 -6.980290e+000 168 157 153
4.142777e-001 6.870637e-001 -6.980290e+000 168 157 153
5.644332e-001 3.115789e-001 -6.835417e+000 194 185 176
8.669681e-001 -9.916173e-001 -6.682078e+000 231 66 80
8.669681e-001 -9.916173e-001 -6.682078e+000 231 66 80
5.711397e-001 9.807474e-001 -6.770323e+000 209 45 56
8.003764e-001 -2.903055e-001 -6.509076e+000 91 74 54
8.368749e-001 -1.084382e-001 -6.531865e+000 164 151 143
8.739969e-001 -2.947867e-001 -6.378004e+000 182 157 108
-4.396930e+000 -6.828392e+000 -1.475468e+001 161 161 173
-5.381598e+000 -8.014423e+000 -1.669912e+001 10 8 12
-5.365514e+000 -7.980838e+000 -1.664822e+001 10 8 12
1.111403e+000 -1.465979e-001 -6.259466e+000 37 26 27
-5.735324e+000 -8.705291e+000 -1.714728e+001 168 173 195
-2.386532e-001 2.300665e-001 -7.544231e+000 122 28 31
-1.775531e-001 1.164647e-001 -6.806534e+000 142 129 120
-1.980081e-001 -5.142690e-002 -6.825350e+000 109 37 21
-1.721113e-001 -2.468997e-001 -6.870167e+000 240 229 226
3.954206e-001 -1.211317e-001 -6.819655e+000 238 235 228
-3.075903e-001 1.011914e+000 -7.740286e+000 29 19 19
-2.343432e-001 8.092333e-001 -7.699011e+000 203 194 185
2.280105e-001 6.970729e-001 -7.189594e+000 190 181 174
2.334303e-001 6.890219e-001 -7.228766e+000 190 181 174
1.488859e-001 2.223796e-001 -6.920059e+000 157 141 126
-4.815797e-001 -6.895809e-002 -6.747036e+000 144 65 43
-1.296780e-001 4.774215e-002 -6.955362e+000 131 116 109
-8.397417e-001 -2.367479e-001 -6.475662e+000 91 24 17
-5.453592e-001 -2.098871e-001 -6.641426e+000 251 139 101
-1.819683e-001 -3.526227e-001 -6.850749e+000 191 183 174
-1.764196e+000 -3.523005e+000 -1.047360e+001 41 35 37
8.118802e-001 -2.626673e-001 -6.532431e+000 139 122 110
4.514361e-001 -1.093491e+000 -7.297501e+000 241 221 182
-1.808527e-002 1.243470e+000 -7.342256e+000 186 39 40
-2.976740e-001 -2.548051e-002 -7.900595e+000 35 27 26
-2.976740e-001 -2.548051e-002 -7.900595e+000 35 27 26
-5.622393e-001 -4.026983e-002 -6.859647e+000 69 16 8
-5.622393e-001 -4.026983e-002 -6.859647e+000 69 16 8
7.957916e-001 5.261017e-001 -6.580374e+000 214 57 66
-6.472007e-001 -1.710345e-001 -6.569134e+000 147 63 39
4.084654e-001 4.844539e-002 -6.839029e+000 131 119 107
-6.155636e-002 -2.221960e-001 -6.851850e+000 253 250 243
7.972348e-002 -1.955387e-001 -6.893793e+000 232 225 219
-6.976733e-001 -3.256523e-001 -6.562048e+000 43 35 33
-2.319257e-001 -3.990639e-001 -6.844437e+000 232 225 221
3.624235e-001 -4.315381e-001 -6.890570e+000 196 183 131
-1.677412e+000 -3.640664e+000 -1.051817e+001 53 47 47
2.692162e-002 1.108715e+000 -7.327666e+000 203 42 49
-3.122401e-001 -1.901398e-001 -6.719110e+000 227 116 77
-8.837331e-002 -1.968910e-001 -6.825489e+000 227 224 219
-4.549709e-001 4.249024e-001 -7.849114e+000 213 200 191
7.800692e-001 4.999564e-001 -6.586403e+000 174 33 44
4.358540e-002 -4.942288e-002 -6.884840e+000 159 149 140
4.113504e-002 -4.182058e-002 -6.866274e+000 159 149 140
-1.869630e-001 -3.964468e-001 -6.886773e+000 242 236 232
9.850615e-001 1.606466e-001 -6.376417e+000 195 35 45
9.850615e-001 1.606466e-001 -6.376417e+000 195 35 45
4.474150e-001 -3.168554e-001 -6.899720e+000 244 237 231
1.060823e+000 2.250119e-002 -6.257927e+000 229 83 91
6.862211e-001 -8.167116e-001 -6.743456e+000 219 47 59
2.419832e-001 8.938886e-001 -7.220638e+000 223 217 213
-4.783267e-001 -2.076863e-001 -6.700092e+000 249 132 87
5.918013e-001 -5.758644e-001 -6.737191e+000 229 217 208
-5.948505e-001 -1.478262e-001 -6.707319e+000 94 33 26
3.425218e-001 5.285044e-002 -6.829423e+000 199 190 181
4.579677e-001 2.879699e-002 -6.731800e+000 146 134 120
4.579677e-001 2.879699e-002 -6.731800e+000 146 134 120
4.810399e-001 -1.649425e-002 -6.680237e+000 214 207 199
5.173480e-001 -4.161922e-001 -6.726511e+000 178 156 106
9.225274e-002 1.225681e+000 -7.246445e+000 203 48 54
-2.009748e-001 2.413813e-001 -7.553268e+000 184 174 162
-2.866007e-001 4.663047e-002 -7.397243e+000 220 212 205
-1.374785e-001 6.027890e-001 -7.518188e+000 168 162 150
-1.374785e-001 6.027890e-001 -7.518188e+000 168 162 150
4.992485e-001 -7.718843e-001 -6.911149e+000 251 250 245
-6.434003e-001 -1.524590e-001 -6.760565e+000 65 17 12
6.173577e-001 -3.584847e-001 -6.665447e+000 100 85 64
7.177197e-001 -9.110237e-001 -6.714560e+000 50 36 36
-4.055422e-001 2.267290e-001 -7.678169e+000 38 27 27
-3.192122e-001 -1.049584e-001 -6.792822e+000 66 11 8
3.060048e-001 -1.464606e-001 -6.888756e+000 245 242 234
3.065999e-001 -1.455410e-001 -6.886391e+000 245 242 234
-4.166897e-002 -6.647976e-001 -7.027779e+000 35 30 27
-8.906203e+000 -1.041312e+001 -2.373871e+001 23 19 20
-1.906085e+000 -3.268123e+000 -1.068778e+001 38 32 34
6.546402e-001 -1.457389e-001 -6.573235e+000 228 220 210
-4.276911e+000 -6.583009e+000 -1.530883e+001 30 28 33
-4.362562e+000 -6.630104e+000 -1.522320e+001 165 161 175
-5.986074e+000 -8.319692e+000 -1.710271e+001 9 7 10
-5.010229e-002 2.163417e-001 -7.135356e+000 145 132 123
-4.811778e-001 -9.107606e-002 -6.746389e+000 121 37 16
-4.699504e-001 -1.280066e-001 -6.700234e+000 129 34 14
7.988982e-001 -9.764779e-001 -6.781021e+000 48 30 30
3.646509e-001 1.082468e+000 -7.030579e+000 214 50 57
5.596883e-001 5.887680e-001 -6.826776e+000 204 194 185
-6.024163e+000 -7.261866e+000 -1.821823e+001 84 84 92
-5.741130e+000 -8.925043e+000 -1.700185e+001 12 10 16
8.384596e-002 1.100660e+000 -7.246209e+000 232 192 168
1.804178e-001 6.456073e-001 -7.249864e+000 181 174 164
3.061549e-001 1.076722e+000 -7.055926e+000 203 32 40
-5.252770e-002 4.996548e-001 -7.332981e+000 208 197 191
-5.252770e-002 4.996548e-001 -7.332981e+000 208 197 191
7.552618e-002 5.542382e-001 -7.206643e+000 176 167 154
5.265609e-001 5.827567e-001 -6.876724e+000 187 181 170
-8.419750e-002 2.198130e-001 -7.224026e+000 145 135 125
1.781252e-001 2.567759e-001 -7.015859e+000 122 108 97
-4.826888e-001 -7.243569e-002 -6.754417e+000 144 65 43
-2.547478e-001 -5.359311e-002 -6.859016e+000 90 21 15
-6.131088e+000 -7.781428e+000 -1.803424e+001 79 79 80
-4.769479e+000 -6.226136e+000 -1.525691e+001 101 99 108
-4.650761e+000 -6.973448e+000 -1.533454e+001 156 154 168
-3.924210e+000 -7.385249e+000 -1.507203e+001 84 87 96
-1.554936e+000 -4.292882e+000 -1.044493e+001 50 44 48
-1.933118e-001 8.462688e-001 -7.658871e+000 161 147 139
-7.410787e-002 2.458453e-001 -7.221783e+000 130 118 106
2.418308e-001 2.655822e-001 -7.085460e+000 127 115 102
-5.999851e+000 -7.588586e+000 -1.759478e+001 80 79 84
-2.135877e+000 -3.163590e+000 -1.087244e+001 55 50 54
-5.378639e+000 -8.676397e+000 -1.715892e+001 120 121 139
-1.508500e+000 -4.389839e+000 -1.039655e+001 53 48 52
5.565576e-001 5.543992e-001 -6.863765e+000 153 143 133
-2.902293e-001 -1.639713e-002 -6.858473e+000 70 20 17
8.120970e-001 3.662827e-001 -6.475756e+000 252 81 93
7.612272e-001 7.184595e-001 -6.554104e+000 21 1 4
-5.857907e-001 6.252759e-001 -8.146374e+000 38 24 20
2.400685e-001 1.884106e-002 -6.856318e+000 244 240 231
5.499785e-001 9.265061e-002 -6.779566e+000 189 175 165
-4.631547e+000 -6.647424e+000 -1.543748e+001 142 138 153
-4.054556e+000 -7.675097e+000 -1.509405e+001 11 7 14
-5.604358e+000 -7.418730e+000 -1.714699e+001 10 10 12
5.876731e-001 9.814220e-001 -6.728923e+000 186 44 53
-5.999583e+000 -7.438155e+000 -1.753771e+001 80 77 84
-1.561159e-001 1.220645e-001 -6.989396e+000 108 94 83
-1.440577e-001 5.345473e-002 -6.914837e+000 162 147 140
-1.440577e-001 5.345473e-002 -6.914837e+000 162 147 140
-4.225963e+000 -6.336780e+000 -1.530925e+001 47 45 48
2.724161e-001 2.131181e-001 -6.922580e+000 143 130 114
-4.875625e-001 -1.385432e-001 -6.715593e+000 126 37 16
-5.171644e-001 -2.345041e-001 -6.672873e+000 144 27 9
-5.392185e+000 -8.925441e+000 -1.699093e+001 116 124 147
5.050435e-001 -3.934200e-001 -6.797407e+000 147 133 108
9.537734e-001 -2.680961e-001 -6.411122e+000 141 114 76
-5.917927e+000 -7.305664e+000 -1.803375e+001 66 66 74
-4.583500e+000 -6.121692e+000 -1.543689e+001 136 136 146
-2.092524e+000 -2.599927e+000 -1.074853e+001 40 36 37
6.438673e-001 4.748862e-001 -6.680356e+000 235 232 223
6.550619e-001 4.917753e-001 -6.659890e+000 236 231 227
-4.313728e-001 -1.253449e-001 -6.753855e+000 90 20 11
-5.885395e+000 -8.808672e+000 -1.700323e+001 3 4 8
4.245822e-001 -4.016574e-002 -6.734430e+000 199 192 174
-1.711155e+000 -3.741782e+000 -1.057078e+001 28 22 24
4.375892e-001 -1.119469e+000 -7.314476e+000 42 29 20
-1.372151e+000 -5.321777e+000 -1.017978e+001 22 15 17
-1.148617e-001 1.131702e+000 -7.515358e+000 142 21 30
-1.865465e-002 1.268937e+000 -7.305165e+000 33 14 15
-2.417294e-001 4.794282e-001 -7.711091e+000 192 184 173
4.918901e-001 1.093911e+000 -6.855731e+000 185 40 45
8.055256e-002 3.596990e-001 -7.156453e+000 136 124 112
-5.799243e+000 -7.141759e+000 -1.803813e+001 66 66 78
-2.120739e+000 -2.456489e+000 -1.071320e+001 36 30 30
-4.798225e+000 -6.203666e+000 -1.546491e+001 130 130 139
-4.715234e+000 -6.382477e+000 -1.506889e+001 122 120 130
-4.588777e+000 -6.458284e+000 -1.527830e+001 137 137 149
-3.844482e-001 -2.695278e-002 -6.842601e+000 56 15 9
-8.059679e-001 -2.176441e-001 -6.516445e+000 136 109 66
9.986629e-002 2.950577e-002 -6.901062e+000 170 160 148
-5.880774e+000 -8.493494e+000 -1.699891e+001 105 103 115
-2.184257e-001 -2.465892e-001 -6.897671e+000 233 209 149
-1.901762e+000 -3.275382e+000 -1.068473e+001 40 34 38
-1.857298e+000 -3.389225e+000 -1.064362e+001 44 40 41
-4.609161e-001 -3.942122e-001 -6.685349e+000 164 143 123
-3.200780e-001 -4.157352e-001 -6.760414e+000 234 229 225
-2.853118e-001 -4.305065e-001 -6.799520e+000 251 251 246
5.681783e-001 -6.989061e-001 -6.847414e+000 174 161 141
7.984412e-001 -9.471539e-001 -6.823296e+000 235 82 88
-1.323636e+000 -5.314962e+000 -1.019572e+001 111 101 102
-1.324499e+000 -5.311771e+000 -1.019187e+001 111 101 102
3.136004e-001 1.241061e+000 -6.983985e+000 27 10 13
-2.916645e-001 7.880032e-002 -6.958419e+000 78 42 41
-5.995415e+000 -8.039840e+000 -1.705274e+001 11 9 17
-4.806494e+000 -6.447536e+000 -1.535226e+001 118 116 128
-2.259032e-001 -4.180595e-002 -6.891507e+000 112 43 32
-4.498216e+000 -6.726060e+000 -1.506785e+001 109 109 117
-1.940846e+000 -3.129150e+000 -1.068632e+001 49 44 46
-3.111764e-001 -1.943192e-001 -6.725812e+000 228 115 76
-8.638965e-002 -4.503389e-001 -6.966090e+000 40 33 25
5.730325e-002 -2.527497e-001 -6.885947e+000 199 189 179
1.023425e+000 2.927394e-001 -6.337752e+000 32 10 16
1.084319e+000 1.353313e-001 -6.285209e+000 32 18 19
-1.426118e+000 -4.707932e+000 -1.036946e+001 52 46 48
