ply
format ascii 1.0
element face 0
property list uchar int vertex_indices
element vertex 880
property float x
property float y
property float z
property uchar diffuse_red
property uchar diffuse_green
property uchar diffuse_blue
end_header
3.031343e+000 1.311319e-002 -8.954783e+000 190 69 80
3.031343e+000 1.311319e-002 -8.954783e+000 190 69 80
3.832369e+000 7.329395e-002 -9.252229e+000 194 91 50
3.584085e+000 -3.712431e-001 -9.507463e+000 158 85 49
4.543025e+000 -3.202097e-001 -9.876717e+000 185 154 134
-2.989729e-001 -4.973430e-001 -7.994108e+000 138 145 61
-2.989729e-001 -4.973430e-001 -7.994108e+000 138 145 61
3.251831e+000 -4.600319e-001 -9.412425e+000 196 141 110
3.361691e+000 -4.895058e-001 -9.471321e+000 197 131 104
-4.300745e-001 -5.460937e-001 -7.929561e+000 56 105 122
8.353850e-001 -6.986063e-001 -8.690870e+000 11 59 105
1.915079e+000 -6.140469e-001 -8.967546e+000 192 131 110
2.375433e+000 -6.016705e-001 -9.173967e+000 195 132 115
-3.842327e-001 -8.028219e-001 -8.260536e+000 133 138 34
-3.842327e-001 -8.028219e-001 -8.260536e+000 133 138 34
1.165937e+000 -7.339128e-001 -8.809480e+000 137 82 80
5.167911e+000 -1.667728e+000 -9.369022e+000 155 137 137
5.220777e+000 -2.412626e+000 -9.201098e+000 159 141 141
-1.724559e+000 1.355999e+000 -8.002097e+000 127 131 130
5.644115e-001 1.541999e+000 -8.981200e+000 167 146 119
4.509244e+000 1.942821e+000 -1.114763e+001 148 116 79
-1.309591e+000 1.226961e+000 -8.052488e+000 170 33 43
-1.310575e+000 1.228707e+000 -8.047283e+000 170 33 43
-5.019654e-001 1.375020e+000 -8.473343e+000 27 61 44
1.528033e+000 1.418336e+000 -9.228859e+000 24 79 104
-1.213302e+000 1.090205e+000 -7.950227e+000 165 104 80
1.217366e+000 1.193210e+000 -8.756588e+000 160 31 43
2.267605e+000 1.323593e+000 -9.301365e+000 133 106 93
2.505718e+000 1.233685e+000 -9.266385e+000 33 15 13
2.505718e+000 1.233685e+000 -9.266385e+000 33 15 13
2.473855e-001 9.521622e-001 -8.185379e+000 29 50 26
2.473855e-001 9.521622e-001 -8.185379e+000 29 50 26
1.204041e+000 1.088493e+000 -8.650366e+000 197 147 111
2.208989e+000 9.737546e-001 -8.879658e+000 80 39 48
2.770905e+000 1.020587e+000 -9.133052e+000 145 122 106
-1.098706e+000 7.584040e-001 -7.525587e+000 174 40 49
-1.063234e+000 6.911672e-001 -7.462757e+000 164 37 38
9.157659e-001 7.840454e-001 -8.251037e+000 154 78 62
1.021463e+000 8.905498e-001 -8.363243e+000 182 47 41
1.021463e+000 8.905498e-001 -8.363243e+000 182 47 41
3.044258e+000 8.939556e-001 -9.102934e+000 133 98 96
-1.999872e+000 6.573986e-001 -7.615554e+000 195 171 145
8.415573e-001 6.126873e-001 -8.094672e+000 166 83 72
4.399614e+000 3.574429e-002 -9.523352e+000 40 23 35
1.572293e+000 -1.740038e-001 -8.518551e+000 185 124 103
2.141232e+000 -1.536647e-001 -8.706370e+000 193 142 111
-6.719931e-001 -3.641113e-001 -7.759923e+000 135 136 74
2.484357e+000 -5.408997e-001 -9.220376e+000 194 132 105
6.758350e-001 -6.946367e-001 -8.564143e+000 198 132 110
3.371807e+000 -9.072850e-001 -1.001846e+001 146 115 95
3.468283e+000 -9.619142e-001 -1.015978e+001 184 150 123
-8.954060e-001 -8.831872e-001 -8.208416e+000 34 64 39
5.374537e-001 -1.012794e+000 -8.923960e+000 193 130 119
4.946286e+000 -2.196263e+000 -9.818844e+000 154 140 139
4.763488e+000 -2.827965e+000 -1.049237e+001 142 126 128
-3.926800e-001 1.548513e+000 -8.695756e+000 31 54 25
1.363834e+000 1.531431e+000 -9.290782e+000 96 115 113
1.363834e+000 1.531431e+000 -9.290782e+000 96 115 113
1.394887e+000 1.462221e+000 -9.198046e+000 108 122 134
1.400244e+000 1.458736e+000 -9.208876e+000 108 122 134
1.489934e+000 1.514775e+000 -9.322573e+000 38 40 63
1.688943e+000 1.479691e+000 -9.251219e+000 88 62 81
2.318030e+000 1.415127e+000 -9.447145e+000 99 78 95
-7.398596e-001 1.179966e+000 -8.183996e+000 172 157 72
-7.419797e-001 1.182592e+000 -8.209751e+000 172 157 72
-1.559893e-001 1.165892e+000 -8.306502e+000 162 156 81
-1.592830e-001 1.165158e+000 -8.320241e+000 162 156 81
2.666125e+000 1.366447e+000 -9.491551e+000 145 113 99
-6.196072e-001 9.325279e-001 -7.895465e+000 171 154 96
-6.224250e-001 9.321220e-001 -7.912593e+000 171 154 96
-4.053463e-001 1.020944e+000 -8.094228e+000 34 54 28
-2.274614e-001 9.571517e-001 -8.063653e+000 174 155 62
-8.814119e-001 7.036415e-001 -7.525899e+000 179 33 47
7.907827e-001 7.758990e-001 -8.194811e+000 165 88 78
2.873043e+000 9.626684e-001 -9.098216e+000 140 110 102
-1.956784e+000 6.114920e-001 -7.578364e+000 148 123 101
9.468886e-001 6.665683e-001 -8.163363e+000 157 85 70
3.224452e+000 6.416432e-001 -8.992154e+000 83 53 65
4.056711e+000 -1.844428e-002 -9.400020e+000 185 87 31
1.057901e+000 -1.845113e-001 -8.331274e+000 15 59 92
-3.522670e-001 -5.102864e-001 -7.986923e+000 27 58 30
6.858201e-001 -6.355861e-001 -8.464211e+000 153 88 60
1.549965e+000 -7.725622e-001 -9.040260e+000 197 132 114
-2.257433e-001 -9.322642e-001 -8.501626e+000 155 152 136
4.250932e-001 -1.147658e+000 -9.141663e+000 167 46 61
5.069945e+000 -1.863872e+000 -9.633500e+000 60 50 59
5.089114e+000 -1.875813e+000 -9.538924e+000 138 121 121
4.883779e+000 -2.295527e+000 -9.858602e+000 135 122 122
4.845944e+000 -2.648772e+000 -1.032429e+001 136 119 125
4.664846e+000 -3.032113e+000 -1.066209e+001 149 130 133
4.538217e+000 -3.274659e+000 -1.084984e+001 143 127 130
4.471214e+000 -3.361257e+000 -1.090503e+001 147 131 134
-4.708751e-001 1.448422e+000 -8.558530e+000 170 157 113
-3.512669e-001 1.399633e+000 -8.571216e+000 36 60 30
-1.636212e-001 1.385330e+000 -8.512467e+000 29 51 30
-1.580524e-001 1.391052e+000 -8.586929e+000 29 51 30
1.585420e+000 1.486844e+000 -9.276014e+000 180 127 96
1.589738e+000 1.491739e+000 -9.307816e+000 180 127 96
1.543824e+000 1.351812e+000 -9.075515e+000 30 76 112
1.661153e+000 1.335691e+000 -9.133945e+000 186 136 92
-8.375991e-001 1.194795e+000 -8.222199e+000 30 53 24
-7.650454e-001 1.038886e+000 -8.022121e+000 163 153 112
-6.025119e-001 1.125655e+000 -8.121483e+000 35 55 39
-5.471748e-001 1.189338e+000 -8.272860e+000 171 154 111
-5.471748e-001 1.189338e+000 -8.272860e+000 171 154 111
3.968429e-002 1.171668e+000 -8.395452e+000 167 149 115
3.968429e-002 1.171668e+000 -8.395452e+000 167 149 115
-2.245971e-002 1.101986e+000 -8.276734e+000 37 60 43
-3.916477e-003 1.095287e+000 -8.275038e+000 37 60 43
-7.206863e-001 9.608065e-001 -8.001153e+000 32 60 31
-4.804485e-001 8.713730e-001 -7.872516e+000 38 64 45
-4.204130e-001 9.393729e-001 -7.971567e+000 168 155 110
-4.204130e-001 9.393729e-001 -7.971567e+000 168 155 110
6.004205e-001 9.295629e-001 -8.265641e+000 171 35 36
8.824653e-001 1.024912e+000 -8.460205e+000 163 156 131
8.824653e-001 1.024912e+000 -8.460205e+000 163 156 131
1.487262e+000 1.043530e+000 -8.780373e+000 6 77 115
2.414519e+000 1.149955e+000 -9.157653e+000 130 101 93
-1.658822e-001 7.623859e-001 -7.843571e+000 161 155 93
-1.650765e-001 7.626245e-001 -7.861105e+000 161 155 93
1.794296e-001 8.344684e-001 -8.033707e+000 28 53 26
1.794296e-001 8.344684e-001 -8.033707e+000 28 53 26
1.536771e+000 9.405016e-001 -8.659762e+000 26 74 118
1.860773e+000 8.100014e-001 -8.604388e+000 176 114 89
2.757110e+000 8.031955e-001 -8.943525e+000 92 53 58
3.269039e+000 9.214239e-001 -9.227126e+000 158 118 83
4.683008e+000 5.717651e-001 -9.533811e+000 176 141 126
3.881486e+000 3.269224e-001 -9.200424e+000 125 27 47
3.881486e+000 3.269224e-001 -9.200424e+000 125 27 47
-2.912045e-001 -3.291183e-001 -7.885690e+000 23 61 45
-2.568865e-001 -4.179221e-001 -7.935226e+000 93 116 116
-6.773609e-001 -8.170564e-001 -8.165223e+000 78 113 131
1.914219e+000 -7.821473e-001 -9.201243e+000 194 131 113
2.025768e+000 -7.893984e-001 -9.261317e+000 193 134 112
-1.061674e+000 -1.081982e+000 -8.370699e+000 39 67 47
6.019959e-001 -1.137425e+000 -9.238134e+000 20 76 127
-7.265976e-002 1.322196e+000 -8.475816e+000 169 153 109
-6.963908e-002 1.324985e+000 -8.463661e+000 169 153 109
4.413715e-002 1.382016e+000 -8.573616e+000 39 55 23
-4.325751e-001 1.186913e+000 -8.274138e+000 35 61 30
1.543326e-001 1.161716e+000 -8.414042e+000 34 57 28
2.375363e+000 1.271159e+000 -9.316074e+000 150 124 109
-1.094464e+000 9.003707e-001 -7.740672e+000 154 58 55
-8.916388e-001 9.991402e-001 -7.940158e+000 44 95 121
-3.148090e-001 9.268279e-001 -7.925069e+000 35 60 36
-9.799748e-001 6.952392e-001 -7.491778e+000 168 122 89
-9.799748e-001 6.952392e-001 -7.491778e+000 168 122 89
2.969333e-001 8.362766e-001 -8.006682e+000 163 152 122
5.510991e-001 8.339554e-001 -8.173191e+000 162 150 126
3.754037e+000 9.686346e-001 -9.451610e+000 154 118 87
3.863394e+000 8.795328e-001 -9.357015e+000 132 24 40
-7.848993e-001 6.189247e-001 -7.479692e+000 96 120 118
-6.673974e-001 5.820964e-001 -7.512093e+000 26 56 29
4.578114e+000 8.543899e-001 -9.728078e+000 168 138 114
4.363548e+000 6.514636e-001 -9.450356e+000 169 85 38
3.866456e+000 -1.977514e-001 -9.419200e+000 183 125 68
3.890851e+000 -2.037672e-001 -9.488166e+000 183 125 68
-5.983800e-001 -5.833029e-001 -7.898902e+000 66 110 108
1.786743e+000 -8.207057e-001 -9.210727e+000 193 130 112
-2.287153e-001 8.325944e-001 -7.865113e+000 165 152 118
4.407089e-002 8.318907e-001 -7.990987e+000 160 151 110
-1.974866e+000 5.601497e-001 -7.582399e+000 151 126 104
2.841766e+000 5.095618e-001 -8.811760e+000 152 107 55
-4.182727e-001 -5.874465e-001 -8.054102e+000 69 105 132
4.755075e+000 -8.242153e-001 -1.066304e+001 30 19 27
3.640631e+000 8.331479e-001 -9.313799e+000 17 58 109
4.337441e+000 1.045289e+000 -9.800666e+000 141 25 37
4.337441e+000 1.045289e+000 -9.800666e+000 141 25 37
8.777276e-001 6.791453e-001 -8.168869e+000 174 156 134
3.044507e+000 6.916423e-001 -8.972486e+000 53 19 23
-3.935700e-001 4.101183e-001 -7.546241e+000 155 148 122
3.283240e+000 5.079029e-001 -8.980338e+000 156 116 80
3.258793e+000 5.080705e-001 -8.932350e+000 156 116 80
4.776986e-002 -6.518955e-001 -8.194371e+000 156 156 144
-9.178481e-001 3.800321e-001 -7.345131e+000 93 121 135
2.367688e+000 -3.792594e-001 -8.977768e+000 194 140 112
-1.107344e+000 -6.997499e-001 -7.846190e+000 197 114 104
4.349739e+000 -2.737714e-001 -9.697697e+000 112 68 38
5.093220e-001 -4.246282e-001 -8.164552e+000 164 160 141
2.879947e+000 -1.529783e-001 -9.043326e+000 171 33 46
4.844121e+000 1.478889e+000 -1.020253e+001 40 32 43
9.643866e-001 -1.810622e-001 -8.060957e+000 99 130 151
2.248493e+000 -2.348593e-001 -9.948308e+000 129 80 75
2.209184e+000 1.294698e+000 -9.250454e+000 93 71 74
6.666481e-001 9.034308e-001 -8.275038e+000 165 156 129
2.794722e+000 1.171054e+000 -9.280937e+000 136 102 101
-8.801108e-001 6.526898e-001 -7.483783e+000 195 131 110
1.850502e+000 6.933729e-001 -8.538360e+000 189 151 89
2.019857e+000 7.564563e-001 -8.617790e+000 167 100 71
3.095123e+000 7.117149e-001 -8.995768e+000 106 67 75
3.274339e+000 6.954565e-001 -9.024087e+000 162 120 98
4.638878e+000 6.725653e-001 -9.556821e+000 148 67 50
2.463192e+000 5.641173e-001 -8.686624e+000 160 125 80
4.746288e+000 5.682025e-001 -9.516774e+000 168 134 118
2.653174e+000 3.403774e-001 -8.761689e+000 102 43 26
1.600453e+000 1.109689e-001 -8.367494e+000 177 157 138
3.033858e+000 -3.528812e-001 -9.228899e+000 188 72 77
-1.184445e+000 1.299076e+000 -8.172807e+000 51 88 127
-1.030869e+000 1.194112e+000 -8.135134e+000 55 92 117
2.804388e+000 1.336334e+000 -9.488349e+000 140 92 84
1.898874e+000 1.000310e+000 -8.816154e+000 75 13 16
2.165601e+000 8.886536e-001 -8.763344e+000 127 93 92
1.975207e+000 7.577943e-001 -8.599253e+000 95 32 43
2.004980e+000 6.396940e-001 -8.543264e+000 96 31 39
2.733263e+000 6.032047e-001 -8.798947e+000 64 16 27
4.578754e+000 1.742795e-001 -9.538219e+000 184 162 139
2.508441e+000 -7.427613e-002 -8.817823e+000 191 140 112
-4.938534e-001 -4.204183e-001 -7.854172e+000 55 100 125
-1.114913e+000 -5.608721e-001 -7.717013e+000 172 167 136
1.614764e-001 -7.186645e-001 -8.399536e+000 167 158 149
2.864217e+000 1.358307e+000 -9.515484e+000 88 57 72
-1.165092e+000 8.839770e-001 -7.680796e+000 167 44 49
2.325995e+000 7.872271e-001 -8.750519e+000 92 41 49
3.088379e+000 4.104238e-001 -8.887680e+000 131 77 37
3.970922e+000 4.293151e-001 -9.217252e+000 135 45 53
4.030848e+000 4.141938e-001 -9.229157e+000 178 101 45
1.750972e+000 -1.731073e-001 -8.582790e+000 136 77 68
1.750465e+000 -1.718577e-001 -8.569514e+000 136 77 68
1.849314e+000 -2.051478e-001 -8.645046e+000 153 101 89
1.279447e+000 -7.293540e-001 -8.873390e+000 147 91 78
5.182049e+000 -2.177279e+000 -9.307066e+000 154 132 140
4.789723e+000 -2.711554e+000 -1.022228e+001 123 107 108
5.124438e+000 -2.475149e+000 -9.463643e+000 107 87 91
2.742946e+000 1.434174e+000 -9.610164e+000 132 80 78
5.555625e-001 9.416112e-001 -8.271697e+000 177 37 44
3.956476e+000 3.212436e-001 -9.209752e+000 182 106 42
5.149968e+000 2.743693e-001 -9.685899e+000 35 22 40
4.552252e+000 7.740897e-004 -9.579721e+000 187 105 49
2.600135e+000 -2.735089e-001 -9.007678e+000 153 13 31
5.123927e+000 -1.782270e+000 -9.448126e+000 140 124 124
4.841841e+000 -2.724610e+000 -9.975603e+000 151 132 130
-7.033225e-001 1.505609e+000 -8.547936e+000 118 122 103
4.562321e-001 1.196297e+000 -8.583232e+000 172 41 47
-4.029935e-001 1.020218e+000 -8.096748e+000 34 54 28
5.068312e+000 -1.975601e+000 -9.635978e+000 143 125 125
4.510477e+000 -3.304963e+000 -1.100463e+001 47 39 46
1.150138e+000 1.021561e+000 -8.634917e+000 158 30 35
1.794937e+000 1.063737e+000 -8.857991e+000 178 138 91
1.794937e+000 1.063737e+000 -8.857991e+000 178 138 91
2.827285e+000 1.053136e+000 -9.121124e+000 136 107 101
-6.979344e-001 6.742697e-001 -7.611093e+000 27 56 32
2.904280e+000 -3.363333e-001 -9.230016e+000 172 30 47
-1.648591e-001 1.646328e+000 -8.929187e+000 169 162 56
2.207464e+000 1.799122e+000 -1.003918e+001 27 60 87
-1.277620e+000 1.199377e+000 -8.030645e+000 204 159 117
2.881044e+000 1.557523e+000 -9.673160e+000 165 131 86
-1.166958e+000 1.165325e+000 -8.025617e+000 197 144 112
-1.140553e+000 1.109563e+000 -7.963541e+000 195 152 106
1.152979e+000 1.295142e+000 -8.881821e+000 194 142 116
1.145599e+000 1.225066e+000 -8.787185e+000 205 146 103
1.292269e+000 1.211274e+000 -8.835666e+000 161 33 37
-1.932872e+000 9.806729e-001 -7.724394e+000 205 183 148
-1.059694e+000 9.769254e-001 -7.831645e+000 162 39 31
-1.059614e+000 9.765647e-001 -7.833279e+000 162 39 31
-9.943977e-001 9.139681e-001 -7.768198e+000 203 136 105
-9.943977e-001 9.139681e-001 -7.768198e+000 203 136 105
1.579528e+000 1.027374e+000 -8.724965e+000 19 70 107
2.247930e+000 9.961041e-001 -8.916245e+000 66 30 37
-1.913422e+000 8.255724e-001 -7.629667e+000 209 186 153
-1.128466e+000 8.810356e-001 -7.667860e+000 191 161 97
-1.085463e+000 7.967868e-001 -7.563570e+000 196 156 117
-1.085313e+000 7.962364e-001 -7.564132e+000 196 156 117
-1.044009e+000 7.625573e-001 -7.537029e+000 169 33 35
-9.820169e-001 8.381158e-001 -7.658192e+000 171 26 24
-9.422155e-001 7.647028e-001 -7.580401e+000 176 47 41
1.052634e+000 9.115888e-001 -8.370776e+000 167 157 122
1.951669e+000 9.490934e-001 -8.751758e+000 171 95 95
2.093619e+000 9.106730e-001 -8.770870e+000 161 91 89
2.001461e+000 8.903690e-001 -8.726074e+000 96 40 31
2.002391e+000 8.892059e-001 -8.729138e+000 96 40 31
2.130966e+000 9.062016e-001 -8.789246e+000 71 15 16
2.123316e+000 8.237650e-001 -8.716554e+000 165 99 81
3.151054e+000 9.642638e-001 -9.364454e+000 125 95 99
4.506485e+000 8.774913e-001 -9.690385e+000 157 94 64
-1.150659e+000 7.269075e-001 -7.482429e+000 37 82 100
-9.176759e-001 7.404042e-001 -7.564454e+000 193 158 115
2.001127e+000 6.705708e-001 -8.559973e+000 89 29 35
2.065099e+000 6.902746e-001 -8.608861e+000 95 29 33
2.430661e+000 7.075232e-001 -8.726441e+000 71 27 32
2.617177e+000 7.864760e-001 -8.859749e+000 133 92 82
3.046261e+000 7.084181e-001 -8.973889e+000 65 23 31
3.122655e+000 7.412558e-001 -9.029206e+000 61 20 24
3.124076e+000 7.404491e-001 -9.037782e+000 61 20 24
4.505639e+000 7.052289e-001 -9.565389e+000 193 148 107
-1.074083e+000 5.894006e-001 -7.358349e+000 184 158 117
-1.073845e+000 5.899051e-001 -7.357300e+000 184 158 117
2.395413e-001 6.205119e-001 -7.817378e+000 176 161 78
3.502688e+000 5.970204e-001 -9.089625e+000 33 26 64
4.699591e+000 6.336781e-001 -9.561393e+000 168 51 44
4.712659e+000 6.303577e-001 -9.587600e+000 168 51 44
4.395279e+000 1.828482e-001 -9.440676e+000 189 167 149
1.239112e+000 6.737852e-002 -8.198126e+000 9 75 112
4.923183e+000 1.198609e-002 -9.818512e+000 164 101 45
2.587135e+000 -7.640033e-002 -8.849861e+000 198 134 108
2.616657e+000 -4.353355e-001 -9.162107e+000 188 66 67
2.722617e+000 -3.149054e-001 -9.093655e+000 202 85 79
2.620185e+000 -3.602612e-001 -9.065373e+000 192 84 82
2.694701e+000 -3.543190e-001 -9.090614e+000 191 75 75
2.804394e+000 -2.840208e-001 -9.092857e+000 206 91 90
-2.483350e+000 -4.813940e-001 -8.189102e+000 241 213 211
-2.360977e-001 -4.151969e-001 -7.934886e+000 82 109 122
2.763480e-001 -5.376972e-001 -8.248264e+000 145 54 54
3.305693e+000 -5.687032e-001 -9.580003e+000 135 73 64
-1.611388e+000 -6.507700e-001 -7.649982e+000 25 99 139
-9.487993e-001 -5.028216e-001 -7.734330e+000 27 55 31
-7.172808e-001 -6.207289e-001 -7.887303e+000 150 160 47
-6.236501e-001 -6.892662e-001 -8.029954e+000 148 152 39
-2.684378e-001 -5.848374e-001 -8.062152e+000 175 163 40
-2.684378e-001 -5.848374e-001 -8.062152e+000 175 163 40
1.546242e+000 -8.488435e-001 -9.109542e+000 128 70 50
-1.010831e+000 -6.939043e-001 -7.857849e+000 189 29 44
-1.139330e+000 -8.338683e-001 -7.983140e+000 201 141 124
-1.139330e+000 -8.338683e-001 -7.983140e+000 201 141 124
-7.030965e-001 -7.620599e-001 -8.041044e+000 147 155 31
-4.406105e-001 -8.939174e-001 -8.336180e+000 155 157 36
-4.752847e-001 1.572398e+000 -8.705552e+000 156 157 32
-4.752847e-001 1.572398e+000 -8.705552e+000 156 157 32
5.067753e-001 1.662077e+000 -9.176431e+000 174 161 129
5.067753e-001 1.662077e+000 -9.176431e+000 174 161 129
4.269669e+000 1.934761e+000 -1.110907e+001 149 115 88
-8.694924e-001 1.427006e+000 -8.419202e+000 72 105 122
2.092891e+000 1.706307e+000 -9.758266e+000 119 138 134
2.097005e+000 1.707353e+000 -9.773791e+000 119 138 134
-1.299505e+000 1.268398e+000 -8.093192e+000 177 151 114
-1.368435e+000 1.264240e+000 -8.055274e+000 192 147 130
1.111668e+000 1.320641e+000 -8.911376e+000 168 41 42
2.781951e+000 1.540682e+000 -9.771417e+000 160 122 113
2.797492e+000 1.540718e+000 -9.834121e+000 160 122 113
2.833749e+000 1.568929e+000 -9.806204e+000 84 52 53
2.846344e+000 1.396320e+000 -9.536324e+000 87 57 71
1.259542e+000 1.145129e+000 -8.719692e+000 152 28 32
1.494776e+000 1.274209e+000 -8.975636e+000 136 144 132
2.227635e+000 1.230231e+000 -9.103877e+000 96 70 74
-2.056155e+000 8.620987e-001 -7.754363e+000 121 95 68
-1.078896e+000 1.027807e+000 -7.883527e+000 161 23 23
9.340390e-001 9.957001e-001 -8.457090e+000 169 163 131
2.893876e+000 1.165489e+000 -9.337017e+000 143 112 92
4.842058e+000 1.263162e+000 -1.041817e+001 32 23 37
4.841221e+000 1.209846e+000 -1.029917e+001 38 24 30
-2.625258e+000 7.295251e-001 -8.459885e+000 194 110 96
-1.880544e+000 8.476221e-001 -7.584958e+000 207 185 146
-1.126067e+000 7.871749e-001 -7.580087e+000 181 35 39
-1.004705e+000 8.725662e-001 -7.693619e+000 179 39 40
6.767399e-001 9.004095e-001 -8.270342e+000 170 154 131
7.863915e-001 8.184089e-001 -8.221792e+000 166 165 129
9.624794e-001 9.073964e-001 -8.366373e+000 172 160 123
2.067786e+000 9.580615e-001 -8.805929e+000 164 92 84
2.104036e+000 9.841559e-001 -8.857870e+000 79 39 44
2.102133e+000 9.844827e-001 -8.852143e+000 79 39 44
2.159928e+000 8.230076e-001 -8.717733e+000 71 29 39
4.867610e+000 9.439428e-001 -9.956534e+000 157 87 45
-6.141896e-001 6.185444e-001 -7.545696e+000 166 156 32
8.729194e-001 7.365093e-001 -8.196756e+000 175 159 126
8.744777e-001 7.355899e-001 -8.210483e+000 175 159 126
2.014565e+000 8.106713e-001 -8.691850e+000 172 93 80
2.211343e+000 6.904091e-001 -8.640516e+000 86 31 34
2.978671e+000 6.734403e-001 -8.928397e+000 79 32 42
4.622910e+000 8.032587e-001 -9.451131e+000 179 148 109
-2.000499e+000 5.480153e-001 -7.577650e+000 211 185 152
2.059321e+000 5.781326e-001 -8.534090e+000 94 27 34
2.258718e+000 6.287944e-001 -8.600074e+000 141 83 83
4.749697e+000 6.357854e-001 -9.578555e+000 184 154 130
2.751576e+000 4.541289e-001 -8.781472e+000 163 108 69
4.003225e+000 4.822462e-001 -9.230955e+000 145 59 28
3.343461e+000 2.735973e-001 -8.986646e+000 177 116 57
4.357991e+000 2.193868e-001 -9.401230e+000 70 38 31
4.604950e+000 1.812554e-001 -9.511315e+000 48 13 20
3.213463e+000 8.971540e-002 -9.004042e+000 198 136 104
3.985391e+000 6.971168e-004 -9.372908e+000 195 88 42
-2.364701e+000 -2.590668e-001 -7.985933e+000 185 161 135
4.754576e-002 -8.184737e-002 -7.833564e+000 70 94 52
4.877905e-002 -8.011110e-002 -7.824168e+000 70 94 52
1.903343e+000 -2.081566e-001 -8.672065e+000 193 139 105
1.972305e+000 -1.822593e-001 -8.679920e+000 117 71 71
2.480878e+000 -1.615743e-001 -8.885673e+000 189 141 110
3.331887e+000 -2.336636e-001 -9.269636e+000 203 150 119
-2.445677e+000 -3.860550e-001 -8.268067e+000 196 174 157
-2.527660e-001 -2.817398e-001 -7.848907e+000 135 145 50
4.130135e+000 -4.855520e-001 -9.854827e+000 92 71 65
-4.536637e-001 -4.852088e-001 -7.919211e+000 32 55 46
-2.908886e-001 -4.224827e-001 -7.932519e+000 29 56 41
3.947464e-001 -5.176646e-001 -8.268908e+000 134 75 65
3.944409e-001 -5.103037e-001 -8.235997e+000 134 75 65
8.866404e-001 -4.967487e-001 -8.425826e+000 19 66 106
-1.038346e+000 -5.992253e-001 -7.763587e+000 182 49 49
-6.026867e-001 -5.599074e-001 -7.910314e+000 52 106 120
-1.383843e-001 -6.268764e-001 -8.152755e+000 34 53 35
-1.383843e-001 -6.268764e-001 -8.152755e+000 34 53 35
2.876423e-001 -5.738292e-001 -8.263065e+000 164 156 136
2.414999e+000 -7.794944e-001 -9.370883e+000 160 34 42
2.405486e+000 -8.670994e-001 -9.524800e+000 155 35 38
-1.246911e+000 -8.598742e-001 -7.988130e+000 189 38 38
-1.071304e+000 -8.358501e-001 -7.989439e+000 182 42 50
-1.071304e+000 -8.358501e-001 -7.989439e+000 182 42 50
-7.010125e-001 -8.632455e-001 -8.206855e+000 142 154 62
3.575708e-001 -7.986626e-001 -8.536809e+000 159 159 149
5.461822e+000 -1.361347e+000 -8.763152e+000 153 129 125
4.945598e+000 -2.186099e+000 -9.822472e+000 150 129 124
-3.788388e-001 1.618823e+000 -8.765705e+000 122 118 37
-3.788388e-001 1.618823e+000 -8.765705e+000 122 118 37
-3.163167e-001 1.447759e+000 -8.619136e+000 30 56 48
5.334696e-001 1.615678e+000 -9.066319e+000 182 154 124
2.937445e+000 1.707306e+000 -1.010840e+001 136 65 32
-1.130629e+000 1.345310e+000 -8.223481e+000 27 48 10
4.355377e-003 1.340091e+000 -8.543921e+000 29 56 18
4.355377e-003 1.340091e+000 -8.543921e+000 29 56 18
1.174647e+000 1.348674e+000 -8.953434e+000 156 30 34
-2.083498e+000 1.042727e+000 -7.900317e+000 201 178 143
-1.019483e+000 1.026734e+000 -7.887515e+000 175 42 38
9.737461e-001 1.016420e+000 -8.514260e+000 177 34 43
-1.960309e+000 7.833294e-001 -7.639853e+000 207 183 149
-9.731906e-001 7.972374e-001 -7.607179e+000 174 41 44
-8.935604e-001 7.714269e-001 -7.588927e+000 180 41 42
6.578032e-001 8.670542e-001 -8.235702e+000 173 42 37
3.141896e+000 9.112253e-001 -9.080166e+000 79 49 69
-1.023587e+000 6.615321e-001 -7.437301e+000 194 164 119
2.202107e+000 7.769197e-001 -8.712190e+000 83 32 41
-2.275121e+000 1.816003e-001 -7.699878e+000 190 163 124
1.436903e+000 -3.499179e-002 -8.361894e+000 154 98 82
2.153643e+000 -1.588571e-001 -8.752027e+000 195 142 111
2.425067e+000 -1.831225e-001 -8.854917e+000 135 80 59
2.425067e+000 -1.831225e-001 -8.854917e+000 135 80 59
2.609758e+000 -2.072615e-001 -8.963806e+000 166 22 38
3.677123e+000 -1.589245e-001 -9.397636e+000 193 132 87
3.650313e+000 -2.143790e-001 -9.402719e+000 181 148 92
8.187284e-001 -3.211898e-001 -8.275499e+000 160 37 55
3.210448e+000 -3.944253e-001 -9.342900e+000 127 80 60
3.218114e+000 -3.955585e-001 -9.353570e+000 127 80 60
4.137121e+000 -3.718063e-001 -9.752702e+000 197 171 124
-1.151778e+000 -6.003053e-001 -7.732952e+000 193 44 49
-2.097254e-001 -7.057489e-001 -8.199947e+000 173 165 93
-1.592444e-001 -6.853392e-001 -8.203733e+000 177 169 66
7.091926e-001 -7.389174e-001 -8.581836e+000 121 41 64
1.496481e+000 -7.889382e-001 -8.991920e+000 193 132 104
1.864854e+000 -7.915791e-001 -9.195870e+000 200 136 111
3.229690e-001 -7.733788e-001 -8.502504e+000 147 118 113
4.800188e-001 -1.012788e+000 -8.928842e+000 162 38 54
6.353758e-001 -7.933557e-001 -8.655961e+000 194 125 118
7.126821e-001 -9.400652e-001 -8.883457e+000 20 64 98
-1.157611e+000 -1.035864e+000 -8.248841e+000 177 42 33
5.232463e+000 -2.474112e+000 -9.294053e+000 132 111 111
5.317860e+000 -2.224055e+000 -8.666347e+000 125 104 104
4.935265e+000 -2.864963e+000 -9.771544e+000 130 110 108
4.935265e+000 -2.864963e+000 -9.771544e+000 130 110 108
4.440649e+000 1.965340e+000 -1.126880e+001 158 117 89
-1.106427e+000 1.344707e+000 -8.245867e+000 41 63 34
-5.932395e-001 1.314859e+000 -8.393276e+000 181 165 42
7.355318e-001 1.404985e+000 -8.870466e+000 173 149 123
-1.199258e+000 1.090447e+000 -7.905625e+000 156 72 51
1.046666e+000 1.233331e+000 -8.854866e+000 164 30 37
1.590449e+000 1.227139e+000 -8.914411e+000 21 73 114
-2.090435e+000 9.008019e-001 -7.795418e+000 210 186 149
3.400861e+000 9.013256e-001 -9.263451e+000 26 25 50
-5.075347e-001 6.622285e-001 -7.628426e+000 74 108 115
2.893251e+000 5.579293e-001 -8.846953e+000 179 129 75
2.667046e+000 8.846570e-002 -8.803858e+000 160 29 42
1.434001e+000 -3.302243e-002 -8.348500e+000 155 99 83
3.334346e+000 -1.324736e-001 -9.183816e+000 202 146 110
1.648843e-002 -1.861159e-001 -7.893245e+000 24 57 20
-2.446554e+000 -4.722963e-001 -8.247971e+000 70 46 42
7.218527e-001 -5.328767e-001 -8.415237e+000 175 110 83
-8.082822e-001 -6.733785e-001 -7.918667e+000 34 64 35
-8.099839e-001 -6.776387e-001 -7.936309e+000 34 64 35
-3.656650e-001 -9.268257e-001 -8.425009e+000 146 148 131
-3.656650e-001 -9.268257e-001 -8.425009e+000 146 148 131
-1.262815e+000 -1.012294e+000 -8.179485e+000 188 122 104
5.368034e+000 -1.222484e+000 -8.965353e+000 164 143 139
5.327090e+000 -1.568500e+000 -8.988200e+000 153 135 132
4.797873e+000 -2.520303e+000 -1.020172e+001 53 43 47
4.879045e+000 -2.467001e+000 -1.010039e+001 146 126 125
-7.814431e-001 1.480019e+000 -8.503025e+000 32 56 30
3.433525e+000 1.778579e+000 -1.037575e+001 81 34 27
-1.097336e+000 1.274275e+000 -8.183313e+000 155 147 117
-5.278306e-001 1.277315e+000 -8.374983e+000 30 61 26
3.450207e-001 1.435285e+000 -8.827099e+000 193 36 48
7.957470e-001 1.375455e+000 -8.830313e+000 187 35 37
2.400262e+000 1.538808e+000 -9.616965e+000 161 130 110
5.233762e-001 1.166537e+000 -8.509810e+000 169 149 124
1.070170e+000 1.176543e+000 -8.753092e+000 149 33 29
2.272694e+000 1.322268e+000 -9.313986e+000 135 109 94
1.110241e+000 1.098747e+000 -8.692289e+000 159 23 32
1.742200e+000 8.439121e-001 -8.561693e+000 20 71 108
1.741501e+000 8.443022e-001 -8.560848e+000 20 71 108
2.436190e+000 8.837969e-001 -8.860571e+000 89 45 54
2.768899e+000 8.937392e-001 -9.020290e+000 137 108 94
-1.957132e+000 6.122598e-001 -7.576898e+000 187 160 133
4.163673e+000 8.458341e-001 -9.500158e+000 177 85 31
4.817748e+000 3.375564e-001 -9.560971e+000 195 106 43
4.782232e+000 -1.611218e-001 -9.919955e+000 158 93 24
4.574702e+000 -7.002730e-001 -1.042628e+001 146 136 109
-5.052251e-001 -6.101058e-001 -7.959523e+000 33 58 44
-5.046601e-001 -6.126483e-001 -7.971058e+000 33 58 44
-7.469046e-001 -8.509650e-001 -8.164369e+000 37 60 40
-6.720439e-001 -7.068579e-001 -8.040247e+000 40 63 42
-5.839191e-001 -8.318334e-001 -8.208041e+000 34 58 34
-5.112582e-001 -9.642672e-001 -8.402640e+000 33 62 35
5.458986e+000 -9.989351e-001 -8.767287e+000 148 122 121
5.416225e+000 -1.080598e+000 -8.833578e+000 143 122 117
5.328225e+000 -1.316787e+000 -9.036855e+000 140 119 117
4.582638e+000 -3.110351e+000 -1.066581e+001 147 128 124
-4.539267e-001 1.646787e+000 -8.795853e+000 38 62 33
2.423405e+000 1.641682e+000 -9.784521e+000 76 25 26
2.420479e+000 1.640859e+000 -9.770164e+000 76 25 26
2.762092e+000 1.645561e+000 -9.964525e+000 103 25 23
-4.681852e-002 1.394421e+000 -8.629223e+000 175 155 106
-4.678687e-002 1.394527e+000 -8.629389e+000 175 155 106
9.686908e-001 9.653002e-001 -8.418721e+000 179 29 38
3.267196e+000 9.208200e-001 -9.226209e+000 161 126 81
2.028917e+000 6.975969e-001 -8.642025e+000 160 90 79
4.685810e+000 5.693013e-001 -9.541718e+000 190 154 123
4.503781e+000 2.045185e-001 -9.468143e+000 150 126 110
3.131168e+000 9.187763e-002 -8.960549e+000 158 17 33
3.131168e+000 9.187763e-002 -8.960549e+000 158 17 33
2.021044e+000 -7.809910e-001 -9.226780e+000 193 128 108
2.712471e+000 -9.049268e-001 -9.734133e+000 172 33 46
4.387617e+000 -1.056248e+000 -1.074213e+001 146 129 112
1.946941e-001 -7.979571e-001 -8.525573e+000 169 122 109
-5.956041e-001 -9.563542e-001 -8.349393e+000 123 136 134
5.192460e+000 -1.660771e+000 -9.340023e+000 146 125 123
-1.605864e+000 1.475078e+000 -8.144381e+000 119 127 125
-1.141275e+000 1.435163e+000 -8.300554e+000 107 126 121
-3.437637e-001 1.254676e+000 -8.406942e+000 176 155 117
-8.919863e-001 9.999576e-001 -7.942133e+000 42 94 115
4.696279e+000 1.133786e+000 -1.006161e+001 162 93 48
-8.958661e-002 8.176533e-001 -7.944670e+000 33 57 35
-3.249431e-001 6.626164e-001 -7.693654e+000 167 156 115
-3.249431e-001 6.626164e-001 -7.693654e+000 167 156 115
1.904050e+000 6.789429e-001 -8.529200e+000 184 137 90
-6.645715e-001 5.883259e-001 -7.484389e+000 26 59 35
-5.385867e-001 3.985572e-001 -7.507954e+000 48 103 124
-1.922499e-001 1.015654e-001 -7.651154e+000 156 154 142
3.985160e+000 -1.278907e-001 -9.428528e+000 192 94 47
-7.896349e-002 1.499001e+000 -8.711794e+000 136 130 30
5.091804e+000 4.108485e-001 -9.646671e+000 204 96 51
1.027084e+000 1.254008e-001 -8.158900e+000 171 160 140
4.459110e+000 1.864888e+000 -1.116685e+001 147 111 75
2.863991e+000 1.288489e+000 -9.284992e+000 87 59 72
3.978946e+000 9.014555e-001 -9.462852e+000 148 26 40
3.885446e+000 7.218864e-001 -9.307376e+000 168 127 83
-1.539985e+000 -5.274972e-001 -7.661845e+000 19 90 134
2.567712e+000 1.463458e+000 -9.789590e+000 147 116 96
3.154161e+000 1.672784e+000 -1.027937e+001 160 121 78
2.417191e+000 4.293260e-001 -8.601645e+000 177 138 99
-9.921863e-001 7.454804e-001 -7.477230e+000 199 161 124
3.189803e+000 3.911346e-001 -8.948436e+000 169 118 53
1.443666e+000 7.889427e-001 -8.393920e+000 159 24 30
2.354425e+000 2.684698e-001 -8.658761e+000 183 141 103
4.592619e+000 4.946751e-001 -9.622338e+000 194 111 40
2.967722e+000 1.417432e+000 -9.680719e+000 64 38 43
-1.054765e+000 1.179396e+000 -8.121560e+000 159 157 109
-1.054765e+000 1.179396e+000 -8.121560e+000 159 157 109
-8.390857e-001 1.081358e+000 -8.038124e+000 71 106 114
3.057364e+000 9.823801e-001 -9.205080e+000 75 45 49
2.796822e+000 5.795658e-001 -8.809766e+000 160 119 69
3.492615e+000 5.716104e-001 -9.080237e+000 149 141 153
4.662793e+000 6.283405e-001 -9.555458e+000 177 141 122
4.603788e+000 1.404480e-001 -9.536209e+000 68 34 40
9.206975e-001 -7.704082e-002 -8.176486e+000 21 82 117
2.751747e+000 9.841276e-001 -9.098229e+000 143 118 113
3.134951e+000 6.834599e-001 -8.995468e+000 66 26 35
2.818387e+000 -5.673310e-002 -8.951438e+000 164 38 48
2.958904e+000 1.143568e+000 -9.313015e+000 64 39 52
-1.050304e+000 6.256541e-001 -7.380802e+000 171 35 47
3.010161e+000 -8.388320e-002 -9.014072e+000 188 84 80
3.010161e+000 -8.388320e-002 -9.014072e+000 188 84 80
3.323875e+000 2.561449e-001 -8.945700e+000 169 117 67
7.865744e-001 -1.923933e-001 -8.153109e+000 149 75 51
-3.338496e-001 1.094502e+000 -8.158645e+000 163 152 106
-3.249000e-001 1.094047e+000 -8.163600e+000 163 152 106
2.776701e+000 1.673410e+000 -1.001364e+001 140 61 48
-1.064252e+000 1.273574e+000 -8.198317e+000 65 102 112
2.078618e+000 1.387529e+000 -9.299765e+000 84 65 71
-1.167983e+000 1.165359e+000 -8.022883e+000 197 144 112
-1.142438e+000 1.177509e+000 -8.049354e+000 174 41 38
2.537088e+000 1.263212e+000 -9.329411e+000 24 8 12
-1.934941e+000 9.787079e-001 -7.727076e+000 205 183 148
1.588228e+000 9.959270e-001 -8.683197e+000 171 166 144
1.995610e+000 1.029634e+000 -8.856098e+000 143 88 93
2.735240e+000 1.161332e+000 -9.293814e+000 144 114 104
-9.884861e-001 7.943099e-001 -7.605296e+000 182 27 33
-9.884861e-001 7.943099e-001 -7.605296e+000 182 27 33
1.893057e+000 8.936545e-001 -8.704740e+000 178 87 64
1.983163e+000 8.666157e-001 -8.695929e+000 162 93 81
2.132487e+000 9.074351e-001 -8.791827e+000 71 15 16
2.336744e+000 8.855834e-001 -8.835146e+000 133 105 104
2.337554e+000 8.844237e-001 -8.840238e+000 133 105 104
-4.988341e-001 6.847030e-001 -7.632377e+000 79 112 113
1.839974e+000 7.027724e-001 -8.512396e+000 189 139 87
2.262600e+000 7.048498e-001 -8.675551e+000 129 69 71
3.733611e+000 7.426472e-001 -9.242072e+000 32 69 105
2.377313e+000 5.915634e-001 -8.660920e+000 82 26 33
3.033239e+000 4.607431e-001 -8.884787e+000 131 74 27
2.983547e+000 3.586513e-001 -8.849723e+000 142 86 35
2.268065e-001 -5.375088e-001 -8.226999e+000 133 46 42
-9.525935e-001 -5.735577e-001 -7.762183e+000 165 182 159
-1.299815e+000 1.273046e+000 -8.075119e+000 177 151 114
1.181400e+000 1.321531e+000 -8.876445e+000 156 25 30
2.103890e+000 1.215906e+000 -9.136554e+000 81 60 65
3.020214e+000 1.383758e+000 -9.614725e+000 172 131 97
2.398104e+000 1.077258e+000 -9.102661e+000 135 104 93
2.029248e+000 8.736472e-001 -8.703394e+000 162 94 82
-2.125769e+000 4.991512e-001 -7.126516e+000 178 147 117
1.522247e+000 5.996870e-001 -8.337962e+000 150 20 28
3.080730e+000 5.768431e-001 -8.931338e+000 171 130 79
4.062336e+000 5.068110e-001 -9.261389e+000 204 114 39
-1.346671e-001 -5.536232e-002 -7.741749e+000 95 125 132
-1.346671e-001 -5.536232e-002 -7.741749e+000 95 125 132
2.706517e+000 -9.831009e-002 -8.906053e+000 168 27 39
-5.490526e-001 -5.347941e-001 -7.917312e+000 170 165 24
5.213231e+000 -1.554066e+000 -9.276449e+000 149 127 129
2.081142e+000 7.598604e-001 -8.638199e+000 178 98 84
2.017552e+000 5.590763e-001 -8.536282e+000 181 138 96
5.290793e+000 -1.837750e+000 -9.055346e+000 131 107 105
5.456882e+000 -1.733421e+000 -8.703688e+000 161 135 139
1.555473e+000 1.115737e+000 -8.806615e+000 136 143 120
-5.802463e-001 8.047702e-001 -7.751992e+000 167 160 41
-5.798417e-001 8.056205e-001 -7.751032e+000 167 160 41
-1.600299e+000 -6.391043e-001 -7.645369e+000 28 97 141
4.589040e-001 1.196366e+000 -8.572938e+000 178 41 39
-2.549418e-001 1.170563e+000 -8.288523e+000 33 61 34
5.298011e+000 -1.330198e+000 -9.013889e+000 154 131 129
5.868424e-001 1.668167e+000 -9.197356e+000 182 140 115
1.967301e+000 1.750499e+000 -9.892939e+000 30 67 91
2.061946e+000 1.761760e+000 -9.892426e+000 27 71 90
2.038989e+000 1.697237e+000 -9.744164e+000 28 67 93
2.914560e+000 1.753228e+000 -1.015083e+001 168 125 85
-1.169103e+000 1.365883e+000 -8.212165e+000 148 146 35
-1.169103e+000 1.365883e+000 -8.212165e+000 148 146 35
-8.404906e-001 1.491662e+000 -8.495573e+000 158 154 85
8.120271e-001 1.462237e+000 -8.978653e+000 165 160 124
1.642240e+000 1.519460e+000 -9.334685e+000 87 58 81
2.513803e+000 1.645229e+000 -9.878689e+000 157 38 37
2.742620e+000 1.573018e+000 -9.791444e+000 118 70 61
-1.249162e+000 1.185096e+000 -8.015489e+000 177 28 31
-1.142697e+000 1.286344e+000 -8.195968e+000 56 101 115
-1.130483e+000 1.206141e+000 -8.086245e+000 203 142 103
1.126546e+000 1.355252e+000 -8.946747e+000 187 141 98
1.127674e+000 1.354554e+000 -8.959532e+000 187 141 98
2.732983e+000 1.424775e+000 -9.605467e+000 109 45 37
2.815120e+000 1.454082e+000 -9.681201e+000 140 86 79
2.811191e+000 1.452741e+000 -9.661896e+000 140 86 79
-1.263395e+000 1.162470e+000 -7.987771e+000 192 156 118
-1.238287e+000 1.106392e+000 -7.925272e+000 188 146 106
-1.238534e+000 1.107201e+000 -7.918101e+000 188 146 106
-1.189517e+000 1.052864e+000 -7.873494e+000 171 20 27
1.152320e+000 1.297024e+000 -8.874444e+000 210 145 113
1.149903e+000 1.222620e+000 -8.804639e+000 198 158 100
1.311261e+000 1.162667e+000 -8.772598e+000 167 43 45
1.482365e+000 1.212558e+000 -8.897995e+000 166 167 149
1.482478e+000 1.213021e+000 -8.896675e+000 166 167 149
2.110296e+000 1.299944e+000 -9.214363e+000 84 61 69
2.404217e+000 1.193403e+000 -9.237611e+000 138 110 91
2.555854e+000 1.282679e+000 -9.364128e+000 133 115 100
2.582608e+000 1.300235e+000 -9.391120e+000 50 27 11
2.555772e+000 1.210777e+000 -9.278885e+000 31 12 12
2.811195e+000 1.326066e+000 -9.492156e+000 151 107 100
2.816214e+000 1.324393e+000 -9.505700e+000 151 107 100
-1.149129e+000 9.586272e-001 -7.762809e+000 204 155 123
-1.147156e+000 9.602650e-001 -7.753106e+000 204 155 123
-1.148461e+000 9.172646e-001 -7.709394e+000 204 146 107
-1.149583e+000 9.168139e-001 -7.710287e+000 204 146 107
-1.056519e+000 1.047532e+000 -7.906674e+000 191 129 89
-1.056519e+000 1.047532e+000 -7.906674e+000 191 129 89
-1.090294e+000 1.000066e+000 -7.848097e+000 182 159 116
-1.793373e-001 9.661135e-001 -8.069049e+000 140 149 44
-1.793373e-001 9.661135e-001 -8.069049e+000 140 149 44
1.226064e+000 1.071990e+000 -8.643530e+000 209 154 126
1.552139e+000 1.145710e+000 -8.847281e+000 38 81 117
1.549384e+000 1.145068e+000 -8.847553e+000 38 81 117
1.579783e+000 1.028317e+000 -8.727349e+000 13 63 111
1.973887e+000 1.094680e+000 -8.913313e+000 97 48 53
1.965483e+000 1.042904e+000 -8.885929e+000 100 56 67
2.198692e+000 1.080234e+000 -8.992302e+000 91 64 73
2.737292e+000 1.139490e+000 -9.233353e+000 146 113 101
2.722428e+000 1.149997e+000 -9.193214e+000 146 113 101
-1.099551e+000 8.664333e-001 -7.658241e+000 177 40 55
-1.112424e+000 8.467294e-001 -7.628604e+000 193 159 107
-1.075238e+000 8.964276e-001 -7.712546e+000 169 36 39
-1.075019e+000 8.966589e-001 -7.712681e+000 169 36 39
-1.071508e+000 8.753808e-001 -7.684929e+000 186 144 102
-1.016434e+000 9.051864e-001 -7.739417e+000 168 35 45
-1.015313e+000 8.482470e-001 -7.666653e+000 189 146 103
-6.933769e-001 8.570334e-001 -7.759379e+000 155 154 45
-6.404447e-001 8.096730e-001 -7.736068e+000 88 118 111
-6.404447e-001 8.096730e-001 -7.736068e+000 88 118 111
1.999394e+000 9.877321e-001 -8.824299e+000 156 91 85
2.031043e+000 9.475951e-001 -8.807009e+000 174 96 84
2.982917e+000 9.099897e-001 -9.130580e+000 83 38 42
-2.361473e+000 6.568607e-001 -7.780355e+000 191 176 136
-9.178217e-001 7.404831e-001 -7.564369e+000 192 157 117
1.944344e+000 7.783265e-001 -8.637059e+000 166 101 75
3.367319e+000 8.326890e-001 -9.206148e+000 36 23 37
3.743522e+000 7.580851e-001 -9.292079e+000 35 70 97
3.771977e+000 7.816793e-001 -9.301557e+000 169 128 90
4.408877e+000 8.923479e-001 -9.583193e+000 200 131 92
4.689149e+000 8.390268e-001 -9.714201e+000 176 145 121
-8.801210e-001 6.528949e-001 -7.483596e+000 215 153 116
-8.212789e-001 6.162998e-001 -7.466392e+000 187 37 36
-8.216053e-001 6.163805e-001 -7.466548e+000 187 37 36
2.088801e+000 7.084919e-001 -8.608154e+000 163 92 89
2.088801e+000 7.084919e-001 -8.608154e+000 163 92 89
3.103150e+000 7.078352e-001 -9.017607e+000 118 77 83
-4.827641e-001 5.167862e-001 -7.510114e+000 169 157 37
3.025289e+000 4.637169e-001 -8.863394e+000 134 73 27
3.508151e+000 5.453983e-001 -9.069469e+000 34 25 52
3.508151e+000 5.453983e-001 -9.069469e+000 34 25 52
4.609786e+000 5.475365e-001 -9.487002e+000 192 148 114
3.272245e+000 3.250781e-001 -8.891450e+000 160 88 25
3.970355e+000 3.577056e-003 -9.353120e+000 199 88 44
3.034147e+000 4.267360e-002 -8.864271e+000 167 22 39
8.831780e-001 -2.611135e-001 -8.286250e+000 27 83 111
-1.863291e+000 1.372859e+000 -8.165112e+000 171 151 121
-2.128963e+000 1.135792e+000 -8.042709e+000 203 179 145
-6.498723e-001 1.296985e+000 -8.351752e+000 100 126 112
2.693056e+000 1.509895e+000 -9.737156e+000 118 54 42
-1.189159e+000 1.052646e+000 -7.874087e+000 168 17 25
-1.932744e+000 9.207343e-001 -7.691250e+000 206 184 142
-1.932744e+000 9.207343e-001 -7.691250e+000 206 184 142
-1.222059e+000 9.713198e-001 -7.814314e+000 180 40 38
-1.188202e+000 9.903224e-001 -7.799624e+000 197 152 109
-1.046175e+000 1.000104e+000 -7.861662e+000 195 158 119
1.204937e+000 1.126084e+000 -8.709320e+000 157 24 41
2.143844e+000 1.115027e+000 -9.022942e+000 81 58 62
1.639478e+000 9.106091e-001 -8.623227e+000 20 68 109
1.638961e+000 9.109621e-001 -8.621111e+000 20 68 109
2.054026e+000 9.240434e-001 -8.775629e+000 105 45 52
2.609609e+000 9.805897e-001 -9.076010e+000 143 117 102
1.964182e+000 8.100004e-001 -8.636288e+000 96 27 26
2.083179e+000 8.337120e-001 -8.706585e+000 88 29 43
2.041232e+000 7.870416e-001 -8.651178e+000 89 28 24
2.238300e+000 8.424979e-001 -8.773465e+000 81 45 57
2.201263e+000 8.244837e-001 -8.732175e+000 129 94 88
3.048133e+000 8.665555e-001 -9.028176e+000 143 106 101
3.048806e+000 8.331577e-001 -9.092313e+000 74 29 37
3.027344e+000 7.514976e-001 -9.013389e+000 65 23 27
-1.999843e+000 5.488613e-001 -7.576357e+000 210 183 152
-6.140748e-001 6.189145e-001 -7.545053e+000 165 149 39
2.309004e+000 6.509791e-001 -8.612980e+000 85 27 40
2.939762e+000 6.033421e-001 -8.884274e+000 99 46 58
3.572930e+000 6.684931e-001 -9.182381e+000 15 64 109
3.769217e+000 6.846316e-001 -9.172747e+000 178 135 95
4.053582e+000 6.074890e-001 -9.310008e+000 155 55 43
3.088541e+000 4.550965e-001 -8.892869e+000 183 133 80
2.810568e+000 3.747541e-001 -8.786326e+000 100 35 33
2.986699e+000 3.617077e-001 -8.862660e+000 143 87 38
-2.304170e+000 -1.263107e-001 -7.784823e+000 189 166 134
1.855977e+000 -2.014183e-001 -8.645548e+000 117 64 50
3.361283e+000 -5.524003e-001 -9.561149e+000 202 124 96
-1.146829e+000 -5.796460e-001 -7.664952e+000 186 37 55
-7.852058e-002 -5.778535e-001 -8.100661e+000 169 165 50
1.128023e+000 -6.521655e-001 -8.666465e+000 188 131 117
1.209038e+000 -6.081392e-001 -8.651371e+000 128 64 48
-1.090912e+000 -7.005437e-001 -7.800533e+000 190 129 101
5.226373e+000 -2.417777e+000 -9.211241e+000 160 136 136
4.209107e+000 -3.838916e+000 -1.140142e+001 54 42 47
4.594937e+000 1.899278e+000 -1.110598e+001 31 20 29
6.379389e-001 1.528235e+000 -9.009007e+000 175 157 124
1.658324e+000 1.562932e+000 -9.401156e+000 139 24 35
2.149491e+000 1.672290e+000 -9.736374e+000 24 69 103
2.671145e+000 1.649818e+000 -9.903362e+000 148 56 42
2.907418e+000 1.526125e+000 -9.807190e+000 86 58 56
4.557101e+000 1.351411e+000 -1.014265e+001 124 27 38
9.710009e-001 1.019960e+000 -8.499649e+000 182 42 52
-1.985381e+000 8.179959e-001 -7.693775e+000 207 184 147
-1.169103e+000 8.787799e-001 -7.705378e+000 187 36 50
-9.724088e-001 7.976744e-001 -7.606090e+000 179 32 35
3.708499e+000 9.216580e-001 -9.397806e+000 170 113 74
-1.050365e+000 7.334262e-001 -7.499763e+000 194 160 130
9.762235e-001 7.655801e-001 -8.237542e+000 182 156 127
2.375066e+000 7.387044e-001 -8.760931e+000 114 55 61
-1.061752e+000 6.643357e-001 -7.381198e+000 190 41 50
2.339485e+000 6.633408e-001 -8.719458e+000 92 35 47
3.193809e+000 1.085240e-001 -9.025928e+000 160 25 37
3.193809e+000 1.085240e-001 -9.025928e+000 160 25 37
1.326885e+000 -5.544179e-002 -8.310940e+000 110 59 50
4.322991e+000 -1.841993e-001 -9.635252e+000 175 150 119
-2.509705e-001 -2.702691e-001 -7.815525e+000 131 135 72
-8.414169e-003 -1.357945e-001 -7.854554e+000 160 159 90
8.898003e-001 -4.498032e-001 -8.423250e+000 10 51 93
2.791140e+000 -6.233690e-001 -9.367923e+000 157 20 36
-4.245969e-001 -5.324192e-001 -7.893756e+000 64 108 121
5.365138e+000 -1.090342e+000 -8.892850e+000 47 31 37
4.415192e+000 -3.479739e+000 -1.101288e+001 143 127 125
-1.407657e-002 1.549776e+000 -8.830432e+000 27 63 34
6.075741e-001 1.632178e+000 -9.153991e+000 168 106 88
6.076423e-001 1.632461e+000 -9.153737e+000 168 106 88
-1.105830e+000 1.344195e+000 -8.246300e+000 30 53 27
1.594968e+000 1.594442e+000 -9.441407e+000 92 25 39
2.488990e+000 1.606384e+000 -9.815828e+000 84 21 32
2.855993e+000 1.568459e+000 -9.855856e+000 90 55 67
-2.192676e+000 1.096241e+000 -8.085488e+000 154 130 96
-1.199844e+000 1.307483e+000 -8.146162e+000 23 84 114
-2.151376e+000 1.009818e+000 -7.950409e+000 203 176 146
-1.274227e+000 1.130623e+000 -7.952495e+000 171 33 33
-2.035446e+000 9.288633e-001 -7.787778e+000 206 182 148
-1.986021e+000 8.567720e-001 -7.692022e+000 206 183 146
-1.993613e+000 8.489146e-001 -7.734007e+000 206 183 146
-1.182710e+000 9.390164e-001 -7.737487e+000 177 33 49
-1.183253e+000 9.409242e-001 -7.723720e+000 177 33 49
-9.868704e-001 9.581934e-001 -7.798286e+000 184 42 43
-9.868704e-001 9.581934e-001 -7.798286e+000 184 42 43
-8.483328e-001 1.040516e+000 -8.082832e+000 69 107 124
1.553851e+000 1.112737e+000 -8.810710e+000 74 108 119
1.946897e+000 1.145955e+000 -8.981453e+000 128 63 63
2.332433e+000 1.066520e+000 -9.014506e+000 77 56 65
-1.122138e+000 8.154916e-001 -7.595837e+000 173 38 47
-1.094047e+000 7.602483e-001 -7.527440e+000 169 31 31
2.161253e+000 8.037021e-001 -8.683727e+000 88 39 45
-1.021534e+000 6.621432e-001 -7.434117e+000 195 160 125
8.210021e-001 6.956484e-001 -8.121104e+000 167 70 63
8.234410e-001 6.936974e-001 -8.134584e+000 167 70 63
2.137821e+000 7.113104e-001 -8.631834e+000 90 33 48
2.676375e+000 6.765920e-001 -8.823617e+000 70 19 27
3.088864e+000 6.208693e-001 -8.958863e+000 68 28 32
4.796002e+000 5.248144e-001 -9.559352e+000 185 69 41
8.429148e-001 -1.417746e-001 -8.103777e+000 125 22 38
7.348001e-001 -4.354542e-001 -8.351305e+000 191 122 103
4.857583e+000 -2.739503e+000 -1.000697e+001 155 134 131
4.347511e+000 -3.522530e+000 -1.100909e+001 143 128 128
1.425767e+000 1.595362e+000 -9.355715e+000 18 63 96
1.020165e+000 1.297314e+000 -8.885634e+000 161 29 36
1.816911e+000 1.483668e+000 -9.386359e+000 134 78 80
2.292118e+000 1.136412e+000 -9.111148e+000 81 53 72
2.057329e+000 1.016330e+000 -8.866124e+000 85 33 35
2.057329e+000 1.016330e+000 -8.866124e+000 85 33 35
2.382069e+000 9.628291e-001 -8.931769e+000 91 67 84
-1.063588e+000 6.915255e-001 -7.461796e+000 187 44 49
2.349614e+000 6.070027e-001 -8.664659e+000 116 56 64
3.062987e+000 -3.005086e-001 -9.200786e+000 168 27 34
-1.037986e-001 -6.577668e-001 -8.171414e+000 35 56 42
5.413341e+000 -9.616359e-001 -8.799126e+000 52 41 50
5.442297e+000 -1.187327e+000 -8.723487e+000 150 126 124
5.254955e+000 -1.483045e+000 -9.184481e+000 155 135 127
4.737291e+000 -2.575601e+000 -1.023868e+001 59 45 54
5.267977e+000 -2.265365e+000 -9.062936e+000 150 130 129
4.651909e+000 -3.190196e+000 -1.045853e+001 168 144 142
-4.573785e-001 1.652805e+000 -8.793805e+000 29 55 26
-2.582428e-001 1.401997e+000 -8.551895e+000 179 159 105
-2.590827e-001 1.401064e+000 -8.552426e+000 179 159 105
1.487452e+000 1.516233e+000 -9.315054e+000 32 29 57
1.587091e+000 1.485022e+000 -9.279668e+000 184 129 96
-7.376988e-001 1.180409e+000 -8.176453e+000 176 167 85
-1.126099e-001 1.222685e+000 -8.419908e+000 32 61 33
-2.027793e+000 7.113065e-001 -7.655464e+000 156 129 101
-2.027793e+000 7.113065e-001 -7.655464e+000 156 129 101
-6.201787e-001 9.327101e-001 -7.896038e+000 168 160 82
-9.524913e-002 6.575156e-001 -7.771989e+000 175 161 76
-2.411636e-001 1.457111e+000 -8.657852e+000 177 158 105
1.372848e+000 1.298904e+000 -9.021755e+000 16 70 100
9.648067e-001 9.674950e-001 -8.414918e+000 183 49 55
-5.983945e-001 6.559098e-001 -7.556765e+000 84 114 113
-1.138702e+000 1.439415e+000 -8.280299e+000 115 130 126
8.774357e-001 1.322544e+000 -8.769666e+000 173 156 126
-2.305228e-001 8.333242e-001 -7.864652e+000 172 156 126
3.126767e-001 8.371009e-001 -8.092435e+000 170 156 128
2.148958e-001 7.536079e-001 -7.975444e+000 36 55 39
-1.979189e+000 5.550555e-001 -7.599604e+000 141 114 87
-3.452101e-001 6.639836e-001 -7.690183e+000 166 158 125
4.700544e+000 -2.758632e+000 -1.022874e+001 133 112 109
3.350289e+000 1.965330e+000 -1.092729e+001 41 35 42
2.060586e-001 1.334123e+000 -8.555328e+000 174 158 125
2.847163e+000 1.446091e+000 -9.601720e+000 96 67 75
1.426334e+000 -9.278519e-001 -9.186226e+000 204 139 115
-8.174412e-001 1.289491e+000 -8.433913e+000 179 164 34
-1.182146e+000 1.062891e+000 -8.105724e+000 191 147 113
-8.653907e-003 1.094712e+000 -8.354034e+000 31 58 27
2.305998e+000 7.034546e-001 -8.719563e+000 91 29 40
4.932720e+000 1.469837e+000 -1.029253e+001 40 30 38
4.546346e+000 5.167749e-001 -9.523791e+000 187 100 33
2.121313e+000 1.806902e+000 -9.916417e+000 85 105 109
2.161124e+000 1.754414e+000 -9.834039e+000 78 101 117
2.176921e+000 1.733517e+000 -9.832721e+000 84 109 123
2.176921e+000 1.733517e+000 -9.832721e+000 84 109 123
2.267820e+000 1.722897e+000 -9.873968e+000 83 104 121
2.359782e+000 1.701684e+000 -9.732155e+000 58 12 14
3.592845e+000 1.710119e+000 -1.029513e+001 115 68 38
1.366359e+000 1.502609e+000 -9.186580e+000 22 62 89
1.402272e+000 1.434340e+000 -9.117417e+000 20 70 104
1.402272e+000 1.434340e+000 -9.117417e+000 20 70 104
2.786072e+000 1.509167e+000 -9.694227e+000 166 113 100
