ply
format ascii 1.0
element face 0
property list uchar int vertex_indices
element vertex 874
property float x
property float y
property float z
property uchar diffuse_red
property uchar diffuse_green
property uchar diffuse_blue
end_header
1.937454e+000 -1.064235e+000 -9.626920e+000 178 124 114
6.269625e-001 -1.130613e+000 -9.210839e+000 18 58 99
-2.183803e+001 2.212584e+001 -4.120589e+001 113 97 83
2.703840e+000 5.830752e-001 -8.829198e+000 81 36 39
2.614509e+000 2.465031e-003 -8.842596e+000 144 22 33
4.860724e+000 -1.836721e-003 -9.810776e+000 135 67 36
2.240529e+000 -1.685660e-001 -8.831845e+000 175 125 98
3.153848e+000 -4.893549e-001 -9.428138e+000 159 110 94
3.153848e+000 -4.893549e-001 -9.428138e+000 159 110 94
1.310038e+000 -6.006449e-001 -8.734911e+000 157 104 90
2.819585e-001 -5.914386e-001 -8.310936e+000 146 144 123
7.540752e-001 -6.647708e-001 -8.549471e+000 114 17 27
2.221042e+000 -6.779864e-001 -9.214446e+000 175 120 100
2.311676e+000 -8.874727e-001 -9.561503e+000 178 117 99
-2.639306e+000 -4.719523e-001 -8.540020e+000 200 56 85
-5.774540e-001 -8.047430e-001 -8.181957e+000 31 56 35
7.570136e-001 -8.619221e-001 -8.812026e+000 4 51 72
3.829335e+000 -1.016468e+000 -1.043655e+001 157 136 115
4.233583e+000 -1.046152e+000 -1.066844e+001 119 104 102
9.505420e-001 -1.080733e+000 -9.331522e+000 179 121 114
2.606795e+000 -1.104446e+000 -1.003308e+001 141 12 36
-1.451146e+000 -1.075166e+000 -8.211599e+000 33 93 126
-1.981841e+001 2.257307e+001 -4.339170e+001 59 43 41
2.808932e+000 7.399987e-001 -8.972607e+000 141 109 98
3.298102e+000 2.209036e-001 -9.034604e+000 167 118 70
4.032872e+000 -3.400090e-002 -9.468841e+000 180 83 33
8.548735e-001 -1.901590e-001 -8.239454e+000 120 14 35
2.572478e+000 -2.927762e-001 -9.048056e+000 142 21 30
-1.105933e+000 -5.630898e-001 -7.750355e+000 196 100 93
5.907073e-001 -7.550580e-001 -8.602403e+000 155 30 40
4.431404e+000 -8.229815e-001 -1.045414e+001 124 100 93
-4.321828e-001 -8.199041e-001 -8.268627e+000 21 57 28
5.426688e-001 -1.013824e+000 -8.925089e+000 166 72 74
-7.285593e-001 -1.040115e+000 -8.472016e+000 126 133 115
4.512621e+000 -2.918266e+000 -1.052646e+001 35 29 32
-7.887818e-001 -8.655961e-001 -8.187314e+000 63 93 61
-7.284258e-001 -9.077756e-001 -8.279629e+000 24 53 35
4.251366e+000 -2.933062e-001 -9.746295e+000 111 81 67
-2.175036e-001 -4.218477e-001 -8.006324e+000 72 112 111
3.949742e+000 -1.492128e-001 -9.454498e+000 172 82 47
-3.794280e-001 -6.052777e-001 -8.080186e+000 56 101 112
8.011857e-001 -1.143764e+000 -9.292157e+000 15 88 143
4.678139e+000 6.171030e-001 -9.632069e+000 155 116 85
2.047461e+000 -6.449445e-001 -9.136951e+000 122 68 58
4.572384e+000 -1.037286e+000 -1.087260e+001 32 18 31
1.900073e-001 -1.594790e-001 -7.942072e+000 159 155 130
-1.484025e+000 -5.621267e-001 -7.644021e+000 17 84 126
3.079490e+000 -1.066347e+000 -1.026874e+001 185 131 119
2.564078e+000 -4.608669e-002 -8.840750e+000 168 113 92
8.209515e-001 -1.644698e-001 -8.221368e+000 185 137 114
1.305493e+000 -1.715050e-001 -8.420125e+000 77 27 17
1.417092e+000 -1.073610e-001 -8.424972e+000 78 25 22
2.641510e+000 -1.419496e-001 -8.940505e+000 169 55 63
2.960622e+000 -2.167939e-001 -9.132374e+000 183 68 69
2.609932e+000 -4.774855e-001 -9.194597e+000 141 25 39
4.273923e+000 -4.072027e-001 -9.883798e+000 107 87 78
-9.497718e-001 -5.968427e-001 -7.828445e+000 158 32 35
-1.410728e-001 -6.602762e-001 -8.213998e+000 148 151 47
1.569180e+000 -1.026754e+000 -9.400796e+000 143 88 83
5.068135e+000 3.306086e-001 -9.624446e+000 32 23 27
1.341241e+000 5.001015e-002 -8.305296e+000 172 112 101
1.282748e+000 -1.483697e-001 -8.406153e+000 156 103 95
8.205838e-001 -5.761815e-001 -8.543728e+000 25 73 107
-4.681234e-001 -8.769851e-001 -8.334198e+000 18 56 30
3.996384e+000 5.325043e-001 -9.319654e+000 155 63 47
4.353148e+000 2.483364e-001 -9.404628e+000 39 17 31
-2.317800e-001 -9.705280e-001 -8.565524e+000 154 156 31
1.043879e+000 -1.031592e+000 -9.205936e+000 133 86 79
1.656187e+000 -9.676148e-001 -9.346049e+000 180 122 110
1.615690e+000 -1.052624e+000 -9.529734e+000 181 127 115
-3.926320e-001 -1.083620e+000 -8.667039e+000 26 54 37
1.735428e+000 -1.903574e-001 -8.607490e+000 123 65 64
-6.437043e-001 -2.376467e-001 -7.709433e+000 33 96 137
-1.127792e+000 -1.028190e+000 -8.263373e+000 175 36 52
-2.691956e-001 -5.102830e-001 -8.024158e+000 101 118 50
2.160799e+000 -1.606738e-001 -8.771650e+000 144 101 78
2.160799e+000 -1.606738e-001 -8.771650e+000 144 101 78
4.357137e+000 -2.928405e+000 -1.043849e+001 54 46 59
2.671401e+000 5.155639e-001 -8.774798e+000 182 132 69
3.425109e+000 6.049063e-001 -9.130318e+000 136 119 117
2.530552e+000 3.174254e-001 -8.651084e+000 185 133 86
2.847938e+000 -2.464626e-002 -8.925883e+000 172 17 34
4.751425e+000 1.521668e-001 -9.659731e+000 184 110 59
4.792752e+000 1.313314e-001 -9.647782e+000 161 97 55
4.759383e+000 9.502304e-002 -9.649278e+000 37 7 11
4.861410e+000 1.055718e-001 -9.701729e+000 42 10 7
7.913068e-001 -1.291123e-001 -8.189214e+000 187 155 116
4.576610e+000 -5.026614e-002 -9.701433e+000 110 49 10
4.521733e+000 -7.226820e-002 -9.667166e+000 171 96 41
4.811331e+000 -3.484297e-002 -9.810269e+000 36 10 8
2.667060e+000 -2.599238e-001 -9.044733e+000 164 25 31
4.298655e+000 -1.997937e-001 -9.675868e+000 125 98 77
4.302590e+000 -1.965408e-001 -9.683328e+000 125 98 77
4.676891e+000 -1.160554e-001 -9.859288e+000 179 104 47
4.754767e+000 -2.083665e-001 -9.989828e+000 41 5 4
-6.327084e-001 -3.899878e-001 -7.796557e+000 150 159 58
-3.446780e-001 -4.343703e-001 -7.956152e+000 152 147 25
7.322017e-001 -4.159501e-001 -8.359236e+000 197 166 127
2.597742e+000 -3.808028e-001 -9.107756e+000 199 92 84
2.936647e+000 -3.340929e-001 -9.217235e+000 207 100 90
3.290371e+000 -4.325318e-001 -9.436620e+000 196 143 109
3.545038e+000 -3.412396e-001 -9.478135e+000 184 133 90
4.294156e+000 -2.809176e-001 -9.761019e+000 182 155 128
4.294156e+000 -2.809176e-001 -9.761019e+000 182 155 128
3.084201e-001 -5.750157e-001 -8.310161e+000 164 162 131
6.454600e-001 -4.946522e-001 -8.368789e+000 148 8 9
7.163399e-001 -5.759666e-001 -8.479704e+000 156 12 12
7.155068e-001 -5.780314e-001 -8.474737e+000 156 12 12
2.955779e+000 -4.399820e-001 -9.328297e+000 158 23 28
3.096696e+000 -5.371244e-001 -9.477693e+000 192 140 100
3.719602e+000 -4.680585e-001 -9.665993e+000 189 89 57
3.764287e+000 -4.630100e-001 -9.684469e+000 127 44 14
3.727523e+000 -5.292830e-001 -9.692480e+000 142 53 11
3.694335e+000 -5.487644e-001 -9.737190e+000 198 117 43
4.045417e+000 -5.205304e-001 -9.873919e+000 37 13 16
-8.338154e-002 -5.844012e-001 -8.149284e+000 17 47 60
6.583556e-001 -6.518549e-001 -8.521223e+000 173 39 42
1.299851e+000 -6.466085e-001 -8.773051e+000 92 43 39
1.299906e+000 -6.474532e-001 -8.771669e+000 92 43 39
2.880167e+000 -5.673092e-001 -9.384631e+000 201 89 85
2.915675e+000 -6.574320e-001 -9.495430e+000 193 83 76
3.246421e+000 -5.825589e-001 -9.556391e+000 130 72 60
3.586455e+000 -6.255617e-001 -9.747082e+000 191 128 98
3.755585e+000 -5.904973e-001 -9.817587e+000 179 136 102
3.876527e+000 -6.517661e-001 -9.941509e+000 182 144 108
3.999519e+000 -6.516987e-001 -1.000804e+001 41 22 19
-1.127089e+000 -7.151932e-001 -7.868283e+000 185 153 115
-7.004615e-001 -7.569749e-001 -8.066589e+000 18 55 36
6.666801e-001 -6.936867e-001 -8.566819e+000 200 174 118
1.363865e+000 -7.242531e-001 -8.886297e+000 189 132 106
1.363865e+000 -7.242531e-001 -8.886297e+000 189 132 106
1.735228e+000 -6.981603e-001 -9.024834e+000 103 45 43
2.564232e+000 -7.381873e-001 -9.445159e+000 207 96 97
2.564538e+000 -7.377651e-001 -9.446135e+000 207 96 97
3.175352e+000 -7.689684e-001 -9.739853e+000 196 135 116
3.556490e+000 -7.058241e-001 -9.846626e+000 173 138 104
3.530248e+000 -7.854086e-001 -9.944567e+000 171 136 92
3.618170e+000 -7.672334e-001 -9.988466e+000 172 138 103
3.660481e+000 -7.844825e-001 -9.967909e+000 173 138 108
-1.166808e+000 -8.426634e-001 -8.025880e+000 179 43 44
-1.166808e+000 -8.426634e-001 -8.025880e+000 179 43 44
3.372419e+000 -8.556924e-001 -9.969629e+000 177 143 111
3.717987e+000 -8.475842e-001 -1.006113e+001 173 137 111
3.785227e+000 -8.032039e-001 -1.007831e+001 97 59 54
4.431070e+000 -7.569674e-001 -1.040772e+001 156 138 118
-1.144028e+000 -8.752677e-001 -8.066070e+000 178 39 50
-1.184368e+000 -8.990795e-001 -8.083554e+000 185 29 51
-1.184188e+000 -8.997729e-001 -8.083331e+000 185 29 51
-1.156199e+000 -8.904812e-001 -8.083215e+000 184 169 122
-1.402687e-001 -8.871263e-001 -8.486358e+000 177 170 40
5.782421e-001 -9.447885e-001 -8.869854e+000 155 24 30
5.782421e-001 -9.447885e-001 -8.869854e+000 155 24 30
3.422210e+000 -8.856707e-001 -1.009908e+001 170 137 117
-1.134227e+000 -9.775118e-001 -8.204588e+000 189 45 49
-1.131739e+000 -9.941299e-001 -8.226634e+000 210 160 123
-1.131247e+000 -9.929653e-001 -8.231532e+000 210 160 123
-1.167293e+000 -1.025237e+000 -8.253527e+000 192 172 129
-1.167184e+000 -1.024598e+000 -8.253811e+000 192 172 129
-4.438945e-001 -9.802215e-001 -8.506545e+000 175 170 39
-4.438945e-001 -9.802215e-001 -8.506545e+000 175 170 39
5.570809e-001 -1.019965e+000 -8.964530e+000 206 162 133
1.224154e+000 -1.055567e+000 -9.292519e+000 112 63 59
1.224154e+000 -1.055567e+000 -9.292519e+000 112 63 59
1.750206e+000 -1.054269e+000 -9.617493e+000 195 133 120
1.762135e+000 -1.086185e+000 -9.602351e+000 129 75 61
1.762135e+000 -1.086185e+000 -9.602351e+000 129 75 61
2.215344e+000 -1.044818e+000 -9.725011e+000 117 71 57
2.215948e+000 -1.044436e+000 -9.726503e+000 117 71 57
2.530661e+000 -1.059180e+000 -9.906009e+000 168 29 44
2.673895e+000 -1.045453e+000 -9.948719e+000 203 87 90
2.671911e+000 -1.047443e+000 -9.944513e+000 203 87 90
1.003367e+000 -1.092662e+000 -9.274394e+000 111 70 65
1.661404e+000 -1.158365e+000 -9.712677e+000 167 29 36
3.829546e+000 2.083347e-001 -9.219604e+000 192 101 44
4.886076e+000 2.191272e-001 -9.626250e+000 46 5 21
4.876645e+000 2.122766e-001 -9.611331e+000 46 5 21
-2.361734e+000 6.529054e-001 -8.111888e+000 183 151 113
1.391868e+000 -9.091832e-002 -8.399000e+000 188 128 99
2.646484e+000 -1.033392e-001 -8.927531e+000 176 31 37
2.679369e+000 -1.607988e-001 -8.967185e+000 171 22 33
3.862632e+000 -8.479343e-002 -9.407196e+000 119 36 30
2.760004e+000 -3.125716e-001 -9.091636e+000 193 84 77
4.781937e+000 -1.139480e-001 -9.899053e+000 46 9 3
4.781937e+000 -1.139480e-001 -9.899053e+000 46 9 3
9.191320e-001 -3.772428e-001 -8.366774e+000 23 84 123
2.620453e+000 -4.072658e-001 -9.119559e+000 166 19 35
3.664647e+000 -3.232879e-001 -9.490826e+000 189 117 37
4.189950e+000 -3.344605e-001 -9.760512e+000 189 89 27
2.360179e-001 -5.538832e-001 -8.269778e+000 134 22 27
2.613528e+000 -4.425975e-001 -9.153575e+000 157 26 34
3.652159e+000 -4.307689e-001 -9.603891e+000 197 66 42
3.843083e+000 -4.551546e-001 -9.723286e+000 121 57 38
3.687756e+000 -4.882835e-001 -9.685612e+000 142 40 18
3.822359e+000 -5.118618e-001 -9.760635e+000 130 68 37
-1.139795e+000 -6.563079e-001 -7.822067e+000 177 34 38
-6.986120e-001 -6.372392e-001 -7.950728e+000 166 155 30
-6.986120e-001 -6.372392e-001 -7.950728e+000 166 155 30
7.979219e-001 -6.547842e-001 -8.539151e+000 16 91 130
2.652267e+000 -6.040368e-001 -9.313172e+000 167 22 39
2.652267e+000 -6.040368e-001 -9.313172e+000 167 22 39
2.668380e+000 -6.566617e-001 -9.375474e+000 205 93 85
2.831509e+000 -6.734781e-001 -9.471975e+000 178 75 60
2.944658e+000 -6.086054e-001 -9.487964e+000 203 79 78
3.790684e+000 -6.081207e-001 -9.852154e+000 126 87 75
3.790684e+000 -6.081207e-001 -9.852154e+000 126 87 75
-1.563188e+000 -6.912659e-001 -7.711846e+000 188 167 152
-1.125130e+000 -7.567232e-001 -7.922022e+000 177 31 44
-1.091579e+000 -7.562848e-001 -7.934166e+000 187 42 51
2.577717e+000 -6.900006e-001 -9.373909e+000 204 94 92
2.577717e+000 -6.900006e-001 -9.373909e+000 204 94 92
2.622697e+000 -7.651881e-001 -9.494501e+000 176 70 63
2.589014e+000 -7.627566e-001 -9.505939e+000 162 27 35
2.820139e+000 -7.266697e-001 -9.558426e+000 199 83 75
3.482782e+000 -7.416596e-001 -9.884224e+000 174 142 101
3.960615e+000 -6.632378e-001 -1.000855e+001 197 165 126
-1.195351e+000 -8.088867e-001 -7.981373e+000 179 33 39
-1.022276e+000 -8.091130e-001 -8.018625e+000 183 30 33
2.068939e-001 -8.385494e-001 -8.567357e+000 118 21 33
2.545303e+000 -8.515855e-001 -9.574199e+000 167 24 41
2.855627e+000 -8.050249e-001 -9.655333e+000 195 81 76
2.813861e+000 -8.172197e-001 -9.662772e+000 175 31 43
3.601668e+000 -8.004457e-001 -1.001635e+001 172 140 105
3.683295e+000 -7.935436e-001 -1.004599e+001 172 138 111
3.696607e+000 -8.433838e-001 -1.010586e+001 100 70 52
3.977115e+000 -8.446388e-001 -1.022748e+001 125 107 90
4.597309e+000 -7.482943e-001 -1.059260e+001 105 35 32
-6.751302e-001 -8.857576e-001 -8.267950e+000 175 170 27
2.314160e+000 -9.016282e-001 -9.552655e+000 202 133 114
2.384309e+000 -9.575137e-001 -9.652918e+000 187 105 85
2.427145e+000 -9.568107e-001 -9.689515e+000 165 25 41
2.485701e+000 -9.440869e-001 -9.833494e+000 211 90 92
2.529298e+000 -9.365236e-001 -9.718908e+000 168 27 41
2.823403e+000 -8.985466e-001 -9.815115e+000 193 89 85
3.569246e+000 -9.370383e-001 -1.015296e+001 136 102 74
-1.270098e+000 -9.968576e-001 -8.181714e+000 183 39 42
-3.493659e-001 -9.793133e-001 -8.532447e+000 166 165 17
-3.495814e-001 -9.804641e-001 -8.528871e+000 166 165 17
2.131029e+000 -1.089587e+000 -9.772455e+000 196 139 122
2.375917e+000 -1.051204e+000 -9.794633e+000 170 42 55
2.736636e+000 -1.013709e+000 -9.994508e+000 152 17 27
-7.068243e-001 -1.063668e+000 -8.502509e+000 168 164 30
-7.070872e-001 -1.063361e+000 -8.503430e+000 168 164 30
1.643805e+000 -1.177521e+000 -9.784547e+000 195 100 94
1.686533e+000 -1.183339e+000 -9.778169e+000 178 39 46
-2.005141e+000 -1.284973e+000 -8.719844e+000 217 205 197
9.036989e-001 2.281681e-002 -8.131992e+000 40 34 58
2.839671e+000 1.847451e-002 -8.924643e+000 199 93 76
3.567016e+000 -1.403012e-002 -9.233294e+000 176 118 54
3.774229e+000 3.935080e-002 -9.260822e+000 176 81 21
1.182197e-002 -1.637075e-001 -7.896847e+000 153 145 46
9.060946e-001 -1.739037e-001 -8.263127e+000 10 78 113
1.633226e+000 -1.331881e-001 -8.532375e+000 105 58 51
2.047591e+000 -2.259296e-001 -8.748799e+000 118 73 67
4.261563e+000 -1.786582e-001 -9.634599e+000 191 165 140
-2.160592e-001 -4.264107e-001 -7.996949e+000 76 103 97
2.975870e+000 -4.384641e-001 -9.287840e+000 207 95 78
4.800577e+000 -2.254846e-001 -1.003499e+001 161 83 37
2.335384e+000 -6.548937e-001 -9.248419e+000 194 135 108
3.105265e+000 -6.380687e-001 -9.564258e+000 106 54 43
4.646055e+000 -5.364339e-001 -1.031017e+001 115 48 21
-2.221358e+000 -6.056433e-001 -7.730173e+000 185 163 150
1.150260e+000 -7.563477e-001 -8.842502e+000 103 57 59
1.748442e+000 -7.304674e-001 -9.060889e+000 196 135 104
2.144842e+000 -7.168918e-001 -9.239362e+000 163 112 103
2.321592e+000 -6.833627e-001 -9.294920e+000 195 130 98
2.321638e+000 -6.832782e-001 -9.295253e+000 195 130 98
2.434215e+000 -7.194000e-001 -9.330314e+000 169 29 40
3.136532e+000 -7.203954e-001 -9.687685e+000 195 137 111
3.075387e-001 -8.344320e-001 -8.599568e+000 143 101 94
7.077762e-001 -8.743781e-001 -8.862495e+000 22 84 128
2.457514e+000 -8.096459e-001 -9.502320e+000 185 87 78
3.926935e+000 -8.715648e-001 -1.025822e+001 145 129 117
1.689802e+000 -1.003559e+000 -9.389875e+000 142 95 77
2.595689e+000 -9.262274e-001 -9.684922e+000 174 29 43
3.615282e+000 -9.863507e-001 -1.019817e+001 136 102 83
1.692976e+000 -1.012829e+000 -9.608913e+000 120 68 54
2.747076e+000 -1.101876e+000 -1.010455e+001 162 21 31
1.181538e+000 -1.176055e+000 -9.530170e+000 170 33 37
1.516367e+000 -1.170359e+000 -9.659661e+000 176 38 46
2.153083e+000 -1.150973e+000 -1.010782e+001 126 26 31
-5.122559e-001 3.974000e-001 -7.545495e+000 56 101 122
3.854750e+000 2.210708e-001 -9.259369e+000 183 97 31
-2.329556e+000 7.027396e-001 -8.022732e+000 82 62 48
3.750623e+000 -2.249291e-002 -9.304942e+000 182 73 33
1.089368e+000 -2.386020e-001 -8.367336e+000 14 87 123
1.598648e+000 -2.429483e-001 -8.568700e+000 184 128 103
7.824816e-001 -5.415884e-001 -8.500525e+000 155 30 36
1.258730e+000 -6.306653e-001 -8.745208e+000 198 137 109
2.208347e+000 -6.943329e-001 -9.166741e+000 194 131 112
-1.139674e+000 -6.924519e-001 -7.845157e+000 173 32 40
8.202499e-001 -7.158936e-001 -8.615158e+000 15 63 95
1.815949e+000 -7.168007e-001 -9.112451e+000 152 97 88
4.507358e+000 -7.116185e-001 -1.041900e+001 158 141 121
6.250279e-001 -9.676127e-001 -8.855077e+000 147 28 36
1.884474e+000 -9.547498e-001 -9.423317e+000 192 130 109
6.014587e-001 -1.017955e+000 -8.957167e+000 167 29 36
1.495650e+000 -1.063651e+000 -9.481619e+000 197 139 118
1.747342e+000 -1.011564e+000 -9.506928e+000 197 134 110
1.747013e+000 -1.012430e+000 -9.505959e+000 197 134 110
1.848507e+000 -1.027958e+000 -9.559934e+000 192 134 118
1.848507e+000 -1.027958e+000 -9.559934e+000 192 134 118
1.828411e+000 -1.058822e+000 -9.610239e+000 193 136 119
1.956899e+000 -1.020685e+000 -9.540239e+000 195 136 117
2.076476e+000 -1.014676e+000 -9.611428e+000 200 139 119
1.939812e+000 -1.060917e+000 -9.634599e+000 198 136 115
1.229231e+000 4.851254e-002 -8.302635e+000 6 80 119
1.100667e+000 -1.842453e-001 -8.297222e+000 14 86 128
1.048730e+000 -2.038328e-001 -8.339108e+000 1 31 51
-4.519909e-001 -5.024904e-001 -7.958091e+000 23 47 32
-1.098060e+000 -7.257993e-001 -7.896202e+000 163 73 61
9.245024e-001 -7.208926e-001 -8.706552e+000 1 44 73
-5.750671e-001 -8.053868e-001 -8.182685e+000 39 64 35
-2.588508e+000 -3.664397e-001 -8.511333e+000 203 56 101
1.223732e+000 -1.144687e+000 -9.491729e+000 192 130 117
2.020485e+000 -1.119067e+000 -9.802904e+000 202 141 123
2.266320e+000 -1.119120e+000 -9.906821e+000 175 28 46
-6.590420e-001 -5.912221e-001 -7.949315e+000 24 57 27
5.848481e-001 -9.109468e-001 -8.819820e+000 178 98 87
1.469844e+000 -1.118667e+000 -9.627993e+000 202 141 123
2.171496e+000 -1.136905e+000 -1.001296e+001 132 38 42
3.773856e+000 2.610896e-001 -9.162016e+000 123 20 24
-8.027125e-002 -2.853172e-001 -7.944785e+000 103 126 121
-8.027125e-002 -2.853172e-001 -7.944785e+000 103 126 121
-2.701432e-001 -3.507676e-001 -7.917991e+000 24 51 33
1.195546e+000 -5.302452e-001 -8.707191e+000 195 124 96
-4.094512e-001 -8.543315e-001 -8.338650e+000 24 63 26
3.434339e+000 -9.719391e-001 -1.014272e+001 177 140 111
4.309058e+000 -1.025981e+000 -1.058876e+001 77 57 46
2.828038e+000 2.829121e-001 -8.835974e+000 47 17 25
1.834182e+000 -1.100581e-001 -8.617407e+000 196 137 97
3.655211e+000 -6.695548e-001 -9.851985e+000 178 143 102
-9.196048e-001 -7.371290e-001 -8.067560e+000 15 86 132
-1.517501e+000 -5.876621e-001 -7.675860e+000 12 77 115
9.878141e-001 -7.508827e-001 -8.734513e+000 4 81 121
1.987896e+000 -7.911458e-001 -9.258816e+000 193 131 107
-3.609608e-001 1.929902e-001 -7.664946e+000 43 94 122
4.387744e+000 -7.322267e-001 -1.014135e+001 163 145 127
-4.532595e-001 -1.044439e+000 -8.578270e+000 158 152 34
2.335709e+000 -3.884324e-001 -9.035244e+000 202 146 109
1.191391e+000 -8.770312e-001 -9.063535e+000 194 126 103
4.359944e+000 -3.282613e-001 -9.807716e+000 194 106 51
7.198234e-001 -9.755234e-001 -9.177909e+000 3 58 95
1.952253e+000 -1.341156e+000 -1.024819e+001 41 35 37
-1.531093e+000 -9.277712e-001 -8.093635e+000 15 90 130
1.866985e+000 -6.172658e-001 -9.443550e+000 198 137 109
-3.081561e+001 2.417679e+001 -5.689848e+001 90 70 67
-1.818630e+001 2.853213e+001 -4.199375e+001 150 83 62
-1.952457e+001 2.784229e+001 -4.450870e+001 91 71 62
-2.232537e+001 2.291639e+001 -4.347866e+001 43 31 27
-1.854773e+001 2.597055e+001 -4.039363e+001 98 75 67
4.582010e+000 1.459364e-001 -9.540390e+000 193 99 47
1.005807e+000 4.538281e-002 -8.187786e+000 7 80 116
1.054499e+000 4.234858e-002 -8.205297e+000 8 76 114
4.860526e+000 1.053393e-001 -9.701314e+000 42 10 7
-1.813188e-001 -1.900989e-001 -7.841294e+000 20 42 26
7.967126e-001 -2.035365e-001 -8.268636e+000 128 12 10
7.926379e-001 -2.173127e-001 -8.248236e+000 128 12 10
4.018988e+000 -9.776335e-002 -9.473914e+000 130 53 21
4.305700e+000 -6.130306e-002 -9.567641e+000 178 155 130
4.352963e+000 -4.692065e-002 -9.577628e+000 174 151 121
4.591059e+000 -1.832681e-002 -9.692989e+000 121 56 17
4.418694e+000 -7.098572e-002 -9.641106e+000 34 15 4
-1.117818e-001 -3.232391e-001 -7.957589e+000 159 153 31
7.555524e-001 -2.497273e-001 -8.259747e+000 155 32 31
7.966194e-001 -2.945908e-001 -8.328561e+000 206 158 129
3.716072e+000 -2.170622e-001 -9.461291e+000 178 115 50
4.275424e+000 -2.497251e-001 -9.724032e+000 45 18 35
4.389069e+000 -2.138637e-001 -9.748356e+000 191 162 143
4.363582e+000 -2.448855e-001 -9.763122e+000 44 22 10
4.544814e+000 -2.200667e-001 -9.843371e+000 171 108 41
4.702502e+000 -1.329444e-001 -9.847166e+000 56 10 22
4.747181e+000 -2.150908e-001 -9.978493e+000 41 5 4
4.843448e+000 -2.134821e-001 -1.001049e+001 28 21 27
-6.197138e-001 -3.666847e-001 -7.787118e+000 9 41 17
7.630555e-001 -4.435478e-001 -8.399592e+000 201 160 121
2.920047e+000 -4.087471e-001 -9.281857e+000 186 71 67
2.922062e+000 -3.517530e-001 -9.183348e+000 207 100 90
3.584907e+000 -4.052916e-001 -9.540498e+000 200 128 40
3.623499e+000 -4.294319e-001 -9.498313e+000 193 69 46
3.865173e+000 -3.374372e-001 -9.607350e+000 102 31 13
3.991987e+000 -2.953333e-001 -9.622234e+000 201 129 55
4.133949e+000 -3.308318e-001 -9.726841e+000 216 160 106
-1.559579e+000 -5.090342e-001 -7.629208e+000 131 134 125
-8.100028e-001 -6.300736e-001 -7.669594e+000 14 39 19
-5.503339e-001 -4.593058e-001 -7.906140e+000 154 155 47
-5.828828e-001 -5.421421e-001 -7.932727e+000 157 149 23
-4.396675e-001 -5.391725e-001 -7.979934e+000 162 150 15
-2.637098e-001 -4.971268e-001 -8.022713e+000 73 95 95
-1.122881e-001 -5.014936e-001 -8.072771e+000 102 126 119
7.466285e-001 -5.219387e-001 -8.453288e+000 211 161 125
8.627175e-001 -5.395108e-001 -8.510736e+000 19 83 127
8.627175e-001 -5.395108e-001 -8.510736e+000 19 83 127
3.727480e+000 -4.614584e-001 -9.679811e+000 189 89 57
4.056910e+000 -4.857288e-001 -9.844962e+000 40 15 24
4.539469e+000 -4.490431e-001 -1.008917e+001 162 146 126
4.532196e+000 -4.960938e-001 -1.014901e+001 166 142 126
-1.129405e+000 -5.961907e-001 -7.769035e+000 176 26 30
-7.158330e-001 -6.547400e-001 -7.969639e+000 38 72 70
-4.157488e-001 -6.475298e-001 -8.094294e+000 64 100 97
-4.157488e-001 -6.475298e-001 -8.094294e+000 64 100 97
7.223047e-001 -5.973781e-001 -8.491817e+000 205 175 130
7.210730e-001 -6.316287e-001 -8.521187e+000 206 167 135
2.525542e+000 -6.325857e-001 -9.286861e+000 166 20 33
2.700736e+000 -5.823694e-001 -9.317514e+000 205 92 88
2.901346e+000 -6.122293e-001 -9.462290e+000 165 24 35
2.894657e+000 -6.202890e-001 -9.448132e+000 165 24 35
3.223466e+000 -6.365531e-001 -9.616973e+000 196 135 117
3.860577e+000 -5.619213e-001 -9.845932e+000 185 124 77
3.799063e+000 -5.846277e-001 -9.830392e+000 183 139 100
3.774060e+000 -6.633206e-001 -9.907859e+000 86 50 35
4.440560e+000 -6.010546e-001 -1.021503e+001 30 12 8
-1.481054e+000 -6.966593e-001 -7.736064e+000 167 162 142
-1.481054e+000 -6.966593e-001 -7.736064e+000 167 162 142
-1.453376e+000 -6.944001e-001 -7.741936e+000 144 157 155
-1.453376e+000 -6.944001e-001 -7.741936e+000 144 157 155
-1.064163e+000 -7.574183e-001 -7.906654e+000 198 144 120
5.651229e-001 -7.073245e-001 -8.549697e+000 161 160 131
6.299304e-001 -7.219966e-001 -8.587302e+000 198 174 130
6.298251e-001 -7.243237e-001 -8.584246e+000 198 174 130
6.352753e-001 -7.717099e-001 -8.640319e+000 203 173 134
8.019003e-001 -7.496066e-001 -8.646798e+000 13 88 136
6.703682e-001 -7.636230e-001 -8.660922e+000 200 170 133
2.611535e+000 -7.052942e-001 -9.429276e+000 160 13 25
2.909719e+000 -6.909870e-001 -9.542106e+000 220 100 97
2.876319e+000 -7.691895e-001 -9.621707e+000 198 78 80
3.208470e+000 -6.960835e-001 -9.685503e+000 118 60 45
3.208470e+000 -6.960835e-001 -9.685503e+000 118 60 45
3.171740e+000 -7.872438e-001 -9.781161e+000 123 66 64
3.553586e+000 -7.234486e-001 -9.870933e+000 176 139 111
3.779842e+000 -7.714094e-001 -1.005971e+001 167 132 100
3.969781e+000 -7.337622e-001 -1.009725e+001 25 5 0
3.968064e+000 -7.354285e-001 -1.009374e+001 25 5 0
4.408370e+000 -6.868124e-001 -1.029927e+001 39 18 8
4.616279e+000 -6.833000e-001 -1.037148e+001 133 70 49
-1.082756e+000 -7.966591e-001 -7.985370e+000 193 161 123
-6.232447e-001 -7.976737e-001 -8.165477e+000 165 158 36
3.150587e+000 -8.475360e-001 -9.836135e+000 107 53 47
3.511741e+000 -8.323248e-001 -1.000416e+001 175 141 112
3.608960e+000 -8.459387e-001 -1.006591e+001 120 90 63
3.645552e+000 -8.745525e-001 -1.012915e+001 172 136 110
-1.143611e+000 -8.751269e-001 -8.066308e+000 178 39 50
-1.133380e+000 -9.139893e-001 -8.120107e+000 201 154 117
-1.142226e+000 -9.355946e-001 -8.148962e+000 205 156 125
-3.808126e-001 -8.817916e-001 -8.388694e+000 19 58 24
-3.195497e-001 -8.944876e-001 -8.432548e+000 170 166 36
6.004371e-001 -9.280084e-001 -8.855061e+000 198 165 135
5.614539e-001 -9.767153e-001 -8.908909e+000 145 20 12
1.711360e+000 -9.648921e-001 -9.382064e+000 125 71 52
1.710842e+000 -9.662006e-001 -9.381084e+000 125 71 52
2.453032e+000 -9.083001e-001 -9.628451e+000 151 13 26
2.441748e+000 -9.211051e-001 -9.601670e+000 151 13 26
2.588217e+000 -1.002268e+000 -9.813866e+000 214 94 94
2.583417e+000 -1.009393e+000 -9.797469e+000 214 94 94
2.754348e+000 -9.729686e-001 -9.884391e+000 178 38 55
3.614690e+000 -9.432309e-001 -1.021024e+001 172 137 112
-1.171205e+000 -9.646278e-001 -8.179923e+000 196 150 113
-1.147467e+000 -9.612467e-001 -8.158906e+000 182 31 37
-8.981203e-001 -1.023054e+000 -8.360793e+000 176 167 39
-6.477188e-001 -9.793917e-001 -8.362114e+000 170 166 37
5.339521e-001 -1.068617e+000 -9.035637e+000 207 175 144
1.474278e+000 -1.004559e+000 -9.332342e+000 129 83 66
1.658452e+000 -1.073937e+000 -9.535991e+000 136 83 68
1.903002e+000 -1.033667e+000 -9.564487e+000 103 51 37
2.350057e+000 -1.093137e+000 -9.821671e+000 164 30 47
2.567201e+000 -1.050137e+000 -9.830577e+000 207 89 93
2.534920e+000 -1.053849e+000 -9.917246e+000 168 29 44
2.703849e+000 -1.057262e+000 -9.971098e+000 159 24 34
-1.154964e+000 -1.052082e+000 -8.296056e+000 219 159 131
-1.154964e+000 -1.052082e+000 -8.296056e+000 219 159 131
1.571515e+000 -1.163036e+000 -9.707516e+000 205 121 111
2.306544e+000 -1.161952e+000 -9.924721e+000 188 154 131
1.082458e+000 6.545341e-002 -8.197606e+000 178 159 132
4.541101e+000 2.121953e-001 -9.581642e+000 175 154 128
2.555298e+000 1.653061e-002 -8.752618e+000 201 135 105
3.021814e+000 4.156230e-002 -9.002121e+000 210 93 92
4.310012e+000 9.524110e-002 -9.453732e+000 180 154 126
4.835819e+000 3.773030e-002 -9.760325e+000 49 19 16
-2.414412e-001 -1.851788e-001 -7.808426e+000 148 137 29
2.550236e+000 -1.016902e-001 -8.870649e+000 196 144 104
3.019685e+000 -1.009176e-001 -9.059416e+000 170 24 36
3.859530e+000 -8.742982e-002 -9.403280e+000 119 36 30
3.995740e+000 -1.292930e-001 -9.540885e+000 192 86 37
1.452960e+000 -2.228864e-001 -8.576049e+000 195 132 101
2.766245e+000 -3.053366e-001 -9.105735e+000 193 84 77
4.622142e+000 -2.381811e-001 -9.923756e+000 173 103 29
3.663715e+000 -3.249480e-001 -9.489291e+000 189 117 37
2.604992e+000 -4.540781e-001 -9.141312e+000 157 26 34
2.665948e+000 -5.280259e-001 -9.239342e+000 172 33 41
2.971035e+000 -4.964838e-001 -9.349970e+000 207 92 85
3.283379e+000 -4.621107e-001 -9.458877e+000 130 82 52
3.273330e+000 -5.213448e-001 -9.511333e+000 144 87 68
3.389595e+000 -4.939790e-001 -9.521097e+000 200 81 45
3.390012e+000 -5.406848e-001 -9.620844e+000 191 83 38
3.595021e+000 -5.228736e-001 -9.693421e+000 121 30 17
3.595021e+000 -5.228736e-001 -9.693421e+000 121 30 17
3.815292e+000 -4.291216e-001 -9.692571e+000 194 91 46
3.922049e+000 -4.998826e-001 -9.778099e+000 191 114 44
3.971039e+000 -5.355355e-001 -9.874208e+000 177 86 41
4.701978e+000 -3.646402e-001 -1.011908e+001 124 68 33
2.272751e-001 -6.877221e-001 -8.373807e+000 167 168 129
3.143288e-001 -6.259186e-001 -8.349228e+000 122 8 19
1.106926e+000 -6.028644e-001 -8.628806e+000 26 71 112
1.212284e+000 -6.266496e-001 -8.743119e+000 132 81 92
2.635063e+000 -6.423931e-001 -9.350475e+000 161 22 29
2.640093e+000 -6.356915e-001 -9.361743e+000 161 22 29
2.846608e+000 -6.302347e-001 -9.409227e+000 196 81 71
2.935451e+000 -6.211077e-001 -9.464458e+000 203 79 78
3.345230e+000 -6.319377e-001 -9.641892e+000 198 101 42
4.530736e+000 -6.013712e-001 -1.027772e+001 166 146 123
4.623808e+000 -5.683710e-001 -1.034076e+001 113 48 20
-1.124048e+000 -7.556763e-001 -7.922826e+000 177 31 44
-5.974780e-001 -6.979202e-001 -8.052210e+000 163 162 36
3.238800e-001 -7.069148e-001 -8.443835e+000 162 162 140
2.499618e+000 -7.052241e-001 -9.369466e+000 202 94 89
2.526921e+000 -7.257836e-001 -9.398760e+000 177 30 46
3.484699e+000 -7.397167e-001 -9.886578e+000 174 142 101
3.537384e+000 -7.503934e-001 -9.884182e+000 183 145 117
-1.056777e+000 -7.759752e-001 -7.970598e+000 180 44 46
-1.022175e+000 -8.136829e-001 -8.014149e+000 183 30 33
-6.518265e-001 -8.305070e-001 -8.138601e+000 58 107 110
-6.524736e-001 -8.181772e-001 -8.157994e+000 58 107 110
2.286770e-001 -7.867834e-001 -8.505861e+000 164 167 136
2.311002e-001 -7.878798e-001 -8.505474e+000 164 167 136
7.220009e-001 -8.415930e-001 -8.794465e+000 28 84 134
1.535069e+000 -8.685168e-001 -9.162987e+000 124 77 68
2.091581e+000 -8.578604e-001 -9.396290e+000 116 62 51
2.092327e+000 -8.571022e-001 -9.397447e+000 116 62 51
2.843401e+000 -8.611417e-001 -9.753109e+000 194 76 78
3.419704e+000 -8.752193e-001 -1.002454e+001 176 140 109
-1.206329e+000 -9.139530e-001 -8.094099e+000 196 155 125
-1.161221e+000 -9.453461e-001 -8.143356e+000 208 160 129
7.040287e-001 -9.362343e-001 -8.860769e+000 15 53 86
2.415162e+000 -9.057732e-001 -9.623143e+000 213 109 102
2.410244e+000 -9.964268e-001 -9.748689e+000 163 25 35
2.570207e+000 -9.799476e-001 -9.785123e+000 170 30 42
2.948043e+000 -1.005478e+000 -9.969745e+000 76 28 10
-1.235225e+000 -1.024320e+000 -8.225771e+000 176 29 30
-1.235417e+000 -1.024421e+000 -8.225455e+000 176 29 30
5.266014e-001 -9.937808e-001 -8.914631e+000 193 170 124
6.188017e-001 -1.077276e+000 -9.011298e+000 16 82 125
1.330281e+000 -1.069000e+000 -9.355064e+000 127 74 61
1.551121e+000 -1.069832e+000 -9.471003e+000 126 71 61
1.550777e+000 -1.070258e+000 -9.470448e+000 126 71 61
2.198829e+000 -1.118420e+000 -9.743137e+000 203 138 122
2.459110e+000 -1.047302e+000 -9.868922e+000 171 22 41
2.535117e+000 -1.037965e+000 -9.839752e+000 166 29 41
2.537094e+000 -1.036332e+000 -9.839595e+000 166 29 41
2.562094e+000 -1.062895e+000 -9.888300e+000 206 93 93
2.548334e+000 -1.084615e+000 -9.961199e+000 196 91 89
-1.289933e+000 -1.039837e+000 -8.244151e+000 185 33 39
6.037120e-001 -1.097179e+000 -9.118776e+000 29 89 137
1.168214e+000 -1.129594e+000 -9.422575e+000 99 45 35
1.168214e+000 -1.129594e+000 -9.422575e+000 99 45 35
3.504393e+000 -1.126937e+000 -1.067085e+001 49 14 16
4.218772e+000 -1.136305e+000 -1.082831e+001 184 174 164
1.091327e+000 -1.193522e+000 -9.576869e+000 186 61 56
-1.985448e+000 6.156403e-001 -7.698220e+000 201 177 143
3.892031e+000 3.143043e-001 -9.214333e+000 196 111 30
2.750436e+000 9.364367e-003 -8.885190e+000 187 72 69
4.951595e+000 5.811478e-002 -9.762784e+000 26 20 32
2.203513e+000 -1.086248e-001 -8.760322e+000 115 69 50
2.313879e+000 -1.115179e-001 -8.792042e+000 111 63 47
2.428485e+000 -1.007167e-001 -8.836000e+000 112 65 52
2.433647e+000 -9.215878e-002 -8.851005e+000 112 65 52
2.663996e+000 -1.456709e-001 -8.901458e+000 176 30 35
4.562170e+000 -1.071655e-001 -9.734808e+000 159 88 27
4.823587e+000 -8.176928e-002 -9.801470e+000 136 74 36
2.730650e+000 -2.656954e-001 -9.062642e+000 166 26 34
3.363751e+000 -2.010684e-001 -9.285837e+000 88 39 23
4.111912e+000 -2.633792e-001 -9.653444e+000 215 139 68
4.666887e+000 -1.907680e-001 -9.932874e+000 178 103 33
-5.724743e-001 -4.237136e-001 -7.836456e+000 20 44 36
-5.703243e-001 -4.228066e-001 -7.838680e+000 20 44 36
-2.147706e-001 -4.286401e-001 -7.993204e+000 76 103 97
2.732499e+000 -3.138866e-001 -9.119425e+000 169 22 31
2.573354e+000 -4.302477e-001 -9.129404e+000 202 92 82
-4.279978e-001 -5.530653e-001 -8.006093e+000 53 102 106
-4.143816e-001 -5.496755e-001 -8.003057e+000 59 101 98
3.868805e+000 -4.536981e-001 -9.690267e+000 191 95 50
7.833217e-001 -6.977087e-001 -8.586475e+000 11 91 130
1.234777e+000 -6.781267e-001 -8.802682e+000 193 133 109
1.234777e+000 -6.781267e-001 -8.802682e+000 193 133 109
1.452201e+000 -6.857943e-001 -8.867296e+000 199 133 109
2.628890e+000 -5.752806e-001 -9.282131e+000 208 92 77
2.549325e+000 -6.358526e-001 -9.291898e+000 166 20 33
2.963272e+000 -6.471766e-001 -9.499327e+000 167 21 32
3.104803e+000 -6.387285e-001 -9.563696e+000 106 54 43
3.987693e+000 -6.134750e-001 -9.979765e+000 196 169 131
-1.042045e+000 -7.327433e-001 -7.920058e+000 172 17 35
1.152286e+000 -7.540514e-001 -8.848515e+000 103 57 59
1.469929e+000 -7.420614e-001 -8.972263e+000 167 126 108
1.663101e+000 -7.130314e-001 -9.015030e+000 197 129 106
2.255879e+000 -7.137422e-001 -9.276855e+000 126 81 64
2.500822e+000 -7.554789e-001 -9.432570e+000 162 23 32
3.055036e+000 -7.640876e-001 -9.700023e+000 90 42 38
3.189746e+000 -7.335058e-001 -9.726454e+000 129 76 68
-3.659853e-001 -7.940676e-001 -8.277593e+000 170 162 26
2.602052e+000 -8.196354e-001 -9.574270e+000 189 82 71
3.015846e+000 -8.622386e-001 -9.811034e+000 114 60 51
4.444015e+000 -8.312316e-001 -1.042965e+001 155 123 116
-7.732503e-001 -8.935257e-001 -8.217136e+000 160 163 18
2.142877e+000 -9.804063e-001 -9.576713e+000 123 67 53
2.142877e+000 -9.804063e-001 -9.576713e+000 123 67 53
2.190819e+000 -9.952061e-001 -9.659239e+000 198 131 114
3.062742e+000 -9.203732e-001 -9.929368e+000 192 130 107
-1.097725e+000 -9.825322e-001 -8.217414e+000 195 38 48
1.898732e+000 -1.115813e+000 -9.603743e+000 192 134 117
1.898732e+000 -1.115813e+000 -9.603743e+000 192 134 117
2.102932e+000 -1.052877e+000 -9.672206e+000 139 84 71
2.105792e+000 -1.050153e+000 -9.676700e+000 139 84 71
2.271358e+000 -1.082989e+000 -9.807392e+000 170 28 45
2.308179e+000 -1.019300e+000 -9.728237e+000 174 24 45
2.302287e+000 -1.026905e+000 -9.711511e+000 174 24 45
2.218180e+000 -1.144345e+000 -9.922101e+000 116 20 23
1.417859e+000 -5.552598e-002 -8.388655e+000 185 128 110
4.402475e+000 9.611401e-003 -9.561963e+000 32 18 14
1.375518e+000 -8.209457e-002 -8.414493e+000 190 130 99
1.463549e+000 -1.478984e-001 -8.494020e+000 192 127 99
1.734475e+000 -1.899415e-001 -8.607794e+000 115 55 42
1.850128e+000 -1.836769e-001 -8.651917e+000 98 53 33
1.850128e+000 -1.836769e-001 -8.651917e+000 98 53 33
2.124956e+000 -1.515417e-001 -8.727368e+000 195 143 105
2.124956e+000 -1.515417e-001 -8.727368e+000 195 143 105
2.601592e+000 -6.760598e-002 -8.858002e+000 182 26 46
4.732408e+000 -8.988640e-002 -9.815200e+000 163 98 26
1.488409e+000 -2.391213e-001 -8.540283e+000 180 124 107
-3.915930e-001 -4.414899e-001 -7.933648e+000 59 98 109
8.072835e-001 -4.090290e-001 -8.343344e+000 142 27 37
-4.197286e-001 -5.611168e-001 -7.998376e+000 55 99 102
-4.193919e-001 -5.595560e-001 -8.000086e+000 55 99 102
-3.003400e-001 -6.028336e-001 -8.084382e+000 170 162 27
-3.003400e-001 -6.028336e-001 -8.084382e+000 170 162 27
1.308919e+000 -6.000985e-001 -8.734472e+000 181 125 110
1.346254e+000 -6.610550e-001 -8.857074e+000 200 137 110
3.303290e+000 -6.320693e-001 -9.693626e+000 200 134 108
9.741278e-001 -7.380462e-001 -8.743679e+000 15 88 136
9.768090e-001 -7.308610e-001 -8.748987e+000 15 88 136
1.325554e+000 -7.174850e-001 -8.891816e+000 196 134 107
1.547393e+000 -7.028722e-001 -8.979634e+000 196 133 105
1.580895e+000 -7.400866e-001 -9.005639e+000 161 117 108
1.695313e+000 -7.328331e-001 -9.052371e+000 158 107 94
1.806855e+000 -7.302633e-001 -9.091077e+000 152 97 88
1.984682e+000 -7.028215e-001 -9.151597e+000 194 134 108
2.102006e+000 -6.969826e-001 -9.187729e+000 198 136 98
2.370758e+000 -7.425560e-001 -9.344812e+000 202 135 108
3.712296e-001 -7.855331e-001 -8.568509e+000 162 164 146
6.715295e-001 -8.573894e-001 -8.773706e+000 136 28 30
-1.231539e+000 -9.329491e-001 -8.110447e+000 186 33 36
6.453471e-001 -9.209801e-001 -8.844275e+000 148 26 46
7.455445e-001 -8.947722e-001 -8.860178e+000 2 43 85
7.168463e-001 -9.543361e-001 -8.970138e+000 9 61 87
2.082060e+000 -9.876439e-001 -9.516008e+000 199 133 111
-1.249083e+000 -9.758755e-001 -8.160183e+000 190 35 40
-1.266397e+000 -1.024080e+000 -8.215452e+000 187 30 40
1.290266e+000 -1.023626e+000 -9.325904e+000 195 132 115
1.274880e+000 -1.062170e+000 -9.362821e+000 195 134 113
1.274880e+000 -1.062170e+000 -9.362821e+000 195 134 113
2.076941e+000 -1.014326e+000 -9.611946e+000 200 139 119
1.981822e+000 -1.077653e+000 -9.759341e+000 159 108 104
1.981822e+000 -1.077653e+000 -9.759341e+000 159 108 104
1.978353e+000 -1.180201e+000 -9.793346e+000 156 41 58
8.186668e-001 -3.404541e-001 -8.321009e+000 164 29 34
7.647647e-001 -6.094187e-001 -8.507606e+000 127 11 28
2.431634e+000 -7.504525e-001 -9.416822e+000 176 24 39
-4.902951e-001 -8.367475e-001 -8.299598e+000 126 129 44
5.020242e-001 -9.541369e-001 -8.871330e+000 173 34 49
3.508889e+000 -9.196034e-001 -1.012903e+001 170 135 104
3.862218e+000 -1.064672e+000 -1.052113e+001 143 126 118
1.549243e+000 -1.135218e+000 -9.606500e+000 201 143 123
1.682352e+000 -1.127734e+000 -9.671693e+000 199 140 126
1.906029e+000 -1.116709e+000 -9.760910e+000 205 138 127
4.665517e+000 5.989946e-001 -9.589918e+000 188 155 117
2.120125e-002 -2.041991e-001 -7.932229e+000 31 46 15
1.185697e+000 -1.025027e-001 -8.321594e+000 3 55 82
5.974694e-001 -7.371750e-001 -8.631842e+000 181 31 47
-7.346071e-001 -8.135305e-001 -8.129601e+000 24 56 26
2.712660e+000 -7.768003e-001 -9.596816e+000 174 23 40
2.712660e+000 -7.768003e-001 -9.596816e+000 174 23 40
-5.704888e-001 -9.828386e-001 -8.457080e+000 118 140 118
-6.106528e-002 -1.009674e+000 -8.670421e+000 31 58 32
-6.106528e-002 -1.009674e+000 -8.670421e+000 31 58 32
3.408529e+000 2.994394e-001 -9.078114e+000 73 16 25
3.798356e+000 2.859424e-001 -9.198602e+000 123 20 24
3.088578e+000 5.136180e-002 -8.976151e+000 178 30 45
3.088578e+000 5.136180e-002 -8.976151e+000 178 30 45
1.140884e-001 -1.721517e-001 -7.926180e+000 157 151 129
2.831066e+000 -5.296181e-001 -9.418326e+000 168 27 33
2.839707e+000 -5.123001e-001 -9.445116e+000 168 27 33
1.531880e+000 -7.860071e-001 -9.061886e+000 199 131 103
3.273738e+000 -8.316273e-001 -9.905139e+000 189 135 105
2.279320e+000 -1.123072e+000 -1.033718e+001 185 155 147
-5.842018e-001 -9.628822e-001 -8.384189e+000 114 140 129
-3.743628e-001 -9.382657e-001 -8.470147e+000 124 140 133
-3.010099e-001 -9.984297e-001 -8.560673e+000 23 61 30
1.976809e+000 1.685311e+000 -9.493944e+000 185 162 130
1.050396e+000 8.036171e-002 -8.134585e+000 173 163 125
-2.192739e-001 -5.247061e-002 -7.741086e+000 56 97 123
4.601295e+000 -3.321317e-001 -1.000823e+001 180 149 119
3.874610e+000 5.753019e-001 -9.320186e+000 179 138 92
1.714952e+000 -8.272054e-001 -9.193012e+000 196 135 107
3.682074e+000 -4.559299e-001 -9.663909e+000 142 46 25
3.213438e+000 4.512802e-001 -9.080204e+000 177 129 44
1.597400e+000 -1.046505e+000 -9.955747e+000 172 53 54
4.312069e+000 5.635899e-001 -9.586793e+000 186 105 23
2.827591e+000 -1.594548e-001 -9.026495e+000 167 10 21
2.239937e+000 2.353535e-001 -8.683568e+000 179 140 99
-3.883810e-001 2.555549e-001 -7.587064e+000 61 106 114
3.008046e+000 -1.517440e-001 -9.087046e+000 157 23 32
2.764487e+000 -3.083466e-001 -9.104989e+000 184 72 71
4.670194e+000 -3.283499e-001 -1.002844e+001 141 73 38
4.045711e+000 -5.197349e-001 -9.875216e+000 33 17 28
-9.026674e-001 -5.644223e-001 -7.835277e+000 18 75 111
3.004724e-001 -6.090689e-001 -8.332285e+000 149 158 124
3.013320e-001 -6.058134e-001 -8.338588e+000 149 158 124
2.482528e+000 -5.969193e-001 -9.259560e+000 144 18 31
3.535697e+000 -5.613712e-001 -9.653796e+000 184 59 53
3.655917e+000 -6.534442e-001 -9.844470e+000 182 145 108
3.710881e+000 -5.936213e-001 -9.798917e+000 120 77 49
-1.026235e+000 -7.073199e-001 -7.887943e+000 161 25 30
-1.026235e+000 -7.073199e-001 -7.887943e+000 161 25 30
-1.050876e+000 -7.175403e-001 -7.891907e+000 204 153 120
2.476070e-001 -6.720077e-001 -8.359681e+000 113 26 29
2.657527e+000 -6.887839e-001 -9.429975e+000 179 67 74
3.367565e+000 -6.874079e-001 -9.718174e+000 194 149 107
1.604940e+000 -9.611961e-001 -9.328398e+000 124 74 59
1.860912e+000 -8.902019e-001 -9.337435e+000 111 61 41
2.769371e+000 -1.013411e+000 -9.926297e+000 201 90 97
3.597170e+000 -9.643748e-001 -1.023281e+001 172 139 108
5.220986e-001 -1.176473e+000 -9.254697e+000 34 64 94
9.134931e-001 -1.289490e-001 -8.284767e+000 21 84 117
1.054868e+000 -2.161253e-001 -8.350381e+000 15 52 67
4.793182e+000 -1.462664e-001 -9.843650e+000 124 62 20
2.941196e+000 -3.678351e-001 -9.226996e+000 159 32 41
3.933218e+000 -7.434126e-001 -1.010857e+001 176 144 124
-5.342911e-001 -8.157965e-001 -8.215786e+000 25 56 45
2.860598e+000 -7.998658e-001 -9.670302e+000 162 53 56
2.883482e+000 -8.179941e-001 -9.586896e+000 158 20 35
4.597418e+000 -8.108504e-001 -1.059262e+001 115 53 51
2.409989e+000 -9.117551e-001 -9.611757e+000 203 95 96
2.704794e+000 -9.958075e-001 -9.892824e+000 183 73 79
6.413413e-001 -1.028433e+000 -8.981203e+000 30 86 131
1.073276e+000 -1.178555e+000 -9.508753e+000 165 169 153
2.363188e+000 -6.159127e-001 -9.219314e+000 198 132 110
1.429128e+000 -6.995076e-001 -8.881631e+000 194 132 107
2.871813e+000 -8.663708e-001 -9.709486e+000 150 18 41
7.483989e-001 -8.959183e-001 -8.853893e+000 18 52 84
4.360876e+000 -1.076943e+000 -1.076906e+001 169 153 142
1.894984e+000 1.272525e+000 -9.044544e+000 23 17 22
8.390913e-001 -2.658146e-001 -8.265496e+000 165 17 28
2.230832e+000 -1.551922e-001 -8.776285e+000 196 143 112
-9.136459e-001 -5.169686e-001 -7.777166e+000 28 54 32
-1.731817e+001 2.893244e+001 -4.157303e+001 92 72 63
4.180900e+000 -6.506436e-002 -9.518091e+000 182 111 48
4.844303e+000 -1.426894e-002 -9.784542e+000 143 81 44
-4.338255e-001 -6.678091e-001 -8.136032e+000 112 124 40
5.559196e-001 -8.315092e-001 -8.726258e+000 154 29 37
-2.309550e+000 1.565321e+000 -8.531074e+000 107 90 75
4.534105e+000 -1.063066e+000 -1.087892e+001 36 15 24
-1.392973e+000 -1.110165e+000 -8.296749e+000 129 135 136
1.330814e-001 -1.211940e+000 -9.422795e+000 154 160 176
7.223638e-001 -9.598352e-001 -9.202937e+000 15 76 119
-1.509146e-001 -3.372272e-001 -8.010716e+000 23 57 27
5.042014e+000 2.852230e-001 -9.620805e+000 43 22 29
7.585630e-001 -3.962199e-002 -8.115598e+000 143 8 23
4.298344e+000 8.487327e-002 -9.439959e+000 187 156 120
4.786842e+000 1.654973e-001 -9.624187e+000 67 14 32
4.760996e+000 9.717503e-002 -9.654995e+000 56 14 26
7.761918e-001 -2.096638e-001 -8.221508e+000 203 154 109
4.723946e+000 -5.034209e-002 -9.767492e+000 33 7 17
7.488380e-001 -3.511819e-001 -8.322231e+000 183 147 100
4.628960e+000 -1.616113e-001 -9.800841e+000 159 90 24
-1.431652e+000 -1.315317e+000 -6.729243e+000 147 138 117
3.758093e+000 -3.149461e-001 -9.539149e+000 184 66 47
3.675405e+000 -3.723255e-001 -9.576715e+000 180 56 29
3.717679e+000 -3.594382e-001 -9.588574e+000 116 28 9
3.704137e+000 -3.733009e-001 -9.568057e+000 116 28 9
-9.536318e-001 -5.650792e-001 -7.794422e+000 16 69 47
-7.670558e-001 -5.870725e-001 -7.854795e+000 19 70 54
7.150145e-001 -5.791008e-001 -8.475360e+000 137 10 4
3.473983e+000 -4.027532e-001 -9.615408e+000 176 52 34
4.024563e+000 -4.424653e-001 -9.761041e+000 187 148 111
-1.574875e+000 -6.797824e-001 -7.686758e+000 30 76 117
5.984923e-001 -6.817392e-001 -8.485716e+000 152 16 28
7.201084e-001 -6.354165e-001 -8.517168e+000 196 148 112
2.843090e+000 -6.479130e-001 -9.460726e+000 154 15 32
3.224003e+000 -6.370007e-001 -9.616914e+000 177 109 88
3.596255e+000 -6.152238e-001 -9.765957e+000 180 118 85
3.594650e+000 -6.169564e-001 -9.763422e+000 180 118 85
-1.149874e+000 -7.661920e-001 -7.927219e+000 193 141 104
-5.426335e-001 -7.767025e-001 -8.167296e+000 162 145 23
2.108680e-001 -7.058273e-001 -8.426624e+000 155 140 109
6.718467e-001 -7.625059e-001 -8.662888e+000 203 146 116
1.368968e+000 -7.120709e-001 -8.907207e+000 175 115 76
2.659280e+000 -6.870315e-001 -9.432755e+000 187 67 71
2.880931e+000 -6.713260e-001 -9.529056e+000 148 19 27
3.595242e+000 -6.777624e-001 -9.833240e+000 105 60 33
3.715037e+000 -7.082508e-001 -9.955878e+000 161 122 90
2.363866e-001 -8.198196e-001 -8.543541e+000 147 139 115
6.257357e-001 -7.878318e-001 -8.685373e+000 183 153 107
3.839926e+000 -7.518262e-001 -1.004215e+001 169 129 89
3.725764e+000 -8.579466e-001 -1.012202e+001 167 128 96
3.894042e+000 -9.168463e-001 -1.029921e+001 41 23 35
4.340094e+000 -8.774421e-001 -1.049653e+001 27 4 16
4.334954e+000 -8.826750e-001 -1.048798e+001 27 4 16
4.425828e+000 -8.439299e-001 -1.051936e+001 156 129 111
4.425828e+000 -8.439299e-001 -1.051936e+001 156 129 111
4.594131e+000 -8.341416e-001 -1.062611e+001 120 55 48
-6.068001e-001 -9.816747e-001 -8.433844e+000 154 146 35
5.622329e-001 -9.748657e-001 -8.910381e+000 126 15 3
2.352871e+000 -1.028656e+000 -9.768867e+000 197 113 96
3.687034e+000 -9.467979e-001 -1.023731e+001 170 127 100
-1.212010e+000 -1.068032e+000 -8.350972e+000 165 147 114
2.298416e+000 -9.794120e-001 -9.851393e+000 185 117 91
2.785709e+000 -1.060338e+000 -9.999178e+000 150 23 34
2.683468e+000 -1.085640e+000 -1.001016e+001 136 8 21
3.795433e+000 -1.053128e+000 -1.049364e+001 178 148 131
2.044752e+000 -1.125948e+000 -9.841629e+000 197 127 114
1.411564e+000 -1.183286e+000 -9.713537e+000 191 76 80
1.573335e+000 -1.184818e+000 -9.826378e+000 200 119 108
1.573628e+000 -1.184304e+000 -9.827761e+000 200 119 108
4.527259e+000 1.938400e-001 -9.496939e+000 94 48 31
1.044620e+000 -2.412954e-001 -8.321907e+000 14 41 64
2.690382e+000 -1.758257e-001 -8.906725e+000 198 76 79
3.934152e+000 -6.482916e-002 -9.400702e+000 113 35 25
2.960248e+000 -2.220908e-001 -9.126246e+000 191 69 67
4.700471e+000 -1.347611e-001 -9.844949e+000 37 6 31
4.774760e+000 -1.182498e-001 -9.889045e+000 52 12 23
2.654812e+000 -3.187493e-001 -9.103454e+000 147 22 28
2.934068e+000 -3.368496e-001 -9.204331e+000 179 70 67
3.597331e+000 -3.721815e-001 -9.529688e+000 192 132 73
4.682533e+000 -2.247483e-001 -9.948032e+000 48 12 5
-9.001364e-001 -5.695140e-001 -7.831422e+000 1 71 94
-5.828707e-001 -6.056017e-001 -7.965869e+000 42 85 86
2.891627e+000 -5.054203e-001 -9.319220e+000 188 77 76
3.917756e+000 -5.052277e-001 -9.771988e+000 181 99 57
4.602095e+000 -4.348146e-001 -1.011246e+001 169 128 111
2.271492e-001 -6.877841e-001 -8.373841e+000 163 143 106
3.607574e+000 -5.816722e-001 -9.726484e+000 188 85 46
3.876145e+000 -5.139687e-001 -9.811457e+000 182 98 60
3.833993e+000 -6.146333e-001 -9.878655e+000 160 114 81
4.565995e+000 -4.882893e-001 -1.016133e+001 158 123 102
-9.915966e-001 -5.557364e-001 -8.106323e+000 171 27 32
-7.901732e-001 -7.704949e-001 -8.056102e+000 25 69 65
-7.901732e-001 -7.704949e-001 -8.056102e+000 25 69 65
2.013082e-001 -7.519025e-001 -8.452761e+000 159 145 106
3.589148e-001 -7.337813e-001 -8.482200e+000 135 68 65
3.589148e-001 -7.337813e-001 -8.482200e+000 135 68 65
3.407080e-001 -7.419222e-001 -8.517312e+000 150 136 109
3.658083e+000 -6.506300e-001 -9.850297e+000 175 129 96
3.508159e+000 -6.782542e-001 -9.832686e+000 179 136 101
4.516173e+000 -6.473188e-001 -1.032612e+001 158 126 104
1.875468e+000 -8.455007e-001 -9.286440e+000 115 68 60
3.595683e+000 -8.056537e-001 -1.000544e+001 168 124 90
-1.169102e+000 -9.119110e-001 -8.107090e+000 192 147 108
-1.049599e+000 -9.055821e-001 -8.058759e+000 172 27 36
7.000519e-001 -8.821208e-001 -8.878303e+000 25 70 100
1.965198e+000 -8.973473e-001 -9.394884e+000 97 60 45
1.965198e+000 -8.973473e-001 -9.394884e+000 97 60 45
2.445741e+000 -9.204828e-001 -9.664599e+000 153 14 35
2.532282e+000 -8.855909e-001 -9.625443e+000 146 16 29
2.809981e+000 -8.654103e-001 -9.772061e+000 150 25 33
3.391609e+000 -9.273551e-001 -1.008592e+001 172 128 98
4.350122e+000 -7.818915e-001 -1.043367e+001 94 75 64
4.508128e+000 -8.171922e-001 -1.045253e+001 92 31 24
-1.019466e+000 -9.966598e-001 -8.294090e+000 147 140 24
-1.933768e-001 -9.855645e-001 -8.582347e+000 163 150 42
9.094478e-001 -2.956589e-001 -9.966165e+000 27 76 112
9.094478e-001 -2.956589e-001 -9.966165e+000 27 76 112
1.605306e+000 -9.606110e-001 -9.328927e+000 119 68 70
2.015760e+000 -1.026323e+000 -9.600459e+000 112 69 62
2.015760e+000 -1.026323e+000 -9.600459e+000 112 69 62
2.703328e+000 -9.751982e-001 -9.827386e+000 147 30 31
3.841335e+000 -9.631456e-001 -1.037527e+001 188 154 124
-7.057289e-001 -1.054892e+000 -8.511789e+000 156 152 32
