ply
format ascii 1.0
element face 0
property list uchar int vertex_indices
element vertex 876
property float x
property float y
property float z
property uchar diffuse_red
property uchar diffuse_green
property uchar diffuse_blue
end_header
1.664052e+000 -7.181826e-001 -9.012066e+000 174 121 105
1.773562e+000 -7.153659e-001 -9.048844e+000 175 115 97
1.727627e+000 -7.478403e-001 -8.995215e+000 182 116 103
2.319627e+000 -6.756356e-001 -9.197135e+000 182 124 114
2.488163e+000 -7.184424e-001 -9.342936e+000 185 73 82
3.054151e+000 -7.732885e-001 -9.693606e+000 101 47 47
3.057896e+000 -7.715310e-001 -9.706944e+000 101 47 47
3.091498e+000 -6.938877e-001 -9.601860e+000 130 83 69
3.186604e+000 -7.434828e-001 -9.724889e+000 115 59 50
3.741167e+000 -6.830965e-001 -9.929336e+000 157 126 98
3.934691e+000 -7.566334e-001 -1.011412e+001 174 148 121
3.934691e+000 -7.566334e-001 -1.011412e+001 174 148 121
-1.164659e+000 -7.396763e-001 -7.883598e+000 166 29 35
-1.048678e+000 -7.463093e-001 -7.917309e+000 167 49 53
-1.055544e+000 -8.099599e-001 -7.998700e+000 188 161 125
-6.610086e-001 -8.247627e-001 -8.311097e+000 64 98 115
-4.122452e-001 -7.921106e-001 -8.236510e+000 159 159 32
-4.521236e-001 -8.314259e-001 -8.256345e+000 22 53 30
1.533879e-001 -8.329724e-001 -8.526786e+000 117 15 30
1.532219e+000 -8.685309e-001 -9.148978e+000 116 69 60
1.532219e+000 -8.685309e-001 -9.148978e+000 116 69 60
2.790474e+000 -7.767377e-001 -9.575249e+000 172 67 74
2.721282e+000 -8.602241e-001 -9.648764e+000 156 25 39
3.396245e+000 -8.815591e-001 -9.962078e+000 168 137 115
-1.222120e+000 -8.828526e-001 -8.045380e+000 183 36 47
-1.224739e+000 -8.838559e-001 -8.046891e+000 183 36 47
-1.141004e+000 -9.728072e-001 -8.152767e+000 171 43 54
-1.055871e+000 -8.958793e-001 -8.074050e+000 181 39 42
-2.411944e-001 -9.829883e-001 -8.570367e+000 150 154 25
-2.411944e-001 -9.829883e-001 -8.570367e+000 150 154 25
1.237700e+000 -1.027242e+000 -9.237103e+000 138 80 73
1.359674e+000 -1.000107e+000 -9.237318e+000 96 64 60
1.495134e+000 -9.484945e-001 -9.231934e+000 130 80 70
1.469100e+000 -1.009790e+000 -9.313087e+000 113 62 61
1.469100e+000 -1.009790e+000 -9.313087e+000 113 62 61
1.599604e+000 -9.647620e-001 -9.305974e+000 116 65 55
1.599604e+000 -9.647620e-001 -9.305974e+000 116 65 55
1.689278e+000 -1.008740e+000 -9.401016e+000 125 73 65
1.688335e+000 -1.008094e+000 -9.401835e+000 125 73 65
1.795946e+000 -1.016081e+000 -9.469934e+000 115 65 60
1.897934e+000 -1.038812e+000 -9.556298e+000 114 61 51
1.892541e+000 -1.040599e+000 -9.534672e+000 114 61 51
1.961351e+000 -1.078553e+000 -9.534744e+000 131 77 75
1.961351e+000 -1.078553e+000 -9.534744e+000 131 77 75
2.051289e+000 -1.030482e+000 -9.537344e+000 183 129 118
2.157709e+000 -9.991918e-001 -9.704835e+000 126 69 67
2.093559e+000 -1.064435e+000 -9.656149e+000 136 83 77
2.057343e+000 -1.070564e+000 -9.506885e+000 136 83 77
2.166204e+000 -1.048209e+000 -9.703609e+000 186 130 119
2.166204e+000 -1.048209e+000 -9.703609e+000 186 130 119
2.355789e+000 -1.018972e+000 -9.725127e+000 182 95 91
2.791784e+000 -9.648675e-001 -9.689679e+000 152 29 40
-6.046072e-001 -1.069027e+000 -8.542673e+000 162 158 26
-6.039337e-001 -1.069583e+000 -8.542661e+000 162 158 26
1.415433e+000 -1.095126e+000 -9.376710e+000 117 66 63
1.555030e+000 -1.069447e+000 -9.486124e+000 120 67 66
2.123847e+000 -1.131011e+000 -9.809285e+000 189 130 128
4.613852e+000 -2.830535e+000 -1.050742e+001 60 47 54
4.690881e+000 -2.727893e+000 -1.037714e+001 146 129 135
4.595198e+000 -2.965106e+000 -1.060742e+001 144 130 130
-1.709659e+000 1.366474e+000 -8.176461e+000 125 138 140
-7.963636e-001 1.497918e+000 -8.690596e+000 45 59 43
-7.963636e-001 1.497918e+000 -8.690596e+000 45 59 43
6.035325e-001 1.602873e+000 -9.224171e+000 146 110 83
-1.315153e+000 1.231828e+000 -8.235407e+000 170 42 50
-2.065019e+000 1.030642e+000 -8.112893e+000 195 172 141
-9.674131e-001 9.190726e-001 -7.861963e+000 166 41 36
2.236373e+000 1.276269e+000 -9.321043e+000 128 102 97
2.318333e+000 1.379509e+000 -9.497385e+000 88 67 82
2.467053e+000 1.183493e+000 -9.273611e+000 45 19 19
2.483949e+000 1.202123e+000 -9.333560e+000 45 19 19
2.690788e+000 1.389411e+000 -9.604029e+000 117 67 57
2.790607e+000 1.143629e+000 -9.353204e+000 124 95 89
-1.957392e+000 7.982062e-001 -7.751943e+000 195 173 142
1.458741e-001 8.023169e-001 -8.055706e+000 28 58 26
1.009749e+000 8.486068e-001 -8.399673e+000 173 39 43
2.729908e+000 9.739388e-001 -9.141466e+000 147 118 108
3.068668e+000 8.932914e-001 -9.137491e+000 83 54 68
-4.917740e-001 6.330751e-001 -7.690399e+000 73 107 118
9.959998e-001 6.771387e-001 -8.292593e+000 166 157 128
1.908488e+000 7.828312e-001 -8.727212e+000 166 100 67
2.116289e+000 7.569673e-001 -8.698543e+000 82 40 50
2.111737e+000 7.521901e-001 -8.681596e+000 82 40 50
2.113849e+000 6.695640e-001 -8.658173e+000 71 29 37
2.315890e+000 6.756712e-001 -8.693350e+000 106 51 64
2.658176e+000 6.784652e-001 -8.853194e+000 122 93 90
3.174860e+000 7.187611e-001 -9.092699e+000 67 45 52
4.083072e+000 7.197620e-001 -9.538889e+000 128 37 58
4.040633e+000 6.752156e-001 -9.519581e+000 155 121 75
2.553228e+000 4.167459e-001 -8.667120e+000 118 54 18
4.731613e+000 4.427895e-001 -9.581156e+000 190 101 57
4.895184e+000 5.402890e-001 -9.574267e+000 171 75 48
1.227109e+000 2.717102e-002 -8.265371e+000 5 60 100
3.174956e+000 1.101816e-001 -9.119622e+000 146 25 46
4.302578e+000 1.929208e-001 -9.422181e+000 58 37 46
1.370412e+000 -9.487489e-002 -8.399945e+000 170 115 92
1.578323e+000 -1.553550e-001 -8.526235e+000 170 113 94
2.015026e+000 -1.531923e-001 -8.643666e+000 176 122 98
1.990507e+000 -1.741886e-001 -8.643892e+000 173 122 101
1.099358e+000 -2.267016e-001 -8.394976e+000 22 74 118
1.595997e+000 -2.459025e-001 -8.573330e+000 158 105 97
1.900505e+000 -2.034541e-001 -8.658296e+000 176 126 100
1.878833e+000 -2.281693e-001 -8.680383e+000 175 123 102
2.273604e+000 -2.260507e-001 -8.831717e+000 161 116 111
2.524299e+000 -2.188551e-001 -8.751965e+000 138 13 27
3.230245e+000 -2.046683e-001 -9.218877e+000 179 127 95
3.277371e+000 -2.658572e-001 -9.276358e+000 179 128 102
3.277371e+000 -2.658572e-001 -9.276358e+000 179 128 102
4.305859e+000 -1.297681e-001 -9.614123e+000 169 146 130
-1.506859e-001 -4.121874e-001 -8.006651e+000 164 157 34
-1.506859e-001 -4.121874e-001 -8.006651e+000 164 157 34
3.213961e+000 -5.231882e-001 -9.466830e+000 178 123 102
3.209441e+000 -5.262667e-001 -9.456123e+000 178 123 102
8.040830e-001 -7.344024e-001 -8.478416e+000 9 49 92
9.725406e-001 -7.447139e-001 -8.689412e+000 22 82 132
1.250138e+000 -6.420198e-001 -8.723346e+000 179 115 100
1.342058e+000 -6.754080e-001 -8.852742e+000 182 121 108
1.549297e+000 -7.081945e-001 -8.986062e+000 178 118 101
1.544372e+000 -7.138432e-001 -8.953490e+000 178 118 101
1.695834e+000 -7.401184e-001 -9.057073e+000 125 73 63
1.847140e+000 -7.097859e-001 -8.949724e+000 175 118 101
1.915226e+000 -6.413365e-001 -9.036882e+000 177 119 95
2.121058e+000 -6.560291e-001 -9.135274e+000 174 120 102
2.213078e+000 -6.903932e-001 -9.188004e+000 176 120 105
2.213078e+000 -6.903932e-001 -9.188004e+000 176 120 105
3.070732e+000 -7.389396e-001 -9.653971e+000 139 93 81
4.487020e+000 -7.329329e-001 -1.038900e+001 143 123 123
-1.201612e+000 -8.430562e-001 -8.003813e+000 183 41 51
-1.130070e+000 -8.169685e-001 -7.982798e+000 182 39 53
8.916973e-001 -7.671572e-001 -8.751032e+000 20 56 94
3.093333e+000 -8.584907e-001 -9.831283e+000 182 122 112
3.505394e+000 -9.295518e-001 -1.013513e+001 169 133 112
-1.244710e+000 -9.388468e-001 -8.116118e+000 169 35 28
-1.262357e+000 -9.827309e-001 -8.165073e+000 187 46 61
-1.028484e+000 -9.858377e-001 -8.135590e+000 45 96 122
-3.577171e-001 -9.811270e-001 -8.502625e+000 144 160 52
1.283126e+000 -1.062224e+000 -9.403248e+000 178 125 118
1.283126e+000 -1.062224e+000 -9.403248e+000 178 125 118
1.550671e+000 -9.591277e-001 -9.326845e+000 176 119 107
1.632142e+000 -1.012507e+000 -9.397489e+000 179 121 112
1.610025e+000 -1.068088e+000 -9.520641e+000 179 125 119
1.760190e+000 -1.019606e+000 -9.581603e+000 179 121 110
1.761182e+000 -1.019943e+000 -9.570629e+000 179 121 110
1.768179e+000 -9.658499e-001 -9.381765e+000 181 125 110
1.767543e+000 -9.673127e-001 -9.376680e+000 181 125 110
1.842584e+000 -1.017985e+000 -9.453927e+000 187 131 121
1.945224e+000 -1.067791e+000 -9.672818e+000 180 126 114
1.945224e+000 -1.067791e+000 -9.672818e+000 180 126 114
1.986364e+000 -1.017778e+000 -9.691505e+000 182 125 113
3.894841e+000 -9.837956e-001 -1.037920e+001 81 67 57
4.281485e+000 -1.015654e+000 -1.059743e+001 142 131 112
4.359420e+000 -1.093277e+000 -1.081896e+001 178 151 154
-1.301520e+000 -1.080472e+000 -8.262208e+000 172 35 46
1.378945e+000 -1.082597e+000 -9.448839e+000 179 125 115
1.707208e+000 -1.078514e+000 -9.525777e+000 184 127 118
2.262051e+000 -1.127805e+000 -9.887341e+000 162 30 47
2.702688e+000 -1.113630e+000 -1.006030e+001 158 29 51
3.464690e-001 1.410291e+000 -8.898380e+000 176 41 46
2.225066e+000 1.697872e+000 -9.970402e+000 70 90 101
-3.988311e-001 9.207273e-001 -8.084963e+000 170 159 91
-3.988311e-001 9.207273e-001 -8.084963e+000 170 159 91
-1.569005e-001 1.151768e+000 -8.434370e+000 174 160 83
-1.569005e-001 1.151768e+000 -8.434370e+000 174 160 83
9.077173e-001 1.100351e+000 -8.666325e+000 175 47 43
1.087581e+000 1.162926e+000 -8.878786e+000 154 36 48
-1.075352e+000 7.122055e-001 -7.715579e+000 171 42 37
7.839560e-001 7.268520e-001 -8.218204e+000 164 101 89
8.340167e-001 5.752071e-001 -8.116811e+000 143 72 50
9.161816e-001 7.562420e-001 -8.338825e+000 148 84 67
1.817530e+000 7.822039e-001 -8.658498e+000 170 114 84
3.317231e+000 8.356590e-001 -9.234999e+000 32 27 42
3.634011e+000 6.083686e-001 -9.108590e+000 7 58 101
4.905768e+000 1.205055e-001 -9.681523e+000 156 91 58
1.420104e+000 -6.157062e-002 -8.396894e+000 167 119 99
4.322617e+000 1.231094e-002 -9.515606e+000 29 14 23
1.554839e+000 -2.007903e-001 -8.552291e+000 177 114 103
1.939890e+000 -2.235583e-001 -8.703865e+000 66 28 16
1.938662e+000 -2.244225e-001 -8.701805e+000 66 28 16
4.703258e+000 -1.797508e-001 -9.911668e+000 146 84 36
4.775969e+000 -1.805870e-001 -9.938637e+000 131 74 42
-6.588657e-001 -3.935193e-001 -7.783903e+000 88 94 40
3.250619e+000 -2.937217e-001 -9.424824e+000 146 110 99
3.250619e+000 -2.937217e-001 -9.424824e+000 146 110 99
3.963291e+000 -4.438366e-001 -9.754904e+000 157 80 41
-5.138426e-001 -6.009560e-001 -7.985176e+000 38 55 39
1.299177e+000 -6.165551e-001 -8.685234e+000 160 109 106
2.445724e+000 -5.551591e-001 -9.205172e+000 187 127 101
3.217357e+000 -4.769587e-001 -9.422221e+000 184 132 108
3.274991e+000 -5.940984e-001 -9.464674e+000 188 122 103
-3.952176e-001 -6.101001e-001 -8.073477e+000 57 100 122
-2.252184e-002 -6.789931e-001 -8.266677e+000 161 152 114
7.487068e-001 -6.360366e-001 -8.434206e+000 133 24 46
6.727218e-001 -7.140480e-001 -8.581889e+000 194 131 124
3.476912e+000 -6.162642e-001 -9.719077e+000 150 41 48
1.856460e-001 -8.361508e-001 -8.542121e+000 126 51 55
6.609470e-001 -8.829774e-001 -8.742167e+000 119 19 52
2.389473e+000 -8.829344e-001 -9.609491e+000 158 38 55
3.932271e+000 -7.722348e-001 -1.013680e+001 167 148 122
-2.823922e-001 -9.490711e-001 -8.510537e+000 35 61 34
5.787841e-001 -9.218280e-001 -8.799751e+000 169 104 86
-9.447170e-001 -1.069565e+000 -8.382142e+000 128 133 91
2.018074e+000 -1.132433e+000 -9.765869e+000 187 137 132
-1.738267e+000 1.305813e+000 -8.128151e+000 62 92 110
-5.170715e-001 1.606089e+000 -8.847140e+000 150 158 76
-2.379016e-001 1.383065e+000 -8.625554e+000 173 156 96
-2.472259e-001 1.158878e+000 -8.425951e+000 43 63 34
1.578691e+000 1.456231e+000 -9.355901e+000 179 124 87
-2.621636e-001 1.032847e+000 -8.270320e+000 172 163 97
-2.621636e-001 1.032847e+000 -8.270320e+000 172 163 97
1.392525e+000 1.259733e+000 -9.086760e+000 20 83 107
2.659842e+000 1.347018e+000 -9.611618e+000 148 116 103
9.652805e-001 9.335927e-001 -8.492615e+000 178 49 55
9.393793e-001 8.310260e-001 -8.368322e+000 169 151 127
1.480993e+000 9.936756e-001 -8.751242e+000 21 60 105
2.719107e+000 7.671654e-001 -8.959593e+000 94 53 57
3.179213e+000 5.992860e-001 -9.011061e+000 82 58 59
4.495777e+000 7.215682e-001 -9.573505e+000 175 75 75
3.847926e+000 -5.457628e-002 -9.317714e+000 173 65 39
4.003921e+000 -4.888052e-002 -9.406100e+000 172 81 44
7.206167e-001 -2.322605e-001 -8.248184e+000 139 22 38
-3.924802e-001 -7.420480e-001 -8.175239e+000 27 63 46
-3.215318e-001 -7.256280e-001 -8.171525e+000 88 117 54
-7.339768e-001 -8.284114e-001 -8.125440e+000 29 53 39
-4.962443e-001 -8.462097e-001 -8.298536e+000 124 134 36
2.654879e+000 -9.053702e-001 -9.695010e+000 160 30 46
2.661293e+000 -8.994909e-001 -9.711628e+000 160 30 46
-8.706425e-001 -8.885773e-001 -8.218791e+000 23 52 41
-5.231866e-001 -8.996405e-001 -8.353070e+000 134 143 37
-4.838283e-001 -9.510717e-001 -8.428445e+000 29 50 41
5.361548e-001 -1.025823e+000 -8.904450e+000 167 108 92
3.434916e+000 -9.708812e-001 -1.020969e+001 167 135 112
4.621178e+000 -2.686547e+000 -1.030962e+001 38 31 39
-8.087068e-001 1.149162e+000 -8.219524e+000 33 57 35
-5.850363e-001 1.207993e+000 -8.336377e+000 170 160 83
-4.263205e-001 1.169497e+000 -8.387377e+000 39 61 35
-1.486316e-001 1.391108e+000 -8.730908e+000 41 59 34
-1.486316e-001 1.391108e+000 -8.730908e+000 41 59 34
-5.656564e-002 1.328687e+000 -8.685457e+000 169 156 103
5.356517e-002 1.371789e+000 -8.763184e+000 48 62 42
8.776732e-001 1.318081e+000 -8.928086e+000 165 157 123
1.537904e-001 1.134891e+000 -8.477631e+000 48 62 40
-5.208116e-002 7.406928e-001 -7.984618e+000 37 60 36
-5.208116e-002 7.406928e-001 -7.984618e+000 37 60 36
2.800392e-001 7.938418e-001 -8.091272e+000 171 157 123
2.839383e+000 9.239278e-001 -9.136740e+000 140 110 101
3.690080e+000 1.036022e-001 -9.122516e+000 93 20 34
2.896469e+000 -2.362058e-001 -9.211286e+000 154 27 42
3.171128e+000 -1.933566e-001 -9.229154e+000 182 126 97
4.165329e+000 -3.298863e-001 -9.596402e+000 158 71 36
-9.062713e-001 -7.097767e-001 -7.926068e+000 14 71 119
2.752858e+000 -6.439201e-001 -9.363953e+000 163 32 53
-5.615662e-001 -8.450751e-001 -8.179453e+000 25 60 44
-5.618544e-001 -8.444946e-001 -8.185452e+000 25 60 44
-1.178274e+000 -9.038580e-001 -8.090105e+000 192 151 129
-1.999594e-001 -9.436529e-001 -8.584794e+000 133 142 121
-1.210875e+000 -1.029601e+000 -8.228116e+000 176 138 111
-1.033645e+000 -1.104231e+000 -8.404323e+000 34 60 46
-6.559569e-001 -1.027886e+000 -8.439498e+000 22 56 33
2.852377e+000 1.258740e+000 -9.491118e+000 82 58 62
-9.603794e-001 6.525205e-001 -7.513586e+000 162 106 79
-2.040902e-001 8.178706e-001 -8.001407e+000 165 157 119
-6.805606e-001 6.396176e-001 -7.687635e+000 34 52 32
3.223262e+000 9.000635e-001 -9.208080e+000 162 121 93
3.520387e+000 8.107769e-001 -9.284109e+000 23 60 98
3.795335e+000 2.788302e-001 -9.178250e+000 115 25 38
3.795335e+000 2.788302e-001 -9.178250e+000 115 25 38
3.087209e+000 5.307647e-002 -8.971187e+000 147 23 41
3.087209e+000 5.307647e-002 -8.971187e+000 147 23 41
2.613411e+000 -1.039858e-001 -8.890603e+000 137 20 31
3.836255e+000 -2.223544e-001 -9.492046e+000 161 109 62
8.705315e-001 -3.443313e-001 -8.381134e+000 9 46 83
2.941427e+000 -3.239869e-001 -9.474105e+000 147 21 33
-1.860191e-001 -6.165141e-001 -8.109897e+000 121 129 123
-1.853909e-001 -6.168299e-001 -8.108495e+000 121 129 123
-4.825921e-001 -7.824234e-001 -8.176653e+000 72 110 132
-3.806849e-001 -9.480904e-001 -8.469448e+000 121 138 129
5.790793e-001 -1.146645e+000 -9.193762e+000 20 79 130
-1.277796e+000 1.411576e+000 -8.465915e+000 20 73 113
-1.253271e+000 1.354531e+000 -8.311457e+000 20 73 113
-7.009294e-001 1.643323e+000 -8.981113e+000 111 120 134
1.979200e+000 -3.066476e-001 -8.771430e+000 183 126 102
4.017440e+000 -1.332798e-001 -9.605794e+000 172 88 58
4.358445e+000 -1.583068e-001 -9.692469e+000 142 117 115
4.350348e+000 -1.632090e-001 -9.676393e+000 142 117 115
3.036836e-001 1.146349e+000 -8.571132e+000 163 151 125
-1.702130e-001 9.798300e-002 -7.788859e+000 140 139 132
1.127650e+000 -2.062454e-001 -8.372032e+000 15 58 84
2.043557e+000 -6.655990e-001 -9.108280e+000 124 72 59
2.213814e+000 -8.382472e-001 -9.376047e+000 183 122 103
2.499914e+000 1.463423e+000 -9.728493e+000 136 108 97
2.388200e+000 6.550288e-001 -8.762875e+000 89 45 53
3.021468e+000 6.788564e-001 -9.017221e+000 64 24 33
4.570326e+000 5.547893e-001 -9.427466e+000 165 116 96
3.608636e+000 7.202747e-001 -9.333031e+000 20 61 103
-2.487716e-002 -8.407030e-001 -8.427709e+000 150 149 144
1.382088e+000 7.471899e-001 -8.439417e+000 167 36 51
-2.395371e+000 7.289413e-001 -8.452477e+000 195 170 139
3.189337e+000 3.662540e-001 -9.096854e+000 156 106 46
3.167924e+000 3.505826e-001 -9.034952e+000 156 106 46
5.187317e-001 -4.238546e-001 -8.247422e+000 156 148 126
2.327770e+000 -4.014621e-001 -8.993754e+000 181 127 101
-1.071229e+000 -7.139662e-001 -7.840085e+000 187 133 110
2.830130e+000 -1.659795e-001 -9.010190e+000 148 22 38
4.380596e+000 -3.158525e-001 -9.886792e+000 172 89 54
1.293792e+000 -9.798548e-001 -9.694196e+000 171 111 100
-1.227510e+000 1.690630e+000 -9.528375e+000 140 139 63
9.829581e-001 -2.059285e-001 -8.245434e+000 79 107 129
2.665200e-001 1.930669e-001 -8.338802e+000 151 146 128
-8.624783e-001 -3.474222e-001 -7.599557e+000 13 80 125
-2.188625e+000 1.208645e+000 -8.269583e+000 93 78 66
-9.921621e-001 8.578298e-001 -7.774786e+000 168 53 55
-5.202836e-001 6.079075e-001 -7.621245e+000 62 93 115
1.204638e+000 5.988587e-001 -8.200407e+000 153 31 34
1.987949e+000 6.524449e-001 -8.632918e+000 96 35 34
3.124217e+000 6.365846e-001 -8.998513e+000 106 76 67
2.218282e+000 5.178238e-001 -8.621756e+000 166 132 94
3.367786e+000 5.209209e-001 -9.108032e+000 166 132 86
4.777171e+000 9.548300e-002 -9.670975e+000 50 11 12
4.864824e+000 1.290039e-001 -9.678776e+000 165 103 28
4.745643e+000 -4.963513e-002 -9.792683e+000 48 13 6
2.049694e+000 -2.035744e-001 -8.733986e+000 171 127 89
3.946940e+000 -1.971137e-001 -9.514987e+000 170 85 42
3.943384e+000 -1.985694e-001 -9.506699e+000 170 85 42
4.720117e+000 -1.348106e-001 -9.868817e+000 56 8 23
4.720117e+000 -1.348106e-001 -9.868817e+000 56 8 23
7.725796e-001 -2.998083e-001 -8.291735e+000 134 11 19
7.730291e-001 -2.981472e-001 -8.295961e+000 134 11 19
3.834205e+000 -3.293598e-001 -9.587699e+000 165 75 47
2.598383e+000 -4.896748e-001 -9.164993e+000 146 23 40
3.354145e+000 -5.135871e-001 -9.417052e+000 173 70 48
4.606417e+000 -3.955488e-001 -1.005047e+001 150 128 112
7.185379e-001 -4.870219e-001 -8.412769e+000 188 148 119
2.844406e+000 -5.956528e-001 -9.394599e+000 148 15 31
-1.041509e+000 -6.449240e-001 -7.835363e+000 193 143 113
-6.999116e-001 -6.786183e-001 -8.008925e+000 142 150 22
-2.775607e-001 -7.115382e-001 -8.140202e+000 19 49 21
-2.984364e-001 -7.206020e-001 -8.173573e+000 136 142 44
3.012336e+000 -9.010371e-001 -9.828355e+000 184 125 108
3.320506e+000 -8.652123e-001 -9.985163e+000 172 137 112
3.942330e+000 -8.273223e-001 -1.019746e+001 27 9 7
-6.141136e-001 -8.430110e-001 -8.193393e+000 141 149 48
-8.320138e-001 1.117191e+000 -8.132352e+000 36 56 25
1.170379e+000 1.221757e+000 -8.862607e+000 144 37 31
-7.233140e-002 6.583351e-001 -7.809262e+000 32 58 45
2.237588e+000 5.861448e-001 -8.645576e+000 133 80 74
2.237588e+000 5.861448e-001 -8.645576e+000 133 80 74
4.284253e+000 2.367336e-001 -9.384946e+000 189 120 50
3.982123e+000 -9.032419e-002 -9.444963e+000 180 88 38
2.626398e+000 -3.123586e-001 -9.006965e+000 150 25 39
3.945618e+000 -2.457338e-001 -9.555962e+000 191 123 52
4.459481e+000 -2.785345e-001 -9.829201e+000 167 97 37
4.748888e+000 -3.282467e-001 -1.008509e+001 117 60 26
2.715644e+000 -5.134949e-001 -9.254654e+000 184 78 83
2.668444e+000 -5.352103e-001 -9.238826e+000 140 24 33
2.947007e+000 -5.805634e-001 -9.408144e+000 172 57 58
3.111411e+000 -6.436079e-001 -9.583552e+000 100 52 46
-5.913437e-001 -6.012155e-001 -8.005714e+000 34 85 106
-5.910997e-001 -6.029058e-001 -7.998665e+000 34 85 106
3.219338e+000 -6.673521e-001 -9.655259e+000 154 98 81
3.131853e+000 -7.322992e-001 -9.689032e+000 181 125 109
3.747675e+000 -7.625539e-001 -1.004945e+001 108 81 68
-1.049223e+000 -7.501433e-001 -7.907245e+000 173 43 64
-6.579823e-001 -8.037005e-001 -8.115271e+000 54 98 107
2.990035e+000 -9.151323e-001 -9.866113e+000 113 55 46
3.008553e+000 -9.106411e-001 -9.911881e+000 113 55 46
3.016696e+000 -8.696962e-001 -9.817123e+000 102 51 51
4.358079e+000 -9.129726e-001 -1.055599e+001 134 114 103
1.864689e+000 -8.882284e-001 -9.378115e+000 105 55 45
1.864689e+000 -8.882284e-001 -9.378115e+000 105 55 45
2.056574e+000 -9.306924e-001 -9.453777e+000 125 78 66
1.190935e+000 -1.111364e+000 -9.395704e+000 150 99 96
1.190935e+000 -1.111364e+000 -9.395704e+000 150 99 96
2.312626e+000 -1.102106e+000 -9.868899e+000 183 99 96
2.182626e+000 -1.130281e+000 -9.867047e+000 189 131 127
2.343081e+000 -1.065652e+000 -9.823930e+000 185 106 93
-1.243066e+000 -1.012024e+000 -8.192459e+000 190 161 135
2.051007e+000 7.262865e-001 -8.654828e+000 149 82 73
2.040208e+000 7.111974e-001 -8.611381e+000 149 82 73
3.457329e+000 8.308089e-001 -9.259586e+000 18 60 105
4.428327e+000 6.300533e-001 -9.478663e+000 187 145 108
-1.928544e+000 5.941896e-001 -7.589546e+000 198 181 138
-1.983208e+000 5.705429e-001 -7.648722e+000 198 175 143
4.501885e+000 4.468007e-002 -9.576500e+000 67 44 39
4.787466e+000 -1.120882e-002 -9.768399e+000 153 85 43
4.890602e+000 -4.920221e-002 -9.930360e+000 135 80 40
1.105259e+000 -1.983221e-001 -8.364318e+000 8 67 107
2.047089e+000 -2.333161e-001 -8.748630e+000 119 77 64
2.259645e+000 -1.332689e-001 -8.793895e+000 177 129 91
4.299739e+000 -2.324060e-001 -9.712340e+000 176 151 128
1.101196e+000 -2.252520e-001 -8.400200e+000 13 73 110
1.332704e+000 -2.386844e-001 -8.465232e+000 176 114 91
2.733441e+000 -4.140733e-001 -9.167288e+000 162 54 54
1.205402e+000 -6.330771e-001 -8.729724e+000 91 49 34
1.463936e+000 -7.530841e-001 -8.969016e+000 135 87 68
3.170382e+000 -6.914498e-001 -9.698266e+000 176 119 99
-7.442328e-001 -7.788689e-001 -8.082374e+000 162 151 20
-7.440635e-001 -7.789376e-001 -8.082379e+000 162 151 20
-5.884425e-001 -7.752611e-001 -8.138055e+000 132 135 29
3.562598e-001 -8.158174e-001 -8.490981e+000 148 149 141
3.864314e+000 -9.380624e-001 -1.033681e+001 171 153 128
-1.183533e+000 -7.866595e-001 -7.938370e+000 177 48 40
2.077193e+000 -1.020215e+000 -9.646973e+000 182 123 119
3.571121e+000 -9.971234e-001 -1.025677e+001 168 132 108
3.718408e+000 -9.723681e-001 -1.030870e+001 165 135 111
5.861386e-001 -1.039886e+000 -8.887719e+000 138 28 49
1.536841e+000 8.949008e-001 -8.671282e+000 28 78 117
2.391156e+000 1.048210e+000 -9.086720e+000 113 89 77
2.391156e+000 1.048210e+000 -9.086720e+000 113 89 77
-1.961022e+000 8.454220e-001 -7.756559e+000 192 172 139
2.704939e+000 7.524429e-001 -8.913323e+000 85 40 40
3.760665e+000 7.222452e-001 -9.323054e+000 160 124 76
4.722854e+000 6.814681e-001 -9.664279e+000 164 138 100
8.585182e-001 -1.685686e-001 -8.207205e+000 111 19 45
2.129673e+000 -1.798193e-001 -8.790054e+000 180 131 103
4.781089e+000 -2.558903e-001 -1.008013e+001 142 84 44
8.844446e-001 -4.675430e-001 -8.448464e+000 6 41 66
-2.751094e-001 -5.209363e-001 -8.021737e+000 126 108 30
3.050040e+000 -6.150673e-001 -9.520479e+000 189 123 97
3.928439e+000 -5.424496e-001 -9.848691e+000 155 88 54
3.112130e+000 -7.985300e-001 -9.766862e+000 177 121 98
1.803069e+000 -9.020861e-001 -9.367985e+000 181 123 101
1.403895e+000 -1.034723e+000 -9.395267e+000 177 120 110
1.403895e+000 -1.034723e+000 -9.395267e+000 177 120 110
1.228213e+000 -1.148233e+000 -9.508288e+000 187 128 119
1.579031e+000 -1.192834e+000 -9.927669e+000 188 115 115
-5.127736e-001 1.248242e+000 -8.354535e+000 128 131 56
1.155760e+000 9.638509e-001 -8.611087e+000 150 35 36
9.426300e-001 6.115450e-001 -8.180635e+000 140 85 57
3.855835e+000 2.484654e-001 -9.113613e+000 182 106 28
-2.376681e-001 1.563752e-001 -7.621497e+000 85 113 121
3.285578e+000 -2.150883e-001 -9.264658e+000 187 132 104
6.972197e-001 -3.416356e-001 -8.318890e+000 135 19 29
-1.112193e+000 -5.728564e-001 -7.748255e+000 196 100 93
-6.677768e-001 -6.131662e-001 -7.917461e+000 25 55 34
-2.516793e-001 -7.062829e-001 -8.201700e+000 19 48 28
7.123257e-001 -7.652944e-001 -8.634501e+000 111 22 51
-4.834279e-001 -9.490244e-001 -8.430211e+000 21 49 29
1.810397e+000 -1.131452e+000 -9.722494e+000 189 129 124
1.906914e+000 -1.132112e+000 -9.748758e+000 176 122 112
1.470732e+000 -1.135715e+000 -9.621422e+000 192 127 126
4.795019e+000 -2.524661e+000 -1.036494e+001 50 39 43
2.337316e+000 -7.601426e-001 -9.374716e+000 177 119 93
1.526907e+000 -7.945822e-001 -9.045390e+000 182 118 94
1.925196e+000 -1.438259e+000 -1.734593e+001 56 51 55
3.831941e+000 6.778390e-001 -9.319137e+000 163 125 84
1.183870e+000 -1.027214e-002 -8.225431e+000 15 78 114
2.920856e+000 -4.519632e-002 -9.027944e+000 156 25 39
2.760866e+000 -5.133960e-001 -9.135404e+000 151 18 35
2.760866e+000 -5.133960e-001 -9.135404e+000 151 18 35
5.022316e+000 3.674059e-001 -9.636902e+000 183 87 34
-3.854366e-001 -6.152581e-001 -8.074194e+000 56 101 112
-4.817271e-001 -7.800138e-001 -8.186076e+000 65 105 115
2.420501e+000 3.947797e-001 -8.665028e+000 162 124 85
-3.937960e+001 1.634714e+001 -7.773857e+001 52 37 44
-3.440481e+001 1.293002e+001 -7.979395e+001 117 108 101
-3.592558e+001 1.672753e+001 -7.874293e+001 45 37 34
-3.508975e+001 1.704204e+001 -7.975991e+001 46 36 36
-3.035903e+001 1.376852e+001 -7.987938e+001 113 92 61
-2.261051e-001 -2.613799e-001 -7.889917e+000 148 154 44
3.680986e+000 -2.629241e-001 -9.442160e+000 171 109 51
2.593560e+000 -3.454798e-001 -9.057697e+000 177 71 68
2.247886e-001 -6.981427e-001 -8.372303e+000 151 145 126
1.205679e+000 -6.473898e-001 -8.723345e+000 106 61 50
3.121515e+000 -8.929186e-001 -9.862150e+000 110 59 50
3.821756e+000 -7.942400e-001 -1.007951e+001 158 131 101
3.812317e+000 -7.972348e-001 -1.006099e+001 158 131 101
3.878568e+000 -8.794215e-001 -1.024284e+001 170 146 119
4.378149e+000 -8.524731e-001 -1.021805e+001 87 29 28
-4.519338e-001 -9.336212e-001 -8.413922e+000 28 44 31
2.287309e+000 -9.628849e-001 -9.597513e+000 187 119 111
2.771506e+000 -1.090751e+000 -1.004890e+001 155 40 55
1.438996e+000 -1.203895e+000 -9.877056e+000 178 83 90
5.399432e-002 -1.085767e-001 -7.877413e+000 59 74 48
2.700546e+000 -4.316546e-002 -8.902410e+000 134 19 28
4.526270e+000 -2.902085e-001 -9.927278e+000 115 63 38
1.379241e+000 -7.044797e-001 -8.881166e+000 104 54 40
2.444098e+000 -8.475912e-001 -9.528766e+000 192 86 90
2.342402e+000 -1.128867e+000 -9.879106e+000 154 32 47
2.479533e+000 -1.125097e+000 -9.876079e+000 163 36 55
4.775598e+000 -2.493136e+000 -1.014624e+001 146 131 138
7.292345e-001 -7.289716e-001 -8.595112e+000 108 24 44
4.504289e+000 -6.205894e-001 -1.021535e+001 149 126 113
1.882729e+000 -9.634952e-001 -9.426631e+000 177 120 109
2.076425e+000 -1.062906e+000 -9.815024e+000 185 126 118
3.316662e+000 -1.000093e+000 -1.009281e+001 175 140 113
3.844423e+000 -9.913083e-001 -1.025482e+001 81 67 57
4.724799e+000 -2.800023e+000 -1.027807e+001 152 136 138
4.657484e+000 -2.785426e+000 -1.038061e+001 128 109 111
3.315774e+000 -9.183573e-001 -9.991000e+000 121 92 75
4.720731e+000 -2.598990e+000 -1.035977e+001 50 38 48
-3.379899e+001 2.165414e+001 -6.604149e+001 154 143 183
4.479376e+000 -6.969481e-001 -1.037353e+001 107 94 88
4.385615e+000 -1.064021e+000 -1.041043e+001 26 15 29
2.956564e+000 -5.128637e-001 -1.006817e+001 150 27 38
3.480477e+000 -9.358578e-001 -1.045390e+001 146 114 98
2.935108e+000 3.712782e-001 -8.859411e+000 161 112 62
4.810322e+000 2.391793e-001 -9.591653e+000 142 81 51
4.425505e+000 1.297564e-001 -9.496079e+000 161 141 123
4.415729e+000 1.213883e-001 -9.475877e+000 161 141 123
4.787160e+000 2.138479e-001 -9.600749e+000 56 21 20
4.793440e+000 1.610751e-001 -9.630810e+000 47 13 15
4.848415e+000 1.540068e-001 -9.674373e+000 42 8 3
4.880742e+000 1.639440e-001 -9.661922e+000 46 5 3
2.666632e+000 1.437223e-002 -8.847592e+000 175 69 71
2.670086e+000 1.805108e-002 -8.856971e+000 175 69 71
2.708594e+000 7.318840e-003 -8.881033e+000 139 24 31
3.586462e+000 -9.874539e-002 -9.250216e+000 161 93 55
4.184585e+000 -6.026532e-002 -9.507199e+000 204 134 68
4.318189e+000 -9.118544e-002 -9.590045e+000 41 20 15
4.319102e+000 -8.959431e-002 -9.592625e+000 41 20 15
4.565119e+000 -5.039014e-002 -9.654422e+000 114 58 22
4.779218e+000 4.856266e-002 -9.861606e+000 177 102 47
4.776182e+000 -7.265167e-002 -9.813535e+000 147 88 48
8.035646e-001 -2.044869e-001 -8.242300e+000 183 144 105
2.278168e+000 -1.899931e-001 -8.814600e+000 174 126 102
2.666074e+000 -2.130877e-001 -8.980759e+000 144 35 38
3.711328e+000 -2.096655e-001 -9.431374e+000 162 86 47
4.010096e+000 -2.075520e-001 -9.541590e+000 169 85 51
4.268111e+000 -2.338374e-001 -9.692519e+000 180 155 130
4.388358e+000 -2.235472e-001 -9.749033e+000 170 144 120
-2.215185e-002 -3.303948e-001 -7.991335e+000 162 153 35
7.293129e-001 -3.438527e-001 -8.311453e+000 139 13 32
1.060970e+000 -2.472411e-001 -8.372269e+000 19 75 112
1.060243e+000 -2.485135e-001 -8.368824e+000 19 75 112
2.674899e+000 -3.340008e-001 -9.078978e+000 184 72 78
3.308822e+000 -3.816271e-001 -9.398710e+000 110 63 44
3.631517e+000 -3.366598e-001 -9.504305e+000 107 50 23
3.658019e+000 -2.788494e-001 -9.461180e+000 124 64 13
4.273378e+000 -2.605701e-001 -9.720502e+000 33 18 19
2.646207e+000 -4.826182e-001 -9.203182e+000 185 76 80
2.897532e+000 -5.071411e-001 -9.335658e+000 184 77 75
4.488709e+000 -3.980566e-001 -9.964539e+000 108 89 75
-1.263321e+000 -8.363098e-001 -6.404211e+000 19 86 129
-6.465734e-001 -4.628634e-001 -7.840009e+000 39 78 68
-6.465734e-001 -4.628634e-001 -7.840009e+000 39 78 68
-2.687588e-001 -5.105932e-001 -8.016580e+000 73 96 83
2.551817e-001 -5.441073e-001 -8.262316e+000 150 145 126
3.076454e-001 -5.437229e-001 -8.281355e+000 151 136 123
3.255251e-001 -5.620650e-001 -8.300571e+000 115 17 26
7.500406e-001 -4.891802e-001 -8.421098e+000 192 148 123
2.599090e+000 -6.332114e-001 -9.296436e+000 177 69 75
2.599090e+000 -6.332114e-001 -9.296436e+000 177 69 75
2.877224e+000 -5.793126e-001 -9.378676e+000 197 77 82
3.276038e+000 -5.275327e-001 -9.518887e+000 120 65 53
3.273873e+000 -5.292283e-001 -9.513882e+000 120 65 53
3.497969e+000 -5.731763e-001 -9.639559e+000 127 20 17
3.663562e+000 -5.512392e-001 -9.730127e+000 135 39 20
3.596625e+000 -6.254667e-001 -9.770352e+000 169 114 88
3.686117e+000 -6.081508e-001 -9.833924e+000 159 118 89
3.576898e+000 -6.610613e-001 -9.793056e+000 167 133 101
3.684253e+000 -5.739664e-001 -9.746609e+000 179 101 53
3.777374e+000 -5.345661e-001 -9.759466e+000 182 121 60
3.777056e+000 -5.351245e-001 -9.757762e+000 182 121 60
4.519090e+000 -6.539561e-001 -1.033187e+001 151 130 120
4.610304e+000 -6.426868e-001 -1.036850e+001 102 53 38
4.704529e+000 -5.711417e-001 -1.042197e+001 122 74 51
-1.576315e+000 -5.400682e-001 -7.639220e+000 136 136 120
-1.118031e+000 -5.715456e-001 -7.756094e+000 169 76 62
-3.049524e-001 -5.872375e-001 -8.062395e+000 23 49 32
-1.134371e-001 -7.107280e-001 -8.194317e+000 22 52 33
2.158517e-001 -6.391411e-001 -8.316225e+000 120 28 29
1.936383e-001 -7.123321e-001 -8.386076e+000 110 30 32
2.243167e-001 -6.977822e-001 -8.373301e+000 156 144 122
3.532022e-001 -7.214119e-001 -8.457189e+000 150 143 135
1.522986e+000 -6.767995e-001 -8.881724e+000 96 45 35
2.513959e+000 -6.630580e-001 -9.312694e+000 190 74 84
2.515291e+000 -6.622440e-001 -9.315851e+000 190 74 84
2.863819e+000 -7.888196e-001 -9.597256e+000 177 65 68
2.873330e+000 -6.888278e-001 -9.512922e+000 144 28 32
3.170291e+000 -7.973441e-001 -9.782023e+000 113 53 51
3.169929e+000 -7.977319e-001 -9.780295e+000 113 53 51
3.469407e+000 -7.703539e-001 -9.901630e+000 161 128 100
3.565700e+000 -7.843385e-001 -9.940314e+000 116 85 65
3.696451e+000 -7.608840e-001 -1.000511e+001 153 124 100
3.776855e+000 -7.511080e-001 -1.000022e+001 156 126 98
3.795420e+000 -8.049953e-001 -1.009876e+001 92 65 45
4.374108e+000 -7.857074e-001 -1.038973e+001 35 16 15
4.411049e+000 -8.070058e-001 -1.044283e+001 147 133 124
4.553379e+000 -7.525594e-001 -1.045599e+001 100 46 42
-1.200160e+000 -7.147681e-001 -7.820945e+000 16 67 113
-1.097637e+000 -7.664018e-001 -7.932551e+000 176 30 43
-7.454728e-001 -6.922336e-001 -7.990032e+000 158 158 27
-5.260367e-001 -8.043836e-001 -8.184025e+000 148 160 36
1.969991e-001 -7.635513e-001 -8.450118e+000 156 144 133
1.971731e-001 -7.637687e-001 -8.450110e+000 156 144 133
2.222569e-001 -7.770521e-001 -8.477645e+000 113 22 29
2.132795e-001 -8.171920e-001 -8.530328e+000 120 20 38
2.878689e-001 -7.714001e-001 -8.526555e+000 156 142 133
3.339124e-001 -7.598220e-001 -8.505083e+000 148 147 135
2.087209e+000 -8.691631e-001 -9.391040e+000 115 61 52
2.087209e+000 -8.691631e-001 -9.391040e+000 115 61 52
2.829078e+000 -7.935242e-001 -9.602966e+000 151 35 43
2.829078e+000 -7.935242e-001 -9.602966e+000 151 35 43
3.498197e+000 -8.807244e-001 -1.006385e+001 160 126 101
3.515048e+000 -8.208413e-001 -9.961791e+000 158 127 99
3.605352e+000 -8.458767e-001 -1.002125e+001 110 78 57
3.725769e+000 -8.889562e-001 -1.017253e+001 162 129 104
-1.084407e+000 -8.202348e-001 -8.011172e+000 170 27 36
-1.084407e+000 -8.202348e-001 -8.011172e+000 170 27 36
-7.772847e-001 -8.483746e-001 -8.153673e+000 144 158 7
5.626452e-001 -9.123857e-001 -8.803843e+000 192 149 117
5.507033e-001 -9.685195e-001 -8.883462e+000 190 144 119
2.376953e+000 -9.870618e-001 -9.690000e+000 195 107 101
2.379378e+000 -9.849742e-001 -9.694787e+000 195 107 101
2.722873e+000 -1.035748e+000 -9.961319e+000 158 39 51
4.325251e+000 -1.025392e+000 -1.067381e+001 156 145 134
4.374940e+000 -9.979960e-001 -1.068011e+001 90 79 61
4.339803e+000 -1.056145e+000 -1.070699e+001 101 83 75
-1.216129e+000 -9.228266e-001 -8.095070e+000 198 151 119
-1.169048e+000 -9.556108e-001 -8.141821e+000 189 148 121
2.184416e+000 -1.085100e+000 -9.743763e+000 139 84 78
2.210646e+000 -1.107303e+000 -9.787250e+000 171 114 104
2.284810e+000 -1.078361e+000 -9.961091e+000 149 24 40
-1.315981e+000 -1.084879e+000 -8.276440e+000 174 23 44
-1.315981e+000 -1.084879e+000 -8.276440e+000 174 23 44
4.573407e-001 -1.110110e+000 -9.052638e+000 201 155 134
4.574378e-001 -1.109066e+000 -9.053711e+000 201 155 134
6.103286e-001 -1.185284e+000 -9.296737e+000 18 86 142
1.485001e+000 -1.205817e+000 -9.903438e+000 192 104 111
4.751357e+000 4.491935e-001 -9.603423e+000 192 95 48
9.138910e-001 -9.107087e-002 -8.156013e+000 18 73 105
2.704068e+000 -3.681037e-002 -8.909304e+000 141 24 33
2.781368e+000 -2.378373e-002 -8.916800e+000 145 31 36
3.011772e+000 2.180962e-002 -8.982266e+000 186 85 91
4.753802e+000 1.834206e-002 -9.718314e+000 47 20 21
-2.263266e+000 1.217263e-001 -7.706652e+000 197 171 136
1.319789e+000 -1.007069e-001 -8.379748e+000 115 66 57
2.717421e+000 -1.451759e-001 -8.955293e+000 154 46 46
4.412628e+000 -1.130518e-001 -9.660595e+000 177 152 134
3.337032e+000 -2.603241e-001 -9.304534e+000 137 93 74
3.337032e+000 -2.603241e-001 -9.304534e+000 137 93 74
-5.147347e-001 -4.421849e-001 -7.878061e+000 153 141 6
2.671282e+000 -5.078347e-001 -9.213327e+000 146 29 38
2.711945e+000 -5.162662e-001 -9.247354e+000 184 78 83
2.973330e+000 -5.013125e-001 -9.357206e+000 189 84 83
3.568493e+000 -5.076768e-001 -9.659198e+000 166 48 39
3.809776e+000 -4.428622e-001 -9.680024e+000 166 76 42
3.822019e+000 -5.217793e-001 -9.761339e+000 101 48 17
3.861329e+000 -5.173128e-001 -9.755990e+000 168 115 39
2.429511e+000 -6.365774e-001 -9.238061e+000 183 106 96
2.949441e+000 -5.789315e-001 -9.409045e+000 172 57 58
2.891754e+000 -6.443972e-001 -9.454644e+000 152 33 43
4.550333e+000 -5.498070e-001 -1.020231e+001 157 127 109
3.200187e-001 -7.191878e-001 -8.436983e+000 156 149 139
1.775042e+000 -7.168496e-001 -9.056071e+000 182 121 107
2.364593e+000 -6.918699e-001 -9.278689e+000 113 62 52
2.874928e+000 -7.076983e-001 -9.559411e+000 147 25 36
2.952869e+000 -6.872406e-001 -9.541256e+000 136 19 25
3.817245e+000 -6.858460e-001 -9.975498e+000 165 135 107
3.924904e+000 -7.957737e-001 -1.018836e+001 163 137 120
4.591933e+000 -6.663332e-001 -1.039171e+001 100 53 35
-6.035121e-001 -7.065954e-001 -8.053461e+000 155 151 35
2.367863e-001 -7.409390e-001 -8.399837e+000 155 150 136
2.330486e-001 -8.358490e-001 -8.548598e+000 151 144 128
7.261206e-001 -8.409087e-001 -8.746358e+000 19 71 119
2.455631e+000 -8.936127e-001 -9.597152e+000 143 25 37
2.455631e+000 -8.936127e-001 -9.597152e+000 143 25 37
2.497965e+000 -8.053827e-001 -9.495259e+000 146 25 34
2.560745e+000 -8.144582e-001 -9.514353e+000 142 20 32
2.524205e+000 -9.020153e-001 -9.619843e+000 153 27 40
2.738543e+000 -9.086448e-001 -9.741461e+000 173 68 73
2.838947e+000 -8.750824e-001 -9.746070e+000 181 75 80
2.935543e+000 -8.047180e-001 -9.824188e+000 160 34 46
3.695521e+000 -8.543260e-001 -1.010710e+001 99 69 43
3.631513e+000 -9.155148e-001 -1.016420e+001 157 129 100
3.697343e+000 -9.228493e-001 -1.018447e+001 165 135 107
4.353490e+000 -8.419564e-001 -1.044694e+001 108 88 86
4.532703e+000 -8.466773e-001 -1.060178e+001 88 27 35
-2.596392e+000 -4.541320e-001 -8.624833e+000 218 208 204
1.732827e+000 -9.163947e-001 -9.292804e+000 122 71 60
1.732757e+000 -9.164052e-001 -9.292700e+000 122 71 60
2.358876e+000 -1.015473e+000 -9.730536e+000 184 104 98
2.523543e+000 -9.521188e-001 -9.704737e+000 154 30 41
2.621911e+000 -9.570939e-001 -9.749567e+000 172 64 60
2.622965e+000 -9.562623e-001 -9.751819e+000 172 64 60
9.998690e-001 -1.103382e+000 -9.274739e+000 113 65 62
1.208942e+000 -1.082731e+000 -9.365718e+000 120 68 64
1.208942e+000 -1.082731e+000 -9.365718e+000 120 68 64
1.303318e+000 -1.108251e+000 -9.391729e+000 125 71 69
1.549477e+000 -1.075882e+000 -9.455051e+000 121 67 55
2.573199e+000 -1.062279e+000 -9.926287e+000 181 74 82
2.620087e+000 -1.058001e+000 -9.916369e+000 151 26 40
2.760672e+000 -1.054590e+000 -1.003852e+001 182 71 78
3.577846e+000 -1.151127e+000 -1.070818e+001 178 150 122
4.488194e+000 -1.161235e+000 -1.102279e+001 132 43 57
5.830806e-001 -1.211848e+000 -9.290345e+000 153 162 169
6.792558e-001 -1.175080e+000 -9.325588e+000 24 91 161
8.499821e-001 -1.168281e+000 -9.398824e+000 18 87 151
1.166985e+000 -1.162700e+000 -9.481243e+000 186 131 114
1.283050e+000 -1.161258e+000 -9.509960e+000 186 128 117
4.772104e+000 -2.428383e+000 -1.002124e+001 140 127 121
1.820545e+000 8.022968e-001 -8.685156e+000 182 123 78
2.642033e+000 6.244354e-001 -8.834980e+000 63 18 24
3.325082e+000 8.457928e-001 -9.259530e+000 37 28 46
2.845281e+000 1.690830e-002 -8.939808e+000 180 76 74
4.783681e+000 -1.378352e-002 -9.765242e+000 153 85 43
1.524009e+000 -1.402177e-001 -8.498462e+000 103 56 49
1.523257e+000 -1.409038e-001 -8.497553e+000 103 56 49
1.633723e+000 -1.375950e-001 -8.540191e+000 94 47 36
1.972261e+000 -1.255182e-001 -8.662905e+000 111 66 47
1.973418e+000 -1.251288e-001 -8.665037e+000 111 66 47
2.086914e+000 -1.256268e-001 -8.710017e+000 114 72 47
2.130919e+000 -1.512738e-001 -8.714587e+000 173 122 95
2.315157e+000 -1.169173e-001 -8.802694e+000 114 67 49
2.312745e+000 -1.204632e-001 -8.792714e+000 114 67 49
2.164930e+000 -2.239930e-001 -8.811501e+000 117 80 65
2.633941e+000 -1.892949e-001 -8.952051e+000 185 77 80
4.412241e+000 -1.638847e-001 -9.698554e+000 171 145 125
4.579544e+000 -1.082756e-001 -9.768819e+000 140 75 29
2.025888e+000 -6.377244e-001 -9.056751e+000 174 118 104
2.442509e+000 -5.726630e-001 -9.181216e+000 184 116 91
2.599293e+000 -5.427595e-001 -9.234123e+000 144 19 37
-9.704492e-001 -6.108788e-001 -7.842883e+000 170 38 34
1.580153e+000 -7.469084e-001 -9.008869e+000 136 93 78
2.036604e+000 -7.213960e-001 -9.185909e+000 137 86 87
2.036604e+000 -7.213960e-001 -9.185909e+000 137 86 87
2.366416e+000 -7.541794e-001 -9.330509e+000 182 123 104
7.747928e-001 -8.230582e-001 -8.748613e+000 3 48 85
3.376952e+000 -8.365618e-001 -9.931645e+000 128 95 71
4.612053e+000 -8.553178e-001 -1.084578e+001 70 14 24
-2.552564e+000 -4.346683e-001 -8.643004e+000 58 47 55
-2.522742e+000 -4.622167e-001 -8.565610e+000 58 47 55
-1.183141e+000 -7.889548e-001 -7.935648e+000 177 48 40
1.829063e+000 -9.448946e-001 -9.379590e+000 125 73 59
1.830357e+000 -9.429772e-001 -9.380929e+000 125 73 59
2.090460e+000 -9.833309e-001 -9.551215e+000 183 121 111
5.733709e-001 -1.075259e+000 -9.015821e+000 136 24 32
1.377315e+000 -1.084272e+000 -9.445892e+000 181 122 111
1.935692e+000 -1.073989e+000 -9.628772e+000 178 124 114
6.231476e-001 -1.140839e+000 -9.211803e+000 18 58 99
-2.182789e+001 2.208095e+001 -4.114733e+001 113 97 83
2.703208e+000 5.762822e-001 -8.829791e+000 81 36 39
2.613876e+000 -5.347256e-003 -8.843204e+000 144 22 33
4.863076e+000 -9.077451e-003 -9.813465e+000 135 67 36
2.239354e+000 -1.767550e-001 -8.832388e+000 175 125 98
3.153987e+000 -4.978292e-001 -9.429908e+000 159 110 94
3.153987e+000 -4.978292e-001 -9.429908e+000 159 110 94
1.307437e+000 -6.098259e-001 -8.735100e+000 157 104 90
2.776682e-001 -6.008862e-001 -8.310119e+000 146 144 123
7.505801e-001 -6.742156e-001 -8.549211e+000 114 17 27
2.219819e+000 -6.870409e-001 -9.215657e+000 175 120 100
2.310511e+000 -8.968337e-001 -9.563317e+000 178 117 99
-2.649020e+000 -4.818359e-001 -8.538928e+000 200 56 85
-5.832153e-001 -8.147856e-001 -8.180753e+000 31 56 35
7.535017e-001 -8.716844e-001 -8.812289e+000 4 51 72
3.830204e+000 -1.025543e+000 -1.044012e+001 157 136 115
4.234910e+000 -1.055153e+000 -1.067238e+001 119 104 102
9.472213e-001 -1.090796e+000 -9.332676e+000 179 121 114
2.605952e+000 -1.114052e+000 -1.003571e+001 141 12 36
-1.458540e+000 -1.085882e+000 -8.210312e+000 33 93 126
-1.981152e+001 2.252811e+001 -4.333024e+001 59 43 41
2.808352e+000 7.334907e-001 -8.973443e+000 141 109 98
3.298434e+000 2.136389e-001 -9.035706e+000 167 118 70
4.034209e+000 -4.150586e-002 -9.470823e+000 180 83 33
8.515267e-001 -1.987668e-001 -8.238587e+000 120 14 35
2.571762e+000 -3.010977e-001 -9.049015e+000 142 21 30
-1.112639e+000 -5.728609e-001 -7.748159e+000 196 100 93
5.869180e-001 -7.647038e-001 -8.602187e+000 155 30 40
4.433072e+000 -8.315955e-001 -1.045779e+001 124 100 93
-4.376909e-001 -8.299335e-001 -8.267621e+000 21 57 28
5.387618e-001 -1.023911e+000 -8.925472e+000 166 72 74
-7.346362e-001 -1.050569e+000 -8.471385e+000 126 133 115
4.514923e+000 -2.930135e+000 -1.053049e+001 35 29 32
-7.949313e-001 -8.757997e-001 -8.186077e+000 63 93 61
-7.344756e-001 -9.180261e-001 -8.278595e+000 24 53 35
4.252778e+000 -3.013142e-001 -9.748529e+000 111 81 67
-2.226548e-001 -4.311249e-001 -8.004824e+000 72 112 111
3.951014e+000 -1.569249e-001 -9.456466e+000 172 82 47
-3.848476e-001 -6.149265e-001 -8.078797e+000 56 101 112
7.976988e-001 -1.153882e+000 -9.293438e+000 15 88 143
4.680126e+000 6.108071e-001 -9.634414e+000 155 116 85
2.045968e+000 -6.539947e-001 -9.137981e+000 122 68 58
4.574057e+000 -1.046164e+000 -1.087686e+001 32 18 31
1.855560e-001 -1.681822e-001 -7.940542e+000 159 155 130
-1.491417e+000 -5.719820e-001 -7.641555e+000 17 84 126
3.079270e+000 -1.075740e+000 -1.027182e+001 185 131 119
2.563408e+000 -5.398649e-002 -8.841379e+000 168 113 92
8.175474e-001 -1.730253e-001 -8.220484e+000 185 137 114
1.302875e+000 -1.799456e-001 -8.419720e+000 77 27 17
1.414644e+000 -1.156660e-001 -8.424585e+000 78 25 22
2.640953e+000 -1.499911e-001 -8.941328e+000 169 55 63
2.960518e+000 -2.248786e-001 -9.133592e+000 183 68 69
2.609305e+000 -4.860953e-001 -9.195860e+000 141 25 39
4.275521e+000 -4.152372e-001 -9.886509e+000 107 87 78
-9.561934e-001 -6.066306e-001 -7.826445e+000 158 32 35
-1.460862e-001 -6.699560e-001 -8.212916e+000 148 151 47
1.566878e+000 -1.036554e+000 -9.402210e+000 143 88 83
5.070728e+000 3.239045e-001 -9.626798e+000 32 23 27
1.338670e+000 4.197122e-002 -8.304695e+000 172 112 101
1.280086e+000 -1.567811e-001 -8.405699e+000 156 103 95
8.171764e-001 -5.854516e-001 -8.543459e+000 25 73 107
-4.737130e-001 -8.871208e-001 -8.333307e+000 18 56 30
3.997553e+000 5.259147e-001 -9.321348e+000 155 63 47
4.354877e+000 2.413507e-001 -9.406522e+000 39 17 31
-2.369835e-001 -9.807596e-001 -8.565089e+000 154 156 31
1.040748e+000 -1.041554e+000 -9.206902e+000 133 86 79
1.654053e+000 -9.772944e-001 -9.347414e+000 180 122 110
1.613449e+000 -1.062428e+000 -9.531440e+000 181 127 115
-3.981254e-001 -1.094079e+000 -8.666790e+000 26 54 37
1.733496e+000 -1.987157e-001 -8.607531e+000 123 65 64
-6.496054e-001 -2.467102e-001 -7.707250e+000 33 96 137
-1.134576e+000 -1.038745e+000 -8.262249e+000 175 36 52
-2.744185e-001 -5.197418e-001 -8.022672e+000 101 118 50
2.159514e+000 -1.688696e-001 -8.772075e+000 144 101 78
2.159514e+000 -1.688696e-001 -8.772075e+000 144 101 78
4.359256e+000 -2.940377e+000 -1.044235e+001 54 46 59
2.670757e+000 5.086738e-001 -8.775340e+000 182 132 69
3.425486e+000 5.983458e-001 -9.131633e+000 136 119 117
2.529794e+000 3.101514e-001 -8.651382e+000 185 133 86
2.847672e+000 -3.243334e-002 -8.926719e+000 172 17 34
4.753629e+000 1.451231e-001 -9.662121e+000 184 110 59
4.794967e+000 1.242010e-001 -9.650053e+000 161 97 55
4.761620e+000 8.788329e-002 -9.651649e+000 37 7 11
4.863701e+000 9.841463e-002 -9.704097e+000 42 10 7
7.878429e-001 -1.376384e-001 -8.188224e+000 187 155 116
4.578613e+000 -5.767638e-002 -9.703862e+000 110 49 10
4.523675e+000 -7.973579e-002 -9.669518e+000 171 96 41
4.813596e+000 -4.216910e-002 -9.812906e+000 36 10 8
2.666525e+000 -2.681534e-001 -9.045745e+000 164 25 31
4.300336e+000 -2.074976e-001 -9.678247e+000 125 98 77
4.304258e+000 -2.042483e-001 -9.685694e+000 125 98 77
4.678980e+000 -1.235288e-001 -9.862002e+000 179 104 47
4.756910e+000 -2.159830e-001 -9.992722e+000 41 5 4
-6.385757e-001 -3.993322e-001 -7.794536e+000 150 159 58
-3.500429e-001 -4.437140e-001 -7.954510e+000 152 147 25
7.286641e-001 -4.249717e-001 -8.358598e+000 197 166 127
2.597106e+000 -3.892536e-001 -9.108868e+000 199 92 84
2.936499e+000 -3.423742e-001 -9.218601e+000 207 100 90
3.290714e+000 -4.408707e-001 -9.438441e+000 196 143 109
3.545717e+000 -3.493701e-001 -9.480047e+000 184 133 90
4.295804e+000 -2.887564e-001 -9.763518e+000 182 155 128
4.295804e+000 -2.887564e-001 -9.763518e+000 182 155 128
3.041829e-001 -5.844259e-001 -8.309357e+000 164 162 131
6.417860e-001 -5.038315e-001 -8.368163e+000 148 8 9
7.127789e-001 -5.852667e-001 -8.479302e+000 156 12 12
7.119450e-001 -5.873345e-001 -8.474327e+000 156 12 12
2.955642e+000 -4.484274e-001 -9.329864e+000 158 23 28
3.096742e+000 -5.456948e-001 -9.479528e+000 192 140 100
3.720505e+000 -4.763397e-001 -9.668264e+000 189 89 57
3.765252e+000 -4.712678e-001 -9.686785e+000 127 44 14
3.728449e+000 -5.376653e-001 -9.694797e+000 142 53 11
3.695197e+000 -5.571761e-001 -9.739586e+000 198 117 43
4.046724e+000 -5.288092e-001 -9.876577e+000 37 13 16
-8.828341e-002 -5.939320e-001 -8.148097e+000 17 47 60
6.547067e-001 -6.612979e-001 -8.520903e+000 173 39 42
1.297239e+000 -6.558614e-001 -8.773328e+000 92 43 39
1.297290e+000 -6.567136e-001 -8.771930e+000 92 43 39
2.879925e+000 -5.759848e-001 -9.386288e+000 201 89 85
2.915467e+000 -6.662427e-001 -9.497283e+000 193 83 76
3.246681e+000 -5.911627e-001 -9.558389e+000 130 72 60
3.587165e+000 -6.341363e-001 -9.749458e+000 191 128 98
3.756510e+000 -5.989584e-001 -9.820121e+000 179 136 102
3.877598e+000 -6.602855e-001 -9.944272e+000 182 144 108
4.000738e+000 -6.601827e-001 -1.001093e+001 41 22 19
-1.133832e+000 -7.252370e-001 -7.866334e+000 185 153 115
-7.064416e-001 -7.669699e-001 -8.065133e+000 18 55 36
6.630439e-001 -7.031960e-001 -8.566592e+000 200 174 118
1.361336e+000 -7.336250e-001 -8.886773e+000 189 132 106
1.361336e+000 -7.336250e-001 -8.886773e+000 189 132 106
1.733274e+000 -7.073838e-001 -9.025626e+000 103 45 43
2.563505e+000 -7.472230e-001 -9.446872e+000 207 96 97
2.563808e+000 -7.468051e-001 -9.447838e+000 207 96 97
3.175467e+000 -7.778881e-001 -9.742140e+000 196 135 116
3.557127e+000 -7.145261e-001 -9.849176e+000 173 138 104
3.530843e+000 -7.942249e-001 -9.947304e+000 171 136 92
3.618843e+000 -7.760168e-001 -9.991222e+000 172 138 103
3.661240e+000 -7.932822e-001 -9.970655e+000 173 138 108
-1.173634e+000 -8.529264e-001 -8.024259e+000 179 43 44
-1.173634e+000 -8.529264e-001 -8.024259e+000 179 43 44
3.372785e+000 -8.646569e-001 -9.972394e+000 177 143 111
3.718804e+000 -8.564660e-001 -1.006403e+001 173 137 111
3.786142e+000 -8.119804e-001 -1.008129e+001 97 59 54
4.432775e+000 -7.654788e-001 -1.041132e+001 156 138 118
-1.150815e+000 -8.855849e-001 -8.064524e+000 178 39 50
-1.191231e+000 -9.094471e-001 -8.082037e+000 185 29 51
-1.191050e+000 -9.101418e-001 -8.081814e+000 185 29 51
