ply
format ascii 1.0
element face 0
property list uchar int vertex_indices
element vertex 886
property float x
property float y
property float z
property uchar diffuse_red
property uchar diffuse_green
property uchar diffuse_blue
end_header
5.287930e+000 -2.463895e+000 -9.212753e+000 160 136 136
4.242756e+000 -3.912717e+000 -1.144846e+001 54 42 47
4.635335e+000 1.938078e+000 -1.113943e+001 31 20 29
6.105717e-001 1.554826e+000 -8.983400e+000 175 157 124
1.650036e+000 1.591340e+000 -9.388985e+000 139 24 35
2.149007e+000 1.703712e+000 -9.732000e+000 24 69 103
2.681043e+000 1.681345e+000 -9.906012e+000 148 56 42
2.922343e+000 1.555297e+000 -9.808625e+000 86 58 56
4.603704e+000 1.378326e+000 -1.015917e+001 124 27 38
9.532212e-001 1.035895e+000 -8.465776e+000 182 42 52
-2.061056e+000 8.271252e-001 -7.629226e+000 207 184 147
-1.227164e+000 8.898567e-001 -7.644238e+000 187 36 50
-1.025969e+000 8.068067e-001 -7.544768e+000 179 32 35
3.742615e+000 9.385380e-001 -9.395738e+000 170 113 74
-1.104227e+000 7.415837e-001 -7.435975e+000 194 160 130
9.600446e-001 7.759940e-001 -8.198919e+000 182 156 127
2.385006e+000 7.502534e-001 -8.739460e+000 114 55 61
-1.115896e+000 6.707721e-001 -7.313061e+000 190 41 50
2.348947e+000 6.732851e-001 -8.696986e+000 92 35 47
3.219231e+000 1.082752e-001 -9.013366e+000 160 25 37
3.219231e+000 1.082752e-001 -9.013366e+000 160 25 37
1.317612e+000 -6.098280e-002 -8.274701e+000 110 59 50
4.368010e+000 -1.889210e-001 -9.641253e+000 175 150 119
-2.896350e-001 -2.817845e-001 -7.761609e+000 131 135 72
-4.240083e-002 -1.446637e-001 -7.803498e+000 160 159 90
8.714558e-001 -4.636143e-001 -8.388968e+000 10 51 93
2.812994e+000 -6.479450e-001 -9.392626e+000 157 20 36
-4.669898e-001 -5.492491e-001 -7.840961e+000 64 108 121
5.430532e+000 -1.111714e+000 -8.886686e+000 47 31 37
4.454810e+000 -3.547098e+000 -1.105231e+001 143 127 125
-5.432044e-002 1.575969e+000 -8.798664e+000 27 63 34
5.788744e-001 1.660883e+000 -9.131924e+000 168 106 88
5.788542e-001 1.661307e+000 -9.131340e+000 168 106 88
-1.165632e+000 1.365191e+000 -8.197467e+000 30 53 27
1.585202e+000 1.623458e+000 -9.429796e+000 92 25 39
2.494982e+000 1.636837e+000 -9.814518e+000 84 21 32
2.869552e+000 1.598468e+000 -9.857815e+000 90 55 67
-2.274693e+000 1.111541e+000 -8.027958e+000 154 130 96
-1.260649e+000 1.327997e+000 -8.092618e+000 23 84 114
-2.231825e+000 1.023223e+000 -7.890208e+000 203 176 146
-1.335934e+000 1.146970e+000 -7.896530e+000 171 33 33
-2.112625e+000 9.404760e-001 -7.724711e+000 206 182 148
-2.061328e+000 8.670912e-001 -7.625912e+000 206 183 146
-2.069622e+000 8.587661e-001 -7.670198e+000 206 183 146
-1.241443e+000 9.510043e-001 -7.678048e+000 177 33 49
-1.241609e+000 9.534251e-001 -7.661858e+000 177 33 49
-1.041662e+000 9.709393e-001 -7.740542e+000 184 42 43
-1.041662e+000 9.709393e-001 -7.740542e+000 184 42 43
-9.013625e-001 1.055517e+000 -8.030504e+000 69 107 124
1.546962e+000 1.130230e+000 -8.787971e+000 74 108 119
1.946665e+000 1.165715e+000 -8.962031e+000 128 63 63
2.340125e+000 1.084944e+000 -8.997921e+000 77 56 65
-1.178879e+000 8.248643e-001 -7.533641e+000 173 38 47
-1.149854e+000 7.683456e-001 -7.464129e+000 169 31 31
2.167248e+000 8.161809e-001 -8.659965e+000 88 39 45
-1.074575e+000 6.681661e-001 -7.369760e+000 195 160 125
8.022837e-001 7.043207e-001 -8.079539e+000 167 70 63
8.045183e-001 7.026068e-001 -8.092006e+000 167 70 63
2.143645e+000 7.218050e-001 -8.607031e+000 90 33 48
2.696597e+000 6.829244e-001 -8.818770e+000 70 19 27
3.112711e+000 6.305575e-001 -8.945380e+000 68 28 32
4.851018e+000 5.345199e-001 -9.566066e+000 185 69 41
8.249098e-001 -1.495960e-001 -8.060974e+000 125 22 38
7.136629e-001 -4.491633e-001 -8.314555e+000 191 122 103
4.911208e+000 -2.793945e+000 -1.002763e+001 155 134 131
4.385987e+000 -3.590944e+000 -1.104849e+001 143 128 128
1.412875e+000 1.624236e+000 -9.341333e+000 18 63 96
1.000795e+000 1.319403e+000 -8.859284e+000 161 29 36
1.811741e+000 1.510642e+000 -9.374208e+000 134 78 80
2.298043e+000 1.156516e+000 -9.094916e+000 81 53 72
2.059994e+000 1.033459e+000 -8.844882e+000 85 33 35
2.059994e+000 1.033459e+000 -8.844882e+000 85 33 35
2.391225e+000 9.790833e-001 -8.913773e+000 91 67 84
-1.117726e+000 6.984194e-001 -7.397476e+000 187 44 49
2.359628e+000 6.155896e-001 -8.641606e+000 116 56 64
3.085225e+000 -3.092992e-001 -9.193549e+000 168 27 34
-1.408913e-001 -6.763753e-001 -8.125986e+000 35 56 42
5.479686e+000 -9.804983e-001 -8.791041e+000 52 41 50
5.511693e+000 -1.210452e+000 -8.715426e+000 150 126 124
5.317961e+000 -1.512209e+000 -9.185059e+000 155 135 127
4.787086e+000 -2.626340e+000 -1.026221e+001 59 45 54
5.328341e+000 -2.307092e+000 -9.058156e+000 150 130 129
4.698562e+000 -3.252169e+000 -1.048644e+001 168 144 142
-5.035975e-001 1.679676e+000 -8.765662e+000 29 55 26
-3.016755e-001 1.424772e+000 -8.513715e+000 179 159 105
-3.016755e-001 1.424772e+000 -8.513715e+000 179 159 105
1.474968e+000 1.544566e+000 -9.297665e+000 32 29 57
1.578031e+000 1.511466e+000 -9.265046e+000 184 129 96
-7.891115e-001 1.198255e+000 -8.127744e+000 176 167 85
-1.522359e-001 1.242034e+000 -8.378583e+000 32 61 33
-2.104055e+000 7.181793e-001 -7.589897e+000 156 129 101
-2.104055e+000 7.181793e-001 -7.589897e+000 156 129 101
-6.677139e-001 9.451420e-001 -7.842497e+000 168 160 82
-1.311433e-001 6.643742e-001 -7.718842e+000 175 161 76
-2.834039e-001 1.477731e+000 -8.628667e+000 177 158 105
1.360818e+000 1.321251e+000 -9.000853e+000 16 70 100
9.474854e-001 9.821976e-001 -8.379772e+000 183 49 55
-6.436795e-001 6.624430e-001 -7.495778e+000 84 114 113
-1.199104e+000 1.462707e+000 -8.230803e+000 115 130 126
8.568264e-001 1.344333e+000 -8.742214e+000 173 156 126
-2.697090e-001 8.438534e-001 -7.812613e+000 172 156 126
2.835629e-001 8.483406e-001 -8.047590e+000 170 156 128
1.824196e-001 7.667591e-001 -7.921335e+000 36 55 39
-2.053970e+000 5.587118e-001 -7.532909e+000 141 114 87
-3.859167e-001 6.707301e-001 -7.634094e+000 166 158 125
4.749598e+000 -2.812872e+000 -1.025199e+001 133 112 109
3.367798e+000 2.004555e+000 -1.095303e+001 41 35 42
1.722456e-001 1.356033e+000 -8.518871e+000 174 158 125
2.867227e+000 1.471165e+000 -9.606976e+000 96 67 75
1.414858e+000 -9.491738e-001 -9.169043e+000 204 139 115
-8.717788e-001 1.309773e+000 -8.390214e+000 179 164 34
-1.242490e+000 1.077999e+000 -8.053564e+000 191 147 113
-4.574543e-002 1.111355e+000 -8.312725e+000 31 58 27
2.314831e+000 7.140423e-001 -8.697290e+000 91 29 40
4.984632e+000 1.499453e+000 -1.031217e+001 40 30 38
4.596032e+000 5.262870e-001 -9.527294e+000 187 100 33
2.119932e+000 1.840958e+000 -9.917717e+000 85 105 109
2.160684e+000 1.787559e+000 -9.832493e+000 78 101 117
2.177142e+000 1.766040e+000 -9.832612e+000 84 109 123
2.177142e+000 1.766040e+000 -9.832612e+000 84 109 123
2.269655e+000 1.755517e+000 -9.874183e+000 83 104 121
2.364339e+000 1.733640e+000 -9.730847e+000 58 12 14
3.619168e+000 1.743846e+000 -1.030975e+001 115 68 38
1.353241e+000 1.529206e+000 -9.169285e+000 22 62 89
1.390268e+000 1.459493e+000 -9.098919e+000 20 70 104
1.390268e+000 1.459493e+000 -9.098919e+000 20 70 104
2.799728e+000 1.537440e+000 -9.694421e+000 166 113 100
2.799728e+000 1.537440e+000 -9.694421e+000 166 113 100
2.853006e+000 1.522869e+000 -9.741045e+000 89 60 66
1.117539e+000 1.164505e+000 -8.674123e+000 187 149 106
1.192804e+000 1.145793e+000 -8.678757e+000 149 22 40
1.580301e+000 1.090262e+000 -8.751772e+000 23 64 99
-2.187508e+000 8.316766e-001 -7.717475e+000 155 128 97
-2.187508e+000 8.316766e-001 -7.717475e+000 155 128 97
-2.116350e+000 8.444819e-001 -7.664482e+000 210 184 151
-2.003315e+000 8.769027e-001 -7.599819e+000 205 181 145
-1.089889e+000 8.963362e-001 -7.651542e+000 174 154 104
9.491972e-001 9.253204e-001 -8.346367e+000 171 153 120
9.533099e-001 9.290188e-001 -8.348018e+000 171 153 120
2.003770e+000 1.000901e+000 -8.812455e+000 153 92 87
2.208552e+000 1.047352e+000 -8.923370e+000 92 59 68
2.705177e+000 1.045069e+000 -9.101515e+000 151 127 108
-2.036392e+000 6.389291e-001 -7.513071e+000 216 192 156
-1.054270e+000 8.280286e-001 -7.570692e+000 186 145 106
-6.778327e-001 8.543571e-001 -7.666382e+000 147 148 38
-6.989661e-001 7.857862e-001 -7.662253e+000 155 145 50
1.965463e+000 9.187862e-001 -8.701216e+000 164 91 83
1.970055e+000 9.128435e-001 -8.715993e+000 164 91 83
2.128497e+000 8.381857e-001 -8.691759e+000 160 91 83
2.050401e+000 8.325373e-001 -8.653340e+000 162 90 91
4.531778e+000 8.693588e-001 -9.682502e+000 154 81 52
-2.020720e+000 5.826682e-001 -7.484292e+000 215 191 156
-1.040616e+000 6.856121e-001 -7.407728e+000 185 151 114
2.067944e+000 6.996731e-001 -8.569325e+000 88 29 32
2.389993e+000 6.533330e-001 -8.698882e+000 115 66 73
3.542172e+000 7.441036e-001 -9.083268e+000 33 72 96
1.640088e+000 5.330194e-001 -8.300953e+000 153 55 54
2.193290e+000 5.817051e-001 -8.571062e+000 81 26 30
3.684739e+000 -2.587270e-001 -9.442031e+000 187 132 91
-3.537935e-002 -3.716431e-001 -7.988926e+000 45 48 43
5.630251e+000 -1.343379e+000 -8.700923e+000 162 139 135
-1.717410e-001 1.790831e+000 -9.054393e+000 76 84 53
8.959571e-001 1.783578e+000 -9.462822e+000 169 154 117
2.859957e+000 1.732862e+000 -1.005345e+001 158 87 62
-1.873471e+000 1.395715e+000 -7.838508e+000 168 147 114
2.712308e+000 1.604508e+000 -9.800312e+000 153 110 87
1.136516e+000 1.408695e+000 -8.905293e+000 157 27 39
2.876780e+000 1.441703e+000 -9.604476e+000 81 56 57
2.037214e+000 1.253143e+000 -9.033047e+000 105 82 85
-1.247373e+000 1.002622e+000 -7.742695e+000 196 150 103
2.160416e+000 1.162485e+000 -9.032776e+000 107 83 83
2.157480e+000 1.123033e+000 -9.049923e+000 89 64 69
2.164932e+000 1.084242e+000 -8.961125e+000 79 50 59
-2.114714e+000 7.954095e-001 -7.645152e+000 210 184 149
-2.111885e+000 7.974657e-001 -7.639235e+000 210 184 149
-1.068551e+000 9.270540e-001 -7.649382e+000 183 31 46
2.107944e+000 1.000477e+000 -8.837093e+000 80 42 42
3.044890e+000 9.775803e-001 -9.188450e+000 156 117 110
3.132432e+000 9.781977e-001 -9.222829e+000 118 88 86
2.221580e+000 9.126739e-001 -8.790023e+000 70 41 38
2.086927e+000 8.061028e-001 -8.649857e+000 164 83 77
4.587186e+000 9.207751e-001 -9.734458e+000 175 138 113
2.026942e+000 7.646957e-001 -8.597781e+000 161 91 83
2.054555e+000 6.640254e-001 -8.554737e+000 165 90 85
3.831718e+000 7.830177e-001 -9.343401e+000 160 120 84
1.240041e+000 3.520768e-002 -8.251452e+000 12 77 123
4.246223e+000 -2.193974e-001 -9.663284e+000 213 131 64
1.944574e+000 -1.951775e-001 -8.694012e+000 192 135 104
2.158645e+000 -1.765721e-001 -8.744223e+000 191 138 105
2.401471e+000 -1.697738e-001 -8.841194e+000 195 141 106
3.427591e+000 -4.753091e-001 -9.514921e+000 201 142 109
-3.838272e-001 -6.786799e-001 -8.059959e+000 24 52 19
5.411284e+000 -1.311459e+000 -8.833071e+000 127 103 99
-2.180388e-001 1.750071e+000 -9.029515e+000 147 142 94
3.146104e+000 1.900161e+000 -1.035340e+001 110 61 28
2.198589e+000 1.715973e+000 -9.720447e+000 64 97 111
1.086802e+000 1.341871e+000 -8.878839e+000 153 26 40
-1.168904e+000 1.104695e+000 -7.891264e+000 177 31 39
1.243226e+000 1.306302e+000 -8.887242e+000 198 109 99
1.243016e+000 1.306246e+000 -8.887310e+000 198 109 99
-2.126054e+000 9.987077e-001 -7.796442e+000 203 181 142
-6.365891e-001 1.028976e+000 -7.994595e+000 32 50 34
-2.031784e+000 7.957378e-001 -7.562777e+000 213 186 151
2.037798e+000 8.879159e-001 -8.679953e+000 164 89 74
8.751219e-001 6.479676e-001 -8.080893e+000 169 152 118
2.609562e+000 7.695711e-001 -8.815827e+000 173 130 111
4.180976e+000 8.094897e-001 -9.471511e+000 173 87 31
2.623702e+000 4.838242e-001 -8.693926e+000 142 70 35
4.547371e+000 3.009914e-001 -9.429237e+000 32 22 26
-2.698215e+000 -4.236386e-001 -8.947043e+000 193 167 134
4.478998e+000 8.508301e-002 -9.531245e+000 191 171 141
1.380993e+000 -7.742030e-002 -8.362616e+000 190 125 103
1.437848e+000 -6.076860e-002 -8.375719e+000 129 67 55
1.581215e+000 1.300440e-001 -8.302732e+000 173 159 132
2.524315e+000 -8.300098e-002 -8.835832e+000 195 139 108
2.627526e+000 -6.376027e-002 -8.802742e+000 163 26 37
5.571765e+000 -1.128772e+000 -8.843419e+000 123 101 103
4.824682e+000 -2.639268e+000 -1.019654e+001 154 136 134
4.718514e+000 -2.990258e+000 -1.044608e+001 131 107 108
1.598829e+000 1.572009e+000 -9.367366e+000 179 118 82
-2.144403e+000 1.123351e+000 -7.906477e+000 204 178 141
-1.187371e+000 1.003098e+000 -7.752372e+000 171 33 41
-8.917686e-001 6.351063e-001 -7.408429e+000 171 26 41
5.012370e+000 6.565397e-001 -9.532588e+000 171 78 44
-2.451445e+000 -4.171353e-001 -7.956499e+000 165 133 103
3.931016e+000 -5.214053e-001 -9.800230e+000 131 55 16
-2.374647e+000 -7.196829e-001 -8.160260e+000 162 134 104
6.319111e-001 -5.817214e-001 -8.414074e+000 159 36 40
3.299900e+000 -1.209304e+000 -1.040245e+001 41 32 40
-8.632375e-001 -7.193724e-001 -7.919775e+000 35 63 30
-1.353639e-001 -8.592702e-001 -8.370793e+000 164 165 135
-1.579781e+000 1.502879e+000 -8.177841e+000 50 100 118
6.128338e-001 1.604383e+000 -9.042828e+000 178 114 93
4.462871e-001 1.559405e+000 -8.928882e+000 169 148 119
1.269986e+000 1.518138e+000 -9.228229e+000 17 63 90
7.070416e-001 1.428386e+000 -8.860347e+000 164 147 115
5.020138e-001 1.189318e+000 -8.463149e+000 143 146 115
-2.180024e+000 9.047217e-001 -7.769323e+000 206 180 146
-2.108995e+000 9.418392e-001 -7.713692e+000 208 184 147
-2.273591e-001 1.029038e+000 -8.072187e+000 29 60 27
1.129316e+000 1.183181e+000 -8.675926e+000 136 42 27
-2.675046e-001 9.716064e-001 -8.014721e+000 173 149 56
2.307827e+000 9.897222e-001 -8.888519e+000 108 77 75
2.637637e-001 8.070520e-001 -7.997347e+000 162 151 100
2.603791e-001 8.109989e-001 -7.982889e+000 162 151 100
4.553524e+000 8.356510e-001 -9.605965e+000 180 146 111
4.019741e+000 8.028217e-001 -9.403606e+000 164 117 81
3.268497e+000 6.481967e-001 -9.027898e+000 82 57 64
-3.367295e-001 -3.538839e-001 -7.872307e+000 27 56 35
2.455446e+000 -5.064643e-001 -9.094871e+000 201 138 106
5.069926e+000 -2.182927e+000 -9.922773e+000 55 45 48
-3.805158e-001 1.647415e+000 -8.766046e+000 99 124 100
-1.402475e+000 1.296336e+000 -8.037972e+000 174 85 68
-1.402475e+000 1.296336e+000 -8.037972e+000 174 85 68
-5.450990e-001 1.308255e+000 -8.279120e+000 29 52 34
4.078712e-001 1.434489e+000 -8.739712e+000 165 146 115
1.300853e+000 1.448506e+000 -9.155976e+000 17 65 94
-7.878325e-001 1.198211e+000 -8.129433e+000 171 150 75
-1.959102e-001 1.184857e+000 -8.261930e+000 177 157 83
2.515286e+000 1.257787e+000 -9.254189e+000 29 17 25
-7.523633e-001 9.885773e-001 -7.932547e+000 25 48 33
-4.317869e-001 1.045957e+000 -8.011290e+000 32 53 34
-4.317869e-001 1.045957e+000 -8.011290e+000 32 53 34
1.091344e+000 1.117501e+000 -8.646005e+000 146 26 35
4.744076e+000 1.220597e+000 -1.009267e+001 148 86 48
2.870146e+000 7.635683e-001 -8.944845e+000 143 116 97
4.812487e+000 2.498038e-002 -9.733576e+000 192 107 40
-1.111007e+000 -5.541448e-001 -7.715675e+000 29 93 136
3.534792e+000 1.914611e+000 -1.068903e+001 149 106 64
-3.880114e-001 1.418191e+000 -8.586018e+000 27 52 36
-4.642146e-001 1.342166e+000 -8.375516e+000 172 155 107
-5.618971e-001 1.050909e+000 -8.005201e+000 167 147 106
-4.728733e-001 9.493151e-001 -7.936827e+000 169 153 103
-4.728733e-001 9.493151e-001 -7.936827e+000 169 153 103
4.223278e+000 8.620755e-001 -9.494490e+000 175 87 31
-3.201440e-001 2.210926e-001 -7.530032e+000 89 119 129
4.845570e+000 1.536486e-001 -9.669583e+000 206 121 61
2.901998e+000 -5.989467e-001 -9.412536e+000 171 37 48
3.582267e+000 1.807867e+000 -1.046281e+001 47 16 21
5.032240e-001 8.520528e-001 -8.108502e+000 159 143 117
-3.876972e-001 6.704789e-001 -7.634236e+000 159 146 108
-1.107718e-001 1.535306e+000 -8.660300e+000 124 119 35
1.493537e+000 1.626045e+000 -9.419870e+000 144 40 42
1.493537e+000 1.626045e+000 -9.419870e+000 144 40 42
4.579764e+000 -2.689955e-001 -9.948299e+000 172 143 122
-1.069199e-001 1.531594e+000 -8.654319e+000 99 101 31
1.453295e-001 1.517759e+000 -8.792754e+000 165 149 116
4.355504e+000 1.043023e+000 -9.768858e+000 142 23 43
4.355504e+000 1.043023e+000 -9.768858e+000 142 23 43
2.304550e-002 -8.955219e-001 -8.573930e+000 160 159 141
-9.655776e-001 3.734105e-001 -7.269993e+000 91 124 133
4.870621e+000 -3.003742e-001 -9.872306e+000 35 24 33
5.004570e+000 9.335539e-001 -9.659011e+000 41 30 38
3.784549e+000 -4.702894e-001 -1.000335e+001 195 142 95
3.908042e+000 1.470681e+000 -1.024288e+001 153 111 71
3.908042e+000 1.470681e+000 -1.024288e+001 153 111 71
-4.143575e+001 -2.856441e+001 -1.006026e+002 65 46 50
-3.407960e+001 -3.337124e+001 -8.894856e+001 162 128 104
-3.861318e+001 -3.247190e+001 -8.994592e+001 74 45 28
-3.411945e+001 -3.259265e+001 -9.140048e+001 119 90 76
-3.411945e+001 -3.259265e+001 -9.140048e+001 119 90 76
-3.594544e+001 -3.263311e+001 -8.647348e+001 156 125 104
2.203493e+000 1.343091e+000 -9.241905e+000 96 73 79
1.575022e+000 1.091229e+000 -8.752664e+000 12 69 115
-1.060420e+000 7.050165e-001 -7.413233e+000 165 38 41
2.456171e+000 5.988131e-001 -8.665742e+000 91 38 45
3.041462e+000 1.182349e+000 -9.358320e+000 122 93 96
2.271793e+000 7.149838e-001 -8.643514e+000 128 66 75
2.814153e+000 5.170225e-001 -8.766445e+000 178 130 81
1.158584e+000 1.282617e+000 -8.821150e+000 157 33 30
5.394969e+000 -1.601647e+000 -8.989576e+000 157 137 130
5.391440e+000 -2.504201e+000 -8.927571e+000 163 144 138
3.254818e+000 -1.498770e-002 -9.069621e+000 201 141 105
-3.577363e+001 -3.770687e+001 -8.523656e+001 146 123 110
-3.317676e+001 -3.806246e+001 -8.742810e+001 142 113 97
-1.250405e+000 1.105423e+000 -7.873199e+000 149 73 51
-3.210403e+001 -4.167001e+001 -8.385405e+001 123 93 81
-3.227200e+001 -4.196581e+001 -8.435367e+001 123 93 81
-3.513878e+001 -3.581443e+001 -8.442209e+001 155 124 106
-4.757168e-001 1.210661e+000 -8.145383e+000 27 60 26
-3.697482e+001 -3.735719e+001 -8.642019e+001 56 37 37
-3.418036e+001 -3.504324e+001 -9.140636e+001 118 94 74
-3.777515e+001 -3.865082e+001 -8.282606e+001 31 30 47
1.956353e+000 1.790087e+000 -9.906727e+000 29 60 84
2.221129e+000 1.817118e+000 -9.928606e+000 79 98 106
2.265037e+000 1.758723e+000 -9.861973e+000 83 104 121
-8.763120e-001 1.443007e+000 -8.384153e+000 91 108 93
-8.737020e-001 1.448862e+000 -8.366694e+000 91 108 93
1.508173e+000 1.625270e+000 -9.399084e+000 141 42 41
2.626024e+000 1.571642e+000 -9.638362e+000 166 122 99
-1.164515e+000 1.267871e+000 -8.101734e+000 166 33 38
-1.310704e+000 1.202519e+000 -7.960741e+000 180 26 37
1.074437e+000 1.278020e+000 -8.774808e+000 184 156 106
-2.000519e+000 8.785066e-001 -7.598565e+000 205 181 145
2.171151e+000 1.059867e+000 -8.935071e+000 84 57 63
2.701032e+000 1.092609e+000 -9.142063e+000 157 125 111
-1.106623e+000 8.167123e-001 -7.536750e+000 186 142 109
8.342613e-002 8.331320e-001 -7.953752e+000 156 150 46
-7.688156e-001 5.594099e-001 -7.361845e+000 148 146 29
1.840740e+000 6.375168e-001 -8.452175e+000 178 134 80
3.439799e+000 6.453633e-001 -9.076373e+000 32 30 58
2.556426e+000 4.931529e-001 -8.572576e+000 174 120 76
2.987899e+000 3.814516e-001 -8.850268e+000 126 73 31
1.453759e-002 -9.289587e-002 -7.781858e+000 88 93 61
5.451751e+000 -1.027885e+000 -8.879624e+000 45 32 42
2.371916e+000 1.595408e+000 -9.654347e+000 166 134 109
1.246033e+000 1.178472e+000 -8.750191e+000 155 28 39
1.246033e+000 1.178472e+000 -8.750191e+000 155 28 39
1.873161e+000 1.044383e+000 -8.769073e+000 77 24 33
1.317594e-001 5.312528e-001 -7.739233e+000 164 150 28
5.012950e+000 6.064569e-001 -9.631526e+000 125 35 17
9.710473e-001 -1.913290e-002 -8.130402e+000 13 67 103
5.284927e+000 -1.824444e+000 -9.319510e+000 171 148 142
2.166885e+000 1.256870e+000 -9.159898e+000 87 62 68
7.599378e-001 8.372267e-001 -8.158093e+000 154 148 116
4.847220e+000 -2.585479e+000 -1.023537e+001 58 44 45
1.502670e+000 1.237783e+000 -8.881008e+000 91 97 87
4.766293e+000 1.283685e+000 -1.021811e+001 135 73 48
-8.927866e-001 6.354577e-001 -7.406784e+000 171 26 41
3.123554e+000 5.800564e-001 -8.908131e+000 166 123 69
4.919376e+000 -2.502317e+000 -1.008358e+001 145 130 127
2.892333e+000 8.443533e-001 -8.990140e+000 155 119 105
5.162510e+000 -1.809377e+000 -9.535628e+000 51 39 49
4.917858e+000 -2.458340e+000 -1.015632e+001 49 41 41
4.172702e-002 1.283655e+000 -8.420229e+000 32 56 32
8.422701e-001 1.038860e+000 -8.433338e+000 162 148 121
8.422701e-001 1.038860e+000 -8.433338e+000 162 148 121
2.851447e-001 1.116414e+000 -8.247035e+000 163 147 116
8.597606e-001 6.948887e-001 -8.117690e+000 169 147 116
1.334846e+000 6.905292e-001 -8.288319e+000 150 23 32
1.677701e+000 6.803032e-001 -8.426128e+000 16 69 109
-1.618935e-001 1.742660e+000 -9.042450e+000 148 142 47
4.471204e+000 2.018951e+000 -1.124536e+001 152 93 56
-4.772060e-002 1.614377e+000 -8.853043e+000 157 149 70
2.161813e+000 1.787073e+000 -9.834480e+000 69 92 99
1.307296e+000 1.635479e+000 -9.354420e+000 17 53 78
1.306830e+000 1.634889e+000 -9.354822e+000 17 53 78
1.512694e+000 1.624955e+000 -9.407744e+000 121 40 37
2.806235e+000 1.597114e+000 -9.815162e+000 144 112 97
2.790533e+000 1.499209e+000 -9.691207e+000 80 31 26
2.875271e+000 1.530255e+000 -9.688378e+000 96 76 78
-2.135381e+000 1.038522e+000 -7.803281e+000 197 177 143
-1.259647e+000 1.200653e+000 -7.984823e+000 172 33 39
-1.260109e+000 1.200763e+000 -7.984264e+000 172 33 39
-1.188620e+000 1.232102e+000 -7.879999e+000 160 15 19
-2.658377e-001 1.234670e+000 -8.137103e+000 27 51 20
-2.051778e-001 1.284128e+000 -8.403914e+000 25 52 11
9.426585e-001 1.315612e+000 -8.533947e+000 148 138 103
1.403290e+000 1.384168e+000 -9.039612e+000 148 146 115
1.403290e+000 1.384168e+000 -9.039612e+000 148 146 115
2.351355e+000 1.344906e+000 -9.312892e+000 116 90 73
-1.202244e+000 1.116769e+000 -7.927974e+000 195 149 113
-1.164577e+000 1.053127e+000 -7.837191e+000 181 142 102
1.915302e+000 1.212518e+000 -9.020997e+000 137 84 76
-2.133253e+000 8.267571e-001 -7.679701e+000 203 180 148
-1.105532e+000 9.281538e-001 -7.690763e+000 171 146 89
-1.104517e+000 9.262782e-001 -7.694736e+000 171 146 89
-8.222907e-001 8.857483e-001 -7.861142e+000 149 146 33
5.050064e-001 9.679766e-001 -8.246462e+000 141 22 24
5.050064e-001 9.679766e-001 -8.246462e+000 141 22 24
1.237854e+000 1.108654e+000 -8.642295e+000 145 17 19
2.167177e+000 1.138850e+000 -9.004444e+000 72 50 55
2.560339e+000 1.160430e+000 -9.159275e+000 110 82 70
-2.121247e+000 6.971509e-001 -7.606842e+000 202 177 146
-2.121089e+000 6.975266e-001 -7.606561e+000 202 177 146
-2.036717e+000 6.371015e-001 -7.514640e+000 206 184 150
-1.156189e+000 8.771462e-001 -7.596889e+000 156 36 41
-1.085947e+000 8.031353e-001 -7.521547e+000 153 44 48
1.903940e+000 9.934323e-001 -8.759659e+000 78 22 23
1.972920e+000 9.889589e-001 -8.769636e+000 74 16 11
1.962136e+000 9.606868e-001 -8.751313e+000 158 92 67
2.042030e+000 9.900053e-001 -8.801895e+000 78 28 21
2.135105e+000 9.259955e-001 -8.763615e+000 60 20 20
-2.089359e+000 5.977121e-001 -7.543162e+000 205 181 145
-7.265425e-001 7.912091e-001 -7.615022e+000 140 138 28
2.656040e+000 7.492091e-001 -8.813982e+000 94 55 50
3.135414e+000 8.421396e-001 -9.079421e+000 80 48 48
3.129653e+000 8.474374e-001 -9.070033e+000 80 48 48
2.120011e+000 6.425947e-001 -8.549535e+000 77 28 31
4.630605e+000 5.960409e-001 -9.493466e+000 165 79 55
-6.413791e-001 5.135378e-001 -7.420829e+000 161 154 31
4.058037e+000 4.960782e-001 -9.312150e+000 162 114 70
4.466287e+000 3.009040e-001 -9.381451e+000 28 9 3
1.961920e+000 -1.478844e-001 -8.657110e+000 191 139 99
5.520309e+000 -8.575895e-001 -8.610898e+000 135 121 113
-7.362545e-001 1.540766e+000 -8.590655e+000 142 138 34
2.216800e+000 1.712216e+000 -9.802495e+000 76 104 107
2.217740e+000 1.712760e+000 -9.802764e+000 76 104 107
2.096809e+000 1.698051e+000 -9.736285e+000 18 58 87
2.211576e+000 1.631953e+000 -9.657305e+000 86 21 25
-2.810868e+000 8.520509e-001 -8.430639e+000 157 29 31
-2.157152e+000 1.098285e+000 -7.857976e+000 198 179 137
-2.157648e+000 1.096468e+000 -7.863441e+000 198 179 137
4.735113e+000 1.341447e+000 -1.055186e+001 133 88 66
-1.207216e+000 1.063998e+000 -7.837001e+000 168 31 49
-1.207216e+000 1.063998e+000 -7.837001e+000 168 31 49
1.216138e+000 1.244634e+000 -8.816729e+000 136 22 28
1.538016e+000 1.162909e+000 -8.824043e+000 13 60 83
2.832803e+000 1.181083e+000 -9.350738e+000 132 104 90
1.148345e+000 1.106452e+000 -8.606077e+000 181 145 102
2.253239e+000 1.016935e+000 -8.891785e+000 60 29 34
-2.017611e+000 7.681864e-001 -7.550044e+000 207 188 148
-1.120314e+000 8.581899e-001 -7.587335e+000 179 148 95
1.800782e+000 1.001475e+000 -8.709517e+000 149 51 30
2.823995e+000 9.632765e-001 -9.017175e+000 121 98 84
3.828092e+000 9.459661e-001 -9.455154e+000 160 103 72
2.084458e+000 8.093216e-001 -8.643142e+000 157 85 67
2.543009e+000 8.613176e-001 -8.838814e+000 129 97 84
-2.412065e+000 2.105037e-001 -7.816523e+000 179 153 124
4.148445e+000 6.870211e-001 -9.348239e+000 180 99 44
4.801890e+000 6.506813e-001 -9.584023e+000 175 137 112
3.169810e+000 4.920609e-001 -8.987370e+000 165 127 72
4.011106e+000 4.279051e-001 -9.221832e+000 155 53 40
5.210562e+000 4.878480e-001 -9.626073e+000 32 21 37
-3.451744e-001 1.695711e-001 -7.516121e+000 91 124 139
8.890326e-001 4.820194e-002 -8.060216e+000 79 35 67
1.315131e+000 -5.638036e-002 -8.281097e+000 126 67 48
1.315131e+000 -5.638036e-002 -8.281097e+000 126 67 48
3.329457e+000 -1.955015e-001 -9.204532e+000 195 143 104
4.650672e+000 -3.138090e+000 -1.059724e+001 134 118 105
4.654101e+000 -3.149026e+000 -1.061027e+001 134 118 105
3.393437e+000 -5.806364e+000 -1.323503e+001 69 61 71
4.469688e+000 -3.639252e+000 -1.084419e+001 131 114 106
4.469688e+000 -3.639252e+000 -1.084419e+001 131 114 106
4.495342e+000 -4.262403e+000 -1.089170e+001 154 140 131
9.287474e-001 1.790401e+000 -9.662551e+000 144 41 35
1.554043e+000 1.823358e+000 -9.824704e+000 146 58 52
2.047716e+000 1.841976e+000 -1.002314e+001 17 55 79
4.529845e+000 2.035877e+000 -1.116026e+001 29 18 24
3.374893e+000 1.840125e+000 -1.043348e+001 141 100 56
1.471306e+000 1.334241e+000 -9.008644e+000 24 59 99
2.702192e+000 1.415347e+000 -9.532082e+000 160 116 99
-2.002963e+000 9.337435e-001 -7.632061e+000 201 182 139
-2.005615e+000 9.296889e-001 -7.639930e+000 201 182 139
-1.970062e+000 8.466182e-001 -7.554351e+000 204 185 145
-1.971424e+000 8.448423e-001 -7.556087e+000 204 185 145
-1.141342e+000 8.066816e-001 -7.500582e+000 181 154 109
2.337669e+000 6.809829e-001 -8.662975e+000 73 22 27
4.110057e+000 3.905339e-001 -9.304556e+000 196 115 48
3.853247e+000 1.610541e-001 -9.230325e+000 105 27 36
4.990522e+000 1.919871e-001 -9.658647e+000 143 81 49
2.661805e+000 1.052355e-001 -8.736203e+000 152 26 36
4.775347e+000 -2.739305e+000 -1.029650e+001 149 137 125
4.854079e+000 -2.553137e+000 -1.012419e+001 149 132 124
4.999418e+000 -2.232155e+000 -9.831960e+000 145 134 130
4.428238e+000 -3.526415e+000 -1.102208e+001 138 129 116
4.828008e+000 -2.806104e+000 -9.998107e+000 133 119 108
5.020845e+000 -3.251817e+000 -9.655525e+000 164 147 137
5.020845e+000 -3.251817e+000 -9.655525e+000 164 147 137
1.916417e+000 1.716453e+000 -9.621848e+000 106 14 26
2.296378e+000 1.699748e+000 -9.846146e+000 18 53 80
-1.332393e+000 1.146866e+000 -7.897643e+000 166 29 36
-1.188848e+000 1.005566e+000 -7.747537e+000 156 32 27
2.793890e+000 1.038589e+000 -9.131406e+000 138 113 93
3.756031e+000 9.503179e-001 -9.421384e+000 150 107 68
2.867198e+000 6.165404e-001 -8.848262e+000 65 22 32
7.256818e-001 -1.535415e-001 -8.139202e+000 158 25 40
5.422382e+000 -1.082329e+000 -8.873603e+000 54 43 46
5.508575e+000 -1.001960e+000 -8.729716e+000 145 128 119
4.818916e+000 -2.633640e+000 -1.018573e+001 148 133 126
4.069168e+000 -4.330915e+000 -1.176180e+001 140 130 127
4.152860e+000 -4.136478e+000 -1.157953e+001 154 145 131
4.274414e+000 -3.860926e+000 -1.132494e+001 144 133 124
3.478123e+000 -5.839872e+000 -1.320456e+001 146 136 135
3.381817e+000 1.914643e+000 -1.066182e+001 30 13 21
-9.245710e-001 1.512188e+000 -8.448984e+000 76 79 11
-8.137782e-001 1.433652e+000 -8.401327e+000 100 107 71
1.234940e+000 1.581703e+000 -9.287149e+000 14 58 88
-2.241044e+000 1.011541e+000 -7.904959e+000 199 177 138
1.019559e+000 1.263517e+000 -8.789333e+000 135 20 32
1.111992e+000 1.247946e+000 -8.775905e+000 146 52 40
1.472041e+000 1.297253e+000 -8.953611e+000 116 119 101
1.474305e+000 1.296181e+000 -8.957587e+000 116 119 101
2.742229e+000 1.456493e+000 -9.540275e+000 93 53 49
5.056741e-001 1.187282e+000 -8.468617e+000 161 140 116
4.667269e+000 1.105231e+000 -9.984488e+000 160 88 43
-2.079316e+000 6.572169e-001 -7.554676e+000 208 186 151
5.661311e+000 -6.016906e-001 -8.365519e+000 142 124 120
5.472067e+000 -1.083554e+000 -8.802368e+000 143 131 119
4.089167e+000 -4.157920e+000 -1.169318e+001 55 50 49
4.399204e+000 -3.406326e+000 -1.099016e+001 51 47 52
5.829827e+000 -1.266104e+000 -7.978901e+000 157 136 133
5.836966e+000 -1.274678e+000 -7.986806e+000 157 136 133
4.811520e+000 -3.602169e+000 -1.017490e+001 157 141 128
8.117678e-001 1.736325e+000 -9.326668e+000 140 27 34
8.076273e-001 1.729189e+000 -9.336285e+000 140 27 34
3.360124e+000 1.876728e+000 -1.043100e+001 121 87 39
3.360124e+000 1.876728e+000 -1.043100e+001 121 87 39
6.902841e-001 1.423699e+000 -8.870900e+000 159 142 111
7.926236e-001 1.177426e+000 -8.596574e+000 151 140 112
2.053426e+000 6.127002e-001 -8.513137e+000 99 43 45
9.078296e-001 2.054178e-002 -8.054401e+000 28 65 108
5.005798e+000 -3.231386e+000 -9.724182e+000 164 147 137
5.021058e+000 -3.258550e+000 -9.753020e+000 164 147 137
-3.882660e-001 1.413465e+000 -8.594416e+000 31 53 37
1.359897e+000 1.321195e+000 -8.998506e+000 10 68 99
7.586199e-001 8.788281e-001 -8.235773e+000 159 145 118
2.670891e-001 8.429292e-001 -7.960574e+000 162 151 121
7.480559e-001 1.588087e+000 -9.010673e+000 159 142 112
-1.110463e-001 1.335211e+000 -8.442628e+000 166 149 104
2.370069e+000 1.301518e+000 -9.289620e+000 137 112 92
8.429055e-003 8.420311e-001 -7.942820e+000 160 149 123
4.389334e+000 -3.722731e+000 -1.113424e+001 140 127 118
2.509633e+000 1.539938e+000 -9.606555e+000 148 120 96
-9.320340e-001 1.701094e+000 -8.994861e+000 73 101 102
2.555578e+000 1.818962e+000 -1.029701e+001 146 108 69
4.416524e+000 1.884805e+000 -1.106609e+001 134 101 68
4.416524e+000 1.884805e+000 -1.106609e+001 134 101 68
2.930115e+000 1.314723e+000 -9.409350e+000 69 48 53
3.767681e-001 8.810211e-001 -8.547500e+000 158 147 116
1.551546e+000 -4.839452e-001 -1.918536e+001 67 51 14
-2.871134e-001 1.753995e+000 -8.950251e+000 149 136 51
1.983029e+000 1.812592e+000 -9.903138e+000 137 138 96
2.064282e+000 1.821568e+000 -9.937512e+000 134 135 114
2.064508e+000 1.821149e+000 -9.938269e+000 134 135 114
2.126760e+000 1.790156e+000 -9.875640e+000 27 52 55
2.140630e+000 1.762156e+000 -9.841542e+000 29 54 61
3.138171e+000 1.862699e+000 -1.044555e+001 144 97 51
-9.000668e-001 1.539191e+000 -8.480609e+000 29 41 28
3.177668e-001 1.596950e+000 -8.959494e+000 143 26 31
1.353840e+000 1.619720e+000 -9.347533e+000 148 145 106
1.350006e+000 1.624241e+000 -9.335242e+000 148 145 106
2.230884e+000 1.758770e+000 -9.885491e+000 27 54 58
2.232830e+000 1.755858e+000 -9.892216e+000 27 54 58
2.251597e+000 1.730091e+000 -9.838954e+000 27 57 68
1.486094e+000 1.582399e+000 -9.393519e+000 145 43 47
1.365318e+000 1.521953e+000 -9.206150e+000 24 59 71
1.365318e+000 1.521953e+000 -9.206150e+000 24 59 71
1.411584e+000 1.506788e+000 -9.194811e+000 145 154 119
1.497147e+000 1.529867e+000 -9.305245e+000 75 15 26
1.618623e+000 1.507735e+000 -9.252134e+000 170 117 81
2.692142e+000 1.547429e+000 -9.696938e+000 102 47 26
2.883192e+000 1.544189e+000 -9.815786e+000 101 71 64
-2.744359e+000 8.488979e-001 -8.400743e+000 149 80 62
-2.726789e+000 8.040726e-001 -8.464325e+000 180 141 98
-9.238050e-001 1.248895e+000 -8.268685e+000 147 138 3
-8.208492e-001 1.208218e+000 -8.201811e+000 158 143 29
7.320813e-001 1.331668e+000 -8.744452e+000 155 144 95
1.023522e+000 1.369752e+000 -8.894482e+000 185 151 90
1.114357e+000 1.372892e+000 -8.934426e+000 187 141 97
1.794816e+000 1.417726e+000 -9.214194e+000 139 74 59
1.816018e+000 1.375514e+000 -9.166324e+000 157 81 72
1.815762e+000 1.375474e+000 -9.166260e+000 157 81 72
2.822814e+000 1.489841e+000 -9.671810e+000 144 85 73
2.838190e+000 1.422923e+000 -9.586921e+000 139 78 65
-2.021606e+000 1.030739e+000 -7.705660e+000 201 175 122
-1.297905e+000 1.125159e+000 -7.862761e+000 177 154 87
8.980067e-001 1.287340e+000 -8.534241e+000 154 144 98
1.085458e+000 1.236014e+000 -8.751479e+000 183 147 97
1.174073e+000 1.241040e+000 -8.783454e+000 188 147 90
1.174115e+000 1.241139e+000 -8.783300e+000 188 147 90
1.547374e+000 1.235215e+000 -8.902483e+000 7 62 84
2.073275e+000 1.359539e+000 -9.240943e+000 73 55 55
2.073275e+000 1.359539e+000 -9.240943e+000 73 55 55
2.566307e+000 1.256897e+000 -9.296022e+000 110 102 72
2.834596e+000 1.386548e+000 -9.533873e+000 141 76 62
-1.974802e+000 9.856135e-001 -7.630286e+000 81 50 31
-1.975951e+000 9.819165e-001 -7.637763e+000 81 50 31
-1.139878e+000 1.068425e+000 -7.843780e+000 161 30 39
-1.139878e+000 1.068425e+000 -7.843780e+000 161 30 39
1.206765e+000 1.168689e+000 -8.707206e+000 188 128 82
1.206765e+000 1.168689e+000 -8.707206e+000 188 128 82
1.511936e+000 1.198862e+000 -8.860207e+000 24 59 76
2.112718e+000 1.178966e+000 -9.038659e+000 73 48 44
2.113851e+000 1.178306e+000 -9.039662e+000 73 48 44
2.247850e+000 1.136618e+000 -9.039654e+000 69 45 41
-2.154785e+000 7.903347e-001 -7.678345e+000 106 76 38
-2.087945e+000 7.647868e-001 -7.606224e+000 206 179 136
-2.093108e+000 6.970934e-001 -7.596906e+000 120 89 48
-1.206498e+000 9.299288e-001 -7.647540e+000 179 143 89
1.932866e+000 1.002962e+000 -8.762348e+000 145 84 68
2.686521e+000 9.962609e-001 -9.048272e+000 126 105 78
-2.089794e+000 5.932609e-001 -7.548229e+000 212 181 124
-2.019129e+000 5.915681e-001 -7.473271e+000 205 176 130
-9.804636e-001 7.861697e-001 -7.551435e+000 188 121 80
-9.804636e-001 7.861697e-001 -7.551435e+000 188 121 80
2.176864e+000 9.554095e-001 -8.800453e+000 75 34 29
2.985750e+000 9.942909e-001 -9.148529e+000 68 24 21
-8.066993e-001 6.923191e-001 -7.612325e+000 142 125 29
5.578308e-001 6.987411e-001 -7.997626e+000 166 148 32
9.209144e-001 7.223706e-001 -8.173268e+000 171 140 101
9.209144e-001 7.223706e-001 -8.173268e+000 171 140 101
4.155344e+000 7.487979e-001 -9.395245e+000 174 90 33
4.687893e+000 8.584712e-001 -9.692056e+000 129 29 29
4.690978e+000 8.553743e-001 -9.697701e+000 129 29 29
1.045184e-001 6.267071e-001 -7.769100e+000 21 45 22
9.624963e-001 6.365209e-001 -8.111262e+000 163 149 97
2.195159e+000 6.407231e-001 -8.589196e+000 71 24 24
3.084049e+000 6.775997e-001 -8.927229e+000 52 16 18
3.529793e+000 6.123924e-001 -9.070931e+000 26 14 24
2.785292e+000 4.972493e-001 -8.744708e+000 131 85 30
3.080403e+000 4.780526e-001 -8.839295e+000 173 119 56
1.462139e+000 -7.320835e-001 -8.834368e+000 52 44 38
3.083994e+000 -5.406903e+000 -1.401203e+001 64 58 59
5.538533e+000 -7.534436e-001 -8.559331e+000 38 29 25
5.036428e+000 -2.120795e+000 -9.793688e+000 52 35 31
4.461953e+000 -4.064857e+000 -1.100424e+001 154 136 114
5.889554e+000 -8.759887e-001 -7.723980e+000 159 133 116
5.556458e-001 1.702426e+000 -9.162101e+000 169 137 95
9.062584e-001 1.784656e+000 -9.450894e+000 165 136 96
2.052369e+000 1.793241e+000 -9.900392e+000 16 56 72
2.145087e+000 1.876260e+000 -9.989991e+000 12 53 75
2.577847e+000 1.766565e+000 -9.982430e+000 155 112 61
1.401427e+000 1.453303e+000 -9.126346e+000 11 55 71
1.403847e+000 1.451314e+000 -9.131537e+000 11 55 71
-1.335281e+000 1.125185e+000 -7.840926e+000 157 25 32
2.830397e+000 1.467726e+000 -9.074898e+000 100 75 69
-1.101139e+000 1.015425e+000 -7.805865e+000 179 147 93
-2.415303e+000 5.614686e-001 -7.779393e+000 167 134 89
-1.181130e+000 9.017430e-001 -7.601656e+000 170 147 80
1.576905e+000 1.088381e+000 -8.754436e+000 19 56 74
-1.039956e+000 8.044694e-001 -7.539634e+000 159 34 37
-1.039956e+000 8.044694e-001 -7.539634e+000 159 34 37
1.811135e+000 8.538080e-001 -8.638425e+000 164 88 52
1.988386e+000 8.775012e-001 -8.676431e+000 159 89 74
2.328391e+000 9.346406e-001 -8.850408e+000 145 119 104
2.610924e+000 7.683203e-001 -8.816855e+000 170 127 103
4.735233e+000 8.617704e-001 -9.713957e+000 170 130 86
4.991575e+000 8.399731e-001 -9.844338e+000 132 54 28
-8.154010e-001 6.024959e-001 -7.368683e+000 57 86 83
-8.174554e-001 5.933882e-001 -7.382197e+000 57 86 83
1.704294e+000 5.837471e-001 -8.363980e+000 173 129 69
2.236655e+000 5.471628e-001 -8.591672e+000 169 129 85
3.806863e+000 6.974454e-001 -9.178890e+000 162 125 73
3.993360e+000 4.453860e-001 -9.188033e+000 148 49 19
2.896916e+000 1.078652e-001 -8.846581e+000 162 19 28
1.221205e+000 5.684329e-002 -8.184255e+000 25 73 101
1.283053e+000 -1.973885e-001 -8.362539e+000 147 93 62
1.280457e+000 -1.953237e-001 -8.359530e+000 147 93 62
5.650698e+000 -9.865663e-001 -8.692174e+000 112 90 76
5.601639e+000 -1.761666e+000 -8.841862e+000 124 98 81
3.527215e+000 -6.344020e+000 -1.279477e+001 168 155 139
4.921817e+000 -3.398764e+000 -9.776856e+000 164 139 117
-2.108998e+000 1.705837e+000 -8.473420e+000 156 135 89
-1.699181e-001 1.779954e+000 -9.122777e+000 52 58 30
-1.701613e-001 1.778930e+000 -9.124283e+000 52 58 30
3.205746e+000 1.898928e+000 -1.066017e+001 107 57 20
3.306198e+000 1.876156e+000 -1.047059e+001 148 96 46
-1.935810e+000 1.392095e+000 -8.088092e+000 160 138 90
2.691667e+000 1.646698e+000 -9.798932e+000 68 14 6
-2.067295e+000 1.057121e+000 -7.763669e+000 200 177 125
-2.067295e+000 1.057121e+000 -7.763669e+000 200 177 125
-2.100198e+000 9.928585e-001 -7.737370e+000 200 172 121
2.783091e+000 1.341923e+000 -9.451010e+000 93 63 44
-1.244084e+000 1.064856e+000 -7.822588e+000 172 34 37
-1.244084e+000 1.064856e+000 -7.822588e+000 172 34 37
-2.226379e-001 1.063000e+000 -8.146018e+000 162 142 27
1.687391e+000 1.154980e+000 -8.742444e+000 167 128 66
-2.034964e+000 7.988147e-001 -7.566847e+000 206 178 134
-2.035756e+000 7.976376e-001 -7.568660e+000 206 178 134
3.050370e+000 1.039426e+000 -9.212998e+000 80 54 56
2.991642e+000 1.219582e+000 -8.900739e+000 71 45 51
-1.935679e+000 7.526752e-001 -7.485915e+000 189 159 112
9.491948e-001 9.224160e-001 -8.348095e+000 160 147 96
4.059755e+000 7.920664e-001 -9.302400e+000 117 26 22
5.056055e+000 7.672829e-001 -9.887370e+000 122 48 22
4.822459e+000 6.851272e-001 -9.623332e+000 174 141 90
7.623016e-001 -2.335280e-001 -8.175795e+000 189 120 86
1.041015e+000 -1.904214e-001 -8.271500e+000 15 56 74
-2.043138e+000 -1.440828e-001 -6.767871e+000 149 126 92
5.176729e+000 -1.827444e+000 -9.549299e+000 49 39 38
5.387974e+000 -1.292198e+000 -9.075792e+000 53 37 37
3.922125e+000 -4.615667e+000 -1.203349e+001 153 137 117
4.196395e+000 -3.921196e+000 -1.137528e+001 151 141 122
4.243950e+000 -4.128989e+000 -1.121099e+001 160 142 118
5.685555e+000 -2.032401e+000 -8.523653e+000 108 87 68
1.954978e+000 1.828376e+000 -9.980459e+000 24 52 75
2.139329e+000 1.700693e+000 -9.732889e+000 16 55 73
3.692081e-001 1.540914e+000 -8.877960e+000 162 143 98
2.025619e+000 1.162081e+000 -8.991326e+000 68 45 48
2.280903e+000 1.186683e+000 -9.084669e+000 67 44 42
6.354435e-001 8.798893e-001 -8.194390e+000 168 23 23
-1.147844e+000 7.746750e-001 -7.455098e+000 164 41 40
4.102644e+000 8.191822e-001 -9.435792e+000 116 22 24
3.737804e+000 7.119358e-001 -9.137323e+000 25 70 94
1.226024e+000 7.164821e-003 -8.248126e+000 14 67 85
4.704955e+000 -2.677619e+000 -1.030064e+001 48 35 35
5.148859e+000 -2.051690e+000 -9.686789e+000 151 133 111
3.715547e+000 -5.157286e+000 -1.254256e+001 153 139 126
5.063566e-001 1.638266e+000 -9.048389e+000 160 140 93
2.722706e+000 1.637934e+000 -9.857739e+000 66 14 3
2.273725e+000 1.345328e+000 -9.294748e+000 125 95 69
-2.119175e+000 9.291359e-001 -7.742792e+000 201 174 126
-7.228303e-002 8.894433e-001 -7.979513e+000 160 145 49
-2.421899e+000 -4.020880e-001 -7.896883e+000 153 134 94
-2.543805e-001 1.041413e-001 -7.563058e+000 139 139 112
5.690874e+000 -5.092650e-001 -8.284152e+000 150 125 105
5.581082e+000 -8.324370e-001 -8.579339e+000 163 140 124
4.474562e+000 -3.240991e+000 -1.084146e+001 48 38 37
2.165391e+000 1.852996e+000 -1.033553e+001 141 102 61
-3.782017e-001 1.646595e+000 -8.767796e+000 107 108 92
3.549666e-001 1.597999e+000 -8.961295e+000 163 87 69
1.309207e+000 1.633483e+000 -9.353983e+000 23 56 71
1.311086e+000 1.628738e+000 -9.361163e+000 23 56 71
4.007823e-001 1.430691e+000 -8.742321e+000 162 140 96
-1.249944e+000 1.106121e+000 -7.872151e+000 140 36 15
-1.691872e-001 1.264503e+000 -8.350483e+000 33 49 31
4.293798e-002 1.287098e+000 -8.415384e+000 28 48 18
-2.012998e+000 7.140972e-001 -7.538505e+000 208 175 130
1.576450e+000 8.353752e-001 -8.546217e+000 27 57 84
4.636628e+000 8.835899e-001 -9.734871e+000 174 134 96
4.651819e+000 8.767790e-001 -9.751319e+000 174 134 96
4.181586e+000 8.805353e-001 -9.446497e+000 170 84 27
-3.131359e-001 2.256093e-001 -7.523481e+000 88 117 115
3.735451e+000 2.072583e-002 -9.257289e+000 97 26 23
3.735451e+000 2.072583e-002 -9.257289e+000 97 26 23
4.809596e+000 1.660424e-001 -9.615633e+000 206 114 46
3.346131e+000 -6.326177e+000 -1.375422e+001 44 34 32
-1.738916e-001 1.640713e+000 -8.856875e+000 157 142 81
5.312304e-001 1.184438e+000 -8.480364e+000 162 137 98
5.312304e-001 1.184438e+000 -8.480364e+000 162 137 98
7.819199e-001 1.178762e+000 -8.593249e+000 156 137 96
-6.409687e-001 1.006354e+000 -7.943489e+000 21 49 21
-6.359109e-002 1.024993e+000 -8.123442e+000 163 143 88
-6.359109e-002 1.024993e+000 -8.123442e+000 163 143 88
2.087304e-001 9.683012e-001 -8.136171e+000 32 51 32
2.087304e-001 9.683012e-001 -8.136171e+000 32 51 32
-1.139617e+000 8.732091e-001 -7.607985e+000 185 116 89
2.875317e+000 8.745914e-001 -9.079156e+000 128 91 71
2.720635e+000 5.181966e-001 -8.769521e+000 159 110 54
4.074586e+000 -3.418340e-001 -9.707805e+000 166 109 43
3.592861e+000 1.911077e+000 -1.076716e+001 129 87 39
-6.360626e-001 1.126374e+000 -8.103414e+000 27 52 28
2.626170e+000 1.158171e+000 -9.185986e+000 135 103 78
-1.402526e-001 9.620339e-001 -8.035628e+000 24 47 19
3.051020e+000 1.120069e+000 -9.267256e+000 101 76 72
2.885886e-001 8.497329e-001 -8.040616e+000 158 141 95
2.784225e+000 3.715777e-001 -8.725358e+000 52 17 19
1.145289e+000 -7.084909e-002 -8.246393e+000 18 63 83
2.589221e+000 9.187274e-001 -8.978379e+000 145 110 80
1.325147e+000 6.650252e-001 -8.292608e+000 151 28 31
1.325147e+000 6.650252e-001 -8.292608e+000 151 28 31
5.860534e-001 1.295495e+000 -8.671458e+000 157 138 98
5.075796e+000 6.206914e-002 -9.671596e+000 33 23 24
-8.687331e-001 1.350278e+000 -8.323034e+000 29 54 25
1.338136e+000 1.316163e+000 -8.781219e+000 29 40 51
1.338136e+000 1.316163e+000 -8.781219e+000 29 40 51
3.156864e+000 1.653032e+000 -1.000611e+001 155 113 65
-6.239193e-001 7.049510e-001 -7.757314e+000 29 51 30
4.692090e+000 5.595537e-001 -9.608049e+000 177 110 68
4.692090e+000 5.595537e-001 -9.608049e+000 177 110 68
2.105159e+000 1.814379e+000 -1.005551e+001 16 36 39
2.086737e+000 1.835908e+000 -9.999324e+000 16 36 39
2.106108e+000 1.816419e+000 -9.980724e+000 24 41 46
3.841378e-001 1.658501e+000 -9.089055e+000 111 26 21
2.245541e+000 1.791759e+000 -1.001171e+001 52 71 71
-6.867570e-001 1.260116e+000 -9.017097e+000 115 103 22
1.308543e+000 1.599442e+000 -9.301188e+000 9 42 50
1.345893e+000 1.601188e+000 -9.313476e+000 15 46 57
-1.198381e+000 1.250835e+000 -8.287704e+000 114 105 15
1.525069e+000 1.562530e+000 -9.282253e+000 117 46 27
1.790087e+000 1.516190e+000 -9.351151e+000 60 18 10
2.743613e+000 1.508845e+000 -9.671244e+000 104 57 47
-8.989878e-001 1.305740e+000 -8.215694e+000 107 98 11
1.052975e+000 1.309121e+000 -8.826032e+000 149 115 60
1.052636e+000 1.309579e+000 -8.824853e+000 149 115 60
1.793680e+000 1.418543e+000 -9.213114e+000 108 56 44
2.103927e+000 1.360137e+000 -9.252902e+000 53 34 29
2.740290e+000 1.452149e+000 -9.572807e+000 69 31 20
-1.998130e+000 1.010103e+000 -7.706144e+000 64 35 5
1.177029e-001 1.266119e+000 -8.431540e+000 33 36 2
1.135716e+000 1.235229e+000 -8.935507e+000 108 8 6
1.098797e+000 1.257103e+000 -8.775336e+000 107 21 17
2.354095e+000 1.343261e+000 -9.320997e+000 89 61 37
-2.104754e+000 8.265656e-001 -7.652696e+000 73 48 11
-2.011201e+000 9.131513e-001 -7.591901e+000 74 46 35
-2.015827e+000 8.959822e-001 -7.617426e+000 74 46 35
-1.977168e+000 9.760472e-001 -7.645651e+000 54 30 1
-1.966635e+000 9.400644e-001 -7.573336e+000 74 49 15
1.148222e+000 1.104425e+000 -8.611458e+000 147 106 71
1.304226e+000 1.175909e+000 -8.747047e+000 107 19 17
1.941365e+000 1.198001e+000 -9.001787e+000 65 24 16
-2.118325e+000 8.086393e-001 -7.630414e+000 162 140 91
-2.138691e+000 7.460297e-001 -7.643140e+000 162 138 92
-2.137528e+000 7.514415e-001 -7.634722e+000 162 138 92
-2.072496e+000 7.329249e-001 -7.582891e+000 165 140 98
-2.072496e+000 7.329249e-001 -7.582891e+000 165 140 98
-7.915822e-001 1.889505e+000 -6.224660e+000 115 106 29
2.684162e-001 9.208441e-001 -8.144296e+000 137 110 25
2.043785e+000 9.881459e-001 -8.804066e+000 61 19 13
2.568559e+000 1.082171e+000 -9.022942e+000 102 81 57
-6.919437e-001 9.304991e-001 -7.583539e+000 111 100 11
2.005647e+000 9.016929e-001 -8.706105e+000 61 13 2
2.561087e+000 8.362917e-001 -8.879172e+000 110 80 56
2.092853e+000 7.227489e-001 -8.577670e+000 114 58 50
2.093000e+000 7.221454e-001 -8.578526e+000 114 58 50
2.444168e+000 7.246899e-001 -8.714589e+000 43 8 4
2.444168e+000 7.246899e-001 -8.714589e+000 43 8 4
2.524400e+000 8.051578e-001 -8.786684e+000 88 50 42
3.017368e+000 7.930412e-001 -8.935570e+000 46 16 15
4.492265e+000 8.041837e-001 -9.593853e+000 119 75 34
4.607570e+000 7.977475e-001 -9.607445e+000 113 24 12
4.783222e+000 7.572216e-001 -9.676605e+000 117 18 7
-5.102449e-001 6.618508e-001 -7.494887e+000 118 101 14
2.838951e+000 6.425415e-001 -8.771721e+000 47 10 8
3.808311e+000 5.795997e-001 -9.161768e+000 10 45 55
4.743591e+000 6.521492e-001 -9.553191e+000 120 45 28
-5.370435e-001 5.671815e-001 -7.397329e+000 128 114 17
3.726889e+000 4.915271e-001 -9.078164e+000 144 102 52
5.042527e+000 -2.233734e+000 -9.766286e+000 101 82 65
5.734070e+000 -5.030907e-001 -8.241722e+000 92 71 50
3.420477e+000 1.869989e+000 -1.061513e+001 114 80 36
2.250095e+000 1.784850e+000 -9.910143e+000 35 54 48
2.050171e+000 1.406666e+000 -9.291193e+000 62 42 38
-2.046789e+000 1.014674e+000 -7.720995e+000 157 133 88
-2.046226e+000 1.016207e+000 -7.719651e+000 157 133 88
-1.201114e+000 1.122635e+000 -7.911534e+000 141 106 61
2.593698e+000 1.323432e+000 -9.383506e+000 22 3 1
2.070150e+000 1.191410e+000 -9.038901e+000 78 59 51
-1.091633e+000 8.970952e-001 -7.651648e+000 134 102 62
2.762378e+000 1.007497e+000 -9.066548e+000 108 81 60
2.195001e+000 9.500924e-001 -8.812742e+000 59 29 28
-1.056706e+000 7.896018e-001 -7.507258e+000 146 103 69
-8.436428e-001 6.118240e-001 -7.394581e+000 128 114 69
-2.430291e+000 -2.565257e-001 -7.923895e+000 153 123 81
3.934321e+000 4.649402e-001 -9.165722e+000 138 95 50
4.415065e+000 1.435912e-001 -9.421003e+000 152 127 89
2.493651e+000 -2.050197e-001 -8.851883e+000 160 109 68
6.690606e-001 -2.528302e-001 -8.134531e+000 117 28 21
4.423307e+000 -3.417497e+000 -1.099049e+001 31 21 19
5.243062e+000 -1.781658e+000 -9.249272e+000 130 108 84
3.801462e+000 1.915042e+000 -1.107295e+001 91 60 41
3.875478e+000 1.982004e+000 -1.089359e+001 36 5 2
2.214630e+000 1.316353e+000 -9.216621e+000 62 45 35
1.923284e+000 9.471636e-001 -8.699434e+000 68 21 16
2.020280e+000 9.664626e-001 -8.774555e+000 118 60 39
2.252094e+000 9.418774e-001 -8.838293e+000 59 37 26
8.370395e-001 7.786031e-001 -8.151122e+000 123 108 69
5.102960e+000 6.471604e-001 -9.765190e+000 115 47 33
6.960906e-001 -1.509735e-001 -8.081007e+000 120 29 22
-2.253055e-001 -5.652137e-001 -7.986961e+000 114 111 54
7.279325e-001 -2.974994e-001 -8.191609e+000 153 88 65
4.353455e+000 -3.620463e+000 -1.118368e+001 36 26 24
5.489682e+000 -9.931935e-001 -8.801029e+000 42 28 27
5.803182e+000 -1.199866e+000 -8.064554e+000 138 116 95
5.821246e+000 -8.986514e-001 -7.857120e+000 115 93 72
2.133346e+000 1.784551e+000 -1.057520e+001 101 72 34
-8.974417e-002 8.309599e-001 -8.076152e+000 128 107 32
3.609994e+000 9.773512e-001 -9.253647e+000 14 43 46
6.733011e-002 8.582092e-001 -7.806077e+000 126 106 35
6.733011e-002 8.582092e-001 -7.806077e+000 126 106 35
2.323753e+000 8.328868e-001 -8.684477e+000 58 23 21
2.141283e+000 5.606442e-001 -8.508802e+000 132 94 48
-4.553273e-001 -4.115620e-001 -7.753980e+000 112 114 63
5.423206e+000 -1.231775e+000 -8.937866e+000 127 105 84
5.584586e+000 -7.626295e-001 -8.405562e+000 93 76 56
