ply
format ascii 1.0
element face 0
property list uchar int vertex_indices
element vertex 892
property float x
property float y
property float z
property uchar diffuse_red
property uchar diffuse_green
property uchar diffuse_blue
end_header
-8.796812e-001 6.273675e-001 -7.389778e+000 171 26 41
3.128865e+000 5.728594e-001 -8.892767e+000 166 123 69
4.922890e+000 -2.505237e+000 -1.006823e+001 145 130 127
2.898109e+000 8.365753e-001 -8.974791e+000 155 119 105
5.164618e+000 -1.812388e+000 -9.521076e+000 51 39 49
4.921784e+000 -2.461714e+000 -1.014148e+001 49 41 41
5.218052e-002 1.274736e+000 -8.402963e+000 32 56 32
8.550700e-001 1.030466e+000 -8.419483e+000 162 148 121
8.550700e-001 1.030466e+000 -8.419483e+000 162 148 121
2.953712e-001 1.107951e+000 -8.229824e+000 163 147 116
8.695662e-001 6.870155e-001 -8.101412e+000 169 147 116
1.343813e+000 6.829009e-001 -8.271906e+000 150 23 32
1.686151e+000 6.726454e-001 -8.410239e+000 16 69 109
-1.519167e-001 1.733096e+000 -9.023998e+000 148 142 47
4.468568e+000 2.009708e+000 -1.122472e+001 152 93 56
-3.769433e-002 1.604871e+000 -8.835463e+000 157 149 70
2.168271e+000 1.777491e+000 -9.818751e+000 69 92 99
1.316030e+000 1.627058e+000 -9.337129e+000 17 53 78
1.315667e+000 1.626722e+000 -9.337348e+000 17 53 78
1.520053e+000 1.616062e+000 -9.390218e+000 121 40 37
2.811112e+000 1.588184e+000 -9.798434e+000 144 112 97
2.795453e+000 1.490499e+000 -9.674493e+000 80 31 26
2.880278e+000 1.521214e+000 -9.672343e+000 96 76 78
-2.119958e+000 1.028968e+000 -7.785193e+000 197 177 143
-1.246133e+000 1.190786e+000 -7.967898e+000 172 33 39
-1.247025e+000 1.191597e+000 -7.966129e+000 172 33 39
-1.175609e+000 1.222835e+000 -7.862137e+000 160 15 19
-2.547163e-001 1.225913e+000 -8.119360e+000 27 51 20
-1.944392e-001 1.275264e+000 -8.386049e+000 25 52 11
9.517661e-001 1.306957e+000 -8.517147e+000 148 138 103
1.411380e+000 1.375634e+000 -9.022599e+000 148 146 115
1.411380e+000 1.375634e+000 -9.022599e+000 148 146 115
2.357928e+000 1.336142e+000 -9.297206e+000 116 90 73
-1.189279e+000 1.107711e+000 -7.909973e+000 195 149 113
-1.151555e+000 1.044222e+000 -7.819292e+000 181 142 102
1.922756e+000 1.204029e+000 -9.004905e+000 137 84 76
-2.117796e+000 8.176073e-001 -7.661765e+000 203 180 148
-1.092432e+000 9.193515e-001 -7.673418e+000 171 146 89
-1.091433e+000 9.175853e-001 -7.677193e+000 171 146 89
-8.099180e-001 8.773614e-001 -7.843196e+000 149 146 33
5.151334e-001 9.596387e-001 -8.229847e+000 141 22 24
5.151334e-001 9.596387e-001 -8.229847e+000 141 22 24
1.246544e+000 1.100298e+000 -8.625755e+000 145 17 19
2.174250e+000 1.130511e+000 -8.988524e+000 72 50 55
2.566631e+000 1.152031e+000 -9.143671e+000 110 82 70
-2.105663e+000 6.882106e-001 -7.589181e+000 202 177 146
-2.105522e+000 6.885506e-001 -7.588926e+000 202 177 146
-2.021224e+000 6.282442e-001 -7.497276e+000 206 184 150
-1.142767e+000 8.678584e-001 -7.580387e+000 156 36 41
-1.072651e+000 7.945688e-001 -7.504448e+000 153 44 48
1.913566e+000 9.827695e-001 -8.747481e+000 78 22 23
1.980548e+000 9.808411e-001 -8.753780e+000 74 16 11
1.969247e+000 9.534384e-001 -8.734330e+000 158 92 67
2.049456e+000 9.819210e-001 -8.785974e+000 78 28 21
2.142458e+000 9.180054e-001 -8.747859e+000 60 20 20
-2.073781e+000 5.889705e-001 -7.525646e+000 205 181 145
-7.140016e-001 7.830825e-001 -7.597416e+000 140 138 28
2.662493e+000 7.415220e-001 -8.798690e+000 94 55 50
3.140720e+000 8.342603e-001 -9.064385e+000 80 48 48
3.134987e+000 8.395524e-001 -9.055056e+000 80 48 48
2.127658e+000 6.350399e-001 -8.533981e+000 77 28 31
4.632655e+000 5.885475e-001 -9.479750e+000 165 79 55
-6.286922e-001 5.058977e-001 -7.403603e+000 161 154 31
4.061486e+000 4.887681e-001 -9.297906e+000 162 114 70
4.468956e+000 2.939375e-001 -9.367600e+000 28 9 3
1.970081e+000 -1.542621e-001 -8.640570e+000 191 139 99
5.521054e+000 -8.620074e-001 -8.599192e+000 135 121 113
-7.249789e-001 1.531117e+000 -8.572535e+000 142 138 34
2.222775e+000 1.703047e+000 -9.785473e+000 76 104 107
2.223518e+000 1.704397e+000 -9.784631e+000 76 104 107
2.103130e+000 1.688796e+000 -9.719532e+000 18 58 87
2.217882e+000 1.622804e+000 -9.640873e+000 86 21 25
-2.795115e+000 8.421157e-001 -8.411823e+000 157 29 31
-2.141756e+000 1.088720e+000 -7.839459e+000 198 179 137
-2.142305e+000 1.086862e+000 -7.845022e+000 198 179 137
4.736787e+000 1.332535e+000 -1.053760e+001 133 88 66
-1.194072e+000 1.055046e+000 -7.819191e+000 168 31 49
-1.194072e+000 1.055046e+000 -7.819191e+000 168 31 49
1.224739e+000 1.236080e+000 -8.800066e+000 136 22 28
1.546092e+000 1.154564e+000 -8.807521e+000 13 60 83
2.838536e+000 1.172606e+000 -9.335339e+000 132 104 90
1.157182e+000 1.098223e+000 -8.589159e+000 181 145 102
2.260252e+000 1.008809e+000 -8.876020e+000 60 29 34
-2.002259e+000 7.591293e-001 -7.532730e+000 207 188 148
-1.107066e+000 8.494053e-001 -7.570257e+000 179 148 95
1.808724e+000 9.933258e-001 -8.693552e+000 149 51 30
2.829870e+000 9.552462e-001 -9.001825e+000 121 98 84
3.831797e+000 9.378326e-001 -9.440675e+000 160 103 72
2.092058e+000 8.014870e-001 -8.627506e+000 157 85 67
2.549545e+000 8.535003e-001 -8.823225e+000 129 97 84
-2.396360e+000 2.018598e-001 -7.799146e+000 179 153 124
4.151498e+000 6.794016e-001 -9.334058e+000 180 99 44
4.803112e+000 6.433325e-001 -9.569708e+000 175 137 112
3.175253e+000 4.848521e-001 -8.972235e+000 165 127 72
4.014527e+000 4.208895e-001 -9.207251e+000 155 53 40
5.211192e+000 4.806536e-001 -9.612569e+000 32 21 37
-3.330174e-001 1.624629e-001 -7.498986e+000 91 124 139
8.989539e-001 4.158455e-002 -8.043075e+000 79 35 67
1.324356e+000 -6.283783e-002 -8.264138e+000 126 67 48
1.324356e+000 -6.283783e-002 -8.264138e+000 126 67 48
3.335175e+000 -2.018512e-001 -9.189394e+000 195 143 104
4.656803e+000 -3.143239e+000 -1.058389e+001 134 118 105
4.659339e+000 -3.152503e+000 -1.059466e+001 134 118 105
3.403541e+000 -5.820223e+000 -1.322611e+001 69 61 71
4.476611e+000 -3.644912e+000 -1.083096e+001 131 114 106
4.476611e+000 -3.644912e+000 -1.083096e+001 131 114 106
4.502207e+000 -4.266987e+000 -1.087736e+001 154 140 131
9.368950e-001 1.780825e+000 -9.645656e+000 144 41 35
1.561333e+000 1.813757e+000 -9.808403e+000 146 58 52
2.053682e+000 1.832667e+000 -1.000555e+001 17 55 79
4.528887e+000 2.027495e+000 -1.114076e+001 29 18 24
3.374653e+000 1.832224e+000 -1.041086e+001 141 100 56
1.479385e+000 1.325559e+000 -8.992117e+000 24 59 99
2.704145e+000 1.410922e+000 -9.508989e+000 160 116 99
-1.987668e+000 9.245398e-001 -7.614232e+000 201 182 139
-1.990318e+000 9.205223e-001 -7.622014e+000 201 182 139
-1.954785e+000 8.374275e-001 -7.536918e+000 204 185 145
-1.956105e+000 8.357465e-001 -7.538539e+000 204 185 145
-1.127977e+000 7.980546e-001 -7.483488e+000 181 154 109
2.344854e+000 6.732094e-001 -8.647743e+000 73 22 27
4.113522e+000 3.833844e-001 -9.290430e+000 196 115 48
3.857533e+000 1.542307e-001 -9.216010e+000 105 27 36
4.992162e+000 1.852027e-001 -9.645049e+000 143 81 49
2.668540e+000 9.867695e-002 -8.720470e+000 152 26 36
4.779970e+000 -2.742659e+000 -1.028128e+001 149 137 125
4.858862e+000 -2.556865e+000 -1.010987e+001 149 132 124
5.003762e+000 -2.235889e+000 -9.818276e+000 145 134 130
4.435129e+000 -3.531454e+000 -1.100757e+001 138 129 116
4.833089e+000 -2.810372e+000 -9.984976e+000 133 119 108
5.025627e+000 -3.255219e+000 -9.643030e+000 164 147 137
5.025627e+000 -3.255219e+000 -9.643030e+000 164 147 137
1.923365e+000 1.707027e+000 -9.605867e+000 106 14 26
2.301164e+000 1.692050e+000 -9.826475e+000 18 53 80
-1.319054e+000 1.137768e+000 -7.879554e+000 166 29 36
-1.175665e+000 9.966547e-001 -7.729949e+000 156 32 27
2.799750e+000 1.030401e+000 -9.115938e+000 138 113 93
3.759639e+000 9.423586e-001 -9.406345e+000 150 107 68
2.873341e+000 6.090570e-001 -8.833188e+000 65 22 32
7.359231e-001 -1.603403e-001 -8.122455e+000 158 25 40
5.423753e+000 -1.086689e+000 -8.861573e+000 54 43 46
5.509825e+000 -1.006423e+000 -8.717960e+000 145 128 119
4.824062e+000 -2.638272e+000 -1.017245e+001 148 133 126
4.077757e+000 -4.338666e+000 -1.174896e+001 140 130 127
4.161025e+000 -4.143992e+000 -1.156684e+001 154 145 131
4.282123e+000 -3.867736e+000 -1.131197e+001 144 133 124
3.488195e+000 -5.853446e+000 -1.319545e+001 146 136 135
3.385280e+000 1.905050e+000 -1.064535e+001 30 13 21
-9.127382e-001 1.502574e+000 -8.430634e+000 76 79 11
-8.020713e-001 1.424216e+000 -8.383185e+000 100 107 71
1.245949e+000 1.570100e+000 -9.275963e+000 14 58 88
-2.224193e+000 1.004583e+000 -7.884438e+000 199 177 138
1.028331e+000 1.255064e+000 -8.772168e+000 135 20 32
1.120645e+000 1.239471e+000 -8.758918e+000 146 52 40
1.480158e+000 1.288654e+000 -8.937066e+000 116 119 101
1.483306e+000 1.288454e+000 -8.940884e+000 116 119 101
2.747954e+000 1.447478e+000 -9.524935e+000 93 53 49
5.154688e-001 1.178717e+000 -8.451505e+000 161 140 116
4.668563e+000 1.096864e+000 -9.969757e+000 160 88 43
-2.063819e+000 6.483634e-001 -7.537115e+000 208 186 151
5.661543e+000 -6.066090e-001 -8.354398e+000 142 124 120
5.472585e+000 -1.087146e+000 -8.789376e+000 143 131 119
4.097546e+000 -4.165862e+000 -1.168074e+001 55 50 49
4.406171e+000 -3.412057e+000 -1.097646e+001 51 47 52
5.831380e+000 -1.270734e+000 -7.969674e+000 157 136 133
5.837532e+000 -1.277962e+000 -7.976192e+000 157 136 133
4.817331e+000 -3.606374e+000 -1.016203e+001 157 141 128
8.211139e-001 1.730656e+000 -9.305289e+000 140 27 34
8.160471e-001 1.719964e+000 -9.318370e+000 140 27 34
3.364122e+000 1.866973e+000 -1.041567e+001 121 87 39
3.364122e+000 1.866973e+000 -1.041567e+001 121 87 39
6.994401e-001 1.414777e+000 -8.853756e+000 159 142 111
8.019340e-001 1.168995e+000 -8.579553e+000 151 140 112
2.061260e+000 6.051559e-001 -8.497597e+000 99 43 45
9.177355e-001 1.397368e-002 -8.037271e+000 28 65 108
5.011734e+000 -3.235936e+000 -9.712400e+000 164 147 137
5.024960e+000 -3.260286e+000 -9.738216e+000 164 147 137
-3.774426e-001 1.404355e+000 -8.576255e+000 31 53 37
1.367994e+000 1.312716e+000 -8.981456e+000 10 68 99
7.683720e-001 8.706569e-001 -8.219280e+000 159 145 118
2.777693e-001 8.348309e-001 -7.943773e+000 162 151 121
7.573605e-001 1.576920e+000 -8.995826e+000 159 142 112
-1.016157e-001 1.332462e+000 -8.416708e+000 166 149 104
2.375619e+000 1.293809e+000 -9.271975e+000 137 112 92
1.937359e-002 8.337314e-001 -7.925957e+000 160 149 123
4.396708e+000 -3.729094e+000 -1.112123e+001 140 127 118
2.512738e+000 1.534146e+000 -9.584691e+000 148 120 96
-9.208457e-001 1.691251e+000 -8.975592e+000 73 101 102
2.560751e+000 1.809548e+000 -1.028016e+001 146 108 69
4.418405e+000 1.875034e+000 -1.105120e+001 134 101 68
4.418405e+000 1.875034e+000 -1.105120e+001 134 101 68
2.936792e+000 1.301021e+000 -9.398808e+000 69 48 53
3.867397e-001 8.728317e-001 -8.530167e+000 158 147 116
1.554804e+000 -4.969701e-001 -1.919895e+001 67 51 14
-2.769262e-001 1.744409e+000 -8.931656e+000 149 136 51
1.988188e+000 1.803998e+000 -9.883918e+000 137 138 96
2.070165e+000 1.812469e+000 -9.919648e+000 134 135 114
2.069809e+000 1.812511e+000 -9.919392e+000 134 135 114
2.132360e+000 1.781332e+000 -9.857495e+000 27 52 55
2.146436e+000 1.753103e+000 -9.823901e+000 29 54 61
3.141438e+000 1.853484e+000 -1.042774e+001 144 97 51
-8.882782e-001 1.529672e+000 -8.462023e+000 29 41 28
3.271867e-001 1.587881e+000 -8.941435e+000 143 26 31
1.361553e+000 1.610734e+000 -9.330178e+000 148 145 106
1.357700e+000 1.615273e+000 -9.317815e+000 148 145 106
2.237386e+000 1.749340e+000 -9.869078e+000 27 54 58
2.238528e+000 1.746807e+000 -9.874727e+000 27 54 58
2.257540e+000 1.720844e+000 -9.822123e+000 27 57 68
1.493640e+000 1.573442e+000 -9.376373e+000 145 43 47
1.373172e+000 1.513144e+000 -9.188934e+000 24 59 71
1.373172e+000 1.513144e+000 -9.188934e+000 24 59 71
1.419425e+000 1.497955e+000 -9.177756e+000 145 154 119
1.504808e+000 1.520947e+000 -9.288313e+000 75 15 26
1.626170e+000 1.498820e+000 -9.235426e+000 170 117 81
2.697746e+000 1.538235e+000 -9.680848e+000 102 47 26
2.888232e+000 1.535097e+000 -9.799796e+000 101 71 64
-2.728202e+000 8.396399e-001 -8.380722e+000 149 80 62
-2.710861e+000 7.948474e-001 -8.444321e+000 180 141 98
-9.118432e-001 1.239697e+000 -8.250558e+000 147 138 3
-8.089797e-001 1.199116e+000 -8.183877e+000 158 143 29
7.413788e-001 1.322824e+000 -8.727653e+000 155 144 95
1.032144e+000 1.361177e+000 -8.877203e+000 185 151 90
1.122869e+000 1.364278e+000 -8.917293e+000 187 141 97
1.801874e+000 1.409294e+000 -9.196978e+000 139 74 59
1.823304e+000 1.367207e+000 -9.149347e+000 157 81 72
1.822895e+000 1.367030e+000 -9.149277e+000 157 81 72
2.827572e+000 1.481244e+000 -9.654952e+000 144 85 73
2.843245e+000 1.414238e+000 -9.570591e+000 139 78 65
-2.006253e+000 1.021593e+000 -7.687212e+000 201 175 122
-1.284648e+000 1.116071e+000 -7.844732e+000 177 154 87
9.071660e-001 1.278733e+000 -8.517361e+000 154 144 98
1.094172e+000 1.227637e+000 -8.734424e+000 183 147 97
1.182675e+000 1.232613e+000 -8.766556e+000 188 147 90
1.182726e+000 1.232717e+000 -8.766398e+000 188 147 90
1.555398e+000 1.226762e+000 -8.885925e+000 7 62 84
2.080137e+000 1.350932e+000 -9.224504e+000 73 55 55
2.080137e+000 1.350932e+000 -9.224504e+000 73 55 55
2.572264e+000 1.248474e+000 -9.279916e+000 110 102 72
2.840028e+000 1.377681e+000 -9.518232e+000 141 76 62
-1.959442e+000 9.765840e-001 -7.612030e+000 81 50 31
-1.960718e+000 9.725154e-001 -7.620116e+000 81 50 31
-1.126933e+000 1.059484e+000 -7.825926e+000 161 30 39
-1.126933e+000 1.059484e+000 -7.825926e+000 161 30 39
1.215448e+000 1.160328e+000 -8.690499e+000 188 128 82
1.215448e+000 1.160328e+000 -8.690499e+000 188 128 82
1.520034e+000 1.190513e+000 -8.843591e+000 24 59 76
2.119770e+000 1.170630e+000 -9.022506e+000 73 48 44
2.121021e+000 1.169868e+000 -9.023748e+000 73 48 44
2.254765e+000 1.128264e+000 -9.023803e+000 69 45 41
-2.139174e+000 7.812054e-001 -7.660560e+000 106 76 38
-2.072307e+000 7.561280e-001 -7.587933e+000 206 179 136
-2.077409e+000 6.885205e-001 -7.578753e+000 120 89 48
-1.193128e+000 9.212360e-001 -7.629876e+000 179 143 89
1.940702e+000 9.946312e-001 -8.746845e+000 145 84 68
2.692696e+000 9.881168e-001 -9.032846e+000 126 105 78
-2.074297e+000 5.844591e-001 -7.530729e+000 212 181 124
-2.003564e+000 5.829797e-001 -7.455754e+000 205 176 130
-9.674066e-001 7.776986e-001 -7.534320e+000 188 121 80
-9.674066e-001 7.776986e-001 -7.534320e+000 188 121 80
2.184235e+000 9.472210e-001 -8.785006e+000 75 34 29
2.991167e+000 9.861917e-001 -9.133152e+000 68 24 21
-7.940526e-001 6.841088e-001 -7.595036e+000 142 125 29
5.682495e-001 6.905703e-001 -7.981617e+000 166 148 32
9.306163e-001 7.143859e-001 -8.157045e+000 171 140 101
9.306163e-001 7.143859e-001 -8.157045e+000 171 140 101
4.158262e+000 7.410958e-001 -9.380915e+000 174 90 33
4.689549e+000 8.504623e-001 -9.677942e+000 129 29 29
4.692343e+000 8.475878e-001 -9.683175e+000 129 29 29
1.157086e-001 6.185662e-001 -7.752858e+000 21 45 22
9.722123e-001 6.287201e-001 -8.095113e+000 163 149 97
2.202762e+000 6.329956e-001 -8.573932e+000 71 24 24
3.089634e+000 6.700247e-001 -8.912261e+000 52 16 18
3.534235e+000 6.050537e-001 -9.056038e+000 26 14 24
2.791737e+000 4.899271e-001 -8.729676e+000 131 85 30
3.086141e+000 4.708468e-001 -8.824340e+000 173 119 56
1.471419e+000 -7.390477e-001 -8.818534e+000 52 44 38
3.095714e+000 -5.427289e+000 -1.401168e+001 64 58 59
5.537768e+000 -7.568603e-001 -8.545922e+000 38 29 25
5.040427e+000 -2.124554e+000 -9.779946e+000 52 35 31
4.466533e+000 -4.065656e+000 -1.098524e+001 154 136 114
5.890901e+000 -8.809220e-001 -7.714927e+000 159 133 116
5.645503e-001 1.693180e+000 -9.144248e+000 169 137 95
9.143593e-001 1.775526e+000 -9.432648e+000 165 136 96
2.056789e+000 1.786749e+000 -9.878575e+000 16 56 72
2.150855e+000 1.867084e+000 -9.972219e+000 12 53 75
2.583011e+000 1.757461e+000 -9.965306e+000 155 112 61
1.409389e+000 1.444553e+000 -9.109376e+000 11 55 71
1.411715e+000 1.442651e+000 -9.114368e+000 11 55 71
-1.321901e+000 1.115978e+000 -7.823146e+000 157 25 32
2.835567e+000 1.458984e+000 -9.059024e+000 100 75 69
-1.087881e+000 1.006340e+000 -7.788645e+000 179 147 93
-2.399211e+000 5.525854e-001 -7.761315e+000 167 134 89
-1.167767e+000 8.929777e-001 -7.584328e+000 170 147 80
1.585004e+000 1.080160e+000 -8.738029e+000 19 56 74
-1.026784e+000 7.958795e-001 -7.522582e+000 159 34 37
-1.026784e+000 7.958795e-001 -7.522582e+000 159 34 37
1.819313e+000 8.456875e-001 -8.622879e+000 164 88 52
1.996046e+000 8.694954e-001 -8.660694e+000 159 89 74
2.335350e+000 9.266384e-001 -8.834755e+000 145 119 104
2.617546e+000 7.604269e-001 -8.801745e+000 170 127 103
4.736515e+000 8.539093e-001 -9.699548e+000 170 130 86
4.992068e+000 8.323633e-001 -9.829733e+000 132 54 28
-8.023858e-001 5.945375e-001 -7.351668e+000 57 86 83
-8.044637e-001 5.851222e-001 -7.365661e+000 57 86 83
1.712794e+000 5.761486e-001 -8.348283e+000 173 129 69
2.244270e+000 5.395212e-001 -8.576526e+000 169 129 85
3.810641e+000 6.899445e-001 -9.164277e+000 162 125 73
3.996714e+000 4.384612e-001 -9.173245e+000 148 49 19
2.903567e+000 1.007880e-001 -8.832005e+000 162 19 28
1.230876e+000 4.956320e-002 -8.168592e+000 25 73 101
1.292652e+000 -2.045147e-001 -8.346838e+000 147 93 62
1.290017e+000 -2.023963e-001 -8.343717e+000 147 93 62
5.651089e+000 -9.906193e-001 -8.680193e+000 112 90 76
5.602830e+000 -1.764592e+000 -8.829579e+000 124 98 81
3.535011e+000 -6.350991e+000 -1.277852e+001 168 155 139
4.923145e+000 -3.396386e+000 -9.757461e+000 164 139 117
-2.094321e+000 1.695460e+000 -8.453028e+000 156 135 89
-1.599405e-001 1.770688e+000 -9.103563e+000 52 58 30
-1.602703e-001 1.769454e+000 -9.105403e+000 52 58 30
3.209330e+000 1.889348e+000 -1.064325e+001 107 57 20
3.309332e+000 1.866735e+000 -1.045331e+001 148 96 46
-1.921164e+000 1.382397e+000 -8.068756e+000 160 138 90
2.696862e+000 1.637705e+000 -9.782288e+000 68 14 6
-2.051887e+000 1.047898e+000 -7.745100e+000 200 177 125
-2.051887e+000 1.047898e+000 -7.745100e+000 200 177 125
-2.084773e+000 9.833917e-001 -7.719437e+000 200 172 121
2.788505e+000 1.333335e+000 -9.434952e+000 93 63 44
-1.230891e+000 1.055883e+000 -7.804678e+000 172 34 37
-1.230891e+000 1.055883e+000 -7.804678e+000 172 34 37
-2.115049e-001 1.054143e+000 -8.129160e+000 162 142 27
1.695503e+000 1.146445e+000 -8.726652e+000 167 128 66
-2.019391e+000 7.901100e-001 -7.548688e+000 206 178 134
-2.020148e+000 7.889267e-001 -7.550542e+000 206 178 134
3.055650e+000 1.031235e+000 -9.197663e+000 80 54 56
2.996774e+000 1.211198e+000 -8.885454e+000 71 45 51
-1.920257e+000 7.441000e-001 -7.467982e+000 189 159 112
9.584969e-001 9.142153e-001 -8.331613e+000 160 147 96
4.062729e+000 7.844397e-001 -9.287800e+000 117 26 22
5.056549e+000 7.597578e-001 -9.872782e+000 122 48 22
4.823594e+000 6.776896e-001 -9.608980e+000 174 141 90
7.725675e-001 -2.406815e-001 -8.159664e+000 189 120 86
1.050901e+000 -1.975532e-001 -8.255539e+000 15 56 74
-2.025812e+000 -1.497603e-001 -6.750419e+000 149 126 92
5.179427e+000 -1.831083e+000 -9.535701e+000 49 39 38
5.389352e+000 -1.296054e+000 -9.062941e+000 53 37 37
3.931169e+000 -4.624559e+000 -1.202149e+001 153 137 117
4.202640e+000 -3.924825e+000 -1.135831e+001 151 141 122
4.249495e+000 -4.131123e+000 -1.119273e+001 160 142 118
5.686940e+000 -2.034919e+000 -8.512203e+000 108 87 68
1.961158e+000 1.819105e+000 -9.962922e+000 24 52 75
2.145618e+000 1.691485e+000 -9.716053e+000 16 55 73
3.786800e-001 1.531779e+000 -8.860407e+000 162 143 98
2.032863e+000 1.153771e+000 -8.975137e+000 68 45 48
2.287619e+000 1.178313e+000 -9.068643e+000 67 44 42
6.453986e-001 8.717024e-001 -8.177820e+000 168 23 23
-1.134303e+000 7.663178e-001 -7.437732e+000 164 41 40
4.105825e+000 8.112330e-001 -9.421472e+000 116 22 24
3.741790e+000 7.043861e-001 -9.122675e+000 25 70 94
1.235548e+000 9.560546e-006 -8.232154e+000 14 67 85
4.708272e+000 -2.679031e+000 -1.028286e+001 48 35 35
5.151813e+000 -2.055100e+000 -9.672886e+000 151 133 111
3.725251e+000 -5.168125e+000 -1.253183e+001 153 139 126
5.149457e-001 1.629029e+000 -9.030001e+000 160 140 93
2.727663e+000 1.628961e+000 -9.840859e+000 66 14 3
2.280387e+000 1.336554e+000 -9.278881e+000 125 95 69
-2.103712e+000 9.198094e-001 -7.724836e+000 201 174 126
-6.113072e-002 8.808446e-001 -7.962996e+000 160 145 49
-2.406025e+000 -4.088587e-001 -7.877906e+000 153 134 94
-2.424417e-001 9.677802e-002 -7.546452e+000 139 139 112
5.691808e+000 -5.152964e-001 -8.274218e+000 150 125 105
5.579158e+000 -8.339558e-001 -8.565111e+000 163 140 124
4.479431e+000 -3.243361e+000 -1.082396e+001 48 38 37
2.171028e+000 1.843692e+000 -1.031797e+001 141 102 61
-3.675393e-001 1.637393e+000 -8.748970e+000 107 108 92
3.643483e-001 1.588941e+000 -8.943282e+000 163 87 69
1.316870e+000 1.624680e+000 -9.336174e+000 23 56 71
1.318792e+000 1.619842e+000 -9.343560e+000 23 56 71
4.103843e-001 1.421690e+000 -8.725001e+000 162 140 96
-1.236789e+000 1.097202e+000 -7.854092e+000 140 36 15
-1.577319e-001 1.257193e+000 -8.331801e+000 33 49 31
5.337519e-002 1.278266e+000 -8.397971e+000 28 48 18
-1.997417e+000 7.055427e-001 -7.520488e+000 208 175 130
1.586827e+000 8.259566e-001 -8.532606e+000 27 57 84
4.638039e+000 8.757862e-001 -9.720145e+000 174 134 96
4.653463e+000 8.688193e-001 -9.736930e+000 174 134 96
4.184496e+000 8.724680e-001 -9.432187e+000 170 84 27
-3.010890e-001 2.180890e-001 -7.506884e+000 88 117 115
3.739991e+000 1.436070e-002 -9.242331e+000 97 26 23
3.739991e+000 1.436070e-002 -9.242331e+000 97 26 23
4.811132e+000 1.597456e-001 -9.600979e+000 206 114 46
3.356298e+000 -6.341658e+000 -1.374650e+001 44 34 32
-1.636441e-001 1.631621e+000 -8.838126e+000 157 142 81
5.409689e-001 1.175950e+000 -8.463210e+000 162 137 98
5.409689e-001 1.175950e+000 -8.463210e+000 162 137 98
7.913048e-001 1.170135e+000 -8.576551e+000 156 137 96
-6.283516e-001 1.003499e+000 -7.921578e+000 21 49 21
-5.545303e-002 1.015583e+000 -8.105065e+000 163 143 88
-5.545303e-002 1.015583e+000 -8.105065e+000 163 143 88
2.192636e-001 9.598598e-001 -8.119277e+000 32 51 32
2.192636e-001 9.598598e-001 -8.119277e+000 32 51 32
-1.126102e+000 8.627636e-001 -7.592469e+000 185 116 89
2.881324e+000 8.665277e-001 -9.064139e+000 128 91 71
2.727255e+000 5.107647e-001 -8.754518e+000 159 110 54
4.079483e+000 -3.485813e-001 -9.694126e+000 166 109 43
3.595751e+000 1.901343e+000 -1.075078e+001 129 87 39
-6.228315e-001 1.114127e+000 -8.090086e+000 27 52 28
2.632202e+000 1.149865e+000 -9.170158e+000 135 103 78
-1.291406e-001 9.536116e-001 -8.018444e+000 24 47 19
3.056139e+000 1.111783e+000 -9.251753e+000 101 76 72
2.991387e-001 8.415132e-001 -8.023904e+000 158 141 95
2.790695e+000 3.645162e-001 -8.710214e+000 52 17 19
1.154954e+000 -7.799382e-002 -8.230404e+000 18 63 83
2.595635e+000 9.107001e-001 -8.962907e+000 145 110 80
1.334330e+000 6.571179e-001 -8.276866e+000 151 28 31
1.334330e+000 6.571179e-001 -8.276866e+000 151 28 31
5.954740e-001 1.286966e+000 -8.653967e+000 157 138 98
5.077394e+000 5.545403e-002 -9.658165e+000 33 23 24
-8.568685e-001 1.340961e+000 -8.304930e+000 29 54 25
1.346588e+000 1.307449e+000 -8.764855e+000 29 40 51
1.346588e+000 1.307449e+000 -8.764855e+000 29 40 51
3.160869e+000 1.643903e+000 -9.989582e+000 155 113 65
-6.117626e-001 6.965973e-001 -7.740233e+000 29 51 30
4.693896e+000 5.522223e-001 -9.593984e+000 177 110 68
4.693896e+000 5.522223e-001 -9.593984e+000 177 110 68
2.111846e+000 1.804128e+000 -1.004055e+001 16 36 39
2.092616e+000 1.826561e+000 -9.981849e+000 16 36 39
2.112822e+000 1.806159e+000 -9.965768e+000 24 41 46
3.931698e-001 1.649849e+000 -9.069825e+000 111 26 21
2.252085e+000 1.781498e+000 -9.996952e+000 52 71 71
-6.760716e-001 1.252150e+000 -8.996342e+000 115 103 22
1.316277e+000 1.590619e+000 -9.283586e+000 9 42 50
1.353616e+000 1.592278e+000 -9.296057e+000 15 46 57
-1.185838e+000 1.242051e+000 -8.268399e+000 114 105 15
1.532864e+000 1.553242e+000 -9.266022e+000 117 46 27
1.797071e+000 1.507553e+000 -9.333912e+000 60 18 10
2.748673e+000 1.500068e+000 -9.654635e+000 104 57 47
-8.869019e-001 1.296577e+000 -8.197558e+000 107 98 11
1.061600e+000 1.300726e+000 -8.808761e+000 149 115 60
1.061242e+000 1.301236e+000 -8.807486e+000 149 115 60
1.800834e+000 1.410030e+000 -9.196097e+000 108 56 44
2.110686e+000 1.351554e+000 -9.236427e+000 53 34 29
2.745566e+000 1.443382e+000 -9.556501e+000 69 31 20
-1.982904e+000 1.000861e+000 -7.687934e+000 64 35 5
1.279593e-001 1.257651e+000 -8.413649e+000 33 36 2
1.144431e+000 1.226562e+000 -8.919001e+000 108 8 6
1.107485e+000 1.248707e+000 -8.758305e+000 107 21 17
2.360353e+000 1.334711e+000 -9.304638e+000 89 61 37
-2.089249e+000 8.172610e-001 -7.635089e+000 73 48 11
-1.995777e+000 9.040703e-001 -7.573932e+000 74 46 35
-2.000512e+000 8.866461e-001 -7.599834e+000 74 46 35
-1.961924e+000 9.668267e-001 -7.627652e+000 54 30 1
-1.951303e+000 9.309338e-001 -7.555458e+000 74 49 15
1.157045e+000 1.096199e+000 -8.594735e+000 147 106 71
1.312765e+000 1.167556e+000 -8.730429e+000 107 19 17
1.948677e+000 1.189681e+000 -8.985441e+000 65 24 16
-2.102666e+000 7.997870e-001 -7.612196e+000 162 140 91
-2.123132e+000 7.367999e-001 -7.625591e+000 162 138 92
-2.121826e+000 7.427243e-001 -7.616436e+000 162 138 92
-2.057011e+000 7.238457e-001 -7.565357e+000 165 140 98
-2.057011e+000 7.238457e-001 -7.565357e+000 165 140 98
-7.771635e-001 1.879535e+000 -6.209398e+000 115 106 29
2.789324e-001 9.125326e-001 -8.127501e+000 137 110 25
2.051194e+000 9.801093e-001 -8.788105e+000 61 19 13
2.574972e+000 1.073770e+000 -9.007645e+000 102 81 57
-6.794613e-001 9.217435e-001 -7.566790e+000 111 100 11
2.013232e+000 8.937640e-001 -8.690240e+000 61 13 2
2.567631e+000 8.284813e-001 -8.863692e+000 110 80 56
2.100520e+000 7.150677e-001 -8.562090e+000 114 58 50
2.100620e+000 7.144967e-001 -8.562888e+000 114 58 50
2.451102e+000 7.170375e-001 -8.699198e+000 43 8 4
2.451102e+000 7.170375e-001 -8.699198e+000 43 8 4
2.530988e+000 7.974996e-001 -8.771084e+000 88 50 42
3.022678e+000 7.855814e-001 -8.919977e+000 46 16 15
4.493464e+000 7.969722e-001 -9.578310e+000 119 75 34
4.609152e+000 7.900498e-001 -9.592984e+000 113 24 12
4.784466e+000 7.495932e-001 -9.662269e+000 117 18 7
-4.979200e-001 6.535171e-001 -7.478430e+000 118 101 14
2.844687e+000 6.355313e-001 -8.755836e+000 47 10 8
3.811246e+000 5.731254e-001 -9.145656e+000 10 45 55
4.743977e+000 6.454958e-001 -9.537509e+000 120 45 28
-5.245492e-001 5.590411e-001 -7.380909e+000 128 114 17
3.730106e+000 4.852505e-001 -9.062048e+000 144 102 52
5.046458e+000 -2.237106e+000 -9.752231e+000 101 82 65
5.733304e+000 -5.074561e-001 -8.229932e+000 92 71 50
3.425006e+000 1.859243e+000 -1.060157e+001 114 80 36
2.256945e+000 1.774758e+000 -9.894551e+000 35 54 48
2.056967e+000 1.398004e+000 -9.274627e+000 62 42 38
-2.031505e+000 1.005548e+000 -7.702670e+000 157 133 88
-2.030954e+000 1.006782e+000 -7.701652e+000 157 133 88
-1.187788e+000 1.112864e+000 -7.894479e+000 141 106 61
2.598297e+000 1.316359e+000 -9.365284e+000 22 3 1
2.077199e+000 1.183072e+000 -9.022652e+000 78 59 51
-1.078499e+000 8.884176e-001 -7.634271e+000 134 102 62
2.768291e+000 9.993963e-001 -9.051053e+000 108 81 60
2.202190e+000 9.419823e-001 -8.797075e+000 59 29 28
-1.043461e+000 7.810199e-001 -7.490221e+000 146 103 69
-8.306330e-001 6.035846e-001 -7.377872e+000 128 114 69
-2.414321e+000 -2.629901e-001 -7.904201e+000 153 123 81
3.936875e+000 4.588507e-001 -9.149471e+000 138 95 50
4.416428e+000 1.384173e-001 -9.404428e+000 152 127 89
2.500701e+000 -2.107252e-001 -8.835337e+000 160 109 68
6.794185e-001 -2.597427e-001 -8.118068e+000 117 28 21
4.427350e+000 -3.417739e+000 -1.097063e+001 31 21 19
5.248754e+000 -1.788818e+000 -9.239787e+000 130 108 84
3.805438e+000 1.904089e+000 -1.106000e+001 91 60 41
3.879023e+000 1.971007e+000 -1.088027e+001 36 5 2
2.221227e+000 1.307857e+000 -9.200249e+000 62 45 35
1.930990e+000 9.391696e-001 -8.683485e+000 68 21 16
2.028024e+000 9.585848e-001 -8.758732e+000 118 60 39
2.259179e+000 9.337804e-001 -8.822669e+000 59 37 26
8.467947e-001 7.704332e-001 -8.134956e+000 123 108 69
5.102699e+000 6.403621e-001 -9.749881e+000 115 47 33
7.064324e-001 -1.579401e-001 -8.064603e+000 120 29 22
-2.137636e-001 -5.723057e-001 -7.970222e+000 114 111 54
7.382008e-001 -3.043939e-001 -8.175172e+000 153 88 65
4.361182e+000 -3.626395e+000 -1.117005e+001 36 26 24
5.490592e+000 -9.972555e-001 -8.788526e+000 42 28 27
5.803742e+000 -1.203815e+000 -8.054152e+000 138 116 95
5.822537e+000 -9.037218e-001 -7.847843e+000 115 93 72
2.139948e+000 1.774207e+000 -1.056074e+001 101 72 34
-7.867336e-002 8.224822e-001 -8.059388e+000 128 107 32
3.613574e+000 9.695550e-001 -9.238172e+000 14 43 46
7.844539e-002 8.499463e-001 -7.789449e+000 126 106 35
7.844539e-002 8.499463e-001 -7.789449e+000 126 106 35
2.330769e+000 8.251631e-001 -8.668816e+000 58 23 21
2.148953e+000 5.532119e-001 -8.493314e+000 132 94 48
-4.432671e-001 -4.185440e-001 -7.737096e+000 112 114 63
5.423759e+000 -1.234825e+000 -8.924198e+000 127 105 84
5.582947e+000 -7.653003e-001 -8.391786e+000 93 76 56
5.806961e+000 -1.208880e+000 -8.059357e+000 138 116 95
2.593133e+000 1.713248e+000 -9.931376e+000 82 20 11
2.889593e+000 1.586356e+000 -9.826656e+000 47 30 27
2.289199e+000 1.159829e+000 -9.006925e+000 52 34 30
2.606035e+000 1.197999e+000 -9.203839e+000 101 74 54
3.274737e+000 6.368971e-001 -9.001559e+000 63 37 38
4.564004e+000 1.816120e-001 -9.453502e+000 141 119 79
9.077222e-001 4.281159e-002 -8.009452e+000 24 52 63
5.639498e+000 -6.028122e-001 -8.450819e+000 35 25 23
7.408635e-001 1.284166e+000 -9.112523e+000 130 104 70
-5.273850e-001 1.306668e+000 -8.257283e+000 24 40 15
-6.930077e-001 1.206018e+000 -8.160539e+000 20 38 23
-7.313918e-001 9.916181e-001 -7.897319e+000 16 42 18
8.046172e-001 1.162737e+000 -8.591839e+000 125 105 68
4.820981e+000 1.182222e+000 -1.021726e+001 114 62 33
2.703759e-001 8.017432e-001 -7.966538e+000 130 109 66
-3.060913e-001 2.683470e-001 -7.444308e+000 74 90 81
1.448300e+000 -1.000116e-001 -8.358921e+000 134 81 47
-1.819588e-001 1.432828e+000 -8.563288e+000 21 37 24
4.280426e-001 1.424618e+000 -8.726690e+000 126 107 67
6.777444e-001 1.417608e+000 -8.839577e+000 125 109 71
-7.407032e-001 1.186924e+000 -8.330318e+000 25 37 23
-1.169745e-001 8.276991e-001 -7.873911e+000 21 36 15
4.760757e+000 5.519516e-001 -9.569623e+000 145 111 67
3.444276e+000 3.135708e-001 -8.949016e+000 50 11 9
-6.544244e-002 7.302664e-001 -7.804439e+000 22 37 16
-6.660824e-002 7.418532e-001 -7.788651e+000 22 37 16
1.540905e+000 5.403805e-001 -8.247346e+000 128 113 72
1.517279e+000 1.768807e+000 -1.007128e+001 114 51 33
5.207808e+000 -1.627925e+000 -9.088998e+000 117 95 73
4.228808e+000 1.804565e+000 -1.076673e+001 115 79 43
4.304763e+000 1.751398e+000 -1.089988e+001 115 79 43
4.283301e+000 2.970109e-001 -9.458215e+000 147 76 14
-3.750316e-001 1.455110e+000 -9.321117e+000 16 33 23
3.814333e+000 1.378454e+000 -1.012189e+001 117 82 45
3.814333e+000 1.378454e+000 -1.012189e+001 117 82 45
-2.318910e-001 8.829059e-001 -7.907197e+000 162 143 85
-2.318910e-001 8.829059e-001 -7.907197e+000 162 143 85
2.412000e+000 1.700268e+000 -9.851842e+000 36 5 8
2.821881e+000 1.714627e+000 -1.000298e+001 107 50 37
-2.195640e+000 1.083295e+000 -7.917761e+000 157 129 87
-2.194438e+000 1.085081e+000 -7.915552e+000 157 129 87
-2.034795e+000 1.133480e+000 -7.788889e+000 73 50 10
-2.034962e+000 1.132073e+000 -7.791204e+000 73 50 10
-1.393982e+000 1.262890e+000 -7.972049e+000 123 27 19
2.737725e+000 1.381116e+000 -9.513046e+000 127 90 64
2.955786e+000 1.393684e+000 -9.615056e+000 82 63 55
2.634051e+000 1.250834e+000 -9.310013e+000 97 74 52
-1.236213e+000 1.022956e+000 -7.743688e+000 124 21 20
8.501535e-001 1.185093e+000 -8.531612e+000 129 111 74
-1.089895e+000 8.647955e-001 -7.599793e+000 108 18 12
-1.089895e+000 8.647955e-001 -7.599793e+000 108 18 12
2.035772e+000 9.197374e-001 -8.702539e+000 110 64 49
2.140974e+000 9.047260e-001 -8.719464e+000 51 20 14
2.140974e+000 9.047260e-001 -8.719464e+000 51 20 14
-6.353617e-001 7.091987e-001 -7.530702e+000 117 102 15
2.075021e+000 6.920416e-001 -8.548157e+000 67 21 11
3.125645e+000 7.138271e-001 -8.970478e+000 74 44 43
-1.130538e+000 6.355512e-001 -7.286697e+000 129 109 74
2.999691e+000 6.909915e-001 -8.876835e+000 46 16 16
1.647618e+000 5.465908e-001 -8.283624e+000 118 53 25
4.878606e+000 -2.562126e+000 -1.005193e+001 98 79 61
3.449776e+000 1.855429e+000 -1.049322e+001 116 80 36
1.489905e+000 1.590259e+000 -9.343336e+000 96 23 19
2.400174e+000 1.609889e+000 -9.686392e+000 63 9 8
1.654590e+000 1.528801e+000 -9.314743e+000 53 35 44
-2.079809e+000 1.080141e+000 -7.793803e+000 156 132 91
1.249519e+000 1.095316e+000 -8.633143e+000 101 11 16
2.804060e+000 1.107319e+000 -9.413996e+000 97 75 54
-2.386074e+000 4.354656e-001 -7.724253e+000 125 95 55
-2.377486e+000 3.972560e-001 -7.699984e+000 136 108 68
-1.156561e+000 8.470125e-001 -7.550364e+000 139 107 69
2.005748e+000 8.376575e-001 -8.590306e+000 117 62 43
2.433304e+000 7.507011e-001 -8.698055e+000 52 16 16
-5.500848e-001 6.164552e-001 -7.506101e+000 123 104 22
-4.367760e-001 6.228368e-001 -7.552895e+000 129 110 27
4.123742e+000 6.585239e-001 -9.344470e+000 104 32 12
3.618189e+000 5.023480e-001 -9.050138e+000 15 43 58
5.666135e+000 -6.460705e-001 -8.308453e+000 88 71 51
5.747688e+000 -6.005504e-001 -8.077295e+000 129 107 84
5.642150e+000 -1.203508e+000 -8.354701e+000 107 84 68
1.190402e+000 1.314173e+000 -8.870270e+000 108 18 19
2.112101e+000 1.230540e+000 -9.104124e+000 59 40 36
4.835542e+000 1.233082e+000 -1.031260e+001 100 50 23
2.154274e+000 8.597146e-001 -8.689570e+000 51 23 19
2.152835e+000 8.606088e-001 -8.690998e+000 51 23 19
2.675344e+000 9.379947e-001 -8.985383e+000 104 79 54
3.486984e+000 9.345594e-001 -9.315370e+000 117 80 43
-5.336923e-001 6.716657e-001 -7.587067e+000 53 69 60
3.045722e+000 4.663963e-001 -8.832549e+000 95 51 6
4.238921e+000 -3.875788e+000 -1.141480e+001 40 32 29
5.815461e+000 -5.838951e-001 -7.944366e+000 90 69 50
-2.280654e+000 1.151040e+000 -8.063839e+000 158 129 85
1.463337e+000 1.329170e+000 -8.990039e+000 24 46 53
1.462423e+000 1.330035e+000 -8.989689e+000 24 46 53
-8.881443e-001 1.049228e+000 -7.932343e+000 49 70 66
-1.908054e-001 9.347702e-001 -7.960883e+000 20 39 18
2.695261e+000 6.786855e-001 -8.792000e+000 54 18 18
3.415015e+000 -5.997491e+000 -1.328559e+001 122 110 90
5.538260e+000 -9.163222e-001 -8.634406e+000 111 94 76
8.128176e-002 1.319241e+000 -8.490166e+000 134 114 54
8.128176e-002 1.319241e+000 -8.490166e+000 134 114 54
-2.048317e+000 8.779455e-001 -7.625837e+000 162 135 88
1.148849e+000 1.167867e+000 -8.683926e+000 88 26 4
1.554558e+000 1.124539e+000 -8.768594e+000 58 77 55
7.786000e-001 7.828787e-001 -8.134531e+000 95 36 20
2.764588e+000 7.082611e-001 -8.827403e+000 97 67 51
4.332737e-001 1.633287e+000 -9.065719e+000 134 100 60
9.815830e-001 1.386586e+000 -8.977707e+000 104 13 11
-2.057478e+000 1.103406e+000 -7.785409e+000 157 132 89
1.249053e-002 1.383408e+000 -8.524416e+000 26 39 21
-2.197846e+000 9.427710e-001 -7.808816e+000 132 104 69
-2.197007e+000 9.421601e-001 -7.810349e+000 132 104 69
-2.741220e-001 1.196352e+000 -8.313571e+000 28 42 15
1.695504e+000 1.023879e+000 -8.621717e+000 10 47 51
2.781406e-001 8.219296e-001 -7.958766e+000 123 109 66
-4.739073e-001 1.729637e+000 -8.868315e+000 116 102 25
-5.320293e-001 1.674820e+000 -8.792875e+000 17 29 14
-4.278658e-001 1.676695e+000 -8.659528e+000 123 108 30
-1.435336e-001 1.671232e+000 -8.901223e+000 120 97 21
-8.406125e-001 1.545846e+000 -8.496957e+000 108 99 37
2.414406e+000 1.740270e+000 -9.912914e+000 105 19 22
-2.280700e+000 1.207725e+000 -8.116857e+000 161 132 88
-2.237606e+000 1.129161e+000 -8.003815e+000 161 133 92
-7.657757e-001 1.415015e+000 -8.375865e+000 119 104 21
-7.411824e-001 1.481380e+000 -8.465080e+000 116 98 27
1.351863e+000 1.561540e+000 -9.253256e+000 115 112 74
1.384308e+000 1.566162e+000 -9.256465e+000 117 114 80
-1.160257e+000 1.292186e+000 -8.118190e+000 43 56 34
-1.167500e+000 1.279408e+000 -8.091901e+000 135 113 68
-1.167500e+000 1.279408e+000 -8.091901e+000 135 113 68
1.350865e+000 1.489571e+000 -9.160022e+000 121 108 70
1.418775e+000 1.498221e+000 -9.176861e+000 111 112 86
1.771540e+000 1.523381e+000 -9.350313e+000 104 55 45
-2.100486e+000 1.088934e+000 -7.813324e+000 67 40 9
-1.857895e+000 1.895192e+000 -6.479511e+000 71 43 18
-2.046821e+000 1.113407e+000 -7.778205e+000 153 131 82
-1.177844e+000 1.224807e+000 -8.013075e+000 151 94 67
-1.178089e+000 1.220280e+000 -8.019359e+000 151 94 67
-1.097089e+000 1.247707e+000 -8.072695e+000 41 61 59
1.041865e+000 1.380027e+000 -8.901184e+000 100 17 13
1.041865e+000 1.380027e+000 -8.901184e+000 100 17 13
1.097203e+000 1.374371e+000 -8.935965e+000 100 10 4
1.097203e+000 1.374371e+000 -8.935965e+000 100 10 4
1.031920e+000 1.361057e+000 -8.878073e+000 138 105 68
1.387633e+000 1.420495e+000 -9.079420e+000 126 122 87
1.436798e+000 1.408239e+000 -9.072731e+000 14 44 51
1.444986e+000 1.403338e+000 -9.083835e+000 14 44 51
1.467708e+000 1.362962e+000 -9.026465e+000 115 104 77
1.588838e+000 1.411187e+000 -9.109563e+000 104 33 13
1.880627e+000 1.378065e+000 -9.196583e+000 99 59 53
1.880627e+000 1.378065e+000 -9.196583e+000 99 59 53
-2.126519e+000 8.637511e-001 -7.706760e+000 92 62 36
-2.057528e+000 1.013014e+000 -7.730131e+000 60 31 22
-2.057528e+000 1.013014e+000 -7.730131e+000 60 31 22
-2.047512e+000 9.695546e-001 -7.691101e+000 68 43 14
-2.032604e+000 9.198128e-001 -7.654714e+000 61 35 16
5.458674e-001 1.219657e+000 -8.543422e+000 116 21 14
1.093539e+000 1.227198e+000 -8.735766e+000 160 106 72
1.456413e+000 1.269975e+000 -8.913517e+000 118 108 76
2.817092e+000 1.395494e+000 -9.585101e+000 100 52 42
-2.089103e+000 8.165956e-001 -7.635854e+000 70 39 9
1.232170e+000 1.125861e+000 -8.655004e+000 155 101 78
1.231119e+000 1.127596e+000 -8.652315e+000 155 101 78
1.480928e+000 1.224628e+000 -8.858321e+000 127 111 80
1.529464e+000 1.219423e+000 -8.849595e+000 107 111 87
2.172150e+000 1.211408e+000 -9.068169e+000 52 33 28
-1.898479e+000 8.433771e-001 -7.490284e+000 62 36 8
1.642894e+000 9.451261e-001 -8.606240e+000 121 109 88
1.978769e+000 9.839963e-001 -8.748925e+000 58 14 7
2.694304e+000 9.861380e-001 -9.035813e+000 93 78 67
-1.035119e+000 7.575208e-001 -7.477034e+000 121 22 23
-1.035119e+000 7.575208e-001 -7.477034e+000 121 22 23
-1.015205e+000 7.689098e-001 -7.499626e+000 150 95 64
2.084088e+000 8.886648e-001 -8.713651e+000 64 16 7
2.282994e+000 8.775634e-001 -8.767660e+000 107 83 72
2.280858e+000 6.623272e-001 -8.619789e+000 57 16 14
-5.712875e-001 5.062186e-001 -7.427767e+000 120 107 14
2.627259e+000 5.754036e-001 -8.693135e+000 138 95 52
3.035987e+000 6.103251e-001 -8.879423e+000 42 9 5
3.109855e+000 6.033876e-001 -8.913804e+000 36 7 10
5.405707e+000 -2.963058e+000 -9.009463e+000 94 74 47
5.522637e+000 -2.878030e+000 -9.027974e+000 98 78 53
5.605986e-001 1.697087e+000 -9.140237e+000 130 95 61
3.169978e+000 1.797731e+000 -1.031617e+001 86 44 6
-8.275719e-001 1.431796e+000 -8.374243e+000 61 71 46
-1.320847e+000 1.219406e+000 -7.944191e+000 139 106 61
1.204232e+000 1.401579e+000 -8.989578e+000 138 58 47
-1.285505e+000 1.112304e+000 -7.853180e+000 140 108 63
1.148551e+000 1.304529e+000 -8.846715e+000 149 106 65
2.582133e+000 1.290841e+000 -9.339253e+000 102 77 57
-2.083363e+000 7.947816e-001 -7.615756e+000 157 131 87
-1.240968e+000 1.060923e+000 -7.794524e+000 119 14 17
2.458055e+000 1.253230e+000 -9.251313e+000 105 83 57
1.157055e+000 1.096137e+000 -8.594329e+000 144 116 67
2.030659e+000 1.019733e+000 -8.801625e+000 67 23 20
1.902883e+000 9.022840e-001 -8.631198e+000 122 60 39
-1.101147e+000 6.042909e-001 -7.292836e+000 123 16 23
-1.100116e+000 5.996060e-001 -7.298429e+000 123 16 23
-6.047021e-001 6.173971e-001 -7.479280e+000 117 102 22
-4.543031e-001 6.273203e-001 -7.533669e+000 119 102 12
1.979677e+000 6.659700e-001 -8.503102e+000 134 89 47
4.525273e+000 7.694780e-001 -9.559082e+000 144 100 65
4.555695e+000 7.063973e-001 -9.542579e+000 147 107 65
4.081058e+000 5.447231e-001 -9.259452e+000 112 46 18
4.925768e+000 -2.622899e+000 -1.004206e+001 116 100 74
5.058291e+000 -2.258437e+000 -9.765684e+000 95 78 58
5.539339e+000 -1.104859e+000 -8.753808e+000 82 61 40
5.178092e+000 -2.515932e+000 -9.428188e+000 92 72 47
4.496444e+000 1.975595e+000 -1.106276e+001 120 81 42
-2.352731e+000 1.142110e+000 -8.181159e+000 158 130 81
-2.344592e+000 1.156510e+000 -8.163842e+000 158 130 81
-1.872670e+000 1.302496e+000 -7.936797e+000 118 97 58
1.665713e+000 1.482465e+000 -9.239449e+000 59 36 29
2.172258e+000 1.266779e+000 -9.124858e+000 55 36 30
1.961745e+000 1.058681e+000 -8.827080e+000 60 35 32
-6.793552e-001 8.061556e-001 -7.670010e+000 48 68 53
1.643392e+000 9.154415e-001 -8.578782e+000 19 44 51
1.938278e+000 9.326970e-001 -8.695666e+000 68 21 17
2.255498e+000 9.351217e-001 -8.816217e+000 74 48 35
-1.135659e+000 7.116073e-001 -7.423350e+000 118 23 24
8.540916e-001 7.809448e-001 -8.169959e+000 125 103 64
2.059798e+000 8.715707e-001 -8.685589e+000 113 57 45
2.194312e+000 8.828977e-001 -8.761920e+000 88 59 50
2.186997e+000 8.950234e-001 -8.747493e+000 88 59 50
2.614603e+000 7.646313e-001 -8.794568e+000 125 89 67
2.772656e+000 4.551205e-001 -8.734580e+000 130 85 46
3.138635e+000 4.445034e-001 -8.875149e+000 138 96 46
4.079599e+000 -4.541885e+000 -1.184036e+001 95 80 59
4.834506e+000 -2.769788e+000 -1.020726e+001 96 75 52
4.930241e+000 -2.508675e+000 -1.006617e+001 115 95 72
5.513533e+000 -1.664026e+000 -8.688792e+000 98 78 54
4.471509e+000 2.048779e+000 -1.106744e+001 26 14 16
5.131482e-001 1.648925e+000 -9.105329e+000 119 104 63
-7.665654e-001 1.478604e+000 -8.434737e+000 15 39 18
-7.665654e-001 1.478604e+000 -8.434737e+000 15 39 18
2.405400e+000 1.395988e+000 -9.416675e+000 66 44 30
-1.062556e+000 1.048667e+000 -7.796374e+000 129 24 23
9.631546e-001 1.030267e+000 -8.443772e+000 119 25 24
9.636528e-001 1.029227e+000 -8.444995e+000 119 25 24
1.965516e+000 6.927203e-001 -8.539735e+000 135 91 44
1.511105e+000 6.065765e-001 -8.287760e+000 99 10 11
4.038016e+000 -4.545996e+000 -1.194392e+001 117 101 78
4.982033e+000 -2.368087e+000 -9.930288e+000 114 98 72
4.867401e+000 -3.681849e+000 -1.021307e+001 130 110 81
5.839782e+000 -6.147288e-001 -7.963901e+000 84 59 40
5.141565e+000 -3.413339e+000 -9.508242e+000 100 79 55
2.037471e+000 1.847653e+000 -9.971770e+000 13 36 46
4.834808e-001 1.670276e+000 -9.150260e+000 123 104 64
-6.290425e-001 1.329572e+000 -8.319530e+000 128 106 16
-1.229586e+000 1.242420e+000 -8.027650e+000 124 19 23
-1.229586e+000 1.242420e+000 -8.027650e+000 124 19 23
2.961612e+000 1.209247e+000 -9.357371e+000 50 30 29
-1.164573e+000 8.179154e-001 -7.513030e+000 112 19 16
-1.135477e+000 7.528969e-001 -7.456631e+000 120 25 25
5.582797e+000 -7.820608e-001 -8.615983e+000 38 27 23
1.479052e+000 1.489825e+000 -9.158424e+000 17 39 51
1.479052e+000 1.489825e+000 -9.158424e+000 17 39 51
-2.099590e+000 9.246235e-001 -7.721732e+000 162 131 86
1.125478e+000 1.052743e+000 -8.549709e+000 106 13 17
3.406373e+000 1.888217e+000 -1.070541e+001 27 9 12
-2.772147e-001 1.485210e+000 -8.596768e+000 124 106 38
1.340972e+000 1.363982e+000 -9.051267e+000 15 42 53
-7.747206e-001 1.187836e+000 -8.113176e+000 131 109 32
1.396895e+000 1.233916e+000 -8.835589e+000 16 43 54
-6.521891e-001 9.338623e-001 -7.827674e+000 129 107 42
3.757316e-001 1.622578e+000 -8.954046e+000 114 50 36
7.695119e-001 1.171833e+000 -8.564357e+000 123 105 68
-8.288261e-001 7.976413e-001 -7.645515e+000 34 61 56
-2.852660e-001 7.548320e-001 -7.683427e+000 20 38 19
1.082180e+000 7.757377e-001 -8.282303e+000 127 110 67
-2.032055e+000 8.107603e-001 -7.585639e+000 159 134 80
3.607647e+000 -2.157522e-001 -9.507323e+000 153 106 54
7.191342e-001 1.754718e+000 -9.621500e+000 117 97 60
3.152223e+000 1.652692e+000 -9.973887e+000 112 74 37
5.090881e+000 8.545860e-001 -9.781565e+000 32 22 23
4.471517e+000 1.987155e+000 -1.115686e+001 70 19 6
2.119736e+000 1.794579e+000 -9.900050e+000 19 37 37
2.163777e+000 1.788337e+000 -9.906071e+000 46 59 52
2.222772e+000 1.764010e+000 -9.958888e+000 20 40 39
2.213310e+000 1.779761e+000 -9.936635e+000 20 40 39
-8.847482e-001 1.461786e+000 -8.392771e+000 121 99 9
-7.563979e-001 1.436164e+000 -8.393466e+000 60 71 24
-2.226526e+000 1.098105e+000 -7.946783e+000 153 128 87
-2.035028e+000 1.135543e+000 -7.786878e+000 69 43 17
2.943729e+000 1.420963e+000 -9.662391e+000 75 57 47
-2.223336e+000 9.061494e-001 -7.800291e+000 100 75 45
-8.596273e-001 1.103084e+000 -8.006212e+000 107 101 9
-2.099464e+000 8.800580e-001 -7.671295e+000 152 125 78
2.064793e+000 1.212404e+000 -9.043096e+000 54 35 31
2.064793e+000 1.212404e+000 -9.043096e+000 54 35 31
-2.087403e+000 7.268216e-001 -7.604558e+000 162 135 95
-8.358373e-001 1.316221e+000 -7.381651e+000 109 97 17
-6.952046e-001 1.012961e+000 -7.727900e+000 120 104 38
1.559202e+000 1.049022e+000 -8.706347e+000 110 110 80
1.559202e+000 1.049022e+000 -8.706347e+000 110 110 80
6.525334e-001 9.047347e-001 -8.217617e+000 119 107 56
6.525334e-001 9.047347e-001 -8.217617e+000 119 107 56
2.605188e+000 1.019342e+000 -9.046740e+000 93 72 52
2.639709e+000 9.773368e-001 -9.038186e+000 101 79 60
2.444213e+000 9.057986e-001 -8.833289e+000 52 19 17
3.841213e+000 7.874907e-001 -9.344195e+000 90 18 19
-1.001801e+000 7.224695e-001 -7.444018e+000 120 25 21
-1.001801e+000 7.224695e-001 -7.444018e+000 120 25 21
-9.736903e-001 6.570683e-001 -7.407464e+000 117 25 19
-9.736903e-001 6.570683e-001 -7.407464e+000 117 25 19
3.669087e+000 6.932534e-001 -9.190759e+000 10 39 52
4.078851e+000 6.526958e-001 -9.327894e+000 134 86 45
1.672242e+000 5.884929e-001 -8.348862e+000 23 30 34
3.124691e+000 4.798892e-001 -8.902772e+000 104 58 10
4.635395e+000 5.830317e-001 -9.489337e+000 136 68 32
4.886582e+000 -2.568700e+000 -1.006006e+001 94 77 55
2.143519e+000 1.817334e+000 -9.991918e+000 56 68 65
2.267013e+000 1.716295e+000 -9.827212e+000 17 42 48
-7.563247e-001 1.478526e+000 -8.431486e+000 15 33 6
2.390025e+000 1.466509e+000 -9.406879e+000 119 94 64
-1.981944e+000 8.705682e-001 -7.581063e+000 157 132 91
2.880944e+000 1.219030e+000 -9.371227e+000 96 73 53
-2.007410e+000 7.643520e-001 -7.535119e+000 161 136 84
2.028971e+000 1.022987e+000 -8.798906e+000 69 26 22
3.140182e+000 9.850855e-001 -9.254505e+000 83 61 48
3.679844e+000 9.213587e-001 -9.350629e+000 13 38 57
-7.125511e-001 7.635778e-001 -7.624178e+000 109 96 25
4.707188e+000 8.838794e-001 -9.780317e+000 117 92 53
4.937318e+000 8.975598e-001 -9.811061e+000 97 42 29
2.058446e+000 6.601506e-001 -8.526394e+000 125 68 48
4.726989e+000 -3.008189e+000 -1.045237e+001 95 80 57
5.302032e+000 -2.482840e+000 -9.202512e+000 128 106 82
5.086510e+000 -3.837676e+000 -9.568008e+000 102 85 57
5.783612e+000 -1.574149e+000 -8.047397e+000 116 96 72
3.678603e+000 1.723776e+000 -1.036063e+001 85 44 14
-7.544547e-001 1.311869e+000 -8.224172e+000 21 35 20
-2.160464e+000 9.633235e-001 -7.791308e+000 132 105 75
-1.985300e+000 9.249171e-001 -7.614134e+000 155 133 86
9.226111e-001 1.000659e+000 -8.413417e+000 123 100 64
9.212266e-001 1.003037e+000 -8.410538e+000 123 100 64
-1.049432e+000 8.712280e-001 -7.617989e+000 124 20 23
2.175054e+000 9.619907e-001 -8.821238e+000 82 50 40
3.143157e+000 4.369022e-001 -8.882693e+000 141 97 37
4.159887e+000 -4.127454e+000 -1.155746e+001 125 111 86
4.841808e+000 -2.577017e+000 -1.020088e+001 44 35 23
3.837053e+000 1.932019e+000 -1.081415e+001 108 74 37
1.240428e+000 1.221592e+000 -8.781235e+000 104 14 15
1.325065e+000 1.143011e+000 -8.710696e+000 111 33 23
4.873930e+000 1.046205e+000 -1.004834e+001 108 63 28
2.218573e+000 9.848669e-001 -8.843740e+000 52 23 17
-2.373106e+000 -2.903437e-001 -7.783455e+000 27 21 25
2.144476e+000 7.132265e-001 -8.590122e+000 57 20 17
-8.786538e-001 6.254873e-001 -7.392313e+000 125 24 24
4.761529e+000 -2.757284e+000 -1.038745e+001 35 28 23
5.035899e+000 -2.165721e+000 -9.840757e+000 45 35 30
5.363495e+000 -1.403716e+000 -9.071812e+000 112 94 74
3.203427e+000 1.874683e+000 -1.045162e+001 70 32 12
3.202698e+000 1.819618e+000 -1.032308e+001 90 46 18
6.212768e-001 1.586336e+000 -9.033194e+000 127 84 59
-2.325986e+000 1.026805e+000 -7.986552e+000 158 127 83
3.013529e+000 1.074646e+000 -9.222385e+000 55 36 29
8.346496e-001 6.056957e-001 -8.041106e+000 114 51 33
5.719974e+000 -3.856760e-001 -8.159160e+000 125 103 82
2.218204e+000 1.835233e+000 -1.001390e+001 18 39 48
-2.000893e+000 7.033985e-001 -7.516856e+000 161 138 90
-2.057888e+000 1.108274e+000 -7.782112e+000 148 127 85
5.086247e+000 2.475762e-001 -9.567762e+000 29 22 19
-1.646833e-001 1.632858e+000 -8.836909e+000 115 102 57
