ply
format ascii 1.0
element face 0
property list uchar int vertex_indices
element vertex 869
property float x
property float y
property float z
property uchar diffuse_red
property uchar diffuse_green
property uchar diffuse_blue
end_header
-4.758509e-001 -8.015419e-001 -8.231650e+000 114 119 55
-2.748673e-001 -7.891265e-001 -8.261595e+000 31 52 26
-1.134186e-001 -7.416182e-001 -8.280578e+000 29 48 29
4.403093e+000 -1.134801e+000 -1.107809e+001 172 142 121
1.152581e+000 -1.101097e-001 -8.341308e+000 31 67 86
-4.968487e-001 -7.915178e-001 -8.150454e+000 61 96 85
-1.092664e+000 -5.385462e-001 -1.004668e+001 31 60 41
4.433227e+000 -6.859495e-001 -1.025174e+001 129 101 77
1.888394e+000 2.209648e-001 -1.173950e+001 29 24 21
-8.070447e-001 -6.246630e-001 -7.872196e+000 31 66 71
-5.330490e-001 -5.851397e-001 -7.983084e+000 23 39 18
-1.187071e+000 -8.053815e-001 -7.903404e+000 162 11 17
2.049267e-001 -7.074921e-001 -8.415592e+000 155 126 104
3.200145e+000 -1.173791e+000 -1.075507e+001 163 123 82
-1.127837e+000 -6.241521e-001 -7.784474e+000 172 28 42
3.106244e-001 -8.815590e-001 -1.018330e+001 153 155 166
-8.573364e-001 -9.360355e-001 -9.601854e+000 148 154 162
-1.711213e+000 5.768073e+001 -4.296590e+000 32 27 23
5.115443e-001 -9.319930e-001 -1.023992e+001 142 22 24
-9.342170e-001 6.010479e+001 -4.449663e+000 207 172 116
-9.342170e-001 6.010479e+001 -4.449663e+000 207 172 116
-7.067231e-001 -5.655254e-001 -7.799549e+000 38 66 61
-7.067231e-001 -5.655254e-001 -7.799549e+000 38 66 61
-1.127552e+000 -7.568533e-001 -7.841603e+000 174 29 32
-5.413949e-001 -6.186185e-001 -7.973219e+000 25 42 20
-1.136384e+000 -8.658381e-001 -7.932122e+000 179 143 93
-1.136384e+000 -8.658381e-001 -7.932122e+000 179 143 93
-3.080178e-001 -1.024267e+000 -8.640477e+000 153 148 35
-1.851498e+000 -5.523733e-001 -9.700647e+000 187 166 143
-8.460610e-001 -6.461090e-001 -7.793282e+000 30 48 20
-8.460610e-001 -6.461090e-001 -7.793282e+000 30 48 20
2.302580e+000 -8.949322e-001 -1.068416e+001 151 25 16
-1.815998e+000 -5.268450e-001 -9.718921e+000 180 30 42
-1.786588e+000 -4.185993e-001 -9.893619e+000 171 23 36
-8.653870e-001 -9.094964e-001 -9.555008e+000 22 56 39
-6.071268e-002 -9.441942e-001 -1.002670e+001 161 160 166
-5.720447e-001 -6.254594e-001 -1.028496e+001 35 58 15
-5.720447e-001 -6.254594e-001 -1.028496e+001 35 58 15
3.409375e-001 -1.041690e+000 -9.909209e+000 158 158 164
-1.030604e+000 -8.693572e-001 -9.518734e+000 35 57 38
-1.130722e-001 -9.316947e-001 -1.002572e+001 162 32 43
-7.271071e-001 -7.000690e-001 -7.966414e+000 41 74 53
3.608645e-001 -9.063568e-001 -1.017585e+001 163 34 43
2.106967e-001 -7.898440e-001 -1.036618e+001 179 88 82
-8.522512e-001 -8.839537e-001 -9.762839e+000 161 151 157
-3.612880e-001 -3.917860e-001 -7.862725e+000 119 128 34
-1.074001e+000 -8.757654e-001 -8.019687e+000 190 155 108
-1.164696e+000 -1.061848e+000 -8.292704e+000 185 101 79
-4.048650e-001 -9.858340e-001 -8.516338e+000 137 136 57
2.103989e+000 -1.041374e+000 -1.053727e+001 91 123 178
2.579760e+000 -9.943663e-001 -1.083326e+001 93 23 16
2.089334e+000 -8.708573e-001 -9.402349e+000 118 60 34
-1.264447e+000 -1.053927e+000 -8.247461e+000 175 148 99
1.903544e+000 -1.038070e+000 -9.565698e+000 107 57 34
1.011137e+000 -1.087022e+000 -9.285349e+000 81 34 14
3.217416e+000 -1.091037e+000 -1.067278e+001 128 67 33
8.973266e-001 -1.186720e+000 -9.822907e+000 149 156 156
1.432166e+000 -1.140620e+000 -1.004144e+001 146 35 42
2.156976e+000 -1.034631e+000 -1.063284e+001 62 9 18
3.491610e-001 -9.750728e-001 -1.001597e+001 146 98 107
1.713902e+000 -1.135165e+000 -9.839926e+000 149 18 31
-2.464886e+000 -8.499165e-001 -8.345818e+000 180 161 160
3.218048e+000 -1.159588e+000 -1.061605e+001 131 69 24
1.924822e+000 -1.104626e+000 -1.042694e+001 75 107 146
-1.259730e+000 -5.617398e-001 -9.932541e+000 28 57 43
1.575414e+000 -1.134640e+000 -9.637547e+000 171 109 83
3.373135e-001 -1.074155e+000 -9.898560e+000 157 155 168
-4.061736e-001 -8.246377e-001 -9.949530e+000 20 54 29
1.615918e+000 -1.229616e+000 -1.008657e+001 148 23 31
-7.584756e-001 -4.797437e-001 -1.019612e+001 163 162 135
-7.660956e-001 -4.864822e-001 -1.019805e+001 163 162 135
-1.477377e+000 -6.749690e-001 -9.639181e+000 49 98 156
-1.068303e+000 -8.041153e-001 -7.966954e+000 175 34 41
-9.720826e-001 -6.547986e-001 -7.886169e+000 169 31 29
-1.137879e+000 -7.946973e-001 -7.971746e+000 172 16 23
-1.137879e+000 -7.946973e-001 -7.971746e+000 172 16 23
-1.078402e+000 -8.086402e-001 -8.051227e+000 176 41 37
-1.085931e+000 -9.644911e-001 -8.152493e+000 170 29 18
2.478764e+000 -7.497436e-001 -9.392055e+000 189 68 63
2.447686e+000 -8.134974e-001 -9.459382e+000 191 74 64
2.457498e+000 -8.238039e-001 -9.508867e+000 195 81 70
2.456102e+000 -8.764719e-001 -9.584365e+000 153 27 26
2.516424e+000 -9.787910e-001 -9.680642e+000 192 72 72
2.755490e+000 -8.849350e-001 -9.722684e+000 197 80 69
3.748470e+000 -8.131958e-001 -1.006438e+001 172 139 95
1.477715e+000 -1.002372e+000 -9.333513e+000 104 48 23
2.470621e+000 -9.051357e-001 -9.678633e+000 156 26 26
2.413192e+000 -1.059120e+000 -9.781008e+000 188 74 70
2.413192e+000 -1.059120e+000 -9.781008e+000 188 74 70
2.592622e+000 -1.015470e+000 -9.821360e+000 201 82 84
2.592622e+000 -1.015470e+000 -9.821360e+000 201 82 84
2.720743e+000 -1.036652e+000 -9.927333e+000 156 28 31
2.535783e+000 -1.062425e+000 -9.915136e+000 148 27 28
1.456428e+000 -1.252981e+000 -9.871519e+000 180 94 79
1.043760e+000 -1.125013e+000 -1.004462e+001 8 97 173
2.015956e+000 -1.105634e+000 -1.039468e+001 14 82 145
1.987641e+000 -1.105069e+000 -1.043570e+001 11 73 128
1.989121e+000 -1.102908e+000 -1.043497e+001 11 73 128
2.086279e+000 -1.106518e+000 -1.043061e+001 22 83 145
2.069979e+000 -1.067729e+000 -1.049709e+001 20 79 139
3.030119e+000 -1.045549e+000 -1.088396e+001 134 81 40
5.652598e-001 -1.097378e+000 -1.001291e+001 172 166 171
1.066158e+000 -1.002067e+000 -1.027150e+001 22 86 153
1.055361e+000 -1.008457e+000 -1.026696e+001 22 86 153
1.933807e+000 -1.056230e+000 -1.053491e+001 16 82 142
2.622656e+000 -1.001049e+000 -1.080000e+001 166 98 79
2.624994e+000 -1.001427e+000 -1.079998e+001 166 98 79
1.004966e+000 -1.001631e+000 -1.027320e+001 145 158 183
1.048042e+000 -9.745347e-001 -1.032043e+001 15 79 153
1.003094e+000 -8.931300e-001 -1.040400e+001 26 81 146
9.976584e-001 -9.053260e-001 -1.040314e+001 26 81 146
1.274974e+000 -8.531935e-001 -1.054441e+001 154 39 50
-2.707542e+000 -4.585476e-001 -8.856334e+000 189 177 183
-1.780791e+000 -8.293048e-001 -9.389605e+000 183 164 158
-1.082290e+000 -8.321640e-001 -9.656928e+000 90 115 127
5.297470e-001 -7.822699e-001 -1.038026e+001 184 164 141
5.345096e-001 -7.726452e-001 -1.038149e+001 184 164 141
1.320701e+000 -7.985423e-001 -1.058345e+001 171 135 109
-1.842123e+000 -6.659647e-001 -9.525936e+000 195 155 153
-1.842123e+000 -6.659647e-001 -9.525936e+000 195 155 153
-1.755521e+000 -7.196155e-001 -9.500886e+000 172 160 142
-1.753899e+000 -7.114718e-001 -9.500975e+000 172 160 142
-1.650116e+000 -6.585627e-001 -9.603502e+000 171 29 35
-1.137208e+000 -6.894119e-001 -9.811524e+000 37 56 43
6.450193e-001 -6.035589e-001 -1.062156e+001 153 22 31
6.450193e-001 -6.035589e-001 -1.062156e+001 153 22 31
-1.843984e+000 -5.503691e-001 -9.695161e+000 195 176 155
-1.843984e+000 -5.503691e-001 -9.695161e+000 195 176 155
-1.710415e+000 -6.274714e-001 -9.656940e+000 188 154 140
-1.737688e+000 -6.139017e-001 -9.662176e+000 174 26 41
-1.737688e+000 -6.139017e-001 -9.662176e+000 174 26 41
-1.714799e+000 -5.754242e-001 -9.709826e+000 178 27 36
-9.421070e-001 -4.509771e-001 -1.016243e+001 148 160 51
-9.421070e-001 -4.509771e-001 -1.016243e+001 148 160 51
4.961578e-001 -5.450715e-001 -1.062373e+001 178 157 138
-1.910173e+000 -4.019332e-001 -9.859851e+000 192 168 152
-1.844145e+000 -4.300775e-001 -9.849128e+000 197 168 156
-1.825631e+000 -4.524179e-001 -9.829184e+000 177 36 45
-1.825599e+000 -4.525191e-001 -9.829400e+000 177 36 45
-1.880230e+000 -4.219866e-001 -9.847553e+000 163 35 38
-2.165056e-001 -3.846927e-001 -1.058755e+001 153 163 164
9.736885e-002 -3.279983e-001 -1.071382e+001 168 160 155
9.736885e-002 -3.279983e-001 -1.071382e+001 168 160 155
2.144958e+000 -2.302094e-001 -1.160492e+001 146 43 47
2.144958e+000 -2.302094e-001 -1.160492e+001 146 43 47
2.320399e+000 -1.858625e-001 -1.166814e+001 162 129 109
2.250606e+000 -1.495578e-001 -1.170638e+001 163 134 117
3.342144e+000 1.866539e-001 -1.227093e+001 168 125 112
3.460774e+000 3.040286e-002 -1.219896e+001 160 148 145
3.589937e+000 -4.125960e-002 -1.222226e+001 134 37 38
3.612043e+000 -9.369105e-003 -1.223150e+001 134 37 38
-1.936419e+000 -3.517007e-001 -9.921456e+000 183 173 158
-1.932552e+000 -3.264242e-001 -9.963040e+000 183 35 41
-1.984242e+000 -2.149990e-001 -1.005041e+001 185 175 156
-1.984551e+000 -2.157174e-001 -1.005130e+001 185 175 156
-1.624296e+000 -1.816411e-001 -1.023070e+001 143 161 46
-1.618415e+000 -1.467950e-001 -1.023324e+001 143 161 46
-1.479335e+000 -1.755046e-001 -1.025581e+001 79 119 154
-2.072894e+000 -1.419895e-001 -1.006037e+001 172 161 165
5.792209e+000 3.414981e+000 -7.116288e+000 58 44 26
5.107626e+000 -1.649742e+000 -9.408685e+000 137 117 101
4.923118e+000 -2.049740e+000 -9.817631e+000 44 25 24
1.040882e+000 -2.175046e-001 -8.347596e+000 26 58 72
-1.125819e+000 -6.070868e-001 -7.825524e+000 172 29 26
-9.439560e-002 -6.343829e-001 -8.202895e+000 44 61 29
2.571645e+000 -3.211691e-001 -9.044722e+000 162 32 29
3.225881e+000 -2.574665e-001 -9.261278e+000 111 69 28
3.225881e+000 -2.574665e-001 -9.261278e+000 111 69 28
-1.188442e+000 -8.015091e-001 -7.938537e+000 167 38 34
-1.188442e+000 -8.015091e-001 -7.938537e+000 167 38 34
-1.218611e+000 -8.588161e-001 -8.047443e+000 189 40 41
-1.218611e+000 -8.588161e-001 -8.047443e+000 189 40 41
-1.125422e+000 -7.901574e-001 -7.976875e+000 187 30 40
1.147908e+000 -7.725662e-001 -8.845125e+000 122 76 46
1.816417e+000 -7.177147e-001 -9.087839e+000 108 51 21
2.263740e+000 -7.134453e-001 -9.272775e+000 114 53 25
2.318280e+000 -6.899583e-001 -9.244328e+000 189 131 90
3.320907e+000 -5.757411e-001 -9.577680e+000 192 122 73
-2.843458e+000 -2.405359e+000 -7.988870e+000 193 37 33
-1.314288e+000 -9.494005e-001 -8.167221e+000 35 84 120
-2.290317e-001 -9.482502e-001 -8.567158e+000 145 147 42
2.292113e+000 -9.331166e-001 -9.541590e+000 183 121 81
2.415988e+000 -9.136073e-001 -9.625078e+000 176 70 57
2.808760e+000 -7.561489e-001 -9.571026e+000 185 82 65
1.235698e+000 -1.040872e+000 -9.314356e+000 110 58 33
1.202434e+000 -1.100591e+000 -9.372266e+000 80 27 11
1.734102e+000 -9.388781e-001 -9.389498e+000 103 43 17
1.734102e+000 -9.388781e-001 -9.389498e+000 103 43 17
2.545981e+000 -1.040741e+000 -9.845526e+000 159 28 33
3.579223e+000 -1.033804e+000 -1.029002e+001 175 139 91
5.138119e-001 -1.188567e+000 -9.244757e+000 14 54 84
1.529664e+000 -1.164426e+000 -9.714162e+000 160 21 19
2.481906e+000 -1.079772e+000 -9.900000e+000 183 74 64
2.481906e+000 -1.079772e+000 -9.900000e+000 183 74 64
4.277803e+000 -1.153170e+000 -1.085128e+001 53 26 10
2.089048e+000 -1.252680e+000 -1.019129e+001 189 148 111
3.119312e+000 -1.034678e+000 -1.088595e+001 172 117 84
4.185964e-001 -1.101548e+000 -9.896553e+000 165 169 162
1.238525e+000 -9.485259e-001 -1.040043e+001 89 14 10
2.123090e+000 -8.879548e-001 -1.080551e+001 168 78 64
5.771545e-001 -7.268711e-001 -1.043421e+001 160 24 31
-2.218903e+000 -6.932261e-001 -9.397119e+000 173 170 170
-1.812030e+000 -6.624074e-001 -9.537595e+000 172 30 45
-1.702371e+000 -6.860354e-001 -9.557387e+000 174 37 33
5.870473e-001 -6.006793e-001 -1.060040e+001 147 20 29
-1.765647e+000 -4.598564e-001 -9.853141e+000 177 37 41
9.939429e-001 -2.832138e-001 -1.108449e+001 156 73 43
2.258265e+000 -1.234444e-001 -1.166313e+001 143 51 52
2.258265e+000 -1.234444e-001 -1.166313e+001 143 51 52
2.445295e+000 -1.526463e-001 -1.171185e+001 52 38 90
2.970884e+000 1.518556e-002 -1.199581e+001 165 124 99
3.575752e+000 -3.816547e-003 -1.219379e+001 166 150 150
3.486759e+000 -3.096430e-002 -1.218436e+001 164 156 153
-1.957467e+000 -2.876965e-001 -9.987846e+000 199 170 170
-1.965912e+000 -3.100493e-001 -9.985053e+000 199 170 170
-1.155773e-001 -1.846080e-001 -1.076986e+001 155 159 165
-1.092321e-001 -1.725897e-001 -1.076996e+001 155 159 165
-2.028971e+000 -1.701904e-001 -1.005169e+001 169 30 47
5.047243e+000 -1.755955e+000 -9.551973e+000 52 37 37
5.054623e+000 -1.961690e+000 -9.485269e+000 158 133 111
4.932978e+000 -2.053397e+000 -9.776597e+000 140 118 104
8.047628e-001 -2.121842e-001 -8.261061e+000 185 116 69
3.768827e-001 -6.472946e-001 -8.403425e+000 145 97 74
7.611696e-001 -3.920693e-001 -8.366307e+000 181 115 72
1.172982e+000 -7.099347e-001 -8.792463e+000 117 70 53
1.172982e+000 -7.099347e-001 -8.792463e+000 117 70 53
1.391534e+000 -6.902959e-001 -8.854777e+000 96 48 27
1.721043e+000 -7.028981e-001 -9.037418e+000 107 56 32
2.002510e+000 -6.832144e-001 -9.123604e+000 182 120 83
2.234967e+000 -6.742143e-001 -9.218217e+000 186 124 83
3.095239e+000 -6.053037e-001 -9.472586e+000 157 107 72
3.467159e+000 -6.267623e-001 -9.712759e+000 166 45 28
4.091772e+000 -3.887344e-001 -9.753583e+000 193 161 92
7.111736e-001 -9.647957e-001 -8.958925e+000 2 44 67
1.476711e+000 -9.073140e-001 -9.271664e+000 191 126 85
1.770906e+000 -9.500694e-001 -9.351405e+000 189 125 87
2.038195e+000 -8.838799e-001 -9.421787e+000 189 129 90
3.104949e+000 -8.170415e-001 -9.759516e+000 188 129 91
5.527536e-001 -1.107707e+000 -9.055748e+000 139 26 36
4.402941e+000 -9.159907e-001 -1.055957e+001 153 130 103
1.906463e+000 -1.144920e+000 -9.815064e+000 153 23 35
4.283427e+000 -9.711153e-001 -1.055755e+001 81 63 42
1.610014e+000 -1.176069e+000 -9.962820e+000 179 87 74
2.714067e+000 -1.007206e+000 -1.087111e+001 172 145 121
-1.149426e+000 -8.589915e-001 -9.656577e+000 24 57 45
-9.845181e-001 -7.822903e-001 -9.727366e+000 18 62 31
-6.351556e-001 -7.603969e-001 -9.943050e+000 28 59 41
-2.253111e+000 -6.599845e-001 -9.421839e+000 50 104 170
-1.835515e+000 -6.532210e-001 -9.592249e+000 176 37 45
-1.831277e+000 -6.445944e-001 -9.592216e+000 176 37 45
-1.973614e+000 -3.189659e-001 -9.937453e+000 167 36 39
-2.008663e+000 -2.763730e-001 -1.000206e+001 171 29 41
-1.046351e+000 -2.194348e-001 -1.040874e+001 24 63 41
-4.000378e-002 -2.114905e-001 -1.077151e+001 140 86 90
-2.450254e+000 7.240411e-002 -9.918876e+000 16 78 162
1.473197e+000 9.424223e-002 -8.322328e+000 183 157 106
-7.741834e-001 -6.376505e-001 -7.936802e+000 42 63 21
-4.059644e-002 -4.759580e-001 -8.114553e+000 47 56 8
7.130351e-001 -5.734899e-001 -8.476320e+000 162 94 54
8.988196e-001 -7.637596e-001 -8.735984e+000 13 45 62
1.712006e+000 -1.080539e+000 -9.574956e+000 185 122 85
3.567930e+000 -9.884439e-001 -1.024529e+001 176 139 85
2.736168e+000 -1.116530e+000 -1.008916e+001 163 28 25
3.824124e+000 -1.142316e+000 -1.088629e+001 173 140 105
3.244089e+000 -1.085014e+000 -1.091778e+001 68 13 11
1.359800e+000 -8.680666e-001 -1.053033e+001 152 9 23
-1.747028e+000 -7.930194e-001 -9.434338e+000 169 35 37
-1.789382e+000 -6.906889e-001 -9.520574e+000 182 40 55
-1.787858e+000 -6.884555e-001 -9.520715e+000 182 40 55
8.546014e-001 -5.932539e-001 -1.072260e+001 144 157 174
8.967604e-001 -6.583565e-001 -1.063258e+001 148 167 188
-1.890026e+000 -5.236545e-001 -9.734646e+000 175 41 47
-1.695284e+000 -4.995429e-001 -9.823366e+000 180 38 45
-1.311046e-001 -5.927178e-001 -1.033828e+001 156 156 165
4.533158e-001 -4.852646e-001 -1.068735e+001 181 137 131
2.734394e+000 -2.043690e-001 -1.179996e+001 157 134 118
3.462943e+000 1.964370e-001 -1.230421e+001 170 148 148
-6.322270e-001 -2.645117e-001 -1.050635e+001 176 170 154
-6.322270e-001 -2.645117e-001 -1.050635e+001 176 170 154
-4.252879e-001 -2.327065e-001 -1.064923e+001 27 62 28
4.860022e+000 -2.175714e+000 -9.958003e+000 44 30 26
-4.124406e-001 -6.350077e-001 -8.082136e+000 100 114 60
1.259108e+000 -3.080417e-001 -8.517258e+000 191 119 79
1.582899e+000 -8.060100e-001 -9.075501e+000 186 121 83
1.366540e+000 -1.191563e+000 -1.005075e+001 163 28 39
3.957389e-001 -1.075495e+000 -9.942700e+000 126 61 68
3.952903e-001 -1.075656e+000 -9.942645e+000 126 61 68
2.720319e+000 -1.001561e+000 -1.081918e+001 146 64 50
2.720319e+000 -1.001561e+000 -1.081918e+001 146 64 50
-1.753775e+000 -1.069344e+000 -9.167283e+000 37 103 167
-2.752300e-001 -1.022213e+000 -9.753674e+000 24 60 36
2.962646e-001 -8.522984e-001 -1.019008e+001 167 158 174
8.923917e-001 -4.848855e-001 -1.086041e+001 11 83 147
-7.129871e-001 -3.062911e-001 -1.043411e+001 27 59 42
-7.129871e-001 -3.062911e-001 -1.043411e+001 27 59 42
1.897612e+000 -8.291324e-001 -9.219026e+000 187 122 84
2.041921e+000 -7.468926e-001 -9.272988e+000 186 124 83
-1.612376e+000 -1.100618e+000 -8.246298e+000 122 132 120
1.149823e+000 -1.162441e+000 -9.554581e+000 183 63 49
-1.047301e+000 -1.002332e+000 -9.473990e+000 27 60 47
-9.601742e-001 -1.025118e+000 -9.484477e+000 108 132 166
5.635220e-001 -7.737289e-001 -1.029743e+001 153 23 33
-7.447500e-001 -6.398402e-001 -1.001512e+001 166 162 127
1.611774e-001 -5.791437e-001 -1.043398e+001 161 161 165
2.365635e-001 -6.584984e-001 -1.040108e+001 169 35 40
-5.015064e-001 -6.289099e-001 -1.017371e+001 27 59 37
-1.861934e+000 -4.181226e-001 -9.851870e+000 194 129 123
-1.369877e+000 -4.531683e-001 -1.000302e+001 164 170 137
-9.702367e-001 -3.110820e-001 -1.031903e+001 32 66 44
1.210034e-001 -3.806095e-001 -1.069261e+001 167 44 46
3.673632e+000 1.653193e-001 -1.239926e+001 150 105 74
2.108916e+000 -8.130270e-001 -9.319569e+000 188 124 88
3.519617e+000 -9.632593e-001 -1.116043e+001 166 142 120
-6.203417e-001 -1.038003e+000 -9.594220e+000 27 61 36
-3.499554e-001 -9.093642e-001 -9.895995e+000 29 62 32
-9.707887e-001 -7.978429e-001 -9.790186e+000 23 64 26
-5.425242e-001 -6.255889e-001 -1.007970e+001 158 159 152
-5.425242e-001 -6.255889e-001 -1.007970e+001 158 159 152
-4.525993e-001 -7.209225e-001 -1.007268e+001 32 65 39
3.290903e-001 -7.361008e-001 -1.037521e+001 168 162 174
-1.542487e+000 -5.476066e-001 -9.799967e+000 43 106 166
2.409399e-001 -5.102204e-001 -1.061923e+001 158 162 162
-1.288475e+000 -3.749955e-001 -1.010759e+001 31 65 48
-8.766080e-001 -4.326164e-001 -1.020311e+001 27 70 42
-1.113313e+000 -3.245535e-001 -1.027506e+001 162 162 166
-7.212843e-001 -2.110357e-001 -1.049332e+001 30 64 39
-3.022203e-001 -2.571859e-001 -1.066467e+001 153 156 165
1.044659e+000 -6.365090e-001 -8.711488e+000 21 73 96
3.624518e+000 -4.845387e-001 -9.658680e+000 132 26 8
2.300078e+000 -1.095404e+000 -1.056762e+001 174 144 110
2.508739e+000 -9.921620e-001 -1.079880e+001 156 74 53
2.535189e+000 -9.632129e-001 -1.080356e+001 156 74 53
-1.415433e+000 -9.742339e-001 -9.346963e+000 98 128 162
-8.037627e-001 -7.433758e-001 -9.816231e+000 161 164 172
-9.664850e-001 -5.814960e-001 -1.000784e+001 160 160 157
2.279961e+000 -8.118940e-001 -9.455822e+000 185 123 83
3.239714e+000 -1.082471e+000 -1.054805e+001 177 141 109
-2.110601e-001 -9.564835e-001 -9.912812e+000 160 161 168
-2.250804e+000 -6.577163e-001 -9.524810e+000 17 89 163
-8.956089e-001 -1.186898e+000 -9.206866e+000 70 118 166
-3.894100e-001 -9.731639e-001 -9.812401e+000 29 67 39
1.393413e+000 -8.565818e-001 -1.035921e+001 133 38 47
-1.075683e-001 -1.013209e+000 -9.814440e+000 166 165 171
2.971523e+000 4.273570e-001 -8.579327e+000 38 29 22
-8.902935e-001 -9.858346e-001 -8.295629e+000 97 100 23
-1.229050e+000 -8.068918e-001 -9.630700e+000 27 60 39
-5.312712e-001 -1.137524e+000 -9.638775e+000 28 58 24
-2.014612e+000 -9.434555e-001 -9.359507e+000 6 80 151
-2.682865e+000 2.070953e-001 -7.999977e+000 183 27 40
-2.153657e+000 -1.061776e+000 -8.660141e+000 217 195 172
-2.153657e+000 -1.061776e+000 -8.660141e+000 217 195 172
-5.898795e-001 5.782579e+000 -1.014680e+001 198 157 153
4.976557e+000 -2.255186e+000 -9.716269e+000 120 95 78
1.511257e+000 -1.140481e+000 -9.654535e+000 168 43 39
1.979994e+000 -1.076573e+000 -1.046568e+001 13 81 139
2.070771e+000 -1.067213e+000 -1.049596e+001 20 79 139
3.576497e+000 -1.029852e+000 -1.107940e+001 153 115 78
-1.119982e+000 -9.382407e-001 -9.499824e+000 59 106 144
-1.001182e+000 -9.787774e-001 -9.522287e+000 30 57 19
1.022435e+000 -9.480610e-001 -1.034574e+001 150 174 192
-1.828853e+000 -5.614545e-001 -9.717495e+000 187 33 47
-1.849844e+000 -4.879671e-001 -9.762969e+000 167 42 43
-1.858376e+000 -5.131316e-001 -9.762999e+000 167 42 43
-2.292154e-001 -2.759355e-001 -1.064389e+001 162 155 162
2.397488e+000 -1.162992e-001 -1.174333e+001 113 116 133
-1.822425e+000 -1.617984e-001 -1.013593e+001 177 34 42
-1.743414e+000 -1.961704e-001 -1.012898e+001 52 86 145
-3.355904e-002 -2.222101e-001 -1.081338e+001 161 162 161
3.278994e+000 -9.668924e-001 -1.112084e+001 172 141 118
4.557728e+000 -4.882591e-001 -1.148887e+001 125 109 110
2.185920e+000 -9.030655e-001 -1.080901e+001 169 67 64
-1.508032e-001 -6.460425e-001 -1.023538e+001 174 37 36
2.108657e+000 -1.963764e-001 -1.155615e+001 152 53 55
1.160538e+000 -1.213253e+000 -9.677203e+000 169 40 37
4.528677e+000 -1.133416e+000 -1.094485e+001 30 18 29
-1.733052e+000 -1.092926e+000 -9.119644e+000 95 132 176
6.876592e-001 -6.836737e-001 -1.053037e+001 206 125 123
6.879404e-001 -6.836608e-001 -1.053036e+001 206 125 123
5.479702e-001 -5.374233e-001 -1.067928e+001 155 29 41
-2.253992e-001 -3.009944e-001 -1.060772e+001 174 33 31
2.745010e+000 -1.691539e-001 -1.181194e+001 159 133 118
4.846706e+000 -2.415355e+000 -1.004528e+001 124 101 85
1.747007e+000 -1.020923e+000 -9.506996e+000 185 123 82
1.863245e+000 -1.037442e+000 -1.045128e+001 16 89 156
2.468070e-001 -6.171053e-001 -1.048278e+001 174 35 37
4.169345e-001 -5.869989e-001 -1.053765e+001 145 28 36
8.141387e-001 -4.878818e-001 -1.081176e+001 99 119 145
2.505551e+000 -1.909602e-001 -1.169410e+001 165 133 115
-1.802867e-001 -2.386950e-001 -1.072431e+001 136 85 99
2.940078e-001 -1.053051e+000 -9.950281e+000 164 161 169
1.169938e+000 -8.712668e-001 -1.050124e+001 179 143 124
1.035901e+000 -1.179934e+000 -9.535153e+000 172 160 135
3.151100e+000 -1.028082e+000 -1.095899e+001 112 55 31
-8.433708e-001 -3.271923e-001 -1.036714e+001 170 166 170
-1.112982e+000 -3.366506e-001 -1.027483e+001 162 162 166
3.458037e+000 -1.011128e+000 -1.098070e+001 44 14 17
4.103724e+000 -8.239452e-001 -1.033856e+001 98 81 54
4.128161e+000 3.510130e-001 -1.109797e+001 138 80 39
-6.293396e-001 -8.700314e-001 -8.260152e+000 157 151 26
2.819031e+000 -9.234734e-001 -9.822158e+000 184 71 63
1.053345e+000 -1.187134e+000 -9.864579e+000 158 25 31
1.515439e+000 -1.165054e+000 -9.919736e+000 180 102 81
3.015306e+000 -1.027848e+000 -1.085025e+001 182 139 90
1.956104e+000 -1.060063e+000 -1.050398e+001 14 83 151
2.575533e+000 -9.905584e-001 -1.079492e+001 166 90 79
2.184823e+000 -8.366652e-001 -1.089134e+001 171 132 114
3.349256e-001 -8.945153e-001 -1.016982e+001 158 18 25
4.202855e+000 -3.106024e-001 -1.184002e+001 110 68 68
4.199578e+000 -3.814104e-001 -1.181766e+001 23 17 16
-1.672812e+000 -7.371480e-001 -9.511872e+000 159 18 28
-1.671974e+000 -7.368070e-001 -9.511720e+000 159 18 28
-1.659655e+000 -7.168962e-001 -9.540591e+000 180 171 151
-1.439425e+000 -8.175344e-001 -9.699830e+000 151 160 29
-1.739801e+000 -5.558614e-001 -9.728287e+000 180 175 164
-1.575943e+000 -6.160299e-001 -9.676132e+000 167 176 159
-1.594677e+000 -6.119314e-001 -9.755619e+000 28 94 161
3.697866e-001 -6.230700e-001 -1.049351e+001 156 150 154
4.191827e-001 -4.855988e-001 -1.066674e+001 170 167 151
6.293660e-001 -5.425775e-001 -1.066899e+001 152 28 37
4.812431e-001 -5.025742e-001 -1.064339e+001 160 15 23
4.812431e-001 -5.025742e-001 -1.064339e+001 160 15 23
8.381456e-001 -5.167299e-001 -1.078187e+001 7 85 153
-1.879899e+000 -4.210203e-001 -9.846963e+000 187 41 48
7.290654e-001 -3.093479e-001 -1.098902e+001 14 67 153
7.290654e-001 -3.093479e-001 -1.098902e+001 14 67 153
2.364274e+000 -1.035945e-001 -1.171827e+001 40 25 64
2.377133e+000 -9.029844e-002 -1.172014e+001 40 25 64
2.532337e+000 -1.649299e-001 -1.174086e+001 24 72 140
-1.821746e+000 -2.903642e-001 -1.003456e+001 198 157 153
2.347528e+000 1.132494e-002 -1.177801e+001 44 39 68
2.318434e+000 -6.241253e-001 -9.200573e+000 118 58 24
-1.808029e+000 -1.191567e+000 -8.282514e+000 156 145 117
2.360673e+000 -1.011387e+000 -9.719878e+000 180 93 71
3.586302e+000 -9.341282e-001 -1.019284e+001 142 104 65
-2.273255e+000 -1.139490e-001 -7.909617e+000 185 154 110
1.620763e+000 -1.192899e+000 -9.855336e+000 171 32 31
1.293298e+000 -1.173607e+000 -1.004673e+001 175 57 53
2.214954e+000 -1.011285e+000 -1.066519e+001 175 47 54
-1.702662e+000 -8.262921e-001 -9.409151e+000 167 164 165
6.705964e-001 -7.655754e-001 -1.043473e+001 145 18 29
4.040270e+000 -4.028276e-001 -1.179916e+001 111 38 50
6.460857e-001 -7.016966e-001 -1.049100e+001 146 21 31
3.762898e+000 -4.770754e-001 -1.180979e+001 154 117 108
3.973764e+000 -3.738093e-001 -1.186308e+001 123 34 36
-1.786425e+000 -6.103718e-001 -9.644659e+000 173 23 25
-1.395955e+000 -6.459216e-001 -9.741676e+000 140 152 67
1.323337e-001 -4.019587e-001 -1.063254e+001 152 162 164
1.359516e-001 -2.993027e-001 -1.075326e+001 171 26 32
1.348093e+000 -5.308555e-003 -1.141148e+001 143 99 37
3.032426e+000 -1.910571e-002 -1.201843e+001 115 24 32
3.106299e+000 4.387239e-003 -1.205434e+001 178 115 44
3.660120e+000 1.999063e-002 -1.227952e+001 162 149 155
3.680454e+000 3.822050e-002 -1.228154e+001 162 149 155
-8.448626e-001 -4.946551e-002 -1.056812e+001 23 61 36
4.749510e+000 -2.476802e+000 -1.015885e+001 151 130 112
-1.449718e+000 -1.051784e+000 -8.203295e+000 49 93 115
-7.098556e-001 -1.037620e+000 -8.481818e+000 144 143 33
1.932085e+000 -8.878360e-001 -9.410064e+000 187 125 88
1.932085e+000 -8.878360e-001 -9.410064e+000 187 125 88
2.370432e+000 -9.140096e-001 -9.588529e+000 149 21 26
1.709520e+000 -1.084360e+000 -9.575588e+000 182 122 88
2.122447e+000 -9.630941e-001 -9.632713e+000 180 119 88
2.314221e+000 -1.046206e+000 -9.837770e+000 144 20 29
-1.349106e-001 -1.228536e+000 -9.461257e+000 43 77 53
3.117257e+000 -1.054317e+000 -1.071024e+001 177 144 105
1.927214e+000 -1.024420e+000 -1.053878e+001 9 83 154
-2.097423e+000 -1.070040e+000 -9.010913e+000 157 154 165
1.321340e+000 -9.487879e-001 -1.046854e+001 128 21 22
2.100783e+000 -8.463081e-001 -1.086041e+001 91 18 22
5.275232e-001 -5.822098e-001 -1.059078e+001 154 24 32
-1.779462e+000 -3.141693e-001 -1.003178e+001 176 35 41
-8.829221e-002 -1.137962e-001 -1.083802e+001 137 90 97
5.018862e+000 -2.047828e+000 -9.500695e+000 134 108 90
5.067045e+000 -1.767678e+000 -9.498468e+000 160 133 116
-6.197485e-001 -1.117277e+000 -8.539506e+000 137 130 43
5.704961e-001 -8.027197e-001 -8.706645e+000 150 34 35
4.482191e+000 -1.089075e+000 -1.116226e+001 27 20 29
2.393914e+000 -9.650019e-001 -1.078592e+001 159 73 51
-1.461875e+000 -8.955547e-001 -9.437424e+000 20 62 35
-1.461875e+000 -8.955547e-001 -9.437424e+000 20 62 35
-1.009817e+000 -8.243807e-001 -9.675104e+000 163 164 34
-2.202095e+000 -7.604716e-001 -9.361481e+000 39 98 160
-1.619149e+000 -7.866044e-001 -9.485264e+000 173 34 39
-1.619149e+000 -7.866044e-001 -9.485264e+000 173 34 39
-1.446162e+000 -6.227128e-001 -9.767987e+000 59 109 160
-1.970390e+000 -3.163014e-001 -9.938126e+000 179 41 42
8.777243e-001 -1.652669e-001 -1.112382e+001 169 122 112
2.996317e+000 4.585428e-001 -1.216077e+001 32 28 25
-2.000890e+000 -2.580928e-001 -1.000326e+001 172 40 45
5.109411e+000 -1.660889e+000 -9.386938e+000 157 131 117
4.998778e+000 -1.789976e+000 -9.572642e+000 50 36 34
-1.030571e-001 -7.047559e-001 -8.274382e+000 34 52 27
-1.109757e+000 -1.096438e+000 -8.347763e+000 136 127 62
8.388410e-001 -1.159217e+000 -9.345443e+000 16 78 115
1.261392e+000 -1.173089e+000 -9.590173e+000 166 39 32
-7.289521e-001 -9.666328e-001 -9.636149e+000 164 162 138
-6.636908e-001 -9.305904e-001 -9.699301e+000 25 60 25
-4.096099e-001 -8.242401e-001 -9.948521e+000 28 56 41
4.640481e-001 -6.467295e-001 -1.045128e+001 144 28 36
-8.982717e-001 -4.883619e-001 -1.012922e+001 33 71 44
-1.821671e+000 -2.519425e-001 -1.008497e+001 169 40 39
4.826270e+000 -2.319582e+000 -9.986470e+000 156 130 110
3.931950e+000 -4.352884e-001 -9.741135e+000 159 79 28
-2.067831e+000 -9.454154e-001 -9.175420e+000 126 140 165
1.054881e-003 -8.546085e-001 -1.008357e+001 157 164 168
4.958962e-001 -7.137032e-001 -1.039367e+001 149 27 37
-1.053215e+000 -1.132649e+000 -8.388702e+000 29 52 31
3.420386e+000 -1.103947e+000 -1.083320e+001 166 135 86
3.420610e+000 -1.102997e+000 -1.083275e+001 166 135 86
-5.151966e-001 -1.109454e+000 -9.569076e+000 114 129 163
-5.151966e-001 -1.109454e+000 -9.569076e+000 114 129 163
-5.518324e-001 -7.784738e-001 -9.942311e+000 160 166 159
7.268747e-001 -5.752023e-001 -1.070341e+001 22 76 129
-1.172078e+000 -4.409768e-001 -1.006223e+001 167 165 161
-2.501294e-001 -3.724909e-001 -1.054782e+001 164 37 41
-1.913425e+000 -2.515306e-001 -1.003388e+001 194 156 160
1.760903e+000 -9.652939e-001 -1.055836e+001 113 21 24
-1.103300e+000 -2.950327e-001 -1.027576e+001 167 163 167
-8.359318e-001 -3.104150e-001 -1.036996e+001 168 163 165
1.182408e+000 -7.723096e-001 -9.000634e+000 188 116 78
2.206964e+000 1.623467e-001 -1.172152e+001 151 129 116
-2.269414e-001 -7.103325e-001 -1.009464e+001 162 165 174
4.966748e-001 -9.572059e-001 -9.650129e+000 156 159 162
-7.893973e-001 -1.175868e+000 -8.591713e+000 131 141 80
1.482475e+000 -9.357051e-001 -9.181380e+000 141 80 49
1.482475e+000 -9.357051e-001 -9.181380e+000 141 80 49
1.755110e+000 -1.060131e+000 -9.471524e+000 141 85 58
1.145663e+000 -1.161375e+000 -9.418662e+000 125 63 43
2.147051e+000 -1.060931e+000 -9.675784e+000 186 127 97
2.104982e+000 -1.125337e+000 -9.735045e+000 188 128 95
2.104982e+000 -1.125337e+000 -9.735045e+000 188 128 95
2.181694e+000 -1.092438e+000 -9.767458e+000 128 72 41
2.599660e+000 -1.087629e+000 -9.948157e+000 148 32 28
2.699220e+000 -1.120815e+000 -1.004066e+001 187 80 75
-1.097550e+000 -1.022784e+000 -9.441757e+000 130 147 96
-1.695023e+000 -8.907671e-001 -9.407262e+000 12 79 152
-1.077998e+000 -8.215625e-001 -9.660165e+000 93 108 128
2.228726e+000 -8.214300e-001 -1.091787e+001 145 39 53
2.228726e+000 -8.214300e-001 -1.091787e+001 145 39 53
-1.288819e+000 -7.531779e-001 -9.585222e+000 111 125 65
6.304354e-001 -7.597606e-001 -1.041868e+001 178 121 112
9.051358e-001 -7.547936e-001 -1.053607e+001 145 148 164
9.546210e-001 -7.684465e-001 -1.054207e+001 117 128 155
9.723346e-001 -7.391350e-001 -1.053868e+001 117 128 155
4.130571e+000 -3.867190e-001 -1.177428e+001 93 33 42
-3.874370e-001 -6.273302e-001 -1.012479e+001 40 58 29
2.906474e-001 -6.436296e-001 -1.047367e+001 150 152 164
8.495990e-001 -5.568650e-001 -1.070610e+001 136 145 170
4.916078e-001 -4.844632e-001 -1.067277e+001 178 136 130
-1.876962e+000 -4.730490e-001 -9.779146e+000 186 153 147
-2.266632e+000 -1.761479e-001 -9.969102e+000 82 124 184
-2.262807e+000 -1.646989e-001 -9.967664e+000 82 124 184
-1.841103e+000 -1.723280e-001 -1.010845e+001 179 109 117
-1.841103e+000 -1.723280e-001 -1.010845e+001 179 109 117
4.009540e+000 6.192657e-001 -1.259382e+001 37 25 19
4.674689e+000 -2.369088e+000 -1.018762e+001 70 57 61
1.325154e+000 -1.049923e+000 -9.289518e+000 133 74 46
1.991028e+000 -1.116045e+000 -1.047970e+001 74 112 149
-1.069180e+000 -1.106798e+000 -9.419549e+000 123 133 59
2.093334e+000 -1.060453e+000 -1.053199e+001 77 123 166
2.153116e+000 -1.031229e+000 -1.063902e+001 49 5 22
2.215724e+000 -1.046684e+000 -1.059662e+001 159 38 34
-1.002855e+000 -9.807783e-001 -9.523713e+000 35 49 28
-1.134118e+000 -9.804726e-001 -9.544964e+000 124 132 56
-1.617775e+000 -6.315617e-001 -9.673382e+000 160 30 37
-6.684640e-001 -6.387424e-001 -1.000584e+001 21 52 36
-6.348450e-001 -6.280278e-001 -1.008806e+001 29 56 38
5.053884e-001 -5.407582e-001 -1.062549e+001 180 129 123
4.058028e+000 -2.836561e-001 -1.192784e+001 115 82 65
-1.785889e+000 -6.102668e-001 -9.644683e+000 161 34 33
-1.701321e+000 -5.756682e-001 -9.706659e+000 168 38 58
-1.734468e+000 -5.457195e-001 -9.760841e+000 161 38 50
4.190482e-001 -4.858430e-001 -1.066682e+001 172 142 135
-1.849782e+000 -3.426912e-001 -9.930805e+000 186 151 148
-1.795057e+000 -3.742695e-001 -9.935444e+000 168 38 41
-1.550419e+000 -1.045337e-001 -1.025563e+001 120 131 75
9.164272e-001 -1.215373e+000 -9.358922e+000 142 82 58
1.957377e+000 -1.072690e+000 -1.042635e+001 72 97 116
3.224916e+000 -1.121785e+000 -1.079866e+001 166 124 81
-2.107428e+000 -1.017892e+000 -9.041219e+000 142 142 147
1.187116e+000 -9.730418e-001 -1.041471e+001 86 18 10
7.382101e-001 -7.908540e-001 -1.042281e+001 169 86 87
-1.288031e+000 -6.523830e-001 -9.745195e+000 28 57 40
6.120138e-001 -5.210089e-001 -1.070176e+001 165 78 81
-1.665491e-001 -2.908634e-001 -1.059462e+001 155 147 158
-1.665491e-001 -2.908634e-001 -1.059462e+001 155 147 158
1.506192e-001 -3.724099e-001 -1.062980e+001 148 149 157
1.368402e-001 -2.987964e-001 -1.075296e+001 157 28 43
8.019742e-001 -2.972913e-001 -1.094982e+001 9 66 145
2.113249e+000 -1.931494e-001 -1.155536e+001 122 36 34
-1.932177e+000 -3.465536e-001 -9.920326e+000 184 148 153
1.761354e+000 1.842135e-001 -1.147990e+001 156 129 107
1.631230e+000 6.490988e-001 -1.154743e+001 41 32 26
-5.505348e-001 -1.081078e+000 -8.500803e+000 43 62 17
1.618351e+000 -1.179647e+000 -9.663149e+000 187 124 93
2.042282e+000 -1.184159e+000 -9.836479e+000 186 124 96
2.529508e+000 -1.144496e+000 -1.001835e+001 150 22 33
2.717054e+000 -1.135305e+000 -1.008956e+001 157 24 33
3.370775e+000 -9.727685e-001 -1.092055e+001 59 8 20
1.900538e+000 -1.024849e+000 -1.054474e+001 10 67 123
1.327821e+000 -9.415282e-001 -1.047061e+001 128 20 27
9.314501e-001 -7.535603e-001 -1.055101e+001 106 114 137
8.547851e-001 -5.908487e-001 -1.072046e+001 118 126 152
4.031084e+000 -1.891100e-001 -1.198566e+001 130 90 65
5.906240e-001 -4.484814e-001 -1.077257e+001 164 65 75
-2.073962e-001 -2.608880e-001 -1.060065e+001 161 33 44
-1.660764e-001 -2.097989e-001 -1.072703e+001 136 85 98
1.192260e+000 -3.326293e-002 -1.127769e+001 154 102 51
1.618996e+000 1.761081e-002 -1.151981e+001 114 66 44
4.831690e+000 -2.129969e+000 -9.775259e+000 151 124 109
4.701547e+000 -2.552922e+000 -1.019966e+001 155 129 121
4.655236e+000 -2.689417e+000 -1.034673e+001 148 123 107
1.046239e+000 -1.156077e+000 -9.297735e+000 191 124 89
1.398704e+000 -1.162144e+000 -9.563288e+000 190 127 93
1.510129e+000 -1.153516e+000 -9.600917e+000 185 122 88
-1.733792e+000 -8.384367e-001 -9.382769e+000 155 104 105
1.044901e+000 -8.641221e-001 -1.049595e+001 23 63 136
1.086068e+000 -8.075540e-001 -1.049240e+001 23 63 136
-3.782873e-001 -7.651542e-001 -1.002222e+001 160 155 148
-3.782873e-001 -7.651542e-001 -1.002222e+001 160 155 148
8.975590e-001 -6.571769e-001 -1.063160e+001 126 140 164
4.937975e-001 -5.216830e-001 -1.059957e+001 142 77 82
-9.734974e-001 -4.442077e-001 -1.014065e+001 166 160 98
-6.341392e-001 -3.718306e-001 -1.040857e+001 159 153 143
2.646612e+000 3.111140e-001 -1.193026e+001 17 56 125
-1.083806e+000 -1.397579e-001 -1.042207e+001 156 151 131
3.858655e+000 4.200930e-001 -1.251532e+001 175 106 32
3.975310e+000 5.461768e-001 -1.253707e+001 175 106 32
4.305444e+000 -1.073179e+000 -1.080484e+001 187 158 128
2.241241e+000 -8.871353e-001 -1.087755e+001 125 33 34
2.842303e-001 -8.298624e-001 -1.018023e+001 141 143 141
-1.754278e+000 -6.722910e-001 -9.600676e+000 177 124 123
1.548877e-001 -3.253090e-001 -1.069139e+001 171 44 47
6.629435e-001 -1.986087e-001 -1.097329e+001 12 75 137
-9.685898e-001 -3.130090e-001 -1.031686e+001 23 62 38
-1.296960e+000 -1.627008e-001 -1.032762e+001 157 156 162
-5.495122e-001 -7.768860e-001 -9.940718e+000 153 150 161
8.366611e-001 -6.924333e-001 -1.053023e+001 13 66 124
1.384113e-001 -5.801254e-001 -1.042310e+001 148 150 155
-1.183872e+000 -5.481524e-001 -9.957530e+000 161 159 142
-1.089076e+000 -5.301991e-001 -1.003844e+001 23 59 38
-1.913043e+000 -2.512711e-001 -1.003379e+001 171 141 137
3.901255e+000 -5.228622e-002 -1.209965e+001 142 88 31
1.516565e+000 -1.216788e+000 -1.001788e+001 172 86 73
-2.241048e+000 -6.094408e-001 -9.508619e+000 15 79 148
2.896647e+000 2.389859e-001 -1.202141e+001 157 130 119
-2.004071e+000 -9.309163e-001 -9.352210e+000 11 76 144
-1.892062e+001 3.041518e+001 -4.288639e+001 102 80 67
-2.284668e+000 6.178433e+001 -5.720207e+000 32 23 17
-6.924659e-001 -1.105570e+000 -9.504749e+000 154 163 40
-1.108472e+000 -9.969609e-001 -9.460668e+000 26 59 28
1.290121e-001 -1.012058e+000 -9.921512e+000 157 168 155
1.290121e-001 -1.012058e+000 -9.921512e+000 157 168 155
-1.560053e+000 -6.520021e-001 -9.636568e+000 166 178 168
-1.184511e+000 -6.358768e-001 -9.794259e+000 26 65 48
-1.797935e+000 -4.379899e-001 -9.855856e+000 191 165 146
-9.322197e-001 -3.750528e-001 -1.026207e+001 163 165 32
1.876881e+000 -1.108137e+000 -1.031291e+001 24 83 146
-1.696827e+000 -5.533958e-001 -9.747980e+000 192 169 161
-1.936160e+000 -3.514067e-001 -9.920947e+000 183 170 156
1.035450e+001 7.085885e+001 1.587862e+001 91 91 102
8.631913e+000 6.359785e+001 1.241788e+001 91 89 94
1.025053e+001 7.390399e+001 1.448122e+001 105 102 107
2.502078e+000 -1.114226e+000 -1.000115e+001 153 23 35
4.487923e-001 -1.157481e+000 -9.818254e+000 161 160 167
1.107756e+001 6.962132e+001 1.853819e+001 123 107 96
9.584037e+000 7.125992e+001 1.726237e+001 122 92 78
1.009816e+001 6.997830e+001 1.846149e+001 96 87 79
1.048336e+001 7.205982e+001 1.728031e+001 149 146 173
-1.276742e+000 -1.020146e+000 -8.203916e+000 180 42 22
2.178822e+000 -1.052335e+000 -9.742666e+000 184 123 97
2.044527e+000 -1.107231e+000 -1.042118e+001 86 122 155
2.047428e+000 -1.103351e+000 -1.041989e+001 86 122 155
1.057101e-001 -1.081092e+000 -9.836974e+000 135 63 64
1.050274e+000 -1.009187e+000 -1.026698e+001 12 68 100
3.438478e+000 -9.989418e-001 -1.107695e+001 132 79 41
2.003014e+000 -8.818476e-001 -1.079062e+001 126 43 36
-1.518793e+000 -8.621449e-001 -9.433121e+000 138 147 49
-1.806451e+000 -8.139103e-001 -9.385512e+000 33 95 147
-1.763620e+000 -8.045439e-001 -9.408261e+000 164 25 37
-1.647849e+000 -7.547139e-001 -9.503750e+000 186 153 137
-1.368086e+000 -6.506544e-001 -9.774969e+000 26 52 37
4.419672e-001 -5.439784e-001 -1.060419e+001 170 132 129
-1.668507e+000 -5.960807e-001 -9.704080e+000 193 142 131
-1.667944e+000 -5.953945e-001 -9.703823e+000 193 142 131
8.114938e-001 -4.450760e-001 -1.085211e+001 32 73 131
3.659703e+000 9.474948e-002 -1.230103e+001 135 38 38
3.643504e+000 1.508084e-001 -1.235969e+001 164 146 141
2.303213e+000 2.276285e-001 -1.185852e+001 43 33 46
1.082586e+000 -9.973035e-001 -9.192037e+000 128 71 51
1.986244e+000 -1.131021e+000 -1.034982e+001 140 158 170
1.441453e+001 9.480428e+001 3.348044e+001 109 94 22
-1.075900e+000 -1.048621e+000 -9.428650e+000 23 50 39
2.185089e+000 -9.034357e-001 -1.080921e+001 150 60 54
-1.751847e+000 -7.175656e-001 -9.501483e+000 180 146 137
-1.777348e+000 -6.597343e-001 -9.562588e+000 171 146 138
-1.880843e+000 -5.403959e-001 -9.694897e+000 162 31 44
-1.880843e+000 -5.403959e-001 -9.694897e+000 162 31 44
-9.022192e-002 -2.042279e-001 -1.075127e+001 153 142 147
-1.731623e+000 -9.261817e-002 -1.023257e+001 22 54 47
2.088426e+000 -1.175839e+000 -1.019535e+001 88 18 23
-2.123022e+000 -9.403253e-001 -9.086217e+000 141 140 148
1.968784e+000 -8.360472e-001 -1.082303e+001 90 30 22
5.751878e-001 -7.270790e-001 -1.043398e+001 140 20 34
-1.689727e+000 -6.582487e-001 -9.599855e+000 185 133 134
-2.244393e-001 -6.359727e-001 -1.025069e+001 153 146 153
4.884340e-001 -6.078676e-001 -1.052548e+001 168 144 130
-1.255691e-001 -1.116210e-001 -1.080655e+001 154 147 155
-1.257618e-001 -1.141207e-001 -1.080754e+001 154 147 155
2.247909e+000 -1.173644e+000 -9.996162e+000 172 134 88
5.880764e-001 -6.613992e-001 -1.052279e+001 133 27 32
-1.940436e+000 -3.721716e-001 -9.874633e+000 168 34 36
-1.993737e+000 -2.468203e-001 -1.000423e+001 162 36 47
-1.961985e-001 -3.717068e-002 -1.081298e+001 127 80 90
3.623932e-001 -1.014584e+000 -1.002613e+001 145 90 99
4.099161e+000 5.406323e-001 -1.255573e+001 30 20 26
-1.073428e+000 -1.089981e+000 -9.317519e+000 54 97 144
9.408194e-001 -8.976230e-001 -1.031989e+001 10 69 129
1.944736e+000 -8.942696e-001 -1.074667e+001 168 127 107
-1.245054e+000 -7.048892e-001 -9.717882e+000 157 148 150
7.991478e-001 -3.668267e-001 -1.089929e+001 106 130 169
7.991478e-001 -3.668267e-001 -1.089929e+001 106 130 169
-4.302329e-001 -1.812637e-001 -1.064598e+001 25 56 34
-4.288463e-001 -1.813893e-001 -1.064667e+001 25 56 34
-1.318855e+000 -2.076733e-001 -1.033817e+001 157 156 162
2.063349e+000 2.538483e-001 -1.174771e+001 140 116 96
4.373869e+000 -1.132625e+000 -1.108042e+001 172 132 96
3.477111e+000 2.299254e-001 -1.232519e+001 155 144 142
-1.667869e+000 -9.469272e-002 -1.021046e+001 21 53 36
-1.208825e+000 -2.388181e-001 -1.032388e+001 23 57 40
-7.994959e-001 -2.046220e-001 -1.061663e+001 148 148 156
3.152142e+000 6.447910e-001 -1.220282e+001 33 29 27
3.450694e+000 -1.119616e+000 -1.067408e+001 39 13 19
8.491618e-001 -3.539565e-001 -1.099816e+001 117 41 57
-8.353392e-001 -3.102060e-001 -1.036990e+001 158 158 157
-5.702449e-001 -2.944846e-001 -1.048597e+001 160 155 169
1.833013e+000 1.937432e-002 -1.159390e+001 38 19 25
2.542319e+000 -9.601838e-001 -1.080191e+001 134 57 36
8.317941e-002 -7.091149e-001 -1.024797e+001 148 142 150
3.625427e+000 2.154874e-001 -1.228288e+001 168 94 89
3.625427e+000 2.154874e-001 -1.228288e+001 168 94 89
2.210945e+000 -9.265218e-001 -1.074620e+001 62 11 21
-1.745190e+000 -7.508544e-001 -9.644723e+000 166 111 110
1.614447e+000 -3.393967e-001 -1.112047e+001 155 127 113
3.313885e+000 -3.468917e-001 -1.112245e+001 159 126 107
1.515265e+000 -1.191273e+000 -9.947474e+000 153 51 47
1.515265e+000 -1.191273e+000 -9.947474e+000 153 51 47
3.282700e+000 -1.087418e+000 -1.083328e+001 154 111 75
2.606096e+000 -1.014338e+000 -1.076169e+001 113 48 36
-9.686355e-001 -9.653067e-001 -9.500776e+000 135 148 53
-1.487503e+000 -9.260170e-001 -9.390091e+000 136 149 56
-1.726632e+000 -7.407572e-001 -9.493090e+000 146 35 49
-1.726632e+000 -7.407572e-001 -9.493090e+000 146 35 49
-1.680229e+000 -7.379199e-001 -9.509030e+000 153 40 43
5.047681e-001 -4.841192e-001 -1.070523e+001 149 25 31
6.285342e-001 -5.442689e-001 -1.066951e+001 143 26 35
-1.463632e+000 -2.256444e-001 -1.023007e+001 144 153 64
8.799901e-001 -1.214413e+000 -9.900505e+000 158 38 40
2.570225e+000 -9.992722e-001 -1.079995e+001 151 73 64
2.552905e+000 -9.444349e-001 -1.088419e+001 159 137 114
-1.746036e+000 -6.045274e-001 -9.657646e+000 174 32 49
-1.746036e+000 -6.045274e-001 -9.657646e+000 174 32 49
9.688464e-001 -3.183848e-001 -1.100562e+001 173 77 62
-1.499122e+000 -3.321172e-001 -1.009247e+001 73 121 161
-1.443230e-001 -2.357323e-001 -1.069637e+001 162 159 170
-1.177888e-001 -4.061383e-002 -1.081511e+001 161 153 160
-2.829660e+000 -2.075878e-001 -7.648465e+000 203 44 47
1.923829e+000 -1.039299e+000 -1.054209e+001 18 83 154
1.388454e+000 -9.097293e-001 -1.054595e+001 148 28 39
-2.893389e-001 -3.073795e-001 -1.056376e+001 158 158 173
3.670746e-001 -1.006796e+000 -1.002121e+001 160 101 107
2.508427e-001 -1.065944e+000 -9.875531e+000 167 147 153
-6.776365e-001 -9.080777e-001 -9.694528e+000 27 58 41
1.663214e-001 -5.748748e-001 -1.043390e+001 164 164 171
-1.859616e+000 -1.052646e+000 -9.135456e+000 104 133 175
-2.203403e+000 1.380396e+000 -1.045098e+001 174 148 88
-2.145747e+000 -4.193265e-001 -9.615679e+000 15 91 165
1.148917e+000 -1.147335e+000 -9.508478e+000 177 58 60
1.505022e+000 -1.179509e+000 -9.807443e+000 178 96 83
-3.006069e-001 -1.132971e+000 -9.595196e+000 154 146 37
4.285960e-001 -1.115711e+000 -9.876323e+000 161 140 119
2.086207e+000 -1.080675e+000 -1.046064e+001 17 60 94
2.092951e+000 -1.074457e+000 -1.045796e+001 17 60 94
-1.132417e+000 -9.875594e-001 -9.476264e+000 141 137 34
3.933166e-001 -1.033712e+000 -9.991577e+000 148 143 117
1.014287e+000 -9.871957e-001 -1.027610e+001 141 148 113
1.079703e+000 -9.901221e-001 -1.030407e+001 139 142 132
9.942914e-001 -9.314506e-001 -1.033001e+001 140 140 120
1.012587e+000 -9.808736e-001 -1.030686e+001 15 57 101
1.014453e+000 -9.451753e-001 -1.034779e+001 133 132 115
1.055438e+000 -9.417350e-001 -1.036357e+001 136 136 129
1.245807e+000 -9.785891e-001 -1.035950e+001 117 35 38
1.964957e+000 -9.906915e-001 -1.060841e+001 15 57 100
2.252178e+000 -9.232989e-001 -1.081781e+001 146 67 62
-1.737115e+000 -8.412924e-001 -9.382802e+000 154 75 68
-1.502785e+000 -8.349783e-001 -9.473619e+000 53 71 87
-1.298576e+000 -8.444897e-001 -9.541874e+000 142 138 23
-1.258715e+000 -8.478333e-001 -9.561189e+000 146 142 29
-1.086079e+000 -8.342652e-001 -9.623218e+000 135 134 25
-1.048706e+000 -8.381655e-001 -9.641879e+000 144 144 31
2.142465e-001 -9.377678e-001 -1.004944e+001 153 27 30
1.020565e+000 -8.745960e-001 -1.043873e+001 146 142 121
1.110640e+000 -8.394400e-001 -1.051670e+001 154 105 81
-1.339306e+000 -7.757507e-001 -9.606251e+000 136 133 34
-1.253391e+000 -7.980335e-001 -9.579381e+000 144 143 36
-1.115377e+000 -7.494347e-001 -9.698294e+000 30 46 10
5.422204e-001 -7.584032e-001 -1.038439e+001 160 140 105
5.371611e-001 -7.637476e-001 -1.038608e+001 160 140 105
5.719264e-001 -7.703662e-001 -1.037264e+001 109 2 14
5.719264e-001 -7.703662e-001 -1.037264e+001 109 2 14
6.137011e-001 -7.790960e-001 -1.039636e+001 122 21 38
6.128829e-001 -7.799752e-001 -1.039649e+001 122 21 38
9.275369e-001 -7.990831e-001 -1.048224e+001 142 143 121
9.776028e-001 -7.680437e-001 -1.051487e+001 21 49 89
9.633384e-001 -7.811629e-001 -1.051801e+001 21 49 89
1.119000e+000 -7.569287e-001 -1.058373e+001 139 40 42
1.988289e+000 -7.675865e-001 -1.091241e+001 144 109 86
5.127025e-001 -6.985459e-001 -1.044830e+001 160 139 108
5.127025e-001 -6.985459e-001 -1.044830e+001 160 139 108
6.093971e-001 -6.884118e-001 -1.047811e+001 158 138 106
6.033980e-001 -6.949902e-001 -1.047992e+001 158 138 106
-1.826381e+000 -5.712094e-001 -9.673006e+000 150 31 35
4.678774e-001 -5.654652e-001 -1.059812e+001 114 3 20
5.031449e-001 -5.247946e-001 -1.065366e+001 122 20 34
5.031449e-001 -5.247946e-001 -1.065366e+001 122 20 34
8.740839e-001 -6.037270e-001 -1.071442e+001 135 142 117
8.740839e-001 -6.037270e-001 -1.071442e+001 135 142 117
-1.779739e+000 -4.685400e-001 -9.819601e+000 172 139 104
2.696419e+000 -1.504560e-001 -1.180388e+001 27 41 66
2.703749e+000 -1.884234e-001 -1.182950e+001 141 91 69
-1.883622e+000 -3.445639e-001 -9.943535e+000 151 23 34
6.763867e-001 -1.717606e-001 -1.106559e+001 143 139 119
6.763867e-001 -1.717606e-001 -1.106559e+001 143 139 119
3.401199e+000 4.989182e-002 -1.220284e+001 148 124 94
3.612234e+000 -8.869716e-003 -1.222891e+001 129 25 39
3.656582e+000 -1.548643e-002 -1.223908e+001 146 120 105
-1.850724e+000 -1.958931e-001 -1.010923e+001 165 131 103
-1.851213e+000 -1.964594e-001 -1.010945e+001 165 131 103
-1.820667e+000 -1.571635e-001 -1.015361e+001 149 19 29
-1.820408e+000 -1.571469e-001 -1.015370e+001 149 19 29
-1.748575e+000 -1.585503e-001 -1.018309e+001 128 129 22
-1.572728e+000 -1.552391e-001 -1.018349e+001 132 131 19
-1.547912e+000 -2.071618e-001 -1.019476e+001 136 133 29
-1.615269e+000 -1.404079e-001 -1.023800e+001 131 132 37
-1.615743e+000 -1.391987e-001 -1.023737e+001 131 132 37
3.441174e+000 2.503428e-001 -1.230033e+001 107 71 51
-2.268347e+000 -1.767623e-001 -9.968932e+000 115 134 133
2.268333e+000 -1.033249e+000 -1.063999e+001 139 35 34
-8.038546e-001 -9.819038e-001 -9.579146e+000 157 143 41
1.001800e+000 -8.879435e-001 -1.040111e+001 13 57 90
1.001800e+000 -8.879435e-001 -1.040111e+001 13 57 90
-2.250544e+000 -6.934832e-001 -9.361632e+000 129 109 95
-1.661802e+000 -7.170754e-001 -9.540597e+000 153 141 105
-1.399555e+000 -6.501329e-001 -9.741771e+000 134 132 42
8.125934e-001 -4.434192e-001 -1.085060e+001 14 60 94
-1.913195e+000 -4.083744e-001 -9.861916e+000 169 141 102
-1.817185e+000 -4.023026e-001 -9.899983e+000 155 138 108
-1.800253e+000 -3.908888e-001 -9.932473e+000 162 29 45
-1.828960e+000 -3.689308e-001 -9.933481e+000 166 143 110
-1.871487e+000 -3.290728e-001 -9.970683e+000 172 132 112
-1.825279e+000 -3.148762e-001 -1.000802e+001 150 24 36
2.323422e+000 -6.525646e-002 -1.176390e+001 26 20 37
-1.867142e+000 -2.427332e-001 -1.006117e+001 144 147 104
-1.866703e+000 -2.414466e-001 -1.006032e+001 144 147 104
2.992018e+000 -1.072933e+000 -1.081954e+001 128 76 37
2.992018e+000 -1.072933e+000 -1.081954e+001 128 76 37
1.314714e+000 -9.458706e-001 -1.047165e+001 108 16 17
2.806518e+000 -9.387933e-001 -1.085468e+001 147 116 80
1.287666e+000 -7.827991e-001 -1.057505e+001 155 110 81
