ply
format ascii 1.0
element face 0
property list uchar int vertex_indices
element vertex 880
property float x
property float y
property float z
property uchar diffuse_red
property uchar diffuse_green
property uchar diffuse_blue
end_header
4.520419e+000 3.223332e-001 -8.559659e+000 34 24 23
-1.565151e-001 1.599489e+000 -1.008582e+001 136 105 56
-3.169055e-001 1.102442e+000 -9.966353e+000 118 89 47
8.372039e-001 2.386326e+000 -8.348623e+000 76 46 34
4.601648e+000 8.913769e-001 -9.918781e+000 81 63 41
3.668309e+000 2.416685e+000 -1.059679e+001 35 24 22
3.668309e+000 2.416685e+000 -1.059679e+001 35 24 22
-1.435614e+000 2.403890e-001 -8.507365e+000 129 102 58
-8.450775e-001 -1.836623e-001 -8.706284e+000 67 58 37
2.164932e+000 1.853357e+000 -8.616584e+000 16 12 13
-1.229065e+000 2.113632e-001 -9.301309e+000 26 17 17
1.002553e+000 1.116186e+000 -8.100286e+000 15 13 15
4.528086e+000 2.803230e+000 -1.051202e+001 155 134 115
4.552940e+000 2.779493e+000 -1.048608e+001 59 38 17
-5.082190e+000 4.215949e+000 -2.088890e+001 50 45 39
8.963260e-001 1.812500e+000 -8.349848e+000 159 133 99
-3.128059e+000 3.030895e+000 -1.974589e+001 17 16 21
-7.402841e-001 1.328152e+000 -1.014929e+001 132 101 71
-3.818853e-001 1.212885e+000 -9.861335e+000 150 125 92
-2.212509e-001 9.689201e-001 -9.952327e+000 61 44 24
5.821577e-002 9.303889e-001 -1.000260e+001 73 60 56
4.657805e-001 4.012543e-001 -8.886199e+000 64 56 53
-4.573850e-001 2.273977e-001 -8.901852e+000 136 130 114
-6.231380e-001 -1.302813e-001 -8.685015e+000 107 102 87
-2.332205e+000 -2.833920e-001 -8.069581e+000 121 82 51
-1.945248e+000 -6.200897e-001 -7.933990e+000 140 108 79
-2.345348e+000 -1.088449e+000 -7.941864e+000 129 95 76
-1.888120e+000 -1.435308e+000 -8.035184e+000 25 15 16
-1.888120e+000 -1.435308e+000 -8.035184e+000 25 15 16
3.537638e+000 3.012064e+000 -1.102490e+001 99 86 69
3.537638e+000 3.012064e+000 -1.102490e+001 99 86 69
-3.542911e+000 4.421927e+000 -2.165183e+001 55 57 64
1.127270e+000 1.713509e+000 -8.118438e+000 94 81 72
-4.485683e-001 1.887395e+000 -1.017419e+001 104 66 29
1.106707e+000 1.663561e+000 -8.226785e+000 76 62 55
1.095317e+000 1.601417e+000 -8.318091e+000 31 17 14
1.339289e+000 1.539399e+000 -8.143679e+000 72 44 30
1.574636e+000 4.435091e-001 -6.974588e+000 141 98 53
-1.949099e-001 2.681409e-001 -8.807926e+000 135 130 108
-2.422726e+000 -3.651173e-003 -8.191733e+000 163 129 84
1.843793e+000 -1.647876e-002 -6.744013e+000 182 143 104
-1.752014e+000 -1.571328e-001 -8.039746e+000 157 133 109
1.701759e+000 -1.066049e-001 -6.944488e+000 122 69 36
-1.859603e+000 -4.638092e-001 -7.934721e+000 123 96 67
-2.517291e+000 -7.267837e-001 -7.965215e+000 192 164 126
-2.023529e+000 -8.249688e-001 -7.905033e+000 119 83 51
-2.011842e+000 -8.850149e-001 -7.864873e+000 122 86 54
-1.817839e+000 -1.151930e+000 -7.933132e+000 106 70 54
-1.558542e+000 -1.138858e+000 -8.098632e+000 35 15 8
-1.366773e+000 -1.482275e+000 -8.155343e+000 69 53 54
1.023116e+000 -1.928979e+000 -7.933992e+000 154 113 83
3.865018e+000 3.406420e+000 -1.149579e+001 73 58 51
3.865018e+000 3.406420e+000 -1.149579e+001 73 58 51
3.509022e+000 3.164234e+000 -1.115053e+001 112 94 84
1.178282e+000 2.225976e+000 -8.260431e+000 67 48 18
6.931116e-001 2.012888e+000 -8.551859e+000 60 34 12
1.721920e+000 1.965209e+000 -8.233492e+000 147 127 95
1.786055e+000 1.605298e+000 -8.230365e+000 65 38 19
1.642280e+000 9.942265e-001 -7.418080e+000 83 49 36
1.357915e+000 8.578290e-001 -7.535646e+000 20 22 24
-9.670842e-001 4.282313e-001 -9.270765e+000 165 162 132
-9.670842e-001 4.282313e-001 -9.270765e+000 165 162 132
-7.488933e-001 5.296830e-001 -9.265230e+000 28 24 13
1.730929e+000 3.599518e-001 -6.918684e+000 103 68 37
-9.212085e-001 3.186900e-001 -9.173018e+000 152 148 122
1.685451e+000 -5.683862e-002 -6.922617e+000 115 65 40
-2.779622e+000 -3.360683e-001 -8.228875e+000 128 92 60
-1.857516e+000 -3.816137e-001 -8.061504e+000 71 44 25
-1.524402e+000 -4.138011e-001 -8.130654e+000 136 113 81
2.301122e+000 -2.439056e-001 -7.002711e+000 53 30 18
-1.662340e+000 -4.504921e-001 -7.952715e+000 109 97 80
-1.120749e+000 -8.612204e-001 -8.209221e+000 81 52 31
-2.550764e+000 -1.056776e+000 -8.011306e+000 118 77 45
-1.933570e+000 -1.037915e+000 -7.889681e+000 114 80 61
-2.638877e+000 -1.212817e+000 -8.014415e+000 107 67 35
-2.582100e+000 -1.168191e+000 -8.021082e+000 101 66 36
-2.586731e+000 -1.165102e+000 -8.020431e+000 101 66 36
-1.337312e+000 -1.233816e+000 -8.048071e+000 36 19 22
-1.364493e-001 -1.201395e+000 -8.301099e+000 122 118 105
3.380751e-001 -1.501883e+000 -7.794043e+000 41 21 15
-2.755430e+000 -1.856686e+000 -8.309899e+000 64 54 53
1.011791e+000 -1.739537e+000 -7.762621e+000 171 131 95
-4.525141e+000 4.597673e+000 -2.098570e+001 148 149 153
-4.394979e+000 3.492170e+000 -2.114000e+001 199 207 220
-7.117870e-001 1.572801e+000 -1.005083e+001 139 97 59
5.292181e-001 1.314674e+000 -9.614548e+000 26 21 18
-7.271614e-001 1.138976e+000 -1.006610e+001 163 127 95
1.620975e+000 5.012255e-001 -6.992123e+000 123 84 55
4.520673e-001 4.436138e-001 -8.861388e+000 123 122 111
-8.531282e-001 2.118238e-001 -9.072039e+000 109 101 90
-1.947044e+000 1.139879e-001 -8.237802e+000 54 22 13
-2.300449e+000 3.678158e-002 -8.160795e+000 170 142 105
-3.819851e-001 -3.024216e-001 -8.550938e+000 26 21 25
1.715057e+000 -1.592887e-001 -6.990816e+000 170 126 87
-2.705662e+000 -4.832859e-001 -8.117093e+000 132 91 53
-1.931025e+000 -6.635062e-001 -7.919060e+000 87 49 30
-1.674520e+000 -6.962428e-001 -7.936740e+000 80 46 19
-5.682906e-001 -7.335376e-001 -8.472622e+000 29 25 13
-9.170695e-001 -9.763579e-001 -8.438703e+000 23 11 21
-1.909209e+000 -9.815524e-001 -7.856792e+000 79 46 30
-1.259728e+000 -9.523781e-001 -8.066346e+000 80 50 35
-6.770331e-001 -1.064932e+000 -8.462868e+000 24 20 19
-5.853732e-001 -1.089619e+000 -8.388671e+000 24 22 22
-1.558592e-002 -9.993597e-001 -8.406292e+000 127 114 85
-2.550984e+000 -1.109236e+000 -8.035852e+000 161 126 88
-1.727773e+000 -1.129698e+000 -7.943283e+000 73 40 34
-2.717874e+000 -1.297723e+000 -8.065157e+000 205 174 145
-2.368617e+000 -1.541929e+000 -8.161900e+000 95 75 51
2.405407e-001 -1.447456e+000 -7.865221e+000 27 19 15
7.949855e-001 -1.470108e+000 -7.607913e+000 130 77 39
9.045320e-001 -1.391086e+000 -7.510303e+000 137 94 52
-2.427830e+000 -1.661581e+000 -8.148664e+000 63 45 31
1.005834e-001 -1.660036e+000 -7.949868e+000 29 18 14
8.481175e-001 -1.568504e+000 -7.623474e+000 199 160 120
1.203990e-001 -1.845404e+000 -7.959033e+000 108 82 67
6.434112e-001 -1.839304e+000 -7.818662e+000 85 57 50
6.187456e-001 -1.930751e+000 -7.888001e+000 65 42 36
9.476843e-001 2.052412e+000 -8.269139e+000 44 31 25
-4.368379e+000 4.931308e+000 -2.156907e+001 31 29 35
-3.586345e+000 4.693630e+000 -2.236014e+001 219 220 231
-4.371082e+000 4.491189e+000 -2.161813e+001 63 63 71
1.175442e+000 1.680435e+000 -8.215739e+000 28 12 12
8.704359e-001 1.655486e+000 -8.448971e+000 47 36 29
-3.529818e+000 3.081920e+000 -2.043266e+001 53 53 51
-6.394402e-001 1.127861e+000 -1.005227e+001 77 47 20
-5.269913e-001 1.083098e+000 -9.942256e+000 153 119 75
1.815031e+000 6.782783e-001 -6.997818e+000 69 46 30
1.474698e+000 4.928646e-001 -6.988540e+000 216 182 139
1.669527e+000 2.481791e-001 -6.910441e+000 176 131 89
1.832537e+000 3.081302e-001 -6.757441e+000 196 164 122
-1.857322e+000 6.981615e-002 -8.122796e+000 106 79 52
-1.753350e+000 1.766585e-001 -8.433886e+000 21 16 17
5.344344e-001 5.198592e-002 -8.637082e+000 25 19 26
-2.687564e+000 -2.082929e-001 -8.182468e+000 184 145 101
6.673446e-001 -3.229359e-001 -8.577588e+000 140 134 112
-1.162497e-001 -9.508133e-001 -8.355564e+000 136 123 95
-1.416201e+000 -9.619706e-001 -8.066734e+000 71 38 21
3.625914e-001 -9.602222e-001 -8.042454e+000 156 124 85
8.523720e-001 -1.044587e+000 -7.512142e+000 78 41 24
9.836831e-001 -1.853136e+000 -7.794034e+000 132 91 59
9.836831e-001 -1.853136e+000 -7.794034e+000 132 91 59
-3.817478e+000 4.837291e+000 -2.178008e+001 52 53 58
1.003564e+000 1.260788e+000 -8.956991e+000 67 61 58
2.562190e+000 -1.681655e-001 -7.159183e+000 20 10 19
-1.955124e+000 -1.300193e+000 -7.974783e+000 38 24 24
-2.436550e+000 -1.582944e+000 -8.099818e+000 142 125 99
1.805506e+000 1.664478e+000 -8.174262e+000 127 100 73
6.235312e-001 6.526418e-001 -9.127689e+000 24 21 25
2.275360e-001 -1.520691e+000 -7.883354e+000 33 21 21
2.275360e-001 -1.520691e+000 -7.883354e+000 33 21 21
-1.745304e+000 -1.697307e+000 -8.168608e+000 58 40 40
1.496377e-001 -2.023312e+000 -8.199353e+000 40 27 27
-3.550863e+000 4.941727e+000 -2.161126e+001 185 187 201
-4.571203e+000 3.793542e+000 -2.127813e+001 192 196 206
-8.642523e-002 1.578116e-001 -8.730421e+000 20 18 23
9.790051e-001 -9.704122e-001 -7.656205e+000 78 46 25
-6.443606e-001 6.059396e-002 -8.750120e+000 102 96 82
1.518130e+000 -1.085137e-001 -7.329152e+000 184 155 127
-7.588015e-001 -9.387458e-001 -8.551030e+000 121 112 103
9.604173e-001 -7.955023e-001 -7.771253e+000 61 42 34
4.399403e-001 -1.958434e+000 -8.118766e+000 166 131 100
-4.751930e+000 4.052346e+000 -2.081595e+001 218 219 224
-5.108593e-001 -1.611130e+000 -8.695548e+000 175 174 179
6.699509e-002 1.296420e+000 -1.016326e+001 36 23 13
6.815967e-002 1.295739e+000 -1.015269e+001 36 23 13
1.017601e-001 1.285131e+000 -1.019838e+001 78 66 53
9.311336e-001 -4.439745e-001 -8.541162e+000 13 12 16
-1.143408e+000 -8.522722e-001 -8.105048e+000 113 79 55
-1.998628e+000 -1.103926e+000 -7.904748e+000 106 73 58
-2.694343e-001 1.982644e+000 -1.007513e+001 69 40 17
1.028545e+000 1.729134e+000 -8.208870e+000 64 49 40
-4.923191e-001 1.185805e+000 -9.927667e+000 131 97 57
-3.152714e-001 1.055005e+000 -9.962528e+000 80 54 29
5.431739e-001 4.036605e-001 -8.752397e+000 66 60 50
-4.199056e-001 1.236472e+000 -9.880333e+000 118 86 48
4.295834e-001 9.726580e-002 -8.663456e+000 23 18 21
-1.714668e+000 -6.806672e-001 -7.874356e+000 119 86 53
-1.573353e+001 1.266528e+000 -3.542344e+001 59 72 115
-8.349031e-001 -7.007172e-001 -8.335441e+000 102 90 75
1.177511e+000 2.164726e+000 -8.238053e+000 179 157 111
-6.510260e-001 -9.539055e-001 -8.466864e+000 32 26 28
-3.282102e+000 -4.175715e+000 -1.738071e+001 141 137 138
-3.282102e+000 -4.175715e+000 -1.738071e+001 141 137 138
1.262341e+000 1.385802e+000 -8.626877e+000 56 55 53
2.198809e-002 1.307282e+000 -1.012013e+001 40 25 20
6.347181e-001 2.566086e-001 -8.751602e+000 130 124 110
5.938227e-001 -3.442964e-002 -8.610986e+000 125 119 102
-4.615820e-001 -1.922297e-001 -8.593441e+000 130 113 92
4.866320e-001 -4.518662e-001 -8.550322e+000 151 146 123
4.866320e-001 -4.518662e-001 -8.550322e+000 151 146 123
-5.992454e-001 -8.063764e-001 -8.468116e+000 26 21 17
-5.992454e-001 -8.063764e-001 -8.468116e+000 26 21 17
-5.829375e-001 -1.148000e+000 -8.396127e+000 147 143 138
2.038851e-001 -1.777350e+000 -7.973539e+000 115 91 67
-1.320347e+001 7.153902e+000 -2.325660e+001 126 121 103
1.401433e+000 4.349477e-001 -7.182898e+000 217 180 140
-2.443729e-001 -1.101798e+000 -8.339611e+000 115 110 104
9.148888e-002 -1.024039e+000 -8.438466e+000 61 57 55
-1.782453e+001 3.674042e-001 -3.490521e+001 216 214 210
-1.560146e+000 -1.252361e+000 -7.971833e+000 24 14 13
1.684949e-001 -1.648372e+000 -7.917213e+000 109 90 80
-1.586524e+001 8.438160e+000 -2.845167e+001 112 106 97
-1.591689e+001 8.444813e+000 -2.848524e+001 112 106 97
1.111341e+000 1.356981e+000 -8.714948e+000 42 36 38
2.267287e+000 2.487303e-001 -6.888855e+000 137 120 91
3.242117e-001 -5.433881e-001 -8.534917e+000 116 110 87
-6.502750e-001 -9.518195e-001 -8.460442e+000 26 22 30
-2.144240e+000 -1.028850e+000 -7.861951e+000 72 39 20
-1.602993e+001 8.326636e+000 -2.807299e+001 107 100 91
5.550642e-001 1.045109e+000 -9.299309e+000 63 54 55
2.256154e-001 -6.228302e-002 -8.616794e+000 26 22 20
1.255757e-001 -6.965066e-001 -8.467752e+000 138 130 100
9.647333e-001 1.797424e+000 -8.297166e+000 34 23 20
-1.245029e+001 1.004488e+001 -3.613362e+001 21 16 20
-1.160525e+001 9.217789e+000 -3.209485e+001 84 74 70
-1.160525e+001 9.217789e+000 -3.209485e+001 84 74 70
8.140379e-001 2.177529e+000 -8.383613e+000 67 33 21
9.974764e-001 1.653279e+000 -8.346144e+000 58 46 35
1.698297e+000 1.529588e+000 -8.340617e+000 86 54 31
-4.645277e-001 2.020764e+000 -1.020905e+001 176 139 95
-4.831192e-001 1.568852e+000 -1.007590e+001 97 58 26
-4.161340e+000 4.276203e+000 -2.150989e+001 98 102 107
-9.978048e-002 1.329030e+000 -1.003677e+001 70 53 25
1.470875e+000 5.685198e-001 -7.182341e+000 209 175 129
-5.119264e-002 9.263603e-002 -8.688419e+000 124 37 50
-2.478799e+000 8.716815e-002 -8.285311e+000 139 102 58
-2.060673e+000 9.154623e-003 -8.132938e+000 161 133 96
-2.022468e+000 -1.511080e-002 -8.104123e+000 101 72 40
-1.935562e+000 -1.397115e-001 -8.000933e+000 149 120 86
-7.589885e-001 -1.065179e-001 -8.784605e+000 36 31 25
-2.034645e+000 -3.080631e-001 -7.999736e+000 161 137 103
-9.312571e-001 -6.396476e-001 -8.331573e+000 88 75 59
-2.275259e+000 -7.412454e-001 -7.856917e+000 126 91 59
9.593604e-001 -1.083150e+000 -7.436265e+000 85 48 21
1.128279e+000 -1.137696e+000 -7.427298e+000 102 68 40
-2.101141e+000 -1.231494e+000 -7.919270e+000 51 34 29
4.065398e-001 -1.409734e+000 -7.712935e+000 97 58 31
-2.741353e+000 -1.422500e+000 -7.938105e+000 201 172 141
-3.341198e-001 -1.503104e+000 -8.283952e+000 149 148 144
5.024083e-001 -1.496371e+000 -7.694813e+000 127 93 68
7.696829e-001 2.235300e+000 -8.399691e+000 96 54 30
5.472556e-001 2.101067e+000 -8.886098e+000 87 72 62
9.842293e-001 1.983079e+000 -8.281899e+000 39 24 17
9.538182e-001 1.940792e+000 -8.475428e+000 103 84 70
1.564854e+000 1.616887e+000 -8.214948e+000 73 38 10
1.959933e+000 1.679363e+000 -8.341893e+000 73 57 41
1.522818e+000 1.616157e+000 -8.241636e+000 124 91 63
1.640915e+000 1.627404e+000 -8.277418e+000 98 60 37
-2.553877e-001 1.855350e+000 -9.987164e+000 83 49 17
-3.061086e-001 1.390148e+000 -1.006225e+001 62 38 16
-2.444371e-001 1.238721e+000 -9.945243e+000 131 107 78
1.466193e+000 4.147104e-001 -7.180404e+000 143 101 59
1.833522e+000 4.034782e-001 -6.862246e+000 168 140 101
9.948860e-001 4.557020e-001 -8.818791e+000 16 11 15
-4.188191e-002 3.910284e-001 -8.945195e+000 22 19 12
-2.681383e-002 3.345137e-001 -8.835072e+000 134 130 103
-2.372712e+000 2.151412e-001 -8.370295e+000 126 91 49
-2.210025e+000 2.858409e-001 -8.341814e+000 163 133 95
-2.150984e+000 3.033478e-001 -8.380156e+000 111 79 41
-9.982450e-001 2.883389e-001 -9.310919e+000 37 33 30
-2.244912e+000 5.993670e-003 -8.194312e+000 120 90 54
-4.329999e-001 8.708774e-002 -8.762760e+000 152 146 120
-1.108546e+000 -1.812850e-001 -8.149852e+000 67 47 23
-1.839807e+000 -3.397750e-001 -8.028719e+000 107 76 55
-1.710288e+000 -3.282222e-001 -8.081490e+000 90 71 51
-2.506988e+000 -3.632597e-001 -8.091130e+000 170 136 98
-9.185230e-001 -5.297717e-001 -8.436983e+000 54 44 39
-1.008281e+000 -5.921752e-001 -8.355586e+000 53 33 22
-9.932527e-001 -6.392337e-001 -8.293428e+000 114 90 72
-9.383125e-001 -5.866249e-001 -8.374533e+000 48 34 19
-9.404941e-001 -6.770430e-001 -8.329178e+000 51 38 25
-2.377700e+000 -9.532270e-001 -7.832106e+000 149 109 73
-2.030358e+000 -9.349975e-001 -7.850825e+000 79 42 24
-1.369582e+000 -8.953432e-001 -8.031431e+000 124 92 67
-9.178796e-001 -1.072115e+000 -8.470302e+000 24 14 15
9.352270e-001 -1.066710e+000 -7.455976e+000 140 105 77
-1.684587e+000 -1.174767e+000 -7.941372e+000 49 22 15
-1.488562e+000 -1.168313e+000 -8.009482e+000 41 22 15
-1.065340e+000 -1.156778e+000 -8.283105e+000 57 35 23
-9.520366e-001 -1.083073e+000 -8.423193e+000 66 47 41
-8.231853e-001 -1.146237e+000 -8.607192e+000 117 114 115
-4.236944e-001 -1.248542e+000 -8.347934e+000 131 127 119
1.416770e+000 -1.323226e+000 -7.482531e+000 51 39 32
-1.646244e+000 -1.184727e+000 -7.920326e+000 82 55 43
-1.427029e+000 -1.201629e+000 -8.031918e+000 37 20 13
-1.127784e+000 -1.341397e+000 -8.199152e+000 58 44 41
2.953194e-001 -1.506252e+000 -7.762801e+000 55 38 34
3.975071e-001 -1.519889e+000 -7.704978e+000 68 46 34
-1.684059e+000 -1.541613e+000 -8.069797e+000 52 43 42
-4.869839e-001 -1.796223e+000 -8.741028e+000 168 165 174
1.266244e-001 -1.910488e+000 -7.928368e+000 44 27 20
3.626782e-001 -1.907598e+000 -7.896372e+000 176 146 118
1.181793e+000 2.231793e+000 -8.268638e+000 85 64 33
5.470844e-001 2.126422e+000 -8.805235e+000 151 128 103
7.833556e-001 1.909433e+000 -8.664821e+000 32 18 20
1.451677e+000 1.658815e+000 -8.245969e+000 98 69 51
1.636366e-001 2.124270e+000 -1.058378e+001 54 37 35
-8.665597e-001 1.171498e+000 -1.028785e+001 159 122 90
1.351288e+000 6.032525e-001 -7.772342e+000 191 169 141
1.546816e+000 4.602115e-001 -7.069083e+000 205 167 122
1.700017e+000 2.783372e-001 -6.875263e+000 149 105 66
1.774513e+000 6.975003e-002 -6.777861e+000 182 136 87
1.788675e+000 3.192926e-002 -6.810102e+000 115 69 36
-1.132484e+000 5.562953e-001 -9.536861e+000 162 158 140
-9.405935e-001 5.293318e-001 -9.399159e+000 143 138 118
-8.640794e-001 5.601880e-001 -9.375383e+000 33 29 20
-4.418136e-001 2.778913e-001 -8.935256e+000 36 28 26
1.126564e+000 -1.844277e-001 -8.361079e+000 74 68 65
-2.394555e+000 -2.727754e-002 -8.238406e+000 133 98 52
-2.164900e+000 -1.078763e-001 -8.093777e+000 167 138 102
-6.892540e-001 -5.637844e-002 -8.805771e+000 113 107 95
-3.511968e-001 -1.209847e-001 -8.622546e+000 130 127 99
-2.783236e+000 -1.942291e-001 -8.263110e+000 122 82 46
1.827112e+000 -5.221819e-001 -7.978803e+000 49 47 52
-2.515467e+000 -8.294779e-001 -7.918543e+000 181 150 119
-2.046714e+000 -9.807720e-001 -7.848344e+000 124 89 61
-1.544530e+000 -9.601149e-001 -7.895280e+000 91 58 40
-2.457675e+000 -1.130536e+000 -8.000035e+000 83 53 38
-7.774210e-001 -1.163739e+000 -8.539484e+000 21 19 24
1.136262e+000 -1.288307e+000 -7.482293e+000 105 64 36
1.319972e+000 -1.289435e+000 -7.506872e+000 91 70 49
2.058295e-001 -1.297620e+000 -7.827931e+000 121 95 72
-2.700609e+000 -1.295157e+000 -8.017131e+000 215 182 140
-5.322840e-002 -1.502173e+000 -8.241648e+000 36 26 26
3.575233e-001 -1.543277e+000 -7.757033e+000 151 127 100
7.564754e-001 -1.566151e+000 -7.504283e+000 131 82 42
-1.954717e+000 -1.603038e+000 -8.115176e+000 46 32 33
1.277384e+000 -1.709204e+000 -7.740299e+000 160 130 104
-1.999146e+000 -1.733650e+000 -8.290041e+000 68 43 35
2.205360e-001 -1.865663e+000 -7.988704e+000 132 107 85
9.916122e-001 -1.780164e+000 -7.762936e+000 183 144 104
3.277188e-001 -1.922211e+000 -8.015865e+000 34 22 17
5.272495e-001 -1.910960e+000 -7.761146e+000 100 71 48
5.737743e-001 -1.984504e+000 -7.870173e+000 150 121 102
-1.800308e-001 4.716295e+000 -1.260493e+001 20 16 25
8.464083e-001 2.141911e+000 -8.398671e+000 58 31 20
1.495534e+000 1.967289e+000 -8.238009e+000 160 142 106
1.091199e+000 1.734738e+000 -8.244164e+000 34 19 21
1.300030e+000 1.497828e+000 -8.296055e+000 49 32 24
-1.131739e-001 1.205436e+000 -1.007996e+001 78 61 35
1.517867e-001 1.270525e+000 -1.030203e+001 45 36 26
1.517867e-001 1.270525e+000 -1.030203e+001 45 36 26
1.056608e+000 6.110319e-001 -8.966116e+000 42 37 41
1.644083e+000 2.154774e-001 -6.925598e+000 150 107 65
1.681405e+000 2.557243e-001 -6.953741e+000 190 148 105
1.923116e+000 2.028977e-001 -6.828347e+000 106 71 41
1.884766e+000 1.454647e-001 -6.794125e+000 169 130 89
1.881837e+000 2.605003e-002 -6.792308e+000 132 84 51
2.611363e+000 -9.783278e-002 -7.161618e+000 87 70 63
9.256244e-001 1.267511e-001 -8.689692e+000 43 38 42
-2.165593e-001 -7.307339e-002 -8.616999e+000 127 119 104
7.607484e-001 -1.305953e-001 -8.594090e+000 92 88 79
7.607275e-001 -1.288577e-001 -8.605959e+000 92 88 79
1.720746e+000 -2.310241e-001 -7.082260e+000 155 111 72
-1.882004e-001 -1.353623e-001 -8.595748e+000 21 15 22
5.649509e-001 -2.699180e-001 -8.546013e+000 120 113 95
-4.241786e-001 -4.100378e-001 -8.509474e+000 22 19 12
-1.602866e+000 -4.260598e-001 -7.986473e+000 114 94 70
3.979820e-001 -5.162674e-001 -8.542478e+000 29 24 30
-1.203193e+000 -7.326577e-001 -8.126589e+000 77 41 17
-6.144478e-001 -8.439997e-001 -8.445511e+000 25 24 31
1.077299e-001 -8.746343e-001 -8.422128e+000 19 15 16
1.077299e-001 -8.746343e-001 -8.422128e+000 19 15 16
9.361132e-001 -1.009822e+000 -7.458250e+000 82 50 29
-7.088425e-001 -9.963738e-001 -8.483397e+000 127 125 112
-5.206160e-001 -1.046045e+000 -8.361334e+000 128 126 114
-4.495565e-001 -1.005327e+000 -8.343534e+000 27 25 24
-9.138426e-002 -1.024392e+000 -8.375265e+000 19 15 21
-1.664490e+000 -1.094614e+000 -7.869561e+000 95 64 43
-2.623030e-001 -1.167200e+000 -8.309225e+000 28 23 20
6.345115e-001 -1.323820e+000 -7.503594e+000 164 123 94
1.316758e+000 -1.333949e+000 -7.463555e+000 160 133 103
1.318499e+000 -1.422778e+000 -7.511323e+000 160 135 105
-2.675128e+000 -1.363846e+000 -8.002722e+000 178 150 115
1.649549e-001 -1.460251e+000 -7.856958e+000 119 96 78
1.348184e+000 -1.563459e+000 -7.601293e+000 152 131 106
-1.718593e+000 -1.632200e+000 -8.118553e+000 29 15 18
2.608500e-001 -1.616043e+000 -7.824153e+000 135 113 100
2.628302e-001 -1.617045e+000 -7.799123e+000 135 113 100
-3.680543e-001 -1.783195e+000 -8.569780e+000 134 134 142
9.620103e-001 1.842989e+000 -8.385082e+000 40 27 23
1.691266e+000 1.095528e+000 -7.496758e+000 122 90 60
-2.306893e-001 1.284959e+000 -9.934361e+000 137 113 85
-5.969857e-002 1.285067e+000 -1.007584e+001 115 98 70
1.439800e+000 5.273660e-001 -7.177568e+000 155 108 66
-2.115548e+000 9.614817e-002 -8.230477e+000 92 62 28
-9.052905e-001 1.502072e-001 -9.154106e+000 40 35 32
-9.797878e-001 3.288627e-002 -8.929749e+000 20 15 11
-2.701914e+000 -1.256603e-001 -8.283898e+000 143 96 57
-2.264032e+000 -4.648869e-002 -8.124719e+000 180 152 115
-2.053763e+000 -1.020800e-001 -8.072826e+000 165 139 106
-1.929431e+000 -1.036174e-001 -8.065252e+000 148 119 85
-2.441024e+000 -3.177703e-001 -8.050019e+000 164 133 95
-2.091012e+000 -2.499877e-001 -8.054962e+000 136 103 72
-2.396481e+000 -5.948120e-001 -7.964485e+000 172 146 111
-1.106595e+000 -6.931656e-001 -8.175248e+000 130 100 72
-2.257272e+000 -8.158751e-001 -7.885060e+000 99 55 26
-1.924830e+000 -7.257130e-001 -7.875779e+000 140 104 72
-8.935620e-001 -7.751932e-001 -8.359205e+000 18 15 14
-9.062943e-001 -8.727302e-001 -8.409195e+000 21 15 15
3.326214e-002 -9.018696e-001 -8.386720e+000 107 101 79
-1.511477e+000 -9.291271e-001 -7.984804e+000 50 18 5
-4.219959e-001 -1.073157e+000 -8.314140e+000 136 131 110
-3.445592e-001 -1.044761e+000 -8.307860e+000 25 21 18
-1.572603e-002 -1.000746e+000 -8.388101e+000 110 101 85
-4.881090e-001 -1.118208e+000 -8.321057e+000 28 29 33
4.059222e-001 -1.269784e+000 -7.758055e+000 73 37 18
-9.710375e-001 -1.255820e+000 -8.613158e+000 31 26 22
-6.614935e-001 -1.359058e+000 -8.451328e+000 168 168 168
3.988436e-003 -1.432618e+000 -8.129305e+000 37 32 29
4.711635e-001 -1.293652e+000 -7.650916e+000 136 97 66
4.720735e-001 -1.297665e+000 -7.633595e+000 136 97 66
-1.551370e+000 -1.628533e+000 -8.120009e+000 71 56 51
2.201507e-001 -1.682019e+000 -7.860708e+000 48 31 20
6.960077e-001 -1.861382e+000 -7.742882e+000 156 121 83
1.068621e+000 1.615686e+000 -8.268240e+000 37 23 20
-8.750315e-001 1.483132e+000 -1.044482e+001 183 151 113
1.678037e+000 4.506600e-001 -6.962519e+000 197 159 110
4.982322e-001 6.210960e-001 -9.116855e+000 122 118 107
2.104547e+000 7.231744e-002 -6.894761e+000 113 79 46
1.781347e+000 -1.581417e-001 -6.951069e+000 151 104 67
1.781347e+000 -1.581417e-001 -6.951069e+000 151 104 67
-2.385792e+000 -1.702096e-001 -8.059699e+000 171 139 104
-2.149011e+000 -1.713041e-001 -8.002030e+000 169 141 101
-3.154667e+000 -1.252054e-001 -8.761975e+000 214 195 179
1.208691e+000 -1.138295e+000 -7.519786e+000 86 61 41
5.379301e-001 -1.249698e+000 -7.631752e+000 77 39 18
-1.591081e+000 -1.186078e+000 -7.914762e+000 71 43 29
-8.674341e-001 -1.298516e+000 -8.636178e+000 133 131 134
1.141299e+000 -1.428244e+000 -7.441408e+000 187 153 118
-2.184566e+000 -1.459786e+000 -8.175090e+000 39 25 21
-1.082476e+000 -1.547812e+000 -9.121075e+000 171 153 133
7.446426e-001 -1.582980e+000 -7.587223e+000 133 85 43
3.162781e-001 -1.820464e+000 -7.828099e+000 53 34 30
5.461816e-001 2.194614e+000 -8.639222e+000 165 146 111
9.114931e-001 1.756637e+000 -8.441239e+000 107 81 54
1.738815e+000 4.173116e-001 -6.916333e+000 132 88 51
-9.701581e-001 7.469435e-001 -9.856233e+000 147 139 126
1.502993e+000 -3.313644e-001 -8.021301e+000 50 46 46
-1.468382e+000 -1.037572e+000 -7.975309e+000 99 66 51
7.375126e-001 -1.273939e+000 -7.562648e+000 86 46 37
-3.924658e-001 -1.334170e+000 -8.305499e+000 138 134 131
-2.575689e+000 -1.369805e+000 -8.010968e+000 124 100 72
1.870748e+000 2.316321e-001 -6.811963e+000 103 62 37
8.532795e-001 5.044452e-001 -8.852940e+000 43 39 38
7.160625e-001 4.220216e-001 -8.974299e+000 15 14 15
-8.949884e-001 -1.657292e+000 -9.026298e+000 77 64 56
3.879063e+000 1.143052e+000 -9.011627e+000 40 30 31
-3.857593e+000 1.078755e+001 -3.152533e+001 148 146 149
1.510541e+000 1.661025e+000 -8.203447e+000 92 58 32
-4.647219e-001 1.299560e+000 -9.913231e+000 175 151 117
8.667142e-001 4.797660e-001 -8.817788e+000 28 24 24
-8.048711e+000 1.158434e+001 -2.658821e+001 75 76 86
-1.550001e+001 1.120184e+001 -2.787434e+001 62 55 52
-1.547251e+001 1.117922e+001 -2.782818e+001 62 55 52
-1.572485e+001 1.088876e+001 -2.821900e+001 60 53 47
-1.575183e+001 1.091048e+001 -2.826651e+001 60 53 47
-1.564614e+001 1.082497e+001 -2.831711e+001 207 200 194
1.132611e+000 2.360331e+000 -8.315119e+000 191 169 132
1.350917e+000 2.047891e+000 -8.233635e+000 160 139 108
-1.929859e+001 1.086099e+001 -3.248689e+001 181 161 100
-1.901288e+001 1.054691e+001 -3.209547e+001 60 48 48
1.766138e+000 4.022369e-001 -6.918127e+000 132 89 47
1.410941e+000 -1.102330e-001 -7.960238e+000 77 70 62
8.759655e-001 -4.134024e-001 -8.574388e+000 46 42 39
-1.424885e+000 -5.601870e-001 -8.063258e+000 97 68 37
-1.424885e+000 -5.601870e-001 -8.063258e+000 97 68 37
-1.944839e+001 1.254035e+000 -3.318058e+001 98 92 95
7.257497e-001 -1.072022e+000 -7.500726e+000 135 104 81
-1.501150e+000 -1.130794e+000 -8.005175e+000 74 54 45
-3.744175e-001 6.518276e+000 -1.708314e+001 21 17 26
-1.537600e+001 1.125967e+001 -2.791869e+001 209 202 203
-1.416660e+001 1.114186e+001 -2.847668e+001 205 197 200
-1.442774e+001 1.102736e+001 -2.891199e+001 198 191 186
1.239974e+000 2.193145e+000 -8.267840e+000 116 95 66
1.239974e+000 2.193145e+000 -8.267840e+000 116 95 66
1.420940e+000 2.050363e+000 -8.250861e+000 167 147 114
-2.806744e+000 9.530466e+000 -2.971500e+001 164 156 145
-8.578429e-001 -8.902137e-001 -8.451919e+000 94 86 78
-2.682343e-001 -1.241984e+000 -8.266951e+000 97 94 87
-2.388727e+000 -1.314332e+000 -8.070577e+000 61 36 26
-3.801437e-001 -1.515802e+000 -8.345570e+000 77 77 77
-2.318621e+000 1.148306e+001 -2.955273e+001 166 165 159
-1.555226e+001 1.104170e+001 -2.808930e+001 204 197 193
-1.555226e+001 1.104170e+001 -2.808930e+001 204 197 193
-1.460608e+001 1.120519e+001 -2.959440e+001 33 24 25
2.273573e+000 2.603153e-001 -6.888465e+000 138 117 85
1.300297e+000 -2.682791e-001 -8.172253e+000 62 57 53
-1.871877e+001 1.285895e+000 -3.231814e+001 219 216 240
-2.416520e+000 -7.002427e-001 -7.907275e+000 179 150 118
-1.278681e+000 -1.186246e+000 -8.077925e+000 92 67 47
-1.384776e+001 1.144030e+001 -3.595293e+001 91 83 72
-1.233145e+001 9.788001e+000 -3.256922e+001 92 85 79
-5.683529e-001 1.305853e+000 -1.005912e+001 85 55 27
-5.683529e-001 1.305853e+000 -1.005912e+001 85 55 27
2.116779e+000 -2.809711e-001 -6.978136e+000 122 92 68
-1.988247e+000 -3.821071e-001 -7.981554e+000 150 126 92
-9.055540e-001 -8.724313e-001 -8.412773e+000 21 15 15
6.539667e-001 -1.506476e+000 -7.598720e+000 187 144 112
-1.910744e+001 1.079112e+001 -3.256886e+001 209 194 166
-1.468589e+001 1.018676e+001 -3.267217e+001 28 25 31
-1.360944e+001 8.802295e+000 -3.031215e+001 24 18 30
-1.974524e+000 -2.495931e-001 -8.001494e+000 157 132 101
-7.777680e+000 1.011870e+001 -2.733706e+001 108 101 83
-9.411374e-001 -1.090719e+000 -8.477959e+000 35 23 23
3.401864e-001 -1.722961e+000 -7.799250e+000 162 132 102
8.376377e-001 2.086239e+000 -8.363633e+000 64 34 20
8.376377e-001 2.086239e+000 -8.363633e+000 64 34 20
1.378679e+000 1.879335e+000 -8.211445e+000 134 115 85
7.884996e-001 1.984724e+000 -8.498021e+000 78 47 27
7.884996e-001 1.984724e+000 -8.498021e+000 78 47 27
1.138525e+000 1.740227e+000 -8.218142e+000 96 84 78
1.860892e+000 1.702580e+000 -8.201905e+000 26 12 5
1.398907e+000 1.607094e+000 -8.236255e+000 62 34 13
2.027697e+000 3.872341e-001 -6.817272e+000 56 32 4
1.338294e+000 7.072880e-001 -7.659612e+000 39 28 15
1.412267e+000 4.666690e-001 -7.183627e+000 168 123 72
1.719238e+000 2.565716e-001 -6.813050e+000 149 105 58
1.719238e+000 2.565716e-001 -6.813050e+000 149 105 58
1.734170e+000 2.304632e-001 -6.817221e+000 164 120 75
-5.725824e-001 1.359804e+000 -9.956513e+000 78 50 24
-4.579544e-001 1.383504e+000 -9.971711e+000 72 43 21
1.946159e+000 1.321664e-001 -6.744467e+000 200 163 124
1.970175e+000 4.277754e-002 -6.681904e+000 119 81 40
-4.251432e-001 1.240384e+000 -9.930757e+000 129 97 59
2.012181e-002 1.309048e+000 -1.012686e+001 36 26 16
-3.952362e-002 1.077764e+000 -9.946888e+000 107 92 71
1.765630e+000 -1.958992e-002 -6.766552e+000 190 151 110
1.938811e+000 1.015439e-002 -6.736089e+000 193 163 125
1.464203e+000 -9.549359e-003 -7.282829e+000 177 140 100
2.322559e+000 -2.047466e-001 -6.960753e+000 135 108 93
-1.823473e-001 4.257904e-001 -8.958803e+000 125 124 97
4.831178e-001 2.761807e-001 -8.784367e+000 19 15 5
1.205313e+000 2.417813e-001 -8.478642e+000 61 57 48
-2.028654e+000 1.205981e-001 -8.242691e+000 136 103 70
-4.568963e-001 2.217373e-001 -8.886884e+000 142 136 122
-1.975096e-001 6.729538e-003 -8.665556e+000 25 20 20
1.795366e+000 -3.824208e-001 -7.508616e+000 54 44 32
1.858475e+000 -4.289945e-001 -7.447455e+000 41 35 33
-1.108861e+000 -1.851915e-001 -8.141948e+000 51 29 13
-2.064319e+000 -2.473476e-001 -8.076292e+000 128 99 63
-2.782278e+000 -1.996570e-001 -8.355492e+000 190 147 105
-2.681326e+000 -2.496952e-001 -8.284941e+000 67 26 0
-2.197787e+000 -3.809507e-001 -8.034922e+000 117 88 49
-1.715734e+000 -4.390417e-001 -8.078477e+000 44 31 25
-1.604028e+000 -4.360919e-001 -8.053731e+000 123 97 70
-2.075167e+000 -5.589843e-001 -7.956481e+000 157 128 94
-1.935710e+000 -5.783440e-001 -8.048320e+000 135 100 70
-1.373276e+000 -5.930456e-001 -8.088763e+000 136 105 73
-1.022607e+000 -5.495213e-001 -8.416816e+000 55 38 13
-1.096443e+000 -6.341271e-001 -8.349629e+000 118 91 60
-8.998756e-001 -5.933811e-001 -8.349003e+000 54 45 40
8.826096e-001 -1.106606e+000 -7.422391e+000 159 119 87
8.773467e-001 -1.159594e+000 -7.448773e+000 99 60 29
-2.136472e+000 -7.970308e-001 -7.876142e+000 159 120 88
-2.125098e+000 -9.178109e-001 -7.884335e+000 85 45 20
-1.802667e+000 -9.095631e-001 -7.891775e+000 132 93 64
-1.134263e+000 -1.021877e+000 -8.104302e+000 137 111 81
-7.068257e-001 -9.577805e-001 -8.559954e+000 143 137 122
9.793577e-001 -1.323082e+000 -7.416440e+000 181 138 101
-2.943324e+000 -8.692439e-001 -8.326707e+000 127 90 63
-2.633453e+000 -9.511481e-001 -8.015228e+000 174 134 98
-2.530424e+000 -9.284588e-001 -8.082203e+000 113 72 42
-2.329356e+000 -1.086526e+000 -7.901986e+000 122 91 70
-2.342016e+000 -1.080648e+000 -7.948061e+000 122 91 70
-1.949978e+000 -1.005779e+000 -8.028501e+000 112 74 51
7.474846e-001 -1.348176e+000 -7.493493e+000 195 156 125
7.522727e-001 -1.443554e+000 -7.577094e+000 180 133 103
7.476107e-001 -1.446668e+000 -7.538637e+000 180 133 103
8.481561e-001 -1.369183e+000 -7.497490e+000 104 64 23
1.221000e+000 -1.439586e+000 -7.435912e+000 185 152 121
1.307400e+000 -1.497407e+000 -7.531526e+000 162 133 103
1.484761e+000 -1.435981e+000 -7.678225e+000 37 22 17
-2.967753e+000 -1.038979e+000 -8.412956e+000 125 88 60
-2.390960e+000 -1.136923e+000 -7.935480e+000 71 45 30
-1.786136e+000 -1.179813e+000 -8.042512e+000 46 19 10
-1.798165e+000 -1.188622e+000 -7.946717e+000 86 59 41
1.330018e-001 -1.395876e+000 -7.827958e+000 115 90 79
1.066947e-001 -1.422651e+000 -7.853136e+000 52 34 27
1.226462e-001 -1.471811e+000 -7.899985e+000 34 21 16
5.956924e-001 -1.491881e+000 -7.709683e+000 103 62 37
6.410148e-001 -1.468295e+000 -7.601608e+000 174 133 93
7.257725e-001 -1.472961e+000 -7.578004e+000 116 67 35
6.205660e-001 -1.526453e+000 -7.663014e+000 113 70 36
1.080122e+000 -1.547672e+000 -7.582603e+000 162 117 78
-2.436436e-001 -1.583791e+000 -8.241468e+000 121 112 103
-1.900423e-001 -1.556401e+000 -8.178601e+000 126 112 109
9.649423e-001 -1.699932e+000 -7.675616e+000 194 155 111
9.446980e-001 -1.711013e+000 -7.689761e+000 130 84 47
-1.276707e+000 -1.583061e+000 -8.298087e+000 93 77 68
3.711259e-001 -1.814059e+000 -7.972094e+000 84 56 34
1.124599e+000 -1.848384e+000 -7.699713e+000 206 176 140
-1.849217e+000 -1.658403e+000 -8.164576e+000 21 9 9
-1.441275e+000 -1.693692e+000 -8.423913e+000 138 103 83
-1.369511e+000 -1.703137e+000 -8.485688e+000 147 115 103
-4.976759e-001 -1.888810e+000 -8.861779e+000 83 67 65
2.029326e-001 -1.909837e+000 -8.031604e+000 45 25 10
-1.698682e+000 -1.827956e+000 -8.289489e+000 125 94 70
-1.614155e+000 -1.804700e+000 -8.361761e+000 163 131 106
7.892956e-001 2.282422e+000 -8.244135e+000 76 45 26
9.465015e-001 1.985759e+000 -8.282826e+000 85 65 53
1.039722e+000 1.948139e+000 -8.245168e+000 28 18 13
1.401205e+000 1.727144e+000 -8.122752e+000 66 42 28
1.829940e+000 1.759515e+000 -8.224949e+000 25 15 12
1.657324e+000 1.562477e+000 -8.209539e+000 140 106 73
1.159425e+000 1.511505e+000 -8.313336e+000 50 31 22
-1.323823e-001 1.987993e+000 -1.018387e+001 43 20 14
1.488640e+000 6.608806e-001 -7.105080e+000 167 131 83
2.178955e+000 3.377633e-001 -6.818260e+000 157 135 95
-4.024458e-001 1.609844e+000 -9.873704e+000 105 65 29
1.576834e+000 4.441273e-001 -6.992271e+000 144 97 55
-4.220658e-001 1.411042e+000 -9.924791e+000 65 37 15
1.336796e+000 5.433833e-001 -7.734130e+000 33 25 20
1.351892e+000 4.277365e-001 -7.629541e+000 199 179 151
1.661196e+000 1.461339e-001 -6.912577e+000 133 83 45
-4.786226e-001 1.148549e+000 -9.753512e+000 139 110 70
-4.446704e-001 1.183791e+000 -9.922074e+000 173 144 103
1.677775e+000 -2.519735e-002 -6.830406e+000 181 137 103
4.684357e-001 5.015576e-001 -8.897234e+000 84 77 67
8.459823e-001 4.673518e-001 -8.882338e+000 27 24 24
8.459823e-001 4.673518e-001 -8.882338e+000 27 24 24
1.510816e+000 -6.156538e-002 -7.171988e+000 129 87 57
1.691971e+000 -1.152496e-001 -7.022182e+000 159 109 76
1.708023e+000 -1.158769e-001 -6.966371e+000 85 39 6
2.077615e+000 -1.304044e-001 -6.809732e+000 163 120 85
2.160455e+000 -1.913094e-001 -6.846900e+000 168 142 120
5.030404e-001 3.976517e-001 -8.808479e+000 136 129 113
4.342443e-001 4.208091e-001 -8.964619e+000 134 128 118
2.303568e+000 -2.532408e-001 -7.047972e+000 36 14 3
2.290855e+000 -3.586229e-001 -7.086902e+000 112 94 84
-1.040220e+000 5.516212e-001 -9.472775e+000 163 162 134
-1.087659e+000 5.231458e-001 -9.489893e+000 63 57 41
-9.037454e-001 4.494470e-001 -9.243133e+000 38 33 29
-7.544797e-001 5.124742e-001 -9.235926e+000 33 26 15
-7.544797e-001 5.124742e-001 -9.235926e+000 33 26 15
-7.221007e-001 5.068000e-001 -9.322555e+000 133 129 106
-7.221007e-001 5.068000e-001 -9.322555e+000 133 129 106
-7.749111e-001 4.086022e-001 -9.229149e+000 141 136 115
-4.097290e-001 2.170655e-001 -8.859477e+000 154 149 116
-1.246212e-001 3.426576e-001 -8.861374e+000 160 156 117
6.027352e-001 6.127959e-002 -8.649942e+000 128 121 105
1.623754e+000 -3.311350e-001 -7.422785e+000 37 27 21
-9.247391e-001 3.452296e-001 -9.274639e+000 148 144 117
-8.977868e-001 2.916974e-001 -9.209891e+000 38 34 23
2.064159e+000 -4.154034e-001 -7.540268e+000 138 114 102
-2.427951e+000 8.309303e-002 -8.339028e+000 120 78 39
-2.332409e+000 6.184479e-002 -8.270906e+000 188 156 117
-2.197825e+000 4.115761e-003 -8.162804e+000 172 140 99
-1.996450e+000 -2.865903e-003 -8.147698e+000 159 134 93
-1.897371e+000 3.575574e-002 -8.148879e+000 144 114 80
-3.321198e+000 1.124045e-001 -9.134060e+000 56 64 101
-1.774359e+000 -1.392800e-001 -8.137051e+000 157 127 101
-3.068265e+000 -2.255915e-001 -8.609173e+000 119 89 61
-2.602968e+000 -1.888684e-001 -8.315652e+000 120 86 41
-2.457134e+000 -3.004553e-001 -8.291277e+000 124 86 47
-2.048029e+000 -4.163497e-001 -8.049587e+000 97 69 32
-1.795278e+000 -4.191918e-001 -8.156584e+000 37 24 22
-1.683511e+000 -4.234736e-001 -8.016868e+000 108 93 67
9.795566e-001 -7.815487e-001 -7.703330e+000 109 94 56
-1.221982e+000 -6.662346e-001 -8.201836e+000 131 98 67
7.658168e-001 -9.917751e-001 -7.575373e+000 72 36 15
-1.883986e+000 -8.098285e-001 -7.893702e+000 92 49 24
-1.484749e+000 -7.496824e-001 -8.063917e+000 82 46 22
8.982811e-001 -1.071022e+000 -7.459724e+000 77 35 10
1.001312e+000 -1.198721e+000 -7.378455e+000 146 105 70
-2.692167e+000 -7.199084e-001 -8.176994e+000 108 73 35
-2.068369e+000 -9.016716e-001 -7.873665e+000 127 88 60
2.195443e-001 -1.208409e+000 -7.986254e+000 84 50 22
-2.951486e+000 -9.481321e-001 -8.366042e+000 116 81 55
-2.143231e+000 -1.067285e+000 -7.945541e+000 106 69 50
-1.239814e+000 -1.138691e+000 -8.243308e+000 92 65 49
-1.085702e+000 -1.076992e+000 -8.201428e+000 62 38 14
-1.134453e+000 -1.174516e+000 -8.289507e+000 33 15 6
6.765586e-002 -1.311193e+000 -8.084177e+000 44 26 16
4.507536e-001 -1.354280e+000 -7.624525e+000 94 54 28
5.310534e-001 -1.387226e+000 -7.620486e+000 163 120 86
6.197117e-001 -1.365121e+000 -7.568938e+000 97 52 23
6.836205e-001 -1.380674e+000 -7.564361e+000 89 41 23
9.462146e-001 -1.363396e+000 -7.481259e+000 183 140 97
1.010223e+000 -1.443357e+000 -7.455115e+000 182 145 106
1.110160e+000 -1.492229e+000 -7.603164e+000 193 156 120
1.209010e+000 -1.459366e+000 -7.484462e+000 96 61 35
1.286193e+000 -1.461612e+000 -7.514222e+000 122 88 61
-1.670277e+000 -1.174397e+000 -8.033233e+000 78 50 38
-1.441834e+000 -1.273477e+000 -7.983414e+000 25 11 8
-1.175696e+000 -1.229857e+000 -8.296259e+000 48 30 20
-1.102669e+000 -1.272149e+000 -8.361285e+000 70 51 43
3.192045e-002 -1.364205e+000 -8.100477e+000 45 33 27
3.017832e-001 -1.463014e+000 -7.821836e+000 158 134 112
7.695009e-001 -1.524104e+000 -7.563840e+000 204 160 118
8.412535e-001 -1.514889e+000 -7.621229e+000 136 91 49
8.187827e-001 -1.590728e+000 -7.682645e+000 126 77 37
1.454523e+000 -1.586757e+000 -7.639884e+000 132 121 108
-2.690816e+000 -1.246149e+000 -8.033906e+000 138 86 47
-9.798712e-001 -1.399604e+000 -8.817795e+000 36 31 36
-1.010931e+000 -1.457760e+000 -8.833862e+000 21 16 22
-7.253286e-001 -1.491828e+000 -8.643742e+000 185 190 196
4.959663e-001 -1.601749e+000 -7.669780e+000 111 66 38
8.009373e-001 -1.751160e+000 -7.772565e+000 173 131 89
1.281227e+000 -1.782972e+000 -7.774622e+000 150 133 114
2.580783e-001 -1.735646e+000 -7.857935e+000 162 131 112
2.508929e-001 -1.764367e+000 -7.902620e+000 62 35 21
3.219746e-001 -1.751747e+000 -7.816876e+000 156 133 107
5.934887e-001 -1.862492e+000 -7.717375e+000 148 122 89
7.203721e-001 -1.766419e+000 -7.664573e+000 179 136 96
1.055551e+000 -1.849176e+000 -7.728651e+000 203 165 128
1.012431e+000 -1.931450e+000 -7.797091e+000 152 109 77
1.144275e-001 -1.836168e+000 -7.976001e+000 112 90 69
2.125462e-001 -1.943505e+000 -8.036713e+000 115 93 79
1.879621e+000 1.668117e+000 -8.221475e+000 109 91 74
1.011103e+000 1.570378e+000 -8.375956e+000 29 18 22
1.390246e+000 1.492940e+000 -8.299873e+000 53 31 17
1.799277e+000 7.594279e-001 -7.041284e+000 182 160 121
6.857711e-002 1.944743e+000 -1.023884e+001 35 18 13
1.440333e+000 6.515366e-001 -7.236731e+000 133 93 42
2.224804e+000 3.113892e-001 -6.815242e+000 149 127 94
2.155198e+000 3.090136e-001 -6.806912e+000 63 40 21
2.142859e+000 2.949805e-001 -6.767434e+000 63 40 21
2.365365e+000 2.551121e-001 -6.904010e+000 136 117 85
-5.371100e-001 1.428143e+000 -1.001871e+001 87 51 39
1.602442e+000 2.021747e-001 -6.924893e+000 188 145 94
-6.414119e-001 1.399760e+000 -1.015488e+001 169 131 94
1.731070e+000 2.255447e-002 -6.806534e+000 163 114 71
2.324397e-001 7.125396e-001 -9.256081e+000 149 140 123
1.373127e+000 7.170925e-002 -7.428529e+000 177 135 99
1.737609e+000 -1.892562e-001 -6.922176e+000 140 91 51
2.373330e+000 -2.425521e-001 -6.987712e+000 58 37 30
4.817798e-001 3.654867e-001 -8.817026e+000 62 54 41
1.285258e+000 1.539123e-001 -8.148878e+000 67 60 49
2.173019e+000 -2.972945e-001 -6.983285e+000 149 118 90
1.467530e+000 -2.054659e-001 -7.952103e+000 76 69 63
-1.988485e+000 1.913419e-001 -8.337598e+000 126 91 64
-1.979329e+000 1.218136e-001 -8.276664e+000 94 61 30
-1.881443e+000 1.761182e-001 -8.384797e+000 117 89 63
-1.792188e+000 2.106322e-001 -8.600404e+000 26 12 17
-2.470203e+000 1.359406e-001 -8.369218e+000 170 133 88
-1.852928e+000 -8.204535e-002 -8.118350e+000 126 97 58
-2.124148e+000 -2.466864e-001 -8.086762e+000 130 97 59
-1.975716e+000 -1.670144e-001 -8.078847e+000 118 94 58
-1.918235e+000 -2.341823e-001 -8.021424e+000 149 120 86
-1.760848e+000 -2.194126e-001 -8.127161e+000 70 40 17
-1.848679e+000 -2.748946e-001 -8.235224e+000 76 41 22
-1.848679e+000 -2.748946e-001 -8.235224e+000 76 41 22
1.202251e+000 -4.742477e-001 -8.279731e+000 46 40 40
-2.565398e+000 -2.946968e-001 -8.215429e+000 147 111 68
-2.146084e+000 -3.244868e-001 -8.066188e+000 123 89 52
-2.146084e+000 -3.244868e-001 -8.066188e+000 123 89 52
-1.676334e+000 -3.651305e-001 -8.098042e+000 31 14 12
-1.713917e+000 -4.838138e-001 -8.039835e+000 37 26 15
-1.085400e+000 -5.936655e-001 -8.362246e+000 61 33 19
-2.660198e+000 -5.862043e-001 -8.158131e+000 190 153 109
-2.357203e+000 -6.431414e-001 -7.953942e+000 142 114 79
-1.965296e+000 -7.619325e-001 -7.934051e+000 82 38 13
-1.655602e+000 -7.442882e-001 -7.981530e+000 120 85 57
-1.323517e+000 -8.350660e-001 -7.996513e+000 91 57 29
-1.115178e+000 -8.554984e-001 -8.208888e+000 84 50 23
-6.646567e-001 -8.895318e-001 -8.458843e+000 143 135 120
9.337802e-001 -1.106697e+000 -7.437166e+000 88 50 27
1.003444e+000 -1.134048e+000 -7.502348e+000 100 56 30
-2.644040e+000 -7.820517e-001 -8.057260e+000 170 140 104
-2.132197e+000 -8.302630e-001 -7.904260e+000 85 45 20
-9.551984e-001 -9.770984e-001 -8.306396e+000 100 84 61
3.621393e-001 -1.115513e+000 -7.858599e+000 137 100 67
1.432337e+000 -1.364241e+000 -7.531744e+000 129 116 109
-2.306778e+000 -9.624893e-001 -7.827009e+000 136 97 66
-1.178047e+000 -1.156649e+000 -8.166749e+000 84 61 43
3.016835e-001 -1.236060e+000 -7.962608e+000 46 21 14
4.952658e-001 -1.299836e+000 -7.558428e+000 133 92 60
6.027733e-001 -1.405431e+000 -7.585622e+000 140 96 58
6.859546e-001 -1.355164e+000 -7.526358e+000 86 41 19
6.571214e-001 -1.442818e+000 -7.567764e+000 95 47 25
-2.882035e+000 -1.089148e+000 -8.258901e+000 182 141 107
-2.399301e+000 -1.104611e+000 -7.925378e+000 120 85 65
-2.424331e+000 -1.092843e+000 -8.019244e+000 120 85 65
-7.937422e-001 -1.263615e+000 -8.624355e+000 23 18 25
-3.390756e-001 -1.452807e+000 -8.275089e+000 51 47 47
3.563909e-001 -1.543377e+000 -7.735255e+000 141 114 87
4.410530e-001 -1.548757e+000 -7.751028e+000 190 156 125
4.641188e-001 -1.507861e+000 -7.744595e+000 52 21 4
4.641188e-001 -1.507861e+000 -7.744595e+000 52 21 4
1.037795e+000 -1.556524e+000 -7.567725e+000 127 80 42
9.786687e-001 -1.593413e+000 -7.595163e+000 111 68 29
1.231432e+000 -1.588466e+000 -7.570280e+000 107 73 45
1.231432e+000 -1.588466e+000 -7.570280e+000 107 73 45
1.532254e+000 -1.569845e+000 -7.730802e+000 95 88 84
-2.225777e+000 -1.281456e+000 -8.060964e+000 25 13 15
-1.904318e+000 -1.430816e+000 -8.067408e+000 24 14 15
-1.204258e+000 -1.508942e+000 -8.237655e+000 28 18 19
-1.065970e+000 -1.428570e+000 -8.641683e+000 38 26 26
-1.008056e+000 -1.507516e+000 -9.143013e+000 32 31 32
2.813496e-001 -1.687543e+000 -7.816653e+000 71 48 40
6.861580e-001 -1.630134e+000 -7.608436e+000 190 157 116
-1.884874e+000 -1.473877e+000 -8.065399e+000 44 34 35
-1.435673e+000 -1.653727e+000 -8.434946e+000 69 40 33
-4.307321e-001 -1.694300e+000 -8.698872e+000 188 189 194
2.195462e-001 -1.813596e+000 -7.976919e+000 66 43 27
5.416413e-001 -2.024259e+000 -7.957560e+000 60 35 30
8.487268e-001 -1.977435e+000 -7.831310e+000 172 141 113
1.825486e+000 1.879920e+000 -8.377006e+000 113 98 70
8.547695e-001 1.873385e+000 -8.449122e+000 105 77 56
5.734955e-001 2.004482e+000 -8.790794e+000 145 116 86
1.489898e+000 1.525359e+000 -8.175123e+000 124 89 67
2.013621e-003 1.927196e+000 -1.025351e+001 131 112 88
2.501084e+000 2.879461e-001 -7.047662e+000 107 91 67
1.886675e+000 1.483679e-001 -6.804275e+000 192 149 107
1.840753e+000 -3.898345e-002 -6.837568e+000 120 73 43
1.972158e+000 -8.515302e-003 -6.667511e+000 181 145 106
-2.870206e-001 9.339878e-001 -9.958695e+000 132 112 87
1.683880e+000 -2.689631e-001 -7.095413e+000 176 146 110
1.836178e+000 -2.247817e-001 -6.906463e+000 173 129 92
1.105101e+000 5.604876e-002 -8.532493e+000 14 9 13
1.210858e+000 -4.237497e-002 -8.137794e+000 84 75 68
2.277542e+000 -3.750335e-001 -7.181698e+000 40 25 25
1.991225e-001 1.196874e-002 -8.630091e+000 131 126 99
1.995464e-001 1.236218e-002 -8.632414e+000 131 126 99
2.749005e-001 4.001005e-002 -8.637705e+000 25 21 22
1.485494e-001 -8.537718e-002 -8.617839e+000 136 126 98
3.012275e-001 -4.301860e-002 -8.596633e+000 146 139 111
3.790448e-001 -1.296672e-002 -8.610864e+000 31 26 23
4.574777e-001 2.503709e-002 -8.645792e+000 136 132 102
5.594793e-001 -2.151769e-002 -8.616402e+000 129 123 100
5.586505e-001 -2.546189e-002 -8.600623e+000 129 123 100
6.365514e-001 -2.712580e-004 -8.624001e+000 20 16 13
5.869441e-001 -9.946154e-002 -8.573086e+000 25 24 20
6.667648e-001 -7.201601e-002 -8.606384e+000 103 95 82
6.929657e-001 -1.485136e-001 -8.585093e+000 24 13 18
1.826568e+000 -3.887940e-001 -7.443794e+000 148 120 88
1.955374e+000 -4.217721e-001 -7.419424e+000 152 127 97
-2.133752e+000 1.132126e-001 -8.287406e+000 98 68 32
-2.649234e-001 -1.663048e-001 -8.588262e+000 137 127 102
-1.882395e-001 -1.348920e-001 -8.597108e+000 20 21 14
-1.114703e-001 -1.047383e-001 -8.603082e+000 144 132 109
-3.454312e-002 -7.632688e-002 -8.600352e+000 26 20 17
4.625328e-001 -2.325620e-001 -8.554370e+000 152 146 121
5.370577e-001 -1.970214e-001 -8.563035e+000 24 20 18
6.136907e-001 -1.750054e-001 -8.550805e+000 133 127 105
4.899832e-001 -3.003983e-001 -8.561984e+000 27 22 26
7.192321e-001 -2.236223e-001 -8.574267e+000 125 117 100
-2.845911e-001 -3.396944e-001 -8.535632e+000 24 18 14
-2.384627e-001 -2.349219e-001 -8.574266e+000 22 23 15
4.163266e-001 -3.326693e-001 -8.578383e+000 149 144 115
3.704068e-001 -4.413569e-001 -8.559012e+000 146 138 110
5.060126e-001 -3.752077e-001 -8.548695e+000 134 124 101
6.877368e-001 -4.083380e-001 -8.552842e+000 24 22 25
7.607324e-001 -3.896351e-001 -8.532471e+000 144 140 119
-1.572834e+000 -4.218717e-001 -8.174617e+000 57 39 15
6.785224e-002 -5.491168e-001 -8.462876e+000 136 128 112
1.435426e-001 -5.220121e-001 -8.471132e+000 21 18 13
5.719993e-001 -5.286697e-001 -8.582741e+000 65 59 51
4.510405e-001 -6.694335e-001 -8.496117e+000 24 18 21
5.942206e-001 -6.024870e-001 -8.630392e+000 18 14 20
6.573798e-001 -5.875661e-001 -8.553415e+000 114 104 83
-2.732690e+000 -4.688182e-001 -8.214468e+000 130 87 45
-1.990762e+000 -4.733316e-001 -7.993956e+000 144 115 81
-1.945153e+000 -5.480734e-001 -7.983563e+000 89 56 23
-1.737251e+000 -5.440744e-001 -8.021449e+000 110 80 46
-5.677575e-001 -7.336242e-001 -8.462402e+000 26 26 27
3.819675e-001 -6.958542e-001 -8.486064e+000 123 117 93
9.331530e-001 -1.014671e+000 -7.430058e+000 86 51 23
-1.561574e+000 -7.148959e-001 -8.039136e+000 113 79 52
-5.814651e-001 -9.118026e-001 -8.418727e+000 130 126 108
5.649536e-003 -8.266605e-001 -8.393122e+000 22 16 18
1.815166e-001 -8.579715e-001 -8.393082e+000 116 111 88
-3.189963e+000 -5.642082e-001 -8.844920e+000 141 115 99
-2.741771e+000 -7.250913e-001 -8.060354e+000 168 130 93
-2.107260e+000 -9.394914e-001 -7.855023e+000 76 38 17
-1.696226e+000 -9.207717e-001 -7.989030e+000 66 30 16
-6.167901e-001 -1.018272e+000 -8.441197e+000 122 120 107
-6.167901e-001 -1.018272e+000 -8.441197e+000 122 120 107
-4.488766e-001 -1.005123e+000 -8.342804e+000 25 22 22
4.352456e-001 -1.198342e+000 -7.639741e+000 155 120 82
-2.991926e+000 -9.126635e-001 -8.345658e+000 177 146 122
-2.617064e+000 -1.009451e+000 -8.008813e+000 159 123 88
-1.885318e+000 -1.056343e+000 -7.925721e+000 71 35 12
-1.040405e+000 -1.099040e+000 -8.494551e+000 91 64 43
-7.328143e-001 -1.107723e+000 -8.550190e+000 115 114 105
-7.025475e-001 -1.175002e+000 -8.510956e+000 22 19 29
-6.470443e-001 -1.132531e+000 -8.425538e+000 128 127 121
-5.542141e-001 -1.151658e+000 -8.357068e+000 138 138 130
-6.107007e-001 -1.204424e+000 -8.385277e+000 19 17 18
