ply
format ascii 1.0
element face 0
property list uchar int vertex_indices
element vertex 897
property float x
property float y
property float z
property uchar diffuse_red
property uchar diffuse_green
property uchar diffuse_blue
end_header
-5.987587e+000 -2.211104e+001 -1.827928e+001 106 92 84
-6.266047e+000 -2.195278e+001 -1.716240e+001 222 214 225
-5.819982e+000 -2.182016e+001 -1.721700e+001 214 200 186
3.867469e+000 3.619947e+000 -1.170747e+001 67 51 47
3.349674e+000 3.215812e+000 -1.168799e+001 32 22 20
-4.924080e-001 1.665764e+000 -1.010181e+001 100 65 37
-4.924080e-001 1.665764e+000 -1.010181e+001 100 65 37
-1.950202e-001 1.740574e+000 -1.004318e+001 57 35 12
-6.802623e-001 1.377673e+000 -1.007999e+001 137 107 73
3.400436e+000 2.275759e+000 -1.121986e+001 34 25 15
3.704802e+000 2.575867e+000 -1.090132e+001 47 36 34
-2.939491e+000 3.730922e-001 -9.203175e+000 107 86 57
3.308131e-003 1.259393e+000 -1.008906e+001 58 39 17
1.214844e+000 2.689286e+000 -8.281292e+000 153 125 76
3.975908e+000 2.601323e+000 -1.078026e+001 30 19 18
-2.019703e+000 6.587710e-001 -9.107308e+000 66 44 31
-1.788627e+000 5.342881e-001 -9.744127e+000 101 78 47
-1.780114e+000 6.686954e-001 -9.087232e+000 50 24 7
4.500004e+000 2.616729e+000 -1.040775e+001 99 79 68
4.517988e+000 2.455867e+000 -1.023392e+001 28 17 13
-2.252600e+000 4.015728e-001 -8.365570e+000 115 86 56
1.473216e-001 6.977069e-001 -9.632584e+000 81 74 46
3.938954e+000 1.755094e+000 -1.060183e+001 74 61 42
4.400153e+000 2.236437e+000 -1.020098e+001 57 42 39
4.478981e+000 2.363376e+000 -1.008847e+001 57 43 37
4.752110e+000 2.380611e+000 -1.002301e+001 36 19 12
6.794356e-001 8.778299e-001 -9.350897e+000 15 9 9
4.708435e+000 2.350603e+000 -1.000837e+001 83 64 52
3.192024e-001 6.013225e-001 -9.346025e+000 13 9 9
4.388411e+000 1.873890e+000 -9.936473e+000 47 36 30
4.372079e+000 1.885554e+000 -9.911262e+000 47 36 30
4.546477e+000 1.964843e+000 -9.970041e+000 56 46 37
-2.453985e+000 -8.666427e-002 -8.090951e+000 106 73 28
-1.827072e+000 1.325094e-001 -8.239990e+000 83 60 41
4.266649e-001 4.528546e-001 -8.964375e+000 69 62 45
4.233924e+000 1.292771e+000 -1.007947e+001 85 73 57
-2.450387e+000 -4.036290e-001 -7.983105e+000 118 81 44
-2.450387e+000 -4.036290e-001 -7.983105e+000 118 81 44
-2.171889e+000 -1.961376e-001 -7.930147e+000 101 66 29
-1.841210e+000 -1.439397e-001 -7.987170e+000 72 42 18
-1.841210e+000 -1.439397e-001 -7.987170e+000 72 42 18
-1.065748e+000 4.851698e-002 -8.163110e+000 108 88 55
4.551852e+000 1.528566e+000 -9.741832e+000 87 69 58
4.760362e+000 1.623672e+000 -9.529095e+000 63 51 42
4.951439e-001 2.440963e-001 -8.649118e+000 81 72 55
7.909633e-001 2.785686e-001 -8.664054e+000 40 31 25
-3.052908e+000 -1.329414e+000 -8.054786e+000 254 255 249
4.922482e+000 1.470331e+000 -9.286076e+000 36 23 17
4.922482e+000 1.470331e+000 -9.286076e+000 36 23 17
-1.848256e+000 -8.321848e-001 -7.695216e+000 96 61 29
6.059189e-001 -4.049608e-001 -8.475935e+000 124 110 75
5.134834e+000 1.125482e+000 -8.912285e+000 31 19 18
5.260016e+000 1.281276e+000 -8.882187e+000 30 19 13
1.492114e+000 3.726455e-001 -7.553219e+000 85 73 54
2.195440e+000 1.051349e+000 -7.263153e+000 139 115 74
1.625591e+000 7.189396e-001 -7.151756e+000 95 51 14
1.600401e+000 6.620278e-001 -7.111355e+000 77 40 12
4.552690e-001 -1.027048e+000 -7.955266e+000 95 69 44
1.981373e+000 9.076933e-001 -6.988194e+000 141 113 72
2.254960e-001 -1.290925e+000 -7.874750e+000 49 27 14
5.050386e-001 -1.112357e+000 -7.818261e+000 72 41 24
1.007421e+000 -1.012539e+000 -7.435828e+000 123 87 55
1.065458e+000 -9.522096e-001 -7.458060e+000 76 42 19
-8.582332e+000 -2.141445e+001 -1.926470e+001 161 166 191
-8.612191e+000 -2.212468e+001 -1.969669e+001 148 153 175
5.391370e+000 1.945380e-001 -7.981931e+000 74 61 45
-6.898296e+000 -2.140142e+001 -1.862588e+001 149 139 130
-6.619994e+000 -2.142858e+001 -1.847367e+001 203 190 177
-6.618440e+000 -2.142092e+001 -1.846829e+001 203 190 177
-1.530616e+000 -1.266354e+001 -1.441164e+001 20 18 21
5.559622e+000 -8.230358e-002 -7.733835e+000 77 61 46
-8.285092e+000 -2.289987e+001 -1.727662e+001 191 169 143
-7.213395e+000 -2.247547e+001 -1.751001e+001 127 116 112
-6.765047e+000 -2.213038e+001 -1.722486e+001 147 127 101
-6.211788e+000 -2.182679e+001 -1.731576e+001 195 194 192
-5.774239e+000 -2.179305e+001 -1.743344e+001 150 131 109
-5.774239e+000 -2.179305e+001 -1.743344e+001 150 131 109
3.367624e+000 3.273200e+000 -1.164532e+001 54 41 34
3.437431e+000 3.094690e+000 -1.141634e+001 29 18 16
3.918555e+000 2.994286e+000 -1.101819e+001 36 24 24
-2.853783e+000 2.655398e-001 -8.546236e+000 160 123 79
-1.037070e+000 6.009423e-001 -9.454668e+000 23 19 12
-9.390204e-001 5.867298e-001 -9.385135e+000 21 19 16
-1.945643e-001 7.632295e-001 -9.619091e+000 18 11 8
-2.833256e-002 7.509038e-001 -9.662699e+000 15 9 9
1.111912e-001 7.556254e-001 -9.784476e+000 52 45 36
6.841842e-001 1.383654e+000 -9.426212e+000 55 48 38
-8.334416e-003 7.016001e-001 -9.596879e+000 63 53 37
5.050543e-002 7.263427e-001 -9.683178e+000 54 48 34
1.784833e-001 6.697265e-001 -9.564371e+000 17 12 14
1.118068e+000 1.994360e+000 -8.137800e+000 117 99 72
4.400088e+000 2.185597e+000 -1.028781e+001 29 20 15
-2.660435e+000 4.884493e-002 -8.245748e+000 88 49 16
-2.494101e+000 2.030759e-001 -8.379113e+000 83 47 14
-1.143707e+000 3.091900e-001 -8.959109e+000 66 48 34
2.239888e-001 6.177784e-001 -9.405719e+000 20 11 12
1.691084e+000 2.138960e+000 -8.144915e+000 65 36 19
-1.193476e+000 2.416373e-001 -8.689139e+000 100 82 60
-4.799342e-002 5.415526e-001 -9.055118e+000 92 78 52
2.449326e-001 6.029556e-001 -9.315361e+000 76 69 54
1.477267e-001 5.107224e-001 -9.032071e+000 14 11 4
3.407924e-001 4.930285e-001 -9.005902e+000 78 69 53
3.407924e-001 4.930285e-001 -9.005902e+000 78 69 53
-2.395822e+000 -2.771150e-001 -7.954611e+000 112 74 37
-2.395822e+000 -2.771150e-001 -7.954611e+000 112 74 37
4.871673e+000 1.789133e+000 -9.702111e+000 32 20 20
-2.109327e+000 -2.896481e-001 -7.916742e+000 94 58 24
-2.109327e+000 -2.896481e-001 -7.916742e+000 94 58 24
4.435217e+000 1.126653e+000 -9.665452e+000 34 21 18
5.000337e+000 1.640485e+000 -9.424818e+000 32 21 17
-1.789839e+000 -4.511441e-001 -7.906233e+000 32 24 21
1.725729e+000 1.094232e+000 -7.844094e+000 31 27 24
-1.938375e+000 -6.929302e-001 -7.734242e+000 97 58 25
1.316507e+000 1.920251e-001 -8.541183e+000 50 43 35
-5.684895e-001 -9.077562e-001 -8.369016e+000 34 33 27
1.864047e+000 1.147191e+000 -7.392243e+000 108 79 60
-1.702910e+000 -9.882405e-001 -7.700900e+000 89 54 23
1.327799e+000 -1.879816e-001 -8.483026e+000 64 55 46
-2.892656e-001 -1.111819e+000 -8.218235e+000 32 30 17
5.025698e+000 7.929698e-001 -8.635881e+000 77 61 45
1.847159e+000 6.399363e-001 -6.936502e+000 90 50 14
5.427875e+000 6.745695e-001 -8.191243e+000 52 40 39
5.392573e+000 4.142340e-001 -8.241781e+000 20 11 12
5.484726e+000 4.072812e-001 -7.947653e+000 53 39 38
9.788697e-001 -1.328558e+000 -7.367369e+000 129 82 40
-9.273351e+000 -2.242564e+001 -1.852035e+001 204 214 248
-9.115931e+000 -2.257203e+001 -1.867898e+001 115 106 111
-9.115931e+000 -2.257203e+001 -1.867898e+001 115 106 111
-6.839896e+000 -2.105336e+001 -1.842492e+001 152 141 135
5.623626e+000 1.144099e-001 -7.781115e+000 30 19 17
-5.021244e+000 -2.025599e+001 -1.746768e+001 255 254 252
-4.939589e+000 -2.063275e+001 -1.782584e+001 148 145 146
5.593408e+000 6.415453e-002 -7.744756e+000 71 55 43
-7.087804e+000 -2.223711e+001 -1.768098e+001 183 167 146
-7.096722e+000 -2.227315e+001 -1.770160e+001 183 167 146
-6.605939e+000 -2.191585e+001 -1.776820e+001 227 209 194
-8.106153e+000 -2.289982e+001 -1.728991e+001 206 182 154
4.130766e+000 3.366598e+000 -1.126148e+001 36 25 23
4.155398e+000 3.352927e+000 -1.131263e+001 36 25 23
-6.251022e-001 1.705887e+000 -1.010023e+001 141 98 56
-4.355603e-003 1.333244e+000 -1.010505e+001 110 86 50
4.623338e+000 2.774431e+000 -1.036428e+001 75 61 49
1.105722e+000 2.379518e+000 -8.252191e+000 53 33 24
-1.109422e+000 5.779848e-001 -9.454921e+000 131 117 89
-8.288331e-001 5.766325e-001 -9.323482e+000 25 24 16
4.275331e+000 2.239189e+000 -1.040794e+001 29 14 17
-8.579509e-001 4.264321e-001 -9.202876e+000 116 99 73
-6.377021e-001 5.830623e-001 -9.270688e+000 111 99 71
-6.375931e-001 5.902496e-001 -9.260433e+000 111 99 71
-5.549145e-001 6.041080e-001 -9.285405e+000 20 13 16
-5.312747e-001 5.581746e-001 -9.214935e+000 111 96 69
-8.077827e-001 3.151672e-001 -9.080396e+000 113 103 65
-8.077712e-001 3.178889e-001 -9.076714e+000 113 103 65
-6.718254e-001 4.472791e-001 -9.133459e+000 26 18 19
-5.898254e-001 4.749259e-001 -9.141853e+000 111 97 65
-5.641710e-001 4.161830e-001 -9.085283e+000 22 17 17
-3.999421e-001 4.784916e-001 -9.096007e+000 24 18 13
-2.562322e-001 5.882309e-001 -9.175868e+000 102 90 58
-2.353672e-001 5.399892e-001 -9.106658e+000 22 19 12
-1.528656e-001 5.606146e-001 -9.121435e+000 101 88 63
-7.029262e-001 2.974604e-001 -9.015248e+000 120 112 81
-5.401341e-001 3.629463e-001 -9.019277e+000 115 100 67
-5.967020e-001 2.751082e-001 -8.954269e+000 113 99 65
-4.568126e-001 3.917102e-001 -9.027888e+000 22 16 13
-3.757998e-001 4.270183e-001 -9.029835e+000 118 106 80
-4.319738e-001 3.380708e-001 -8.962682e+000 124 111 85
-1.896784e-001 4.419126e-001 -8.970549e+000 20 20 12
-1.298592e-001 5.182062e-001 -9.047215e+000 16 15 10
1.837587e+000 1.939174e+000 -8.197900e+000 65 33 20
-4.082683e-001 2.884292e-001 -8.894793e+000 25 22 15
-2.471337e-001 3.588793e-001 -8.898880e+000 23 25 14
-1.655108e-001 3.918572e-001 -8.903815e+000 120 110 80
-4.122619e-002 3.801074e-001 -8.837938e+000 72 57 22
1.071167e-001 4.235529e-001 -8.861391e+000 94 85 59
2.969247e-001 4.550525e-001 -8.917573e+000 78 63 34
-2.272218e+000 -3.411253e-001 -7.889333e+000 134 105 63
-2.780030e+000 -7.418367e-001 -7.903196e+000 154 115 73
8.752772e-003 -1.484516e-002 -8.556205e+000 139 120 88
-1.910060e+000 -5.679505e-001 -7.801675e+000 119 84 52
-1.910060e+000 -5.679505e-001 -7.801675e+000 119 84 52
-3.052334e-001 -4.072631e-001 -8.447661e+000 136 122 83
2.860295e-001 1.065082e-002 -8.560991e+000 141 126 83
3.665173e-001 4.160060e-002 -8.574495e+000 30 23 22
1.494629e+000 5.237154e-001 -8.500516e+000 39 34 29
-1.433756e+000 -5.671043e-001 -7.975407e+000 77 43 16
8.114419e-001 -1.563808e-001 -8.518311e+000 22 14 10
2.335346e+000 1.070864e+000 -7.390483e+000 115 88 57
-3.030057e-001 -1.585664e+000 -8.270706e+000 71 62 56
5.421418e+000 6.403648e-001 -8.297320e+000 27 17 16
-2.290330e+000 -1.357811e+001 -1.502102e+001 17 15 18
5.456508e+000 3.139105e-001 -7.896426e+000 31 21 20
-9.949548e+000 -2.350702e+001 -1.910989e+001 218 237 255
-7.972168e+000 -2.285454e+001 -1.767381e+001 136 127 131
-5.963958e+000 -2.106135e+001 -1.721604e+001 255 255 255
-3.439897e-002 1.929717e+000 -1.011176e+001 118 94 56
4.660137e+000 2.573276e+000 -1.023807e+001 37 26 24
-3.257674e+000 -4.132474e-001 -8.730031e+000 94 67 48
4.387382e+000 1.834073e+000 -1.013470e+001 25 14 10
2.304956e+000 1.138614e+000 -7.969571e+000 12 12 12
1.786240e+000 1.079621e+000 -7.368251e+000 30 13 6
5.115639e+000 7.994405e-001 -8.627286e+000 23 13 12
3.346910e-001 -1.347475e+000 -7.826969e+000 53 27 14
-2.458613e+000 -1.358147e+001 -1.484493e+001 252 253 248
-2.458613e+000 -1.358147e+001 -1.484493e+001 252 253 248
-6.885800e+000 -2.198294e+001 -1.805979e+001 205 178 150
-6.710714e+000 -2.306750e+001 -1.869157e+001 137 124 118
-2.026978e-001 2.107688e+000 -1.016712e+001 51 32 17
4.041943e+000 3.273449e+000 -1.122100e+001 41 29 29
1.240886e+000 2.610618e+000 -8.200024e+000 158 130 82
-9.732426e-001 6.110535e-001 -9.767857e+000 94 86 65
-7.208099e-001 7.030334e-001 -9.743781e+000 91 80 59
-1.350423e+000 2.217205e-001 -9.758147e+000 131 143 158
-1.999119e+000 4.769470e-001 -8.526194e+000 39 18 13
4.277016e+000 1.971194e+000 -1.020097e+001 22 12 10
4.520525e+000 1.671507e+000 -9.784117e+000 39 28 26
-2.692420e+000 -6.769094e-001 -7.965659e+000 161 122 75
9.049618e-001 -9.869175e-001 -8.059470e+000 86 69 41
7.503080e-001 -9.395152e-001 -7.817752e+000 39 20 13
1.393245e+000 -1.064794e+000 -7.810481e+000 57 44 28
-6.719391e+000 -2.157527e+001 -1.907629e+001 105 96 97
-6.268875e+000 -2.104214e+001 -1.888727e+001 255 255 255
-6.268875e+000 -2.104214e+001 -1.888727e+001 255 255 255
-6.434036e+000 -2.105964e+001 -1.781655e+001 123 113 108
-4.743661e+000 -2.114336e+001 -1.743821e+001 236 227 214
8.092701e-001 -9.876625e-001 -7.476842e+000 55 23 8
9.682377e-001 -1.656514e+000 -7.504179e+000 188 151 103
-9.972775e+000 -2.332876e+001 -1.853684e+001 185 200 233
-9.457840e+000 -2.319467e+001 -1.850168e+001 107 98 99
-5.880860e+000 -2.115595e+001 -1.871569e+001 95 93 98
-5.415207e+000 -2.081404e+001 -1.796572e+001 255 255 255
-1.544223e+000 -1.325932e+001 -1.409439e+001 35 33 36
1.949784e+000 9.264969e-001 -7.113817e+000 139 115 67
-8.860833e+000 -2.277693e+001 -1.937877e+001 108 99 101
-8.860833e+000 -2.277693e+001 -1.937877e+001 108 99 101
2.017987e+000 1.030750e+000 -7.582804e+000 25 16 15
-7.282926e+000 -2.199279e+001 -1.863963e+001 122 108 98
2.977478e+000 3.365191e+000 -1.212068e+001 104 87 68
-4.539722e-001 2.167111e+000 -1.017063e+001 90 54 19
2.505800e-001 2.258832e+000 -1.050186e+001 111 101 91
3.734097e+000 3.459276e+000 -1.143173e+001 116 94 71
3.896150e+000 3.423385e+000 -1.154536e+001 31 17 12
-6.587624e-001 1.792068e+000 -1.017722e+001 141 97 48
-3.728612e-001 2.015327e+000 -1.023887e+001 81 46 13
4.187771e+000 3.399735e+000 -1.162240e+001 78 65 56
-7.531744e-001 1.487420e+000 -1.024421e+001 60 26 1
-3.403695e+000 1.898877e-001 -9.591656e+000 105 99 100
-3.329791e+000 2.253821e-001 -9.802502e+000 151 143 136
-7.042887e-001 1.262793e+000 -1.026475e+001 81 49 29
-4.117692e-001 1.550748e+000 -9.957041e+000 120 82 41
3.544009e+000 2.903606e+000 -1.129071e+001 26 15 13
-2.239726e+000 5.228222e-001 -9.658219e+000 47 28 14
-4.744710e-001 1.276074e+000 -9.930611e+000 134 101 58
-3.804924e-001 1.412053e+000 -1.000003e+001 94 61 25
-2.112073e-001 1.480047e+000 -1.003531e+001 137 109 61
1.315224e+000 2.922417e+000 -9.258008e+000 27 9 3
-2.887974e+000 2.279191e-001 -9.406245e+000 99 73 46
-2.754088e+000 4.688096e-001 -9.205635e+000 111 80 49
-5.078751e-001 1.129884e+000 -9.981306e+000 142 102 51
4.021519e-001 1.161205e+000 -1.055483e+001 114 112 114
3.809591e+000 2.655786e+000 -1.109511e+001 31 17 13
3.782838e+000 2.649443e+000 -1.100769e+001 33 20 17
-2.616028e+000 4.761785e-001 -8.880675e+000 86 47 17
-2.246634e+000 5.390033e-001 -9.199851e+000 67 40 19
6.294373e-001 2.411284e+000 -8.805212e+000 74 52 25
6.294373e-001 2.411284e+000 -8.805212e+000 74 52 25
8.000755e-001 2.770170e+000 -8.356797e+000 158 113 70
8.451013e-001 2.813016e+000 -8.419517e+000 162 117 72
1.128987e+000 2.856476e+000 -8.540168e+000 126 86 37
1.130961e+000 2.785985e+000 -8.548920e+000 121 84 32
-3.160099e+000 -4.846187e-002 -8.775185e+000 131 89 38
-1.920914e+000 6.253936e-001 -8.877239e+000 108 80 57
-4.118750e-002 7.781083e-001 -9.940794e+000 57 47 37
3.404621e+000 1.862829e+000 -1.104187e+001 19 9 7
-2.053990e+000 5.249845e-001 -8.566706e+000 86 63 43
-1.859587e+000 5.635088e-001 -8.790962e+000 43 20 9
-1.718102e+000 5.661670e-001 -8.898780e+000 50 23 4
-1.632508e+000 5.418811e-001 -8.991172e+000 64 39 16
-1.447315e+000 4.730739e-001 -9.100008e+000 80 57 40
-5.177812e-001 6.590456e-001 -9.674715e+000 101 97 77
-5.177812e-001 6.590456e-001 -9.674715e+000 101 97 77
-4.788395e-001 6.901532e-001 -9.658796e+000 23 17 14
-4.543242e-001 6.749267e-001 -9.524341e+000 21 11 11
6.691548e-001 2.068459e+000 -8.675358e+000 122 96 55
4.688876e+000 2.769912e+000 -1.058851e+001 35 21 14
-3.056851e+000 -1.101206e-001 -8.493609e+000 99 61 24
-1.716615e+000 4.716387e-001 -8.710256e+000 93 68 46
-1.597082e+000 5.517621e-001 -8.721554e+000 88 67 43
-1.294274e+000 3.797042e-001 -8.990692e+000 83 62 43
8.818793e-001 2.165947e+000 -8.365214e+000 96 55 21
4.610172e+000 2.658373e+000 -1.033983e+001 34 17 6
-3.032221e+000 -1.594055e-001 -8.345224e+000 111 73 38
-1.839030e+000 4.089997e-001 -8.524219e+000 35 11 1
-1.818331e+000 3.946929e-001 -8.492444e+000 80 54 37
-1.818331e+000 3.946929e-001 -8.492444e+000 80 54 37
-1.792597e+000 3.269430e-001 -8.532859e+000 44 19 4
-1.635108e+000 3.317110e-001 -8.746135e+000 67 47 35
-1.499559e+000 2.792865e-001 -8.742532e+000 90 64 37
4.690691e+000 2.462214e+000 -1.012645e+001 80 61 54
-2.795890e+000 -1.086456e-001 -8.184947e+000 117 74 30
-2.669125e+000 -1.749480e-001 -8.145708e+000 108 63 22
1.691845e-001 5.603740e-001 -9.188607e+000 95 84 57
1.691845e-001 5.603740e-001 -9.188607e+000 95 84 57
8.042788e-001 9.062751e-001 -9.131914e+000 35 30 26
4.559517e+000 2.257059e+000 -1.013824e+001 40 22 18
-2.022246e+000 5.050370e-002 -8.094976e+000 62 32 4
3.957856e-001 5.225412e-001 -9.174143e+000 17 10 3
1.137131e+000 2.004059e+000 -8.100235e+000 60 40 23
1.152391e+000 1.944463e+000 -8.085397e+000 109 83 58
-2.148629e+000 -6.459467e-002 -7.979944e+000 129 96 55
-2.148629e+000 -6.459467e-002 -7.979944e+000 129 96 55
-2.113285e+000 -1.135776e-001 -7.922736e+000 147 112 72
-2.086229e+000 -1.194630e-002 -7.949594e+000 135 101 64
-2.030339e+000 1.062000e-002 -8.003234e+000 69 35 8
-2.004353e+000 -4.125352e-004 -8.039862e+000 112 78 51
-9.438178e-001 -1.059243e-001 -8.753252e+000 46 37 27
1.172169e+000 1.911918e+000 -8.065219e+000 131 104 77
5.087090e+000 2.325720e+000 -9.898857e+000 44 25 18
-2.058393e+000 -2.621027e-001 -7.862999e+000 142 107 67
-1.370071e+000 5.315049e-002 -7.930350e+000 56 35 17
-7.934907e-002 -8.539430e-002 -8.512751e+000 152 131 78
-7.934907e-002 -8.539430e-002 -8.512751e+000 152 131 78
1.593708e+000 1.580110e+000 -8.104018e+000 115 93 43
1.593708e+000 1.580110e+000 -8.104018e+000 115 93 43
1.985652e+000 1.780025e+000 -8.060421e+000 29 16 8
-2.760355e+000 -1.282173e+000 -7.886055e+000 130 88 36
-1.845653e+000 -5.216819e-001 -7.718558e+000 122 83 47
-1.619523e+000 -4.498299e-001 -7.923637e+000 42 25 10
6.802650e-001 3.529914e-002 -8.530532e+000 146 126 74
5.156977e+000 1.837111e+000 -9.349289e+000 32 17 12
-2.191551e+000 -7.692425e-001 -7.655050e+000 126 87 46
5.065769e+000 1.770332e+000 -9.236719e+000 94 77 51
5.147302e+000 1.758494e+000 -9.228982e+000 84 65 49
7.729333e-001 -5.220410e-001 -8.550627e+000 21 15 5
1.801139e+000 1.055901e+000 -7.888453e+000 102 84 62
-6.164855e-001 -1.326071e+000 -8.332680e+000 187 181 165
-4.012870e-001 -1.108295e+000 -8.205394e+000 151 139 91
-4.012870e-001 -1.108295e+000 -8.205394e+000 151 139 91
-4.191330e-001 -1.268165e+000 -8.232131e+000 131 119 91
-2.774309e-001 -1.169684e+000 -8.198520e+000 114 100 69
-2.351026e-001 -1.158760e+000 -8.207570e+000 122 113 82
3.128123e-001 -9.464049e-001 -8.362825e+000 19 13 8
8.999807e-001 -5.316748e-001 -8.488834e+000 84 74 65
1.783561e+000 1.205593e+000 -7.559770e+000 73 50 37
1.783561e+000 1.205593e+000 -7.559770e+000 73 50 37
2.409056e+000 1.135318e+000 -7.926172e+000 33 14 9
1.590889e+000 8.867026e-001 -7.534691e+000 99 60 19
5.158183e+000 1.399194e+000 -8.799386e+000 66 50 38
5.549134e-001 -1.000951e+000 -8.189023e+000 39 19 12
1.215492e+000 -1.255997e+000 -8.512635e+000 121 121 122
1.522824e+000 4.324885e-001 -7.470160e+000 114 76 31
1.608288e+000 8.970493e-001 -7.267727e+000 82 41 19
1.682493e+000 1.013658e+000 -7.315030e+000 122 84 45
1.719059e+000 1.073870e+000 -7.215310e+000 77 38 2
-1.289913e-001 -1.912012e+000 -8.086319e+000 58 41 31
1.491807e+000 3.304135e-001 -7.516577e+000 72 56 34
1.660105e+000 7.723526e-001 -6.933114e+000 163 121 78
3.832828e-001 -1.521680e+000 -7.652381e+000 144 105 70
3.832828e-001 -1.521680e+000 -7.652381e+000 144 105 70
8.615356e-001 -1.083274e+000 -7.474365e+000 126 81 50
1.081883e+000 -8.477561e-001 -7.508798e+000 108 77 48
1.081883e+000 -8.477561e-001 -7.508798e+000 108 77 48
1.630530e+000 5.460555e-001 -6.949378e+000 106 60 8
1.691494e+000 6.676090e-001 -6.783803e+000 176 128 80
5.198107e+000 5.886560e-001 -8.275459e+000 33 20 11
1.747526e+000 4.244880e-001 -6.729398e+000 171 125 76
5.692222e+000 9.271517e-001 -7.979318e+000 100 76 64
5.735982e+000 9.236936e-001 -7.974094e+000 43 26 17
5.546939e+000 7.835522e-001 -7.820971e+000 66 49 42
5.799163e+000 7.575196e-001 -7.687452e+000 97 76 66
5.800728e+000 7.155935e-001 -7.694472e+000 57 39 25
3.596214e+000 3.759836e+000 -1.193864e+001 50 30 18
3.977801e+000 3.835298e+000 -1.220972e+001 38 21 12
3.401544e+000 3.485503e+000 -1.197641e+001 55 40 33
6.800234e-002 2.280965e+000 -1.072111e+001 38 25 16
3.911589e+000 3.632550e+000 -1.192634e+001 80 59 54
3.920979e+000 3.605211e+000 -1.187842e+001 18 4 3
1.938783e-001 2.224782e+000 -1.059462e+001 104 94 84
1.938783e-001 2.224782e+000 -1.059462e+001 104 94 84
3.485971e+000 3.223723e+000 -1.169660e+001 60 45 38
3.867984e+000 3.469279e+000 -1.163646e+001 34 18 9
3.838637e+000 3.470038e+000 -1.152352e+001 83 64 52
4.165686e+000 3.509480e+000 -1.169901e+001 57 44 36
-7.105855e-001 1.728531e+000 -1.028800e+001 158 114 66
-4.317182e-001 1.889217e+000 -1.020691e+001 131 87 48
1.469741e-001 1.987380e+000 -1.043356e+001 37 19 5
3.432053e+000 3.061841e+000 -1.152223e+001 56 43 34
3.438262e+000 3.132697e+000 -1.146533e+001 21 8 7
3.928867e+000 3.320544e+000 -1.149591e+001 67 45 32
4.068570e+000 3.357219e+000 -1.155027e+001 61 44 36
-6.653855e-001 1.569477e+000 -1.021476e+001 100 58 19
-6.653855e-001 1.569477e+000 -1.021476e+001 100 58 19
3.777680e+000 3.203581e+000 -1.133117e+001 41 26 21
-7.963457e-001 1.169910e+000 -1.031669e+001 134 98 62
-7.596182e-001 1.310489e+000 -1.028468e+001 56 28 5
-5.927752e-001 1.350709e+000 -1.006430e+001 125 95 58
-5.927752e-001 1.350709e+000 -1.006430e+001 125 95 58
4.110132e+000 3.184138e+000 -1.106159e+001 34 19 15
4.123999e+000 3.219546e+000 -1.102133e+001 56 40 32
4.291789e+000 3.219624e+000 -1.136237e+001 32 19 14
4.291789e+000 3.219624e+000 -1.136237e+001 32 19 14
-6.797668e-001 1.238047e+000 -1.006375e+001 85 55 21
-4.284457e-001 1.406540e+000 -9.978715e+000 67 38 8
-3.860747e-001 1.408241e+000 -9.941572e+000 135 104 60
-3.574511e-001 1.338917e+000 -9.925164e+000 127 96 50
4.429687e+000 3.114127e+000 -1.113642e+001 33 18 15
-2.374851e+000 5.410948e-001 -9.382235e+000 36 16 6
-2.281372e+000 6.084290e-001 -9.193129e+000 35 18 10
-3.460503e-001 1.286079e+000 -9.886896e+000 136 103 60
1.119409e+000 2.858484e+000 -8.747059e+000 133 93 44
4.388024e+000 3.011323e+000 -1.105700e+001 67 54 43
4.388024e+000 3.011323e+000 -1.105700e+001 67 54 43
4.432891e+000 3.016838e+000 -1.097781e+001 79 65 56
-2.078320e+000 6.437133e-001 -9.134583e+000 39 18 7
-1.974899e+000 6.357058e-001 -9.128045e+000 48 26 15
-1.268259e+000 3.005106e-001 -1.011431e+001 100 85 66
1.171630e+000 2.847047e+000 -8.637025e+000 115 77 30
1.916787e+000 2.707455e+000 -9.221013e+000 71 61 44
-2.725217e+000 3.575078e-001 -8.855639e+000 85 46 13
-2.599837e+000 4.642569e-001 -8.817843e+000 109 68 35
-2.218484e+000 5.434770e-001 -8.887081e+000 71 36 16
-2.077352e+000 6.054590e-001 -8.800406e+000 71 45 28
-1.233073e+000 4.543774e-001 -9.553286e+000 75 66 52
1.088961e+000 2.770162e+000 -8.472719e+000 82 46 10
1.072180e+000 2.771808e+000 -8.348441e+000 149 118 71
4.150856e+000 2.523591e+000 -1.057823e+001 30 17 9
4.451042e+000 2.838150e+000 -1.068826e+001 45 28 20
-2.605113e+000 3.759075e-001 -8.555665e+000 142 104 64
-2.602266e+000 3.438777e-001 -8.501348e+000 134 97 53
-2.449171e+000 3.963180e-001 -8.603983e+000 126 90 54
-2.307363e+000 4.410485e-001 -8.563545e+000 116 81 48
-2.202114e+000 4.516655e-001 -8.544583e+000 56 27 9
-2.130483e+000 4.825245e-001 -8.753876e+000 52 23 8
-1.885868e+000 4.975466e-001 -8.710174e+000 39 15 5
-9.625488e-001 5.820663e-001 -9.481920e+000 73 66 52
-9.625488e-001 5.820663e-001 -9.481920e+000 73 66 52
-8.416729e-001 5.756410e-001 -9.512664e+000 34 25 17
4.312779e+000 2.597188e+000 -1.046701e+001 32 19 12
4.662921e+000 2.674396e+000 -1.056149e+001 37 19 15
-3.155647e+000 -2.339590e-001 -8.479312e+000 80 53 26
-3.155647e+000 -2.339590e-001 -8.479312e+000 80 53 26
-1.815300e+000 5.095391e-001 -8.722644e+000 52 24 8
-1.630647e+000 4.838076e-001 -8.776172e+000 39 19 3
-1.630647e+000 4.838076e-001 -8.776172e+000 39 19 3
-1.461757e+000 4.371505e-001 -8.935179e+000 50 27 14
5.740383e-001 1.053400e+000 -9.368644e+000 44 37 32
-3.155503e+000 -5.305651e-001 -8.507644e+000 156 127 97
-2.896087e+000 -1.063346e-001 -8.289136e+000 91 50 19
-2.755603e+000 -4.640870e-002 -8.338164e+000 136 91 49
-2.547322e+000 8.411460e-002 -8.246037e+000 103 62 18
-2.314626e+000 2.677264e-001 -8.309283e+000 75 39 7
-2.095813e+000 2.743904e-001 -8.302037e+000 64 34 14
-1.935896e+000 3.918014e-001 -8.447014e+000 48 20 4
6.757976e-001 1.030641e+000 -9.409342e+000 50 43 33
4.343544e+000 2.331641e+000 -1.027882e+001 31 19 13
4.453493e+000 2.452971e+000 -1.012883e+001 70 53 45
4.666988e+000 2.464033e+000 -1.016409e+001 40 27 19
-2.074660e+000 1.561517e-001 -8.169720e+000 58 29 6
-2.039911e+000 2.433931e-001 -8.270291e+000 46 15 2
-9.473433e-001 1.140844e-001 -8.867695e+000 58 46 32
9.928135e-001 1.926146e+000 -8.320157e+000 121 89 48
9.928135e-001 1.926146e+000 -8.320157e+000 121 89 48
4.682958e+000 2.451135e+000 -1.002184e+001 85 66 52
-2.602413e+000 -1.898383e-001 -8.077913e+000 139 98 54
-1.079370e+000 8.307923e-002 -8.707173e+000 92 72 47
-1.028642e+000 4.688320e-002 -8.730608e+000 44 30 18
2.378858e-001 4.792676e-001 -8.942141e+000 17 11 13
3.925727e-001 6.147392e-001 -9.126917e+000 105 97 78
1.218700e+000 2.064187e+000 -8.109541e+000 85 63 40
1.524146e+000 2.204101e+000 -8.141131e+000 72 38 10
4.535685e+000 1.908974e+000 -9.985909e+000 25 11 7
4.803784e+000 2.291185e+000 -9.902424e+000 36 19 11
4.803784e+000 2.291185e+000 -9.902424e+000 36 19 11
5.005061e+000 2.420332e+000 -9.894593e+000 39 25 18
-2.685045e+000 -4.024314e-001 -8.041783e+000 141 97 49
-2.621704e+000 -3.057460e-001 -8.017367e+000 153 110 59
-2.681389e+000 -4.078859e-001 -7.948508e+000 117 69 28
-2.253548e+000 -6.891950e-002 -7.972462e+000 141 106 66
-1.969281e+000 -8.408442e-002 -7.985826e+000 72 38 13
-1.878034e+000 -3.748995e-002 -7.995491e+000 100 69 40
-1.550963e+000 2.578960e-001 -8.087503e+000 137 114 67
1.633307e+000 1.930229e+000 -8.182254e+000 64 29 8
1.998242e+000 2.018329e+000 -8.310020e+000 62 36 19
4.642048e+000 1.864974e+000 -9.870871e+000 27 13 7
5.017011e+000 2.287493e+000 -9.857548e+000 63 48 41
5.017011e+000 2.287493e+000 -9.857548e+000 63 48 41
-2.020242e+000 -2.111263e-001 -7.927005e+000 79 46 11
6.844609e-001 3.513119e-001 -8.811503e+000 48 35 21
2.006833e+000 1.816284e+000 -8.322602e+000 70 41 17
2.108005e+000 1.887201e+000 -8.273090e+000 63 46 26
-2.768474e+000 -8.319698e-001 -7.909763e+000 109 66 24
-2.633244e+000 -8.080096e-001 -7.795398e+000 173 137 87
-1.978055e+000 -3.037289e-001 -7.857252e+000 121 89 48
-1.350090e-001 1.663774e-003 -8.569687e+000 24 21 23
-4.966070e-002 -3.535586e-002 -8.539882e+000 31 25 20
3.218827e-001 1.092955e-001 -8.571838e+000 131 120 59
3.570845e-001 1.114090e-001 -8.587087e+000 134 118 61
1.755025e+000 1.694239e+000 -8.069763e+000 24 14 12
2.021267e+000 1.763827e+000 -8.123744e+000 135 109 75
2.117198e+000 1.805311e+000 -8.216017e+000 79 61 38
2.117198e+000 1.805311e+000 -8.216017e+000 79 61 38
4.811627e+000 1.776062e+000 -9.617909e+000 39 26 18
5.002328e+000 1.991799e+000 -9.393155e+000 33 18 14
-1.813792e+000 -6.232976e-001 -7.797641e+000 89 53 19
-1.680323e+000 -4.936355e-001 -7.803771e+000 109 77 47
-1.536883e+000 -4.893048e-001 -7.905141e+000 86 51 22
4.418590e+000 1.266276e+000 -9.658855e+000 34 22 8
4.532600e+000 1.137769e+000 -9.687639e+000 80 68 45
4.523674e+000 1.106608e+000 -9.636493e+000 35 22 5
4.620854e+000 1.193726e+000 -9.591516e+000 83 65 43
4.905822e+000 1.574620e+000 -9.437513e+000 32 18 17
-2.516896e+000 -1.532260e+000 -7.911391e+000 64 36 3
6.496122e-001 -2.684264e-001 -8.468170e+000 96 82 46
6.926265e-001 -2.757956e-001 -8.489538e+000 106 92 64
6.926265e-001 -2.757956e-001 -8.489538e+000 106 92 64
1.550760e+000 5.619553e-001 -8.385716e+000 25 18 14
1.572314e+000 5.790359e-001 -8.426530e+000 31 24 17
5.126738e+000 1.800969e+000 -9.269530e+000 115 98 71
5.155286e+000 1.823557e+000 -9.261398e+000 40 23 16
5.083018e+000 1.857372e+000 -9.048197e+000 48 30 21
-2.695861e+000 -1.676923e+000 -7.845175e+000 198 171 128
-1.866739e+000 -8.302898e-001 -7.624158e+000 133 93 58
5.829747e-001 -5.699344e-001 -8.447477e+000 17 14 9
6.287776e-001 -4.635155e-001 -8.461255e+000 16 11 17
6.287776e-001 -4.635155e-001 -8.461255e+000 16 11 17
7.982737e-001 -3.272293e-001 -8.492483e+000 103 94 69
7.982737e-001 -3.272293e-001 -8.492483e+000 103 94 69
8.175066e-001 -4.937231e-001 -8.531652e+000 97 88 62
8.175066e-001 -4.937231e-001 -8.531652e+000 97 88 62
7.860565e-001 -5.850513e-001 -8.552050e+000 67 60 49
7.860565e-001 -5.850513e-001 -8.552050e+000 67 60 49
8.197277e-001 -3.924035e-001 -8.492968e+000 24 18 6
1.729464e+000 9.369987e-001 -7.867317e+000 28 24 13
4.934885e+000 1.477335e+000 -9.230170e+000 72 58 45
5.235232e+000 1.777401e+000 -9.001198e+000 79 58 53
5.087435e-002 -9.775304e-001 -8.290582e+000 21 17 12
4.452722e-001 -8.127963e-001 -8.403003e+000 66 59 41
8.614306e-001 -5.471544e-001 -8.512739e+000 22 14 12
5.261753e+000 1.593662e+000 -8.941022e+000 119 99 83
1.268867e+000 -3.339707e-001 -8.279422e+000 18 8 6
1.510864e+000 9.335120e-001 -7.386640e+000 127 88 50
1.580391e+000 9.873624e-001 -7.356840e+000 144 102 60
1.687140e+000 1.099250e+000 -7.443439e+000 67 36 17
4.762882e+000 7.689711e-001 -9.059303e+000 65 49 37
5.221169e+000 1.318446e+000 -8.836946e+000 37 23 16
2.244851e-001 -1.267301e+000 -8.088019e+000 33 19 8
1.510315e+000 8.126301e-001 -7.358175e+000 86 46 23
1.552819e+000 9.362866e-001 -7.290150e+000 139 100 62
1.692480e+000 1.099005e+000 -7.275224e+000 129 90 51
1.681503e+000 1.099424e+000 -7.215546e+000 141 99 51
2.406637e+000 1.060838e+000 -7.488665e+000 58 38 12
5.188980e+000 1.151387e+000 -8.662818e+000 29 14 11
5.204966e+000 1.218949e+000 -8.682362e+000 34 19 14
5.393066e+000 1.362630e+000 -8.611839e+000 126 109 80
9.568504e-001 -8.759592e-001 -7.866143e+000 97 73 46
1.580081e+000 -9.040607e-001 -8.202523e+000 8 7 12
1.493575e+000 5.792948e-001 -7.200266e+000 169 125 78
1.520430e+000 8.152517e-001 -7.135440e+000 144 100 53
1.666252e+000 9.229990e-001 -7.061712e+000 161 117 70
5.442246e+000 1.269816e+000 -8.485956e+000 121 101 75
4.688204e-001 -1.159639e+000 -7.664636e+000 122 82 56
6.371957e-001 -8.984196e-001 -7.580977e+000 98 63 41
6.642259e-001 -9.892957e-001 -7.555368e+000 72 34 13
1.003877e+000 -8.786058e-001 -7.642697e+000 66 34 11
1.482755e+000 5.402051e-001 -7.072928e+000 171 126 74
4.959977e+000 5.940328e-001 -8.626040e+000 77 61 46
5.478054e+000 1.207290e+000 -8.308815e+000 119 96 70
8.735495e-001 -9.827930e-001 -7.428575e+000 89 46 13
1.635268e+000 7.349263e-001 -6.888631e+000 181 135 86
2.038640e+000 8.865493e-001 -6.932100e+000 159 132 76
5.250584e+000 8.197714e-001 -8.337898e+000 27 16 12
5.521685e+000 1.164237e+000 -8.262843e+000 115 90 74
9.334815e-001 -1.100247e+000 -7.306553e+000 159 111 63
1.546221e+000 3.382293e-002 -7.041296e+000 115 109 101
1.791286e+000 5.779988e-001 -6.801297e+000 80 37 3
5.599759e+000 1.025372e+000 -8.080915e+000 121 95 73
1.188116e+000 -9.609339e-001 -7.232257e+000 147 108 63
5.429204e+000 7.110304e-001 -8.005258e+000 29 18 12
5.641863e+000 9.698494e-001 -8.016024e+000 116 94 72
1.941256e+000 4.556150e-001 -6.647490e+000 155 112 57
1.941256e+000 4.556150e-001 -6.647490e+000 155 112 57
2.025835e+000 4.665211e-001 -6.659559e+000 127 89 39
2.093716e+000 2.620187e-002 -6.562783e+000 162 130 84
5.857815e+000 6.814764e-001 -7.539845e+000 113 89 72
1.675640e-001 2.250922e+000 -1.062547e+001 71 61 53
1.675640e-001 2.250922e+000 -1.062547e+001 71 61 53
3.181939e+000 3.127541e+000 -1.159123e+001 37 23 22
3.541104e+000 3.290852e+000 -1.151609e+001 63 45 33
-2.437501e+000 -2.966430e+000 -1.619300e+001 123 132 139
3.699680e+000 3.113629e+000 -1.151622e+001 64 49 41
4.103530e+000 3.253554e+000 -1.143403e+001 22 8 5
4.113695e+000 3.210753e+000 -1.135918e+001 24 15 10
4.270795e+000 3.279401e+000 -1.136796e+001 70 53 45
-8.749341e-001 1.057651e+000 -1.049399e+001 55 31 11
3.906428e+000 2.862845e+000 -1.103586e+001 36 25 21
4.233937e+000 3.042334e+000 -1.095456e+001 90 70 59
-3.724935e-001 1.226246e+000 -1.001166e+001 80 46 7
3.548635e-001 1.130688e+000 -1.050979e+001 109 109 109
1.182505e+000 2.858336e+000 -8.785753e+000 150 110 61
3.740134e+000 2.667795e+000 -1.103851e+001 55 44 38
4.281664e+000 3.025051e+000 -1.094004e+001 31 18 10
-2.357520e+000 5.242201e-001 -9.099257e+000 49 23 10
3.174866e-001 1.104223e+000 -1.034779e+001 105 103 104
1.073149e+000 2.791687e+000 -8.704300e+000 97 51 9
1.834158e+000 2.755697e+000 -9.141426e+000 39 24 15
-3.115045e+000 8.775958e-002 -8.771297e+000 141 100 55
-2.936500e+000 1.410040e-001 -8.715440e+000 126 85 39
-2.500433e+000 4.384846e-001 -8.820510e+000 100 63 34
-2.150640e+000 6.013337e-001 -8.902061e+000 81 50 29
-2.117673e+000 5.558759e-001 -8.802712e+000 36 14 1
-1.969611e+000 5.864267e-001 -8.930009e+000 44 21 13
-1.678681e+000 5.402759e-001 -9.075844e+000 59 32 12
-1.646225e+000 6.123266e-001 -9.063268e+000 53 28 9
-7.675760e-002 7.177685e-001 -1.015564e+001 25 16 16
-1.144031e-003 7.303324e-001 -1.005451e+001 13 12 9
3.879640e+000 2.340921e+000 -1.074952e+001 32 22 13
4.469534e+000 2.820914e+000 -1.063213e+001 92 73 66
-2.330500e+000 4.077924e-001 -8.509238e+000 137 104 63
-2.330500e+000 4.077924e-001 -8.509238e+000 137 104 63
-2.217363e+000 5.394522e-001 -8.702418e+000 58 25 4
-2.163183e+000 4.677905e-001 -8.561381e+000 50 22 8
-1.811943e+000 5.525788e-001 -8.865897e+000 45 19 7
-1.675669e+000 4.911781e-001 -8.890777e+000 45 22 6
-1.459868e+000 4.636905e-001 -9.028133e+000 41 18 5
-1.459868e+000 4.636905e-001 -9.028133e+000 41 18 5
-1.200254e+000 3.341849e-001 -9.551151e+000 13 7 4
-1.200254e+000 3.341849e-001 -9.551151e+000 13 7 4
-3.657212e-001 7.172685e-001 -9.690446e+000 107 102 71
-3.037211e+000 -8.874495e-002 -8.548398e+000 71 36 4
-2.311993e+000 3.586706e-001 -8.381274e+000 75 41 13
-2.162824e+000 3.752462e-001 -8.530616e+000 50 23 6
-2.073217e+000 3.915715e-001 -8.477774e+000 41 13 2
-1.863131e+000 4.577360e-001 -8.612493e+000 35 14 8
3.355255e-001 8.305149e-001 -9.680867e+000 72 63 47
1.090967e+000 2.464424e+000 -8.280329e+000 63 36 17
3.913515e+000 2.146541e+000 -1.051496e+001 81 64 44
4.067754e+000 2.096343e+000 -1.040912e+001 77 58 43
4.368337e+000 2.468648e+000 -1.035352e+001 37 22 20
-2.791046e+000 -2.097439e-002 -8.277488e+000 132 89 44
-2.406484e+000 1.540491e-001 -8.393213e+000 78 39 10
-2.406484e+000 1.540491e-001 -8.393213e+000 78 39 10
-2.014337e+000 3.925159e-001 -8.380749e+000 54 25 11
-1.653662e+000 2.631622e-001 -8.685507e+000 32 12 5
-1.228653e+000 2.921447e-001 -9.016372e+000 65 47 28
-1.044640e+000 2.357274e-001 -8.964847e+000 19 12 9
8.701909e-001 2.107318e+000 -8.393643e+000 151 118 75
-2.793367e+000 -1.936180e-001 -8.146334e+000 68 31 2
-2.793367e+000 -1.936180e-001 -8.146334e+000 68 31 2
-2.675627e+000 -1.231791e-002 -8.183489e+000 107 64 27
-1.001284e+000 1.593836e-001 -8.886866e+000 21 12 12
9.688346e-001 1.845502e+000 -8.436082e+000 77 55 32
-2.512709e+000 -2.141991e-001 -8.015665e+000 151 114 67
1.058582e+000 1.746747e+000 -8.306195e+000 128 102 67
1.303344e+000 1.932825e+000 -8.126252e+000 52 33 22
4.523454e+000 2.085550e+000 -9.990685e+000 64 47 39
-2.484527e+000 -2.245044e-001 -7.975897e+000 125 87 40
-2.397430e+000 -2.102557e-001 -8.035675e+000 129 88 42
-1.882017e+000 1.211161e-001 -7.953692e+000 72 40 17
5.392052e-001 5.204718e-001 -8.943996e+000 51 42 29
4.564569e+000 2.040250e+000 -9.819870e+000 72 54 45
1.434243e+000 1.641613e+000 -8.129965e+000 123 90 54
1.483255e+000 1.648631e+000 -8.047086e+000 124 93 62
1.594027e+000 1.647736e+000 -8.111134e+000 18 15 9
1.594027e+000 1.647736e+000 -8.111134e+000 18 15 9
2.208937e+000 1.797675e+000 -8.371302e+000 27 17 15
4.628255e+000 1.746518e+000 -9.736691e+000 23 12 9
-2.999755e+000 -1.315256e+000 -8.130241e+000 252 254 252
-2.354977e+000 -6.048558e-001 -7.730972e+000 121 87 42
-1.801126e+000 -3.320102e-001 -7.932186e+000 47 29 17
-1.676313e+000 -2.500949e-001 -7.826921e+000 28 21 18
-2.934492e-001 -1.474225e-001 -8.544070e+000 142 130 82
-5.670129e-002 -4.127650e-002 -8.541242e+000 35 27 15
4.954308e+000 1.919943e+000 -9.422961e+000 74 56 44
-2.624848e+000 -9.742413e-001 -7.783827e+000 153 113 62
-2.624848e+000 -9.742413e-001 -7.783827e+000 153 113 62
-2.331859e+000 -6.575626e-001 -7.720621e+000 147 110 65
-1.722200e+000 -5.323494e-001 -7.848319e+000 62 38 10
-9.993857e-001 -4.794824e-001 -8.120166e+000 67 40 10
-9.384857e-001 -5.775024e-001 -8.196061e+000 88 65 33
-3.723296e-001 -4.312941e-001 -8.430426e+000 33 25 12
4.558228e+000 1.261446e+000 -9.614459e+000 84 66 42
-1.056820e+000 -5.536460e-001 -8.073569e+000 102 66 30
-9.813757e-001 -6.306803e-001 -8.143045e+000 118 84 46
-8.269225e-001 -8.530469e-001 -8.404384e+000 108 92 66
-4.690592e-001 -6.607398e-001 -8.385836e+000 31 27 14
8.443243e-001 -3.479539e-002 -8.540388e+000 21 17 14
-9.224024e-001 -1.306587e+000 -8.286984e+000 14 14 13
-9.224024e-001 -1.306587e+000 -8.286984e+000 14 14 13
-6.974327e-001 -1.173059e+000 -8.403699e+000 160 154 133
-6.062189e-001 -1.010400e+000 -8.355540e+000 63 57 39
-6.062189e-001 -1.010400e+000 -8.355540e+000 63 57 39
-6.050755e-001 -1.193243e+000 -8.325044e+000 163 156 137
7.653058e-001 -2.385767e-001 -8.477098e+000 26 19 14
8.824642e-001 -3.540238e-001 -8.456121e+000 105 91 64
1.728123e+000 1.027489e+000 -7.816145e+000 145 119 86
4.941118e+000 1.410756e+000 -9.137733e+000 28 14 11
1.666685e+000 9.947825e-001 -7.735423e+000 141 113 71
1.734762e+000 1.046179e+000 -7.622836e+000 66 40 17
1.756511e+000 1.236307e+000 -7.585536e+000 38 16 5
2.368195e+000 1.124587e+000 -7.935523e+000 69 44 22
5.273410e+000 1.619938e+000 -8.883381e+000 36 18 11
-3.090276e-001 -1.351781e+000 -8.183809e+000 142 128 101
-5.872712e-002 -1.194598e+000 -8.254551e+000 41 34 21
6.844315e-001 -1.256163e+000 -8.574722e+000 30 19 17
4.997015e+000 1.148093e+000 -9.028665e+000 54 40 34
7.389115e-001 -9.932341e-001 -8.268482e+000 70 56 43
2.116525e+000 1.115151e+000 -7.479723e+000 36 19 11
2.257633e+000 1.084882e+000 -7.454752e+000 97 74 42
2.694715e+000 1.007778e+000 -7.772337e+000 77 54 38
2.694715e+000 1.007778e+000 -7.772337e+000 77 54 38
2.268809e-001 -1.230701e+000 -7.886788e+000 39 18 7
4.522695e-001 -9.642621e-001 -7.790120e+000 121 84 49
1.711593e+000 1.015117e+000 -7.057996e+000 141 99 57
2.101494e+000 1.120381e+000 -7.194842e+000 54 26 11
2.101494e+000 1.120381e+000 -7.194842e+000 54 26 11
2.190848e+000 1.149157e+000 -7.284764e+000 128 101 63
5.398451e+000 1.329896e+000 -8.535188e+000 129 109 84
5.429218e+000 1.372677e+000 -8.449844e+000 84 65 54
4.102954e-002 -1.847087e+000 -7.992546e+000 46 31 26
7.897628e-001 -8.213086e-001 -7.567776e+000 61 29 9
1.620318e+000 8.075731e-001 -6.944804e+000 113 67 24
1.686456e+000 8.552211e-001 -7.059364e+000 92 50 10
1.992362e+000 9.953212e-001 -6.966427e+000 57 25 4
1.992362e+000 9.953212e-001 -6.966427e+000 57 25 4
4.870019e+000 5.580154e-001 -8.449880e+000 34 21 13
5.443290e+000 1.249201e+000 -8.399620e+000 126 105 76
3.747371e-001 -1.677176e+000 -7.713958e+000 120 81 48
4.380474e-001 -1.229565e+000 -7.587265e+000 112 74 37
9.695505e-001 -9.172898e-001 -7.490575e+000 83 46 19
2.000105e+000 8.316468e-001 -6.785579e+000 160 127 70
4.687463e+000 3.954224e-001 -8.146080e+000 21 11 12
4.740370e+000 3.608427e-001 -8.127336e+000 52 39 34
4.740370e+000 3.608427e-001 -8.127336e+000 52 39 34
4.794125e+000 3.953513e-001 -8.128436e+000 46 35 31
4.794125e+000 3.953513e-001 -8.128436e+000 46 35 31
2.020633e+000 5.783790e-001 -6.702837e+000 153 117 65
1.964528e+000 4.133321e-001 -6.630541e+000 94 50 12
5.218200e+000 2.922569e-001 -7.988536e+000 79 62 45
5.249136e+000 2.790007e-001 -7.952033e+000 66 49 34
5.587201e+000 7.607685e-001 -7.894954e+000 32 19 15
5.597667e+000 7.064057e-001 -7.830253e+000 27 14 14
5.597667e+000 7.064057e-001 -7.830253e+000 27 14 14
5.727140e+000 8.486794e-001 -7.821634e+000 93 69 53
2.084532e+000 2.295808e-001 -6.618021e+000 116 73 22
5.328496e+000 1.690627e-001 -7.788763e+000 79 64 43
2.084489e+000 1.253692e-001 -6.523907e+000 186 149 101
5.757423e+000 6.455408e-001 -7.569828e+000 74 54 45
5.827478e+000 7.214317e-001 -7.621151e+000 110 85 67
5.969819e+000 5.277237e-001 -7.622304e+000 51 37 31
5.465359e+000 5.922001e-003 -7.660621e+000 79 62 44
-1.659937e-002 2.178591e+000 -1.048793e+001 41 22 15
3.549396e+000 3.221336e+000 -1.155888e+001 67 54 42
4.043792e+000 3.414695e+000 -1.154480e+001 26 13 7
3.729562e+000 3.097970e+000 -1.145831e+001 30 17 9
-3.280426e+000 2.177343e-001 -9.531544e+000 191 164 120
1.422195e+000 2.852674e+000 -9.318081e+000 41 31 19
-3.159239e+000 1.717451e-001 -9.154394e+000 114 81 50
-2.623211e+000 5.137178e-001 -9.073569e+000 79 44 16
-2.615528e+000 5.608943e-001 -9.153163e+000 84 46 22
-2.699999e+000 4.074167e-001 -8.871591e+000 109 69 34
-2.396454e+000 5.610422e-001 -8.961567e+000 58 29 13
1.806466e-001 1.049525e+000 -1.021056e+001 47 39 24
8.244217e-001 2.618630e+000 -8.598680e+000 97 55 22
1.438589e+000 2.929856e+000 -8.715568e+000 128 97 53
-2.939972e-002 7.615175e-001 -1.008595e+001 122 121 121
9.868162e-002 7.909250e-001 -9.995236e+000 54 46 34
-1.118840e+000 3.790237e-001 -9.395040e+000 14 9 11
-8.439485e-001 5.747982e-001 -9.428351e+000 111 103 67
-7.594734e-001 6.044552e-001 -9.440744e+000 24 21 15
-7.594734e-001 6.044552e-001 -9.440744e+000 24 21 15
-6.092945e-001 6.580558e-001 -9.552977e+000 110 98 65
-6.092945e-001 6.580558e-001 -9.552977e+000 110 98 65
-6.775861e-001 6.366101e-001 -9.444701e+000 100 89 68
-5.917045e-001 6.367295e-001 -9.478965e+000 21 12 14
-5.236712e-001 6.723684e-001 -9.574435e+000 22 16 19
-4.435869e-001 6.998186e-001 -9.582593e+000 110 96 58
-4.435869e-001 6.998186e-001 -9.582593e+000 110 96 58
-3.576943e-001 7.191529e-001 -9.592751e+000 21 13 12
-5.069394e-001 6.615054e-001 -9.485651e+000 100 86 55
-5.069394e-001 6.615054e-001 -9.485651e+000 100 86 55
-4.195716e-001 6.713987e-001 -9.506541e+000 20 13 19
-3.352961e-001 6.924980e-001 -9.513517e+000 113 97 71
-3.352961e-001 6.924980e-001 -9.513517e+000 113 97 71
-2.068707e-001 7.637485e-001 -9.720345e+000 97 87 59
-2.714810e-001 7.280051e-001 -9.621831e+000 109 94 70
-2.714810e-001 7.280051e-001 -9.621831e+000 109 94 70
-2.554536e-001 7.177849e-001 -9.524966e+000 24 16 15
-2.554536e-001 7.177849e-001 -9.524966e+000 24 16 15
-1.756428e-001 7.332366e-001 -9.543366e+000 87 75 50
-1.219121e-001 7.632347e-001 -9.752862e+000 19 10 11
-3.725850e-002 7.529001e-001 -9.791936e+000 71 63 40
2.087794e-002 8.136634e-001 -9.843803e+000 70 61 43
2.087794e-002 8.136634e-001 -9.843803e+000 70 61 43
4.016982e-002 7.658528e-001 -9.776837e+000 12 11 13
4.128507e+000 2.600814e+000 -1.045359e+001 67 51 44
4.230673e+000 2.412817e+000 -1.055482e+001 26 18 12
-2.797194e+000 1.489929e-001 -8.346999e+000 144 103 48
-2.518425e+000 2.610751e-001 -8.492682e+000 80 41 8
-9.615186e-001 4.531238e-001 -9.261615e+000 123 110 80
-9.615186e-001 4.531238e-001 -9.261615e+000 123 110 80
-4.870859e-001 6.392944e-001 -9.396895e+000 19 18 11
-4.012143e-001 6.378468e-001 -9.428010e+000 106 90 66
-4.012143e-001 6.378468e-001 -9.428010e+000 106 90 66
-3.162845e-001 6.738370e-001 -9.424656e+000 23 21 9
-3.162845e-001 6.738370e-001 -9.424656e+000 23 21 9
-3.810354e-001 6.203418e-001 -9.335821e+000 20 15 11
-3.810354e-001 6.203418e-001 -9.335821e+000 20 15 11
-2.350277e-001 6.777644e-001 -9.459346e+000 105 92 61
-1.546800e-001 6.967214e-001 -9.468620e+000 20 12 13
-2.145199e-001 6.596889e-001 -9.364618e+000 16 16 7
-9.046945e-002 7.212277e-001 -9.572608e+000 13 9 4
-8.089803e-003 6.934495e-001 -9.606251e+000 62 52 41
-6.429467e-002 6.695919e-001 -9.506864e+000 57 47 30
1.765253e-002 6.523410e-001 -9.531815e+000 16 10 8
1.371697e-001 6.900060e-001 -9.745726e+000 16 8 10
1.508915e-001 6.900570e-001 -9.642225e+000 84 73 53
9.896898e-002 6.527624e-001 -9.554347e+000 85 76 49
-8.574134e-002 5.820283e-001 -9.242725e+000 81 68 46
-2.405231e-002 6.157414e-001 -9.336152e+000 71 61 38
3.459680e-002 6.432955e-001 -9.428842e+000 67 58 43
3.459680e-002 6.432955e-001 -9.428842e+000 67 58 43
-1.130873e-003 5.826844e-001 -9.261504e+000 20 15 12
-1.130873e-003 5.826844e-001 -9.261504e+000 20 15 12
6.138380e-002 6.029078e-001 -9.366121e+000 23 16 6
6.138380e-002 6.029078e-001 -9.366121e+000 23 16 6
8.190467e-002 5.961698e-001 -9.265101e+000 88 80 62
1.199925e-001 6.299066e-001 -9.467434e+000 21 16 13
1.406502e-001 6.038793e-001 -9.390149e+000 84 77 49
1.406502e-001 6.038793e-001 -9.390149e+000 84 77 49
9.233537e-001 2.268630e+000 -8.238853e+000 80 43 18
1.275878e+000 2.412641e+000 -8.182630e+000 163 134 74
4.343864e+000 2.230473e+000 -1.021295e+001 36 23 17
4.741658e+000 2.506476e+000 -1.016712e+001 60 41 34
-6.823906e-002 5.708422e-001 -9.139113e+000 19 15 15
1.045291e-001 5.715093e-001 -9.186357e+000 16 11 7
1.045291e-001 5.715093e-001 -9.186357e+000 16 11 7
3.852929e-002 5.436074e-001 -9.080897e+000 16 12 9
3.852929e-002 5.436074e-001 -9.080897e+000 16 12 9
1.267855e-001 5.272412e-001 -9.124326e+000 79 67 42
1.267855e-001 5.272412e-001 -9.124326e+000 79 67 42
1.648074e-001 5.846912e-001 -9.307871e+000 20 17 12
1.648074e-001 5.846912e-001 -9.307871e+000 20 17 12
2.454414e-001 6.012238e-001 -9.317271e+000 76 64 46
2.167759e-001 5.212110e-001 -9.158733e+000 16 12 3
2.167759e-001 5.212110e-001 -9.158733e+000 16 12 3
2.928331e-001 5.381952e-001 -9.168421e+000 71 62 50
1.111399e+000 2.094146e+000 -8.163320e+000 45 27 16
-1.967862e+000 1.495451e-001 -8.151781e+000 65 33 11
1.591485e-001 5.163739e-001 -8.911886e+000 90 79 52
2.269396e-001 5.360006e-001 -9.030819e+000 91 77 54
3.181720e-001 5.113994e-001 -9.087414e+000 20 13 6
1.114934e+000 2.002365e+000 -8.128914e+000 110 91 56
4.580179e+000 2.147023e+000 -9.960773e+000 60 46 35
1.278683e+000 9.108478e-001 -8.931516e+000 19 13 14
1.323790e+000 1.096763e+000 -8.737925e+000 46 39 26
2.115004e+000 1.986186e+000 -8.355810e+000 64 46 30
4.530157e+000 1.882283e+000 -9.915386e+000 63 46 39
-1.887313e+000 -7.899810e-002 -7.952175e+000 103 70 35
4.976678e+000 2.146699e+000 -9.657555e+000 38 23 18
-1.916566e+000 -3.368094e-001 -7.801393e+000 120 88 49
-1.233851e-001 -1.572777e-001 -8.523086e+000 33 26 14
-4.473878e-002 -9.863528e-002 -8.509677e+000 144 125 78
2.009387e-001 -1.056877e-002 -8.539310e+000 31 24 13
2.009387e-001 -1.056877e-002 -8.539310e+000 31 24 13
-2.485268e+000 -8.809637e-001 -7.809263e+000 156 123 72
-8.813086e-001 -7.128840e-001 -8.320922e+000 28 17 14
-3.080162e-001 -3.810523e-001 -8.425049e+000 145 127 78
-1.761018e-001 -2.518785e-001 -8.475785e+000 33 27 12
-6.529002e-002 -2.771569e-001 -8.441526e+000 36 30 14
1.817989e-002 -2.589636e-001 -8.460162e+000 146 124 87
1.505358e-001 -1.261730e-001 -8.512077e+000 35 29 12
1.505358e-001 -1.261730e-001 -8.512077e+000 35 29 12
9.904840e-002 -2.306691e-001 -8.474424e+000 26 28 7
1.791889e-001 -1.982912e-001 -8.487691e+000 127 114 74
2.308410e-001 -8.644729e-002 -8.519235e+000 135 119 70
2.308410e-001 -8.644729e-002 -8.519235e+000 135 119 70
3.112589e-001 -5.133566e-002 -8.531785e+000 28 29 13
2.602238e-001 -1.652220e-001 -8.504605e+000 26 23 9
3.457665e-001 -1.371192e-001 -8.528664e+000 121 104 65
3.948580e-001 -2.621585e-002 -8.550025e+000 144 122 75
3.948580e-001 -2.621585e-002 -8.550025e+000 144 122 75
4.448592e-001 8.321905e-002 -8.574309e+000 141 125 84
4.758761e-001 7.204702e-003 -8.556758e+000 37 31 12
4.758761e-001 7.204702e-003 -8.556758e+000 37 31 12
4.254357e-001 -1.050284e-001 -8.537216e+000 31 26 7
4.254357e-001 -1.050284e-001 -8.537216e+000 31 26 7
5.088472e-001 -7.294639e-002 -8.540906e+000 149 133 76
5.570841e-001 4.322320e-002 -8.557582e+000 153 131 81
6.703883e-001 -1.929164e-002 -8.545409e+000 145 128 76
7.463691e-001 1.597490e-002 -8.549656e+000 26 21 17
4.929595e+000 1.702880e+000 -9.343475e+000 39 24 21
5.130806e+000 1.996583e+000 -9.235991e+000 83 64 50
-7.811747e-002 -4.760941e-001 -8.395177e+000 143 123 75
8.221696e-002 -4.069376e-001 -8.413290e+000 129 115 74
1.127989e-001 -4.827383e-001 -8.391838e+000 28 24 9
1.127989e-001 -4.827383e-001 -8.391838e+000 28 24 9
1.295821e-001 -2.948749e-001 -8.444635e+000 137 120 79
2.107056e-001 -2.757823e-001 -8.470897e+000 29 22 14
