ply
format ascii 1.0
element face 0
property list uchar int vertex_indices
element vertex 887
property float x
property float y
property float z
property uchar diffuse_red
property uchar diffuse_green
property uchar diffuse_blue
end_header
3.999846e+000 2.548932e+000 -1.051335e+001 47 33 26
4.331307e+000 2.646779e+000 -1.081869e+001 20 10 9
-4.133536e-001 1.724402e+000 -1.013790e+001 99 62 27
5.206740e-001 1.891406e+000 -9.058387e+000 64 48 34
8.317207e-001 2.073784e+000 -8.411612e+000 111 78 63
8.251639e-001 1.997717e+000 -8.380310e+000 144 109 89
3.551123e+000 2.280569e+000 -1.072319e+001 32 21 19
4.459319e+000 2.439197e+000 -1.047880e+001 35 21 20
4.557066e+000 2.569073e+000 -1.034636e+001 35 27 25
4.688494e+000 2.499434e+000 -1.022817e+001 79 60 58
-5.466867e-001 1.513299e+000 -1.018828e+001 76 41 13
-5.664756e-001 1.446597e+000 -1.013313e+001 113 78 51
-4.952266e-001 1.454283e+000 -1.001352e+001 142 103 66
5.045821e-001 1.864779e+000 -8.846671e+000 107 89 79
7.950470e-001 1.889496e+000 -8.509329e+000 160 126 96
9.965720e-001 1.932690e+000 -8.267994e+000 27 14 10
1.158649e+000 1.955063e+000 -8.305555e+000 37 25 18
4.169494e+000 2.249740e+000 -1.015809e+001 43 29 29
9.519729e-001 1.822413e+000 -8.277503e+000 154 137 108
9.505301e-001 1.822993e+000 -8.272281e+000 154 137 108
1.010855e+000 1.747834e+000 -8.254576e+000 145 127 105
1.854864e+000 1.919361e+000 -8.732919e+000 89 68 34
3.987329e+000 2.100311e+000 -1.040957e+001 29 17 18
3.972412e+000 2.029706e+000 -1.033165e+001 30 18 18
-4.983853e-001 1.134441e+000 -9.964712e+000 166 137 97
-2.869241e-001 1.228373e+000 -9.951625e+000 132 113 83
-2.444829e-001 1.180436e+000 -1.007620e+001 73 56 29
8.647419e-001 1.556830e+000 -8.638367e+000 109 96 77
9.902822e-001 1.651069e+000 -8.312529e+000 40 25 19
9.695854e-001 1.574067e+000 -8.396259e+000 107 91 79
4.187817e+000 1.930732e+000 -1.006984e+001 28 17 15
-6.769466e-001 1.011571e+000 -1.005678e+001 85 57 31
1.481296e+000 1.573025e+000 -8.327904e+000 83 48 25
1.565312e+000 1.653586e+000 -8.202487e+000 132 92 55
1.807739e+000 1.646405e+000 -8.265194e+000 151 125 87
1.781105e+000 1.572197e+000 -8.339004e+000 82 51 22
4.558727e+000 1.964231e+000 -9.652076e+000 94 76 65
4.558727e+000 1.964231e+000 -9.652076e+000 94 76 65
-2.022340e+000 5.431461e-001 -9.703557e+000 111 91 67
-1.184274e+000 6.092442e-001 -1.028984e+001 161 152 135
-2.727796e-001 7.947876e-001 -1.003903e+001 43 30 21
1.214525e+000 1.424771e+000 -8.340813e+000 115 86 57
1.423704e+000 1.419481e+000 -8.278577e+000 121 95 69
4.491836e+000 1.695078e+000 -9.760899e+000 29 22 22
-3.505025e+000 7.573180e-002 -9.699761e+000 63 49 44
-3.031219e+000 2.806015e-001 -9.371609e+000 65 41 13
-5.464228e-001 6.220574e-001 -9.656946e+000 106 106 80
-5.464228e-001 6.220574e-001 -9.656946e+000 106 106 80
-4.409498e-001 6.431427e-001 -9.655452e+000 32 25 19
-3.085838e-001 6.763757e-001 -9.679872e+000 26 21 17
-3.118055e-001 6.701127e-001 -9.704639e+000 26 21 17
-6.755817e-003 7.320692e-001 -1.001249e+001 50 44 44
-3.276578e+000 7.619362e-002 -9.051051e+000 193 167 128
-3.196192e+000 1.226860e-001 -9.502420e+000 134 111 79
-2.442990e+000 4.205057e-001 -8.826653e+000 172 134 89
-1.861766e+000 4.490519e-001 -8.819035e+000 67 32 12
-1.724351e+000 4.544530e-001 -8.967257e+000 83 55 30
-1.609315e+000 4.288545e-001 -8.969430e+000 114 86 65
-1.390402e+000 3.265864e-001 -9.936831e+000 117 108 97
-1.339007e+000 3.387184e-001 -9.712102e+000 29 21 15
-7.481868e-001 5.581802e-001 -9.549352e+000 107 101 87
-7.004330e-001 5.666554e-001 -9.564134e+000 31 27 18
-7.004330e-001 5.666554e-001 -9.564134e+000 31 27 18
-2.559742e-001 5.881814e-001 -9.471732e+000 93 83 74
4.534698e+000 1.375167e+000 -9.327609e+000 67 53 52
-2.004465e+000 3.245895e-001 -8.781567e+000 54 25 17
-1.659146e+000 2.957425e-001 -8.868807e+000 39 15 12
-4.095446e-002 5.250877e-001 -9.443825e+000 22 15 12
-3.025004e+000 -3.098714e-002 -8.764868e+000 185 143 95
-3.013685e+000 -1.076127e-001 -8.621414e+000 132 93 54
-2.800872e+000 2.337993e-002 -8.534285e+000 175 129 77
-2.418086e+000 1.647135e-001 -8.465058e+000 88 49 16
-2.230320e+000 1.672576e-001 -8.399648e+000 137 103 75
-2.337005e+000 1.254935e-001 -8.386730e+000 175 142 99
-2.232145e+000 1.847918e-001 -8.541716e+000 152 118 95
-2.107083e+000 1.491755e-001 -8.387774e+000 98 71 51
-1.790494e+000 1.993341e-001 -8.688424e+000 42 22 19
-1.791776e+000 1.977973e-001 -8.693069e+000 42 22 19
-1.360389e+000 2.553206e-001 -8.883112e+000 51 29 18
1.518502e+000 9.753789e-001 -7.515486e+000 161 128 88
-2.913541e+000 -1.721851e-001 -8.352898e+000 128 86 45
-2.589625e+000 -1.435452e-002 -8.382683e+000 126 87 46
-2.242905e+000 3.403556e-004 -8.350580e+000 71 39 12
-2.137244e+000 6.567149e-002 -8.377353e+000 60 31 13
-1.097163e+000 -2.994704e-002 -8.936738e+000 39 30 25
-5.117566e-001 1.622408e-001 -8.962170e+000 139 132 106
9.179532e-002 2.350801e-001 -8.795094e+000 79 74 67
1.479871e+000 9.117688e-001 -7.593495e+000 110 72 35
1.479871e+000 9.117688e-001 -7.593495e+000 110 72 35
1.481503e+000 8.629633e-001 -7.538857e+000 112 71 34
1.512950e+000 9.441803e-001 -7.425348e+000 170 127 85
1.954884e+000 9.484277e-001 -7.429682e+000 68 44 17
2.361107e+000 9.901918e-001 -7.844624e+000 75 55 49
-3.178703e+000 -3.682978e-001 -8.699330e+000 151 121 99
-2.657934e+000 -2.819814e-001 -8.471967e+000 125 84 40
-2.667765e+000 -3.006990e-001 -8.365335e+000 157 118 75
-2.404862e+000 -8.754162e-002 -8.269728e+000 167 133 95
-2.133137e+000 -1.447149e-001 -8.271650e+000 75 44 15
-1.384294e+000 3.444263e-002 -8.169500e+000 43 27 4
-1.166484e+000 3.523586e-002 -8.350514e+000 122 102 77
-4.101587e-001 1.980823e-002 -8.775092e+000 152 144 107
-2.883992e-001 6.747291e-002 -8.794070e+000 150 139 109
1.304491e+000 6.482680e-001 -7.692839e+000 54 48 43
1.309059e+000 7.219094e-001 -7.606396e+000 49 43 39
1.717492e+000 8.106536e-001 -7.389789e+000 113 74 45
-2.678731e+000 -3.385720e-001 -8.367194e+000 104 64 28
-2.387606e+000 -2.121090e-001 -8.190794e+000 178 146 105
-2.150770e+000 -2.424605e-001 -8.101464e+000 158 129 86
1.413921e+000 7.059906e-001 -7.227613e+000 121 76 34
-3.038766e+000 -6.718270e-001 -8.440365e+000 98 71 52
-2.480375e+000 -5.217084e-001 -8.246140e+000 160 127 89
-2.480375e+000 -5.217084e-001 -8.246140e+000 160 127 89
-1.836840e+000 -4.057943e-001 -8.190827e+000 70 43 22
-1.145936e+000 -3.196154e-001 -8.430060e+000 133 110 79
1.279918e+000 1.453228e-001 -8.387192e+000 50 41 36
1.358250e+000 5.272345e-001 -7.249726e+000 137 93 44
1.559667e+000 6.218043e-001 -7.114012e+000 198 160 121
1.647578e+000 6.100757e-001 -7.110506e+000 182 150 101
-2.879294e+000 -7.919775e-001 -8.308984e+000 163 122 78
-2.245719e+000 -5.020115e-001 -8.038191e+000 156 126 88
-2.818951e+000 -8.018143e-001 -8.180701e+000 174 136 95
-2.678724e+000 -8.131415e-001 -8.075398e+000 181 147 107
-2.594576e+000 -8.052278e-001 -8.064575e+000 150 117 76
-2.051207e+000 -6.887555e-001 -7.913639e+000 83 45 19
-1.749590e+000 -5.871277e-001 -8.065183e+000 120 96 72
4.065512e-001 -4.093072e-001 -8.576608e+000 177 163 133
1.201303e+000 -1.978441e-001 -8.369054e+000 41 33 28
1.254249e+000 -2.648873e-001 -8.318687e+000 71 62 57
1.236687e+000 -2.300457e-001 -8.227971e+000 71 62 57
-2.743110e+000 -9.162648e-001 -8.093384e+000 177 139 103
-2.633886e+000 -9.327629e-001 -8.038906e+000 178 146 108
-2.585467e+000 -9.636722e-001 -7.970121e+000 182 148 114
-2.264205e+000 -7.240071e-001 -7.866078e+000 154 121 86
-2.084771e+000 -8.482234e-001 -8.020590e+000 75 38 11
-1.797761e+000 -6.907167e-001 -7.928312e+000 124 89 61
-1.797761e+000 -6.907167e-001 -7.928312e+000 124 89 61
-1.436511e+000 -7.587897e-001 -8.081342e+000 93 58 30
-1.398336e+000 -7.360786e-001 -7.978056e+000 126 91 59
-1.323622e+000 -8.090327e-001 -8.255093e+000 80 44 20
-9.344336e-001 -7.944958e-001 -8.376676e+000 21 12 19
9.097073e-001 -5.267132e-001 -8.594849e+000 14 8 13
1.751869e+000 3.091796e-001 -6.902679e+000 114 71 28
-2.630168e+000 -1.090268e+000 -7.987774e+000 177 138 97
-2.159171e+000 -9.258290e-001 -7.956484e+000 105 62 36
-2.069789e+000 -8.963392e-001 -7.979148e+000 111 67 40
-2.046934e+000 -1.001656e+000 -7.940707e+000 81 36 17
-1.931036e+000 -9.689277e-001 -7.884100e+000 90 51 24
-1.168689e+000 -9.029068e-001 -8.300465e+000 95 62 29
-9.550146e-001 -9.531354e-001 -8.427053e+000 25 15 8
1.008988e+000 -5.794454e-001 -8.347786e+000 20 15 19
1.797363e+000 2.129467e-001 -6.804196e+000 102 59 40
2.324470e+000 2.011428e-001 -6.906240e+000 69 45 21
2.740767e+000 7.128966e-002 -7.329014e+000 19 7 10
-2.495004e+000 -1.263753e+000 -8.046383e+000 129 93 70
-2.094685e+000 -1.103927e+000 -7.984610e+000 119 77 52
-1.801120e+000 -1.036187e+000 -7.891750e+000 112 71 41
-1.761456e+000 -1.020069e+000 -7.921251e+000 76 38 15
-1.777723e+000 -1.124004e+000 -7.952063e+000 115 75 49
-1.760780e+000 -1.080507e+000 -7.868056e+000 115 75 49
-1.008538e+000 -1.055725e+000 -8.352352e+000 104 82 62
1.458543e+000 -1.927397e-001 -7.226666e+000 184 156 131
1.755580e+000 4.856123e-002 -6.786115e+000 203 152 97
1.912777e+000 7.477415e-002 -6.823171e+000 99 56 16
2.744930e+000 5.398154e-002 -7.296753e+000 69 57 58
-2.399743e+000 -1.421212e+000 -8.010156e+000 87 52 32
-1.950106e+000 -1.213951e+000 -7.904624e+000 105 69 47
-2.079935e+000 -1.378150e+000 -8.060290e+000 85 62 49
-1.788036e+000 -1.276834e+000 -7.954536e+000 83 56 35
-8.454307e-001 -1.370174e+000 -8.697180e+000 33 32 37
-7.533544e-001 -1.396634e+000 -8.537332e+000 53 58 65
-7.533544e-001 -1.396634e+000 -8.537332e+000 53 58 65
-7.388062e-001 -1.426442e+000 -8.513741e+000 175 178 183
1.743391e+000 -5.529885e-002 -6.826475e+000 158 102 53
1.753216e+000 -2.217328e-002 -6.792013e+000 202 149 95
-1.338733e+000 -1.411416e+000 -8.147940e+000 32 16 14
-1.104569e+000 -1.479296e+000 -8.469898e+000 73 46 35
4.171273e-001 -9.888275e-001 -7.901360e+000 72 40 19
6.937164e-001 -9.248528e-001 -7.702156e+000 74 37 18
7.835904e-001 -9.135754e-001 -7.714143e+000 112 81 56
-1.997333e+000 -1.688435e+000 -8.063959e+000 50 32 25
-1.924442e+000 -1.792680e+000 -8.164859e+000 88 71 66
-1.301382e+000 -1.771377e+000 -8.392718e+000 22 13 15
-4.200978e-001 -1.646430e+000 -8.418631e+000 127 122 127
-1.486778e-002 -1.418932e+000 -8.122596e+000 28 14 13
2.465269e-001 -1.236271e+000 -7.963257e+000 136 103 76
3.214510e-001 -1.259894e+000 -7.867499e+000 70 36 15
3.214510e-001 -1.259894e+000 -7.867499e+000 70 36 15
4.774826e-001 -1.026021e+000 -7.741464e+000 120 82 59
4.440517e-001 -1.207804e+000 -7.787547e+000 77 40 21
6.430337e-001 -1.082810e+000 -7.722077e+000 94 58 41
1.702197e-001 -1.461495e+000 -7.874511e+000 36 13 7
-8.149469e-002 -1.874366e+000 -8.198507e+000 29 19 18
1.955614e-001 -1.513405e+000 -7.850983e+000 39 18 12
2.199683e-001 -1.472946e+000 -7.832377e+000 136 110 91
2.177539e-001 -1.448642e+000 -7.790900e+000 136 110 91
3.979016e-001 -1.493857e+000 -7.673973e+000 142 101 69
5.589235e-001 -1.356285e+000 -7.600829e+000 116 69 35
7.789623e-001 -1.166820e+000 -7.496111e+000 162 119 85
8.217977e-001 -1.233940e+000 -7.502718e+000 169 123 89
8.703255e-001 -1.151501e+000 -7.437308e+000 102 56 22
2.093399e-001 -1.697666e+000 -7.842602e+000 165 133 107
1.875796e-001 -1.815462e+000 -7.894871e+000 88 57 29
4.278271e-001 -1.536291e+000 -7.608759e+000 130 85 45
4.297527e-001 -1.638821e+000 -7.691543e+000 186 144 96
6.691196e-001 -1.472556e+000 -7.534873e+000 188 141 95
6.691196e-001 -1.472556e+000 -7.534873e+000 188 141 95
7.969869e-001 -1.306193e+000 -7.418409e+000 98 50 12
8.629586e-001 -1.265166e+000 -7.411608e+000 188 144 103
8.771501e-001 -1.315341e+000 -7.497689e+000 188 144 103
9.799541e-001 -1.329025e+000 -7.407954e+000 123 76 45
1.350044e+000 -1.355802e+000 -7.493832e+000 123 98 72
9.319624e-001 -1.641832e+000 -7.509068e+000 184 142 99
1.352827e+000 -1.387657e+000 -7.483570e+000 156 131 103
4.086758e+000 3.402874e+000 -1.162854e+001 87 67 58
3.987556e+000 3.131635e+000 -1.132753e+001 83 70 64
4.939847e-001 2.482120e+000 -8.943572e+000 85 70 59
6.856606e-001 2.509971e+000 -8.569683e+000 175 131 86
3.963710e+000 3.015013e+000 -1.111444e+001 35 21 20
4.223457e+000 2.979385e+000 -1.103945e+001 37 26 24
4.392974e+000 2.984199e+000 -1.110673e+001 39 25 24
6.713464e-001 2.327551e+000 -8.513431e+000 157 111 76
3.400338e+000 2.677400e+000 -1.111043e+001 54 42 42
4.407222e+000 2.780519e+000 -1.073368e+001 36 25 23
4.532098e+000 2.829410e+000 -1.078944e+001 73 56 49
4.532098e+000 2.829410e+000 -1.078944e+001 73 56 49
-6.613845e-001 1.671805e+000 -1.031345e+001 143 99 57
-2.717023e-001 1.735584e+000 -1.009933e+001 57 34 18
7.365808e-001 1.961220e+000 -8.521921e+000 94 63 43
3.642072e+000 2.293640e+000 -1.072342e+001 34 20 20
-8.739015e-001 1.518720e+000 -1.035722e+001 141 103 58
8.464134e-001 1.881884e+000 -8.446130e+000 76 49 30
3.859962e+000 2.217488e+000 -1.059177e+001 29 18 24
-3.591416e-001 1.337187e+000 -1.003328e+001 54 33 17
8.923270e-001 1.788722e+000 -8.397720e+000 60 38 27
1.027955e+000 1.776402e+000 -8.247933e+000 35 20 17
-8.063364e-001 1.136543e+000 -1.024507e+001 167 131 96
-8.063364e-001 1.136543e+000 -1.024507e+001 167 131 96
1.464589e+000 1.735852e+000 -8.266755e+000 119 80 49
1.787637e+000 1.812552e+000 -8.439425e+000 39 22 20
4.622821e-001 1.184009e+000 -9.690311e+000 50 45 41
8.356188e-001 1.291685e+000 -9.147198e+000 37 32 28
2.048298e+000 1.666902e+000 -8.593218e+000 19 13 17
-2.322712e+000 5.554925e-001 -9.534691e+000 118 98 71
1.703219e+000 1.534901e+000 -8.292128e+000 81 47 19
4.270179e+000 1.676640e+000 -9.859796e+000 60 48 45
4.298276e+000 1.615219e+000 -9.572997e+000 60 49 46
4.497237e+000 1.762881e+000 -9.759203e+000 25 17 15
-8.235938e-001 5.291555e-001 -1.001679e+001 105 99 83
-3.094778e-003 6.691644e-001 -9.821900e+000 55 48 44
2.987856e-001 8.212483e-001 -9.723099e+000 44 40 41
5.811074e-001 9.524780e-001 -9.281886e+000 66 58 54
-2.059127e+000 4.488052e-001 -8.695368e+000 78 42 21
-2.042483e+000 4.486768e-001 -8.816167e+000 108 74 47
-1.024815e+000 4.940700e-001 -9.503455e+000 34 29 26
-1.024815e+000 4.940700e-001 -9.503455e+000 34 29 26
-3.468719e-001 6.050725e-001 -9.538788e+000 114 108 92
-6.105539e-002 6.366139e-001 -9.748830e+000 66 62 50
1.597105e-001 5.817714e-001 -9.525436e+000 23 15 17
1.882520e-001 6.569880e-001 -9.330471e+000 128 121 102
1.882520e-001 6.569880e-001 -9.330471e+000 128 121 102
4.394148e+000 1.366908e+000 -9.323837e+000 22 14 12
-3.100154e+000 5.359192e-002 -8.983473e+000 160 128 83
-3.084926e+000 6.696563e-002 -8.941479e+000 160 128 83
-3.103183e+000 7.040253e-002 -9.087851e+000 177 149 111
-2.618090e+000 1.885496e-001 -8.643294e+000 163 124 81
-2.282855e+000 3.136506e-001 -8.507579e+000 163 129 94
-2.202001e+000 3.390431e-001 -8.534206e+000 137 103 75
-1.188063e+000 3.195099e-001 -9.533053e+000 26 20 18
-1.126028e+000 2.156739e-001 -9.385074e+000 18 11 18
-1.900130e-001 4.816008e-001 -9.251381e+000 29 22 26
-1.900130e-001 4.816008e-001 -9.251381e+000 29 22 26
2.605270e-001 4.746422e-001 -9.229154e+000 15 11 11
-2.164870e+000 1.616271e-001 -8.385566e+000 64 35 19
-2.197258e+000 1.185045e-001 -8.519151e+000 64 35 19
1.876680e-001 4.324685e-001 -9.172485e+000 22 17 15
1.863004e-001 4.305444e-001 -9.178253e+000 22 17 15
1.562082e+000 1.036543e+000 -7.785531e+000 123 91 54
2.329053e+000 1.023073e+000 -7.848152e+000 32 24 27
-2.603608e+000 -2.816786e-002 -8.291232e+000 172 134 86
-2.019246e+000 6.244013e-002 -8.303717e+000 47 19 21
-1.932744e+000 5.398848e-002 -8.397757e+000 48 24 12
-1.932735e+000 5.230745e-002 -8.403393e+000 48 24 12
-1.952587e+000 1.990325e-002 -8.351847e+000 91 63 42
-1.165607e+000 1.753757e-001 -8.722672e+000 55 34 17
-1.130341e+000 7.945280e-002 -9.062087e+000 73 52 37
1.398463e+000 6.250782e-001 -8.273305e+000 66 59 56
1.615829e+000 9.414332e-001 -7.462434e+000 45 21 15
2.003911e+000 9.948871e-001 -7.648156e+000 54 32 19
2.396627e+000 9.810084e-001 -7.828096e+000 26 16 21
-2.492527e+000 -1.629585e-001 -8.189951e+000 168 136 92
-1.976800e+000 -1.220044e-001 -8.362673e+000 47 16 6
-1.634027e+000 5.578032e-002 -8.175576e+000 76 58 43
-6.051719e-001 -1.849416e-002 -8.802798e+000 141 129 102
4.310548e-001 1.363706e-001 -8.723904e+000 77 70 52
1.297521e+000 3.704442e-001 -8.379157e+000 56 49 42
1.409133e+000 7.829790e-001 -7.382155e+000 108 60 23
-2.884679e+000 -3.521873e-001 -8.321272e+000 114 75 42
-2.415103e+000 -2.546562e-001 -8.213705e+000 130 99 56
-2.180454e+000 -3.214852e-001 -8.182614e+000 116 84 50
-1.038177e+000 -2.270642e-001 -8.796672e+000 47 38 31
-8.007709e-001 -2.024666e-001 -8.813216e+000 69 60 52
-9.066412e-001 -2.035466e-001 -8.511280e+000 72 63 55
1.306543e+000 4.872674e-001 -7.741404e+000 66 62 55
1.431207e+000 6.061578e-001 -7.325920e+000 103 56 20
1.544355e+000 7.315545e-001 -7.243455e+000 183 138 74
1.776911e+000 7.788492e-001 -7.159136e+000 161 136 103
-1.776055e+000 -3.504677e-001 -8.103411e+000 128 98 70
-1.776055e+000 -3.504677e-001 -8.103411e+000 128 98 70
-1.717265e+000 -3.663938e-001 -8.187112e+000 70 41 25
1.171924e+000 7.552695e-002 -8.274048e+000 96 88 76
1.480858e+000 5.782204e-001 -7.146219e+000 150 105 63
1.836641e+000 6.487155e-001 -7.065052e+000 184 164 111
-2.120254e+000 -5.184502e-001 -7.945073e+000 121 91 53
-1.922745e+000 -5.256371e-001 -8.087622e+000 76 47 29
-1.761331e+000 -4.649384e-001 -8.225688e+000 35 18 16
-1.730094e+000 -5.000041e-001 -8.065984e+000 19 15 18
-1.030020e+000 -5.246222e-001 -8.440369e+000 36 18 16
-2.898895e+000 -8.810194e-001 -8.289103e+000 160 121 88
-2.035837e+000 -5.640357e-001 -7.909380e+000 141 108 75
-1.997004e+000 -6.580625e-001 -7.961396e+000 92 56 27
-9.353638e-001 -6.506218e-001 -8.493967e+000 21 15 17
-2.043782e+000 -7.231142e-001 -7.866147e+000 144 109 81
-9.477592e-001 -8.728194e-001 -8.413582e+000 18 12 14
-1.769278e+000 -9.358606e-001 -7.868812e+000 136 97 63
-1.529264e+000 -9.836872e-001 -8.016378e+000 121 86 58
-1.232050e+000 -9.340407e-001 -8.098751e+000 134 101 70
-9.980935e-001 -9.303775e-001 -8.375335e+000 104 87 62
-1.088471e+000 -9.411969e-001 -8.194533e+000 138 105 74
1.644279e+000 1.349556e-001 -6.938479e+000 119 71 31
1.941546e+000 1.943822e-001 -6.824057e+000 183 150 105
2.252621e+000 2.261270e-001 -6.840983e+000 141 117 81
-2.179407e+000 -1.085528e+000 -7.947891e+000 72 34 13
-2.179407e+000 -1.085528e+000 -7.947891e+000 72 34 13
-2.263315e+000 -1.207215e+000 -8.028034e+000 60 27 10
-1.878195e+000 -1.046312e+000 -7.921419e+000 129 88 58
-8.227793e-001 -1.225243e+000 -8.551469e+000 28 26 26
5.060031e-001 -1.064810e+000 -8.718997e+000 13 8 13
-1.409265e+000 -1.304392e+000 -8.112330e+000 36 16 18
-1.122492e+000 -1.251972e+000 -8.357001e+000 67 41 26
7.820986e-002 -1.174374e+000 -8.474062e+000 53 47 41
1.642419e+000 -1.020492e-001 -6.879125e+000 134 81 44
2.579136e+000 -1.407428e-001 -7.057882e+000 102 81 68
2.595063e+000 -1.118520e-001 -7.067003e+000 31 19 19
-2.499386e+000 -1.700216e+000 -8.111594e+000 153 129 102
-2.473556e+000 -1.697932e+000 -8.316563e+000 99 73 48
-1.708872e+000 -1.308868e+000 -7.899285e+000 35 20 22
1.917059e+000 -8.506120e-002 -6.658800e+000 199 162 121
-2.028858e+000 -1.654372e+000 -8.030866e+000 112 94 74
5.062303e-002 -1.348103e+000 -8.060719e+000 129 103 69
4.841278e-002 -1.312663e+000 -7.995634e+000 129 103 69
4.078397e-001 -1.069806e+000 -7.799397e+000 69 33 17
-2.015328e+000 -1.938882e+000 -8.226342e+000 125 104 90
-1.744491e+000 -1.952410e+000 -8.331889e+000 31 20 24
1.278715e-001 -1.413461e+000 -7.977780e+000 64 38 26
5.384385e-001 -1.162955e+000 -7.694967e+000 74 31 13
7.370210e-001 -1.120595e+000 -7.627693e+000 82 40 25
8.529276e-001 -1.076644e+000 -7.520838e+000 123 82 49
3.589583e-001 -1.453772e+000 -7.698490e+000 128 91 62
7.817392e-001 -1.217954e+000 -7.491183e+000 90 44 18
7.547643e-001 -1.243015e+000 -7.444688e+000 173 126 99
1.325941e-001 -1.679899e+000 -7.804957e+000 125 94 73
5.305420e-001 -1.550729e+000 -7.695868e+000 129 80 41
9.177799e-001 -1.324909e+000 -7.492677e+000 114 65 33
1.049834e+000 -1.359026e+000 -7.540895e+000 116 70 34
1.226947e+000 -1.338688e+000 -7.393645e+000 188 156 115
7.743593e-002 -1.894375e+000 -7.932896e+000 133 103 74
3.118167e+000 2.982201e+000 -1.167037e+001 51 40 36
3.118167e+000 2.982201e+000 -1.167037e+001 51 40 36
6.987998e-001 2.412775e+000 -8.673890e+000 106 62 27
3.607317e+000 2.932985e+000 -1.094022e+001 65 46 39
3.348477e+000 2.698662e+000 -1.124075e+001 24 18 19
7.574153e-001 2.186516e+000 -8.416057e+000 129 98 72
7.574153e-001 2.186516e+000 -8.416057e+000 129 98 72
4.454568e+000 2.754933e+000 -1.070979e+001 95 76 69
-7.318544e-001 1.665881e+000 -1.025601e+001 162 122 78
-7.318544e-001 1.665881e+000 -1.025601e+001 162 122 78
5.857922e-001 1.971434e+000 -8.609674e+000 67 47 23
5.817855e-001 1.970939e+000 -8.603293e+000 67 47 23
7.176413e-001 2.034249e+000 -8.566651e+000 93 59 32
3.518585e+000 2.346524e+000 -1.087598e+001 31 19 21
3.849771e+000 2.481714e+000 -1.040914e+001 83 70 61
9.353213e-001 1.945316e+000 -8.278547e+000 41 24 17
3.724657e+000 2.129444e+000 -1.027199e+001 46 35 31
4.615243e+000 2.363063e+000 -1.030723e+001 22 12 15
7.872497e-001 1.738853e+000 -8.665327e+000 40 22 22
1.003435e+000 1.854143e+000 -8.297534e+000 27 12 13
3.759138e+000 2.090970e+000 -1.050237e+001 35 24 23
-8.982251e-001 1.133785e+000 -1.029058e+001 135 95 60
7.868063e-001 1.627083e+000 -8.703295e+000 131 108 82
1.098652e+000 1.710455e+000 -8.234208e+000 85 66 59
1.266169e+000 1.775199e+000 -8.268590e+000 33 20 14
1.067719e+000 1.557407e+000 -8.430126e+000 39 24 17
-2.545101e+000 4.850651e-001 -9.495903e+000 139 111 75
1.063720e+000 1.338925e+000 -8.705746e+000 37 32 28
1.479325e+000 1.459792e+000 -8.402383e+000 120 83 57
-1.093408e-004 7.619868e-001 -1.015011e+001 24 19 16
-3.150009e+000 2.138891e-001 -9.279379e+000 60 36 34
-3.168923e+000 8.210591e-002 -9.204222e+000 109 82 56
-1.245210e+000 4.406800e-001 -9.582766e+000 40 30 28
-1.249261e+000 4.328705e-001 -9.613422e+000 40 30 28
-1.178676e+000 4.839371e-001 -9.555238e+000 163 155 126
-1.178676e+000 4.839371e-001 -9.555238e+000 163 155 126
-1.151544e+000 4.368488e-001 -9.487634e+000 33 29 20
-1.151544e+000 4.368488e-001 -9.487634e+000 33 29 20
-1.277641e+000 3.091734e-001 -9.630066e+000 18 15 14
-1.213584e+000 3.826622e-001 -9.543747e+000 133 126 85
-1.120232e+000 3.857409e-001 -9.409786e+000 150 139 109
-1.085540e+000 4.761574e-001 -9.486752e+000 160 157 117
-1.084840e+000 4.792237e-001 -9.475159e+000 160 157 117
-1.062133e+000 4.124695e-001 -9.466823e+000 37 29 26
-9.864977e-001 4.653493e-001 -9.404314e+000 142 135 99
-8.318360e-001 5.072305e-001 -9.460310e+000 115 108 83
-9.107710e-001 4.887447e-001 -9.433142e+000 25 19 19
-8.070475e-001 4.718392e-001 -9.351745e+000 29 25 21
-7.485305e-001 5.295566e-001 -9.463079e+000 21 16 15
-7.255663e-001 4.929193e-001 -9.376912e+000 131 122 93
-7.250573e-001 4.971948e-001 -9.359313e+000 131 122 93
-6.468178e-001 5.166491e-001 -9.375219e+000 29 21 18
-4.644110e-001 5.087717e-001 -9.352081e+000 111 102 85
-4.644110e-001 5.087717e-001 -9.352081e+000 111 102 85
6.690124e-002 6.469133e-001 -9.829989e+000 15 10 14
-2.204230e+000 2.656884e-001 -8.513761e+000 139 104 81
-1.097161e+000 3.208988e-001 -9.383746e+000 27 22 26
-1.076088e+000 2.542254e-001 -9.373163e+000 132 127 91
-1.007472e+000 3.097625e-001 -9.310039e+000 34 29 26
-1.008291e+000 3.075372e-001 -9.318170e+000 34 29 26
-9.872999e-001 2.452119e-001 -9.283359e+000 147 138 102
-9.872999e-001 2.452119e-001 -9.283359e+000 147 138 102
-9.138612e-001 2.868100e-001 -9.261953e+000 34 29 27
-9.138612e-001 2.868100e-001 -9.261953e+000 34 29 27
-7.850007e-001 4.063570e-001 -9.342133e+000 131 121 98
-6.004637e-001 4.163291e-001 -9.251714e+000 26 20 20
-3.586738e-001 4.975674e-001 -9.276094e+000 124 117 92
-3.586738e-001 4.975674e-001 -9.276094e+000 124 117 92
-2.837739e-001 5.164174e-001 -9.282052e+000 25 20 17
-2.614550e-001 4.761730e-001 -9.210904e+000 118 112 91
-2.614550e-001 4.761730e-001 -9.210904e+000 118 112 91
-3.190353e-001 3.995299e-001 -9.165092e+000 132 127 98
-2.413389e-001 4.320560e-001 -9.146537e+000 25 19 20
-1.617945e-001 4.490801e-001 -9.157697e+000 114 101 83
-1.617193e-001 4.493577e-001 -9.156805e+000 114 101 83
2.257995e-001 5.550264e-001 -9.508834e+000 128 122 109
-2.659865e+000 -2.304072e-002 -8.523298e+000 164 125 76
-2.007615e+000 1.184328e-001 -8.643040e+000 68 41 30
-1.048601e+000 2.025049e-001 -9.292452e+000 19 17 17
-8.114178e-001 2.680270e-001 -9.206013e+000 32 31 29
-8.896762e-001 2.394141e-001 -9.182611e+000 126 121 91
-6.864265e-001 2.036994e-001 -9.055278e+000 131 123 95
-6.078897e-001 2.324231e-001 -9.060592e+000 25 22 25
-5.277032e-001 2.584022e-001 -9.076676e+000 147 141 117
-4.527402e-001 2.929209e-001 -9.074524e+000 36 30 30
-2.977668e-001 3.570924e-001 -9.076734e+000 26 22 23
-5.392510e-002 4.183046e-001 -9.113198e+000 105 100 78
-5.392510e-002 4.183046e-001 -9.113198e+000 105 100 78
2.623956e-002 4.253461e-001 -9.129163e+000 21 18 12
4.559554e-002 3.896515e-001 -9.054879e+000 102 95 76
2.285724e+000 1.025736e+000 -7.953769e+000 80 62 38
-3.282257e-001 2.245772e-001 -8.950183e+000 148 135 107
-3.126112e-001 1.817048e-001 -8.889555e+000 31 26 23
8.127430e-001 4.175939e-001 -8.888203e+000 29 25 26
1.671863e+000 9.377406e-001 -7.504417e+000 131 96 70
1.479121e+000 7.802239e-001 -7.256352e+000 190 150 101
1.560166e+000 8.170502e-001 -7.310559e+000 165 128 81
1.862097e+000 8.861754e-001 -7.275055e+000 74 46 34
2.471489e+000 8.613176e-001 -7.901487e+000 64 46 34
-2.690961e+000 -3.385018e-001 -8.219518e+000 111 71 36
-2.145970e+000 -3.751791e-001 -8.094314e+000 112 78 43
-1.977852e+000 -2.944075e-001 -8.146780e+000 71 39 18
-1.971397e+000 -2.813172e-001 -8.112826e+000 71 39 18
1.627442e+000 5.752418e-001 -7.188454e+000 117 74 42
1.752466e+000 6.190389e-001 -7.014858e+000 171 145 107
-2.351646e+000 -5.577873e-001 -8.028391e+000 168 136 97
-1.782315e+000 -6.484293e-001 -7.933363e+000 118 84 57
6.621982e-001 -4.712838e-001 -8.638895e+000 25 21 16
-2.518946e+000 -8.404714e-001 -7.998855e+000 171 142 103
-1.574043e+000 -6.801061e-001 -8.029851e+000 116 81 51
-1.598751e+000 -7.478759e-001 -8.180373e+000 116 81 51
-2.538903e+000 -1.041681e+000 -7.944024e+000 121 80 44
-2.491602e+000 -1.065012e+000 -7.878695e+000 154 112 80
-2.307627e+000 -1.055087e+000 -7.956477e+000 132 91 63
-1.029016e+000 -9.908915e-001 -8.343940e+000 133 102 74
5.974483e-001 -7.956554e-001 -8.629335e+000 17 11 17
5.974483e-001 -7.956554e-001 -8.629335e+000 17 11 17
6.270567e-001 -9.146538e-001 -8.744719e+000 42 38 39
6.790037e-001 -8.113650e-001 -8.729879e+000 68 63 59
7.262107e-001 -7.121302e-001 -8.693815e+000 84 81 70
7.012039e-001 -8.876907e-001 -8.749319e+000 10 8 12
1.856532e+000 1.662043e-001 -6.845174e+000 80 38 23
2.169448e+000 2.391687e-001 -6.867482e+000 68 40 29
2.151542e+000 2.563349e-001 -6.822912e+000 68 40 29
-2.646711e+000 -1.258491e+000 -8.134205e+000 165 127 87
-2.022768e+000 -1.056127e+000 -7.927880e+000 124 83 58
-1.574165e+000 -9.993038e-001 -7.981666e+000 62 29 12
-1.017320e+000 -1.314387e+000 -8.659928e+000 73 56 43
-6.948038e-001 -1.224056e+000 -8.484881e+000 155 156 148
2.692476e-001 -1.039771e+000 -8.524739e+000 14 7 15
4.090639e-001 -9.624224e-001 -8.535965e+000 16 9 15
6.465179e-001 -9.835644e-001 -8.757754e+000 12 10 13
7.163737e-001 -9.649038e-001 -8.772357e+000 36 31 35
1.446643e+000 -1.733098e-001 -7.341718e+000 182 148 122
1.783181e+000 6.442710e-002 -6.855853e+000 111 63 35
-7.435730e-001 -1.255709e+000 -8.489996e+000 33 32 36
-7.439508e-001 -1.263460e+000 -8.504934e+000 33 32 36
-6.626254e-001 -1.298309e+000 -8.456523e+000 39 36 40
-1.604587e+000 -1.334468e+000 -7.943421e+000 34 23 27
8.130863e-002 -1.182185e+000 -8.123145e+000 76 68 58
1.111098e-001 -1.235766e+000 -8.127649e+000 37 22 15
1.184531e-001 -1.308199e+000 -8.265822e+000 37 22 15
1.945553e+000 -3.859327e-001 -7.054973e+000 184 162 132
3.426129e-001 -1.150633e+000 -7.921027e+000 135 98 76
-2.147212e+000 -1.994519e+000 -8.211663e+000 30 17 23
6.612443e-002 -1.502858e+000 -8.010084e+000 26 16 17
1.067344e-001 -1.429191e+000 -7.860291e+000 36 20 18
3.355296e-001 -1.299073e+000 -7.806258e+000 120 80 60
3.355296e-001 -1.299073e+000 -7.806258e+000 120 80 60
8.243589e-001 -1.757944e+000 -7.621974e+000 200 160 120
-5.772071e-001 2.047221e+000 -1.034923e+001 147 112 70
-6.701302e-001 1.961834e+000 -1.038426e+001 146 113 72
4.350172e+000 2.673828e+000 -1.037965e+001 38 25 23
4.404806e+000 2.673770e+000 -1.049558e+001 38 25 23
4.341737e+000 2.599230e+000 -1.036125e+001 94 76 72
4.610722e+000 2.736042e+000 -1.058016e+001 84 69 62
4.736614e+000 2.536385e+000 -1.048615e+001 31 17 17
7.758235e-001 1.898102e+000 -8.482724e+000 163 131 100
1.224692e+000 1.842039e+000 -8.263217e+000 66 46 40
-1.313884e-001 1.144295e+000 -1.012181e+001 62 43 28
7.782782e-001 1.438279e+000 -9.381393e+000 76 69 61
3.997016e+000 1.846422e+000 -1.020298e+001 28 16 20
4.181227e-001 1.109213e+000 -1.001211e+001 26 20 21
1.511223e+000 1.624539e+000 -8.264763e+000 148 105 71
1.511223e+000 1.624539e+000 -8.264763e+000 148 105 71
4.071368e+000 1.745653e+000 -1.009178e+001 49 38 36
-2.950093e+000 3.403228e-001 -9.857573e+000 27 25 26
6.320332e-002 9.667945e-001 -1.018595e+001 38 25 23
-2.911368e+000 3.503456e-001 -9.517776e+000 178 160 128
-2.498687e+000 4.575373e-001 -8.958390e+000 101 62 34
-2.149269e+000 4.990293e-001 -8.880153e+000 88 51 25
5.182229e-001 9.957935e-001 -9.401111e+000 58 52 49
4.217231e+000 1.507077e+000 -9.642050e+000 35 24 26
-2.279815e+000 3.478100e-001 -8.623150e+000 77 42 18
2.481724e-001 6.506838e-001 -9.566743e+000 27 25 22
-1.449355e+000 2.914386e-001 -8.826995e+000 50 27 14
-2.691967e+000 3.785750e-002 -8.596613e+000 106 63 21
-2.587261e+000 1.538783e-001 -8.469535e+000 175 133 90
-2.587261e+000 1.538783e-001 -8.469535e+000 175 133 90
-2.547736e+000 1.264126e-001 -8.626417e+000 126 87 48
-2.266415e+000 2.132338e-001 -8.489015e+000 79 44 23
1.691478e+000 1.085716e+000 -7.556255e+000 40 22 22
1.988021e+000 1.136919e+000 -7.700479e+000 81 51 43
4.600587e+000 1.119292e+000 -9.350528e+000 25 16 17
-4.490095e-001 1.623063e-001 -8.915496e+000 93 83 53
1.952653e+000 9.648171e-001 -7.545305e+000 147 125 85
1.293554e+000 4.777987e-001 -8.490778e+000 58 51 46
-2.937570e+000 -6.334229e-001 -8.432010e+000 164 122 82
-2.937570e+000 -6.334229e-001 -8.432010e+000 164 122 82
-2.506724e+000 -5.080810e-001 -8.123976e+000 115 79 43
-2.363991e-001 -2.105372e-001 -8.643732e+000 23 19 22
-1.409696e-003 -1.158481e-001 -8.657437e+000 142 127 104
-5.082582e-002 -2.218074e-001 -8.630858e+000 150 140 106
1.803894e+000 6.387491e-001 -7.077593e+000 78 50 38
1.803894e+000 6.387491e-001 -7.077593e+000 78 50 38
-2.171351e+000 -4.882898e-001 -8.025628e+000 160 129 91
-2.550653e-001 -3.864097e-001 -8.580940e+000 142 130 97
-2.236341e-001 -4.587260e-001 -8.554169e+000 25 21 17
-6.674752e-002 -3.940672e-001 -8.562170e+000 29 26 17
1.673071e-001 -3.134235e-001 -8.629005e+000 130 113 84
2.759121e-001 -3.628465e-001 -8.639436e+000 151 137 102
1.655962e+000 5.124355e-001 -7.106705e+000 129 89 49
1.802531e+000 5.989254e-001 -7.009249e+000 68 40 30
1.794678e+000 6.071758e-001 -6.984443e+000 68 40 30
-4.555394e-001 -5.651539e-001 -8.561681e+000 149 138 110
-3.518514e-002 -4.706905e-001 -8.552387e+000 142 128 93
4.189324e-002 -4.377478e-001 -8.554587e+000 21 20 25
-4.245034e-003 -5.458244e-001 -8.531013e+000 27 26 19
7.259856e-002 -5.145338e-001 -8.542691e+000 130 119 89
2.280120e-001 -4.668774e-001 -8.608719e+000 122 108 78
3.042741e-001 -4.424796e-001 -8.631418e+000 31 22 25
1.728871e+000 3.860006e-001 -6.981686e+000 128 86 44
1.920386e+000 3.952425e-001 -6.878292e+000 180 150 110
-4.396857e-001 -8.125674e-001 -8.477054e+000 142 130 107
-3.618386e-001 -7.760504e-001 -8.468446e+000 31 25 22
-3.157874e-001 -6.673635e-001 -8.491242e+000 27 21 22
1.031786e-001 -5.973766e-001 -8.542564e+000 30 21 25
1.334906e-001 -6.668936e-001 -8.507538e+000 130 115 85
2.407603e-001 -7.286070e-001 -8.554710e+000 108 94 78
1.790175e+000 2.899522e-001 -6.798396e+000 137 93 54
-5.903139e-001 -8.854339e-001 -8.488459e+000 153 146 118
-6.302605e-001 -9.974694e-001 -8.473654e+000 146 138 116
-5.588280e-001 -9.562166e-001 -8.455816e+000 27 24 19
-5.579604e-001 -9.527831e-001 -8.448755e+000 27 24 19
-4.066985e-001 -8.799860e-001 -8.435634e+000 23 22 18
1.936762e-001 -8.294283e-001 -8.528275e+000 143 130 90
-2.208891e+000 -1.229972e+000 -7.974576e+000 116 81 59
-5.979642e-001 -1.058985e+000 -8.426434e+000 30 29 25
-5.979642e-001 -1.058985e+000 -8.426434e+000 30 29 25
-5.286868e-001 -1.021239e+000 -8.412836e+000 153 144 126
-5.286868e-001 -1.021239e+000 -8.412836e+000 153 144 126
-4.223923e-001 -1.054202e+000 -8.378110e+000 146 132 103
-2.666585e-001 -9.910803e-001 -8.392885e+000 151 136 102
-2.659926e-001 -9.831491e-001 -8.376472e+000 151 136 102
-3.938617e-003 -9.901618e-001 -8.455326e+000 118 104 76
-8.202250e-002 -1.000046e+000 -8.402636e+000 31 26 25
7.480579e-001 -1.039979e+000 -8.787482e+000 15 10 15
1.518004e+000 -1.000186e-001 -6.933762e+000 190 146 102
1.687570e+000 -4.344869e-003 -6.859206e+000 147 91 54
2.691110e+000 3.599822e-002 -7.200068e+000 28 15 19
-4.693690e-001 -1.159235e+000 -8.354929e+000 151 143 107
5.844711e-001 -9.504064e-001 -7.897199e+000 58 29 21
4.083647e-001 -1.179183e+000 -7.905355e+000 80 42 23
7.614475e-001 -1.036028e+000 -7.673840e+000 108 67 42
-4.584312e-001 -1.779082e+000 -8.538123e+000 201 200 204
-4.584312e-001 -1.779082e+000 -8.538123e+000 201 200 204
4.650807e-001 -1.244363e+000 -7.736685e+000 82 43 26
4.650807e-001 -1.244363e+000 -7.736685e+000 82 43 26
9.193058e-001 -1.097949e+000 -7.614225e+000 68 32 8
-2.464019e-001 -1.914334e+000 -8.299193e+000 60 50 46
3.966931e-001 -1.400850e+000 -7.706762e+000 100 60 38
1.033028e+000 -1.132919e+000 -7.406636e+000 114 71 37
-2.688040e-001 -2.036828e+000 -8.367670e+000 133 151 178
1.141633e+000 -1.348580e+000 -7.478886e+000 178 146 99
4.531686e-001 -1.736277e+000 -7.709927e+000 179 137 90
4.531686e-001 -1.736277e+000 -7.709927e+000 179 137 90
8.902800e-001 -1.612059e+000 -7.528308e+000 223 182 139
1.142498e+000 -1.430645e+000 -7.492514e+000 132 87 47
3.575245e+000 3.255618e+000 -1.154240e+001 112 94 80
4.153290e+000 3.289802e+000 -1.142511e+001 56 38 34
9.049125e-001 2.537822e+000 -8.730479e+000 91 53 34
3.064732e+000 2.878452e+000 -1.138368e+001 25 14 12
4.475564e-001 2.299516e+000 -8.988845e+000 72 59 52
-3.226502e-001 1.974433e+000 -1.016302e+001 64 37 22
-3.843339e-002 1.990625e+000 -1.042522e+001 32 18 18
4.506492e+000 2.755036e+000 -1.060664e+001 37 23 20
4.506492e+000 2.755036e+000 -1.060664e+001 37 23 20
5.339407e-001 1.995177e+000 -8.756720e+000 166 140 105
4.048976e+000 2.438121e+000 -1.040476e+001 51 37 37
4.048976e+000 2.438121e+000 -1.040476e+001 51 37 37
4.431069e+000 2.524853e+000 -1.036236e+001 30 19 17
9.499691e-001 1.744992e+000 -8.344709e+000 32 20 20
1.154679e+000 1.790496e+000 -8.311627e+000 29 17 19
-9.690176e-001 9.733596e-001 -1.042697e+001 171 163 143
1.892307e+000 1.821434e+000 -8.674886e+000 21 12 13
8.778443e-001 1.324545e+000 -9.034397e+000 72 65 59
1.419051e+000 1.555276e+000 -8.316658e+000 61 34 26
1.415125e+000 1.556673e+000 -8.304831e+000 61 34 26
1.699366e+000 1.638604e+000 -8.246190e+000 165 122 88
5.803164e-001 1.059034e+000 -1.016837e+001 26 20 20
1.178683e+000 1.429273e+000 -8.381564e+000 119 93 60
1.607879e+000 1.421170e+000 -8.399138e+000 119 88 67
1.700089e+000 1.464356e+000 -8.381048e+000 122 91 57
1.802506e+000 1.466005e+000 -8.440881e+000 109 79 51
4.129068e+000 1.656948e+000 -9.908216e+000 37 27 26
-1.052425e+000 5.351413e-001 -9.821576e+000 113 108 89
1.753268e-001 7.645871e-001 -1.018193e+001 18 12 16
-3.192420e+000 -3.793065e-002 -9.026200e+000 178 145 101
-2.833948e+000 6.218451e-002 -8.548609e+000 187 145 95
-2.054735e+000 1.725233e-001 -8.470351e+000 49 21 15
-1.261119e+000 2.377578e-001 -8.848901e+000 46 26 15
1.891635e+000 9.997582e-001 -7.591437e+000 46 26 20
4.721034e+000 9.989040e-001 -9.024635e+000 22 13 18
5.110318e-001 2.675719e-001 -8.822653e+000 115 110 88
1.207673e+000 2.750100e-001 -8.677671e+000 76 71 68
1.291462e+000 3.365838e-001 -8.832415e+000 10 9 15
4.715329e+000 8.710173e-001 -8.917505e+000 27 17 25
1.803408e+000 7.877012e-001 -7.114505e+000 60 32 20
-2.537570e+000 -4.116564e-001 -8.113295e+000 166 132 87
1.339431e+000 3.594214e-001 -7.686073e+000 196 165 133
1.420628e+000 3.966064e-001 -7.167949e+000 165 110 69
1.326067e+000 -1.420408e-001 -8.042985e+000 90 78 65
1.657007e+000 3.915132e-001 -6.982882e+000 183 147 99
1.008100e+000 -5.071461e-001 -8.491511e+000 48 43 39
2.453955e+000 4.159576e-001 -7.053184e+000 131 106 78
-1.114440e+000 -1.482547e+000 -8.616753e+000 46 27 21
4.950434e-001 -1.023632e+000 -8.242771e+000 104 79 57
-1.578331e+000 -1.310277e+000 -7.932562e+000 34 22 26
4.413669e-001 -1.065315e+000 -7.873716e+000 68 30 17
2.693478e-001 -1.389758e+000 -7.872915e+000 72 39 26
6.518782e-001 -1.173525e+000 -7.647430e+000 60 23 14
7.111816e-001 -1.263908e+000 -7.571034e+000 95 49 26
-1.621201e-002 -2.030201e+000 -8.036158e+000 131 140 169
1.267001e+000 -1.393149e+000 -7.448913e+000 176 147 108
8.865531e-001 2.747389e+000 -9.253606e+000 174 143 103
-8.704348e-001 1.653047e+000 -1.045638e+001 178 144 102
5.247840e-001 2.007457e+000 -8.683098e+000 170 144 109
3.503327e+000 2.396308e+000 -1.083048e+001 26 14 14
3.678777e+000 2.226171e+000 -1.061144e+001 35 26 29
1.178120e+000 1.627082e+000 -8.375746e+000 44 25 24
2.540670e-001 1.069246e+000 -9.725780e+000 24 18 22
-2.318566e-001 7.438168e-001 -9.965272e+000 30 20 21
-2.035648e+000 4.018131e-001 -8.635246e+000 57 29 17
2.876141e-001 7.223346e-001 -9.768950e+000 11 9 15
-1.454643e+000 3.008434e-001 -8.840249e+000 45 20 11
-2.784609e+000 -5.737038e-001 -8.246078e+000 155 107 67
-1.939994e+000 -3.888023e-001 -8.185811e+000 85 57 35
1.333081e+000 3.640168e-001 -7.673664e+000 199 168 138
1.405803e+000 5.654446e-001 -7.266091e+000 133 84 41
1.397023e+000 5.812687e-001 -7.219584e+000 133 84 41
-1.658763e+000 -4.981582e-001 -7.908055e+000 97 74 51
1.325210e+000 1.496990e-001 -7.356640e+000 186 153 110
1.605405e+000 3.437261e-002 -6.970810e+000 89 43 20
-1.200047e+000 -1.131581e+000 -8.171299e+000 147 113 86
3.233721e-001 -1.013329e+000 -7.972373e+000 139 100 65
2.724242e-001 -1.165733e+000 -8.044477e+000 44 19 14
2.395033e+000 -4.015295e-001 -7.101289e+000 32 22 30
3.834449e+000 2.815534e+000 -1.079534e+001 97 78 61
3.873581e+000 2.814784e+000 -1.089263e+001 97 78 61
7.420930e-001 1.317383e+000 -9.438145e+000 36 31 27
7.420930e-001 1.317383e+000 -9.438145e+000 36 31 27
-9.023704e-002 9.907723e-001 -9.899895e+000 83 66 50
1.740389e+000 1.362791e+000 -8.404861e+000 12 10 16
-2.413929e+000 3.956078e-001 -8.824889e+000 135 97 52
1.836804e+000 9.228275e-001 -7.437040e+000 165 142 103
1.529329e+000 7.547746e-001 -7.315931e+000 140 96 50
1.276119e+000 4.283447e-001 -7.804141e+000 86 76 74
-2.124769e+000 -4.649416e-001 -8.007879e+000 144 112 74
1.503159e+000 -1.038758e+000 -8.458954e+000 25 22 32
6.600026e-001 -9.903002e-001 -7.620501e+000 62 29 20
-9.254667e-002 2.012664e+000 -1.049228e+001 33 17 14
-1.675257e+000 2.736436e-001 -8.884782e+000 54 30 27
2.942977e-003 4.248720e-001 -8.840328e+000 95 88 73
1.226597e+000 -3.706486e-002 -8.194539e+000 92 84 64
1.613568e+000 4.914372e-001 -7.081485e+000 155 118 68
1.590960e+000 5.127593e-001 -7.014421e+000 155 118 68
1.757005e+000 4.987969e-001 -6.987273e+000 184 153 106
-1.850868e+000 -7.662000e-001 -7.805938e+000 119 84 52
1.925294e+000 2.529743e-001 -6.831855e+000 183 150 99
7.593379e-001 -1.417356e+000 -7.679641e+000 109 59 34
1.242883e+000 -1.215994e+000 -7.588473e+000 80 53 38
3.279902e+000 2.751393e+000 -1.117696e+001 47 37 35
1.267305e+000 1.007689e+000 -8.772719e+000 36 32 29
-1.043957e+000 4.260502e-002 -8.899478e+000 23 15 13
1.239680e+000 2.514844e-001 -8.563719e+000 55 45 43
7.720242e-001 -5.137715e-001 -8.677686e+000 67 59 49
-1.851284e+000 -7.778191e-001 -7.816603e+000 125 90 58
1.705617e-001 -8.564043e-001 -8.530690e+000 142 126 87
1.548569e+000 -2.076293e-001 -7.357428e+000 183 145 109
-7.288010e-001 -1.312098e+000 -8.603048e+000 33 29 26
5.008647e-001 2.577890e-001 -8.355648e+000 70 64 51
-1.864531e+000 -1.211386e+000 -8.013711e+000 136 93 61
-2.055534e+000 -1.426791e+000 -7.965772e+000 44 28 27
-2.210769e+000 -1.815466e+000 -8.093950e+000 157 136 105
1.717475e+000 1.552006e+000 -8.409018e+000 126 90 54
1.569559e+000 7.990695e-001 -7.939922e+000 127 86 50
3.355767e+000 2.767866e+000 -1.115686e+001 22 14 15
-1.530921e-001 1.619870e+000 -1.007808e+001 137 115 78
4.295565e+000 1.641888e+000 -9.617413e+000 28 16 16
-1.390307e+000 -3.855195e-001 -8.161289e+000 163 139 96
-1.390307e+000 -3.855195e-001 -8.161289e+000 163 139 96
4.686743e-001 -2.927753e-001 -8.914304e+000 156 147 118
4.674179e-001 -3.005237e-001 -8.933686e+000 156 147 118
1.990611e+000 1.489840e+000 -7.782674e+000 25 20 26
2.778550e+000 5.472832e-001 -6.969097e+000 25 16 21
1.994109e+000 2.822617e-001 -7.634223e+000 186 156 106
-4.946987e-001 1.905376e+000 -1.017090e+001 159 119 77
-4.932694e-001 1.886511e+000 -1.026025e+001 168 127 83
-1.380360e-001 1.857682e+000 -1.020525e+001 54 37 13
-6.708699e-001 3.177377e-002 -8.898222e+000 97 85 71
-7.459128e-001 -3.307317e-001 -8.720489e+000 88 79 62
-6.206340e-001 -7.537835e-001 -8.521989e+000 152 147 127
-1.266043e+001 -8.788275e+000 -2.824163e+001 62 67 100
-8.243365e+000 -7.658154e+000 -2.227919e+001 206 194 177
1.138916e+000 2.201264e+000 -8.293757e+000 76 48 23
-4.065189e-001 -2.979250e-001 -8.616081e+000 26 14 17
-1.046604e+001 -6.795758e+000 -2.536509e+001 50 53 80
3.642433e+000 2.827203e+000 -1.094051e+001 47 32 28
3.041685e+000 3.255016e+000 -1.175492e+001 33 22 18
3.041685e+000 3.255016e+000 -1.175492e+001 33 22 18
-1.311625e+001 -9.930145e+000 -2.734324e+001 73 64 67
3.197442e+000 3.040666e+000 -1.154144e+001 26 14 17
1.110358e+000 2.218219e+000 -8.311587e+000 167 142 101
1.856820e+000 2.194965e+000 -8.614347e+000 128 109 84
1.885937e+000 2.138390e+000 -8.662111e+000 97 87 59
1.362346e+000 2.010974e+000 -8.261952e+000 159 137 101
9.218995e-001 1.842236e+000 -8.298543e+000 75 53 38
3.913533e+000 1.849718e+000 -1.024341e+001 94 80 78
4.491960e+000 1.925604e+000 -9.810879e+000 37 23 23
-2.540023e+000 4.380911e-001 -8.904914e+000 108 70 34
-1.740431e+000 1.807632e-001 -8.730114e+000 54 32 21
-6.242881e-001 1.208183e-001 -8.954580e+000 127 121 97
-3.655817e-001 1.648025e-001 -8.903268e+000 135 124 104
-1.451532e-001 2.663973e-001 -8.919894e+000 160 149 118
1.409459e-001 2.360097e-001 -8.841493e+000 79 70 63
-1.021773e+000 7.230763e-002 -8.550494e+000 44 39 33
1.367890e+000 4.976549e-001 -8.421608e+000 63 58 55
-1.442995e+000 -5.403569e-002 -8.116141e+000 50 32 17
-1.384479e-001 8.867666e-003 -8.710051e+000 115 37 45
-2.579577e+000 -4.699949e-001 -8.072929e+000 172 135 92
-3.969104e-001 -3.316983e-001 -8.608751e+000 141 133 90
-3.969104e-001 -3.316983e-001 -8.608751e+000 141 133 90
-2.803644e-001 -1.671605e-001 -8.654808e+000 149 137 99
-2.803644e-001 -1.671605e-001 -8.654808e+000 149 137 99
-2.211030e-001 -1.760554e-001 -8.649898e+000 22 13 18
-1.335180e+001 -9.444971e+000 -2.746141e+001 80 72 83
-9.667613e-001 -6.758451e-001 -8.459961e+000 66 57 50
-5.180912e-001 -5.594429e-001 -8.551366e+000 31 22 7
-5.753404e-003 -6.106481e-001 -8.522242e+000 144 133 104
-1.264281e+001 -1.062570e+001 -2.642946e+001 75 69 81
-7.283149e-001 -1.032511e+000 -8.519521e+000 40 35 29
-7.283149e-001 -1.032511e+000 -8.519521e+000 40 35 29
9.162128e-001 -6.776017e-001 -8.673961e+000 66 62 59
2.780219e+000 6.834891e-002 -7.414896e+000 68 52 53
1.057081e+000 -1.112293e+000 -7.472510e+000 173 133 97
1.057081e+000 -1.112293e+000 -7.472510e+000 173 133 97
3.405458e+000 2.982030e+000 -1.128207e+001 30 20 19
3.246085e+000 2.824504e+000 -1.135449e+001 29 19 20
3.786514e+000 2.983197e+000 -1.102644e+001 59 42 34
-8.121437e-001 1.838504e+000 -1.047723e+001 66 49 37
3.665676e+000 2.488475e+000 -1.082631e+001 29 17 17
3.753113e+000 2.264347e+000 -1.075924e+001 23 13 14
-1.643837e+000 4.400362e-001 -8.989470e+000 78 50 29
-1.643837e+000 4.400362e-001 -8.989470e+000 78 50 29
6.713970e-001 7.720132e-001 -9.263175e+000 43 37 39
-2.538640e+000 2.260088e-001 -8.513582e+000 160 123 78
8.999439e-001 4.130718e-001 -8.875808e+000 52 48 46
-9.778176e+000 -6.576577e+000 -2.561190e+001 149 145 143
-7.844325e-001 -2.384703e-001 -8.753965e+000 80 72 62
1.207190e+000 1.808253e-001 -8.518307e+000 80 73 65
6.873027e-001 -1.092090e-001 -8.692577e+000 19 12 9
1.397195e+000 4.640382e-001 -7.239316e+000 125 77 29
-1.449512e+001 -9.726755e+000 -2.747693e+001 73 62 60
-1.026812e+000 -8.184207e-001 -8.350165e+000 84 60 34
-1.236294e+001 -1.145535e+001 -2.698818e+001 31 29 43
-1.621550e+000 -1.164560e+000 -7.928764e+000 77 43 31
-2.309853e+000 -1.498429e+000 -8.092282e+000 75 49 33
-9.468871e+000 -1.164201e+001 -2.382936e+001 76 77 93
9.042659e-001 2.384838e+000 -8.473479e+000 71 45 28
1.243510e+000 2.118813e+000 -8.261960e+000 182 155 108
4.073839e+000 2.209109e+000 -1.027912e+001 37 24 28
-1.874629e-001 1.338461e+000 -1.011606e+001 116 97 68
4.405213e-001 1.033387e+000 -9.476924e+000 61 55 52
4.249904e+000 1.682271e+000 -9.823201e+000 60 48 45
-2.883466e+000 -3.559798e-001 -8.332306e+000 114 75 42
-1.887548e+000 -1.977601e-001 -8.127747e+000 47 18 2
-9.243386e+000 -7.277518e+000 -2.505383e+001 126 129 154
-7.558858e-001 -2.546486e-001 -8.673266e+000 20 15 9
-1.118061e+001 -8.389322e+000 -2.608406e+001 120 131 169
1.197246e+000 -3.218814e-002 -8.341141e+000 95 86 71
-1.305993e+001 -1.037096e+001 -2.691544e+001 124 115 118
-2.311762e+000 -1.536234e+000 -8.077232e+000 137 112 83
1.073111e+000 2.286478e+000 -8.333091e+000 70 49 26
4.067174e+000 2.264541e+000 -1.029062e+001 64 52 52
1.582901e-001 5.704606e-001 -9.569106e+000 24 15 17
-1.303062e+001 -8.032417e+000 -2.852568e+001 42 39 49
-1.903845e+000 -8.422279e-001 -7.836842e+000 101 60 36
-1.366432e+001 -1.112350e+001 -2.594093e+001 123 111 120
1.870478e+000 5.896581e-002 -6.820705e+000 179 136 82
-1.401422e+001 -1.166253e+001 -2.613057e+001 58 47 60
-3.482326e-001 -1.197481e+000 -8.373565e+000 120 110 94
5.168839e-001 -1.321665e+000 -7.689841e+000 96 50 25
3.314261e+000 3.032586e+000 -1.137322e+001 36 24 24
-2.031823e+000 3.213714e-001 -8.605121e+000 109 76 57
1.813302e+000 8.399981e-001 -7.226835e+000 177 152 111
4.751946e+000 9.496938e-001 -8.953161e+000 50 41 40
-1.581667e-001 -1.786291e-001 -8.648147e+000 145 139 107
-3.634421e-001 -3.440760e-001 -8.600231e+000 146 132 104
-3.331572e-001 -4.194157e-001 -8.576570e+000 25 22 19
-1.765850e-001 -3.566414e-001 -8.590746e+000 23 22 18
-5.016468e-001 -6.679638e-001 -8.525139e+000 158 143 113
-3.487405e-001 -5.984147e-001 -8.524355e+000 155 143 114
-4.704663e-001 -7.418560e-001 -8.503291e+000 29 23 23
-3.944791e-001 -7.022716e-001 -8.497175e+000 151 136 104
-5.158026e-002 -6.536749e-001 -8.511042e+000 35 22 23
2.023106e+000 3.206317e-001 -6.849349e+000 63 39 35
-5.147234e-001 -8.482843e-001 -8.478095e+000 30 26 24
-9.524350e+000 -6.378874e+000 -2.559132e+001 27 23 37
6.501710e-001 -1.168165e+000 -7.641481e+000 60 23 14
-1.073631e+001 -9.085664e+000 -2.639245e+001 69 66 93
-9.983831e+000 -1.132694e+001 -2.458595e+001 33 32 46
-3.598659e-001 -1.770712e+000 -8.353217e+000 186 184 179
2.935497e+000 2.958365e+000 -1.148258e+001 37 27 21
7.090118e-001 2.487721e+000 -8.451325e+000 115 71 42
2.981775e+000 2.832802e+000 -1.134172e+001 96 83 75
3.801617e+000 2.937125e+000 -1.096975e+001 60 44 32
-5.195748e-001 1.746580e+000 -1.019201e+001 94 51 19
-9.339329e-002 1.853548e+000 -1.021238e+001 119 100 73
5.003841e-001 2.134468e+000 -8.782412e+000 100 75 43
4.324240e+000 2.672070e+000 -1.070849e+001 27 16 16
1.208422e+000 2.172200e+000 -8.266575e+000 166 142 106
3.412876e+000 2.341205e+000 -1.076144e+001 81 68 60
4.170131e+000 2.627085e+000 -1.054803e+001 79 64 59
-8.336859e-001 1.272472e+000 -1.018133e+001 104 68 42
-5.926775e-001 1.436435e+000 -1.006842e+001 70 41 20
-6.766353e-001 1.392211e+000 -1.000286e+001 120 86 54
-4.401266e-001 1.378613e+000 -1.001021e+001 129 106 76
1.343136e+000 2.070554e+000 -8.289241e+000 170 146 109
3.890433e+000 2.361389e+000 -1.057032e+001 26 16 15
-5.682386e-001 1.189032e+000 -9.942124e+000 152 120 81
-4.126900e-001 1.262834e+000 -9.911001e+000 157 131 94
