ply
format ascii 1.0
element face 0
property list uchar int vertex_indices
element vertex 895
property float x
property float y
property float z
property uchar diffuse_red
property uchar diffuse_green
property uchar diffuse_blue
end_header
5.108281e-001 -1.331111e+000 2.775550e+000 49 91 115
5.335663e-001 -1.346266e+000 2.759375e+000 28 54 29
5.336710e-001 -1.346377e+000 2.759680e+000 28 54 29
4.937901e-001 -1.342171e+000 2.826195e+000 38 53 26
7.129465e-001 -1.388145e+000 2.850829e+000 147 106 87
5.750117e-001 -1.520391e+000 2.913916e+000 176 121 90
6.414838e-001 -1.542394e+000 2.912531e+000 73 31 37
6.659711e-001 -1.570221e+000 2.954553e+000 83 52 50
6.648954e-001 -1.587359e+000 2.965644e+000 162 118 85
5.282026e-001 -1.562268e+000 3.037998e+000 168 134 109
5.616331e-001 -1.579095e+000 2.999272e+000 180 129 102
5.747358e-001 -1.619139e+000 3.023450e+000 184 113 59
3.656245e-001 -1.562235e+000 3.164548e+000 50 38 48
6.253777e-001 -1.310278e+000 2.694160e+000 174 43 39
5.317195e-001 -1.332228e+000 2.749430e+000 110 125 47
6.790494e-001 -1.366145e+000 2.792498e+000 41 57 31
5.809450e-001 -1.474667e+000 2.848781e+000 12 71 105
6.514823e-001 -1.498419e+000 2.876075e+000 131 157 154
6.819830e-001 -1.496475e+000 2.903351e+000 80 54 64
6.321434e-001 -1.549436e+000 2.916349e+000 168 124 87
6.860724e-001 -6.662738e-001 3.203557e+000 62 45 53
7.604501e-001 -6.694452e-001 3.188965e+000 160 109 84
7.534262e-001 -6.808396e-001 3.197176e+000 108 60 53
9.173421e-001 -8.420392e-001 3.258816e+000 64 60 75
6.243369e-001 -1.345760e+000 2.721693e+000 103 122 53
6.672735e-001 -1.439677e+000 2.841867e+000 170 154 121
5.594450e-001 -1.570609e+000 2.993000e+000 182 122 93
3.733597e-001 -1.573668e+000 3.154995e+000 50 40 49
8.375974e-001 -7.240444e-001 3.213359e+000 46 36 44
6.646276e-001 -1.546087e+000 2.935457e+000 139 111 99
5.948117e-001 -1.562486e+000 2.938019e+000 144 23 34
6.703954e-001 -1.612786e+000 2.993940e+000 155 117 80
3.911315e-001 -1.608219e+000 3.129907e+000 135 120 123
4.301719e-001 -1.640955e+000 3.123004e+000 43 33 42
6.203270e-001 -1.334122e+000 2.706472e+000 117 125 109
5.372653e-001 -1.563300e+000 3.025886e+000 179 125 105
5.973451e-001 -1.588100e+000 2.964493e+000 147 23 41
4.188394e-001 -1.638676e+000 3.127494e+000 133 115 120
4.048345e-001 -1.623581e+000 3.136262e+000 132 113 117
8.780650e-001 -6.853293e-001 3.166084e+000 103 80 66
5.334754e-001 -1.552365e+000 3.056852e+000 123 95 81
5.321981e-001 -1.473286e+000 2.957416e+000 181 118 103
5.210529e-001 -1.388828e+000 2.827952e+000 85 48 40
5.257796e-001 -1.400322e+000 2.826144e+000 92 33 34
4.947768e-001 -1.380687e+000 2.898380e+000 213 122 114
5.644562e-001 -1.476920e+000 2.865719e+000 51 20 15
6.555586e-001 -1.492835e+000 2.880183e+000 82 129 148
5.178118e-001 -1.450055e+000 2.949468e+000 179 118 105
6.578111e-001 -1.525105e+000 2.908269e+000 128 83 86
5.714594e-001 -1.541388e+000 2.937054e+000 91 54 34
5.879639e-001 -1.562531e+000 2.943422e+000 195 63 72
5.722363e-001 -1.566016e+000 2.976328e+000 143 26 34
4.979309e-001 -1.334236e+000 2.798108e+000 26 51 27
6.806780e-001 -1.453322e+000 2.874579e+000 137 44 39
6.872137e-001 -1.447799e+000 2.878985e+000 134 47 37
5.204917e-001 -1.457623e+000 2.939930e+000 182 116 97
5.162910e-001 -1.459524e+000 2.953708e+000 112 68 53
6.514855e-001 -1.515872e+000 2.895014e+000 93 44 40
6.665964e-001 -1.522330e+000 2.919239e+000 61 39 41
5.381433e-001 -1.519898e+000 2.988699e+000 137 32 37
5.534962e-001 -1.543360e+000 2.966573e+000 135 35 41
5.542313e-001 -1.542726e+000 2.979830e+000 134 33 41
6.133260e-001 -1.226986e+000 2.656930e+000 199 172 135
5.030328e-001 -1.414005e+000 2.960178e+000 166 69 71
5.207546e-001 -1.461152e+000 2.939378e+000 122 79 67
5.303408e-001 -1.481574e+000 2.938866e+000 180 115 93
5.671631e-001 -1.503189e+000 2.895584e+000 84 54 39
5.685396e-001 -1.512805e+000 2.907149e+000 180 122 96
6.491210e-001 -1.524103e+000 2.900847e+000 158 83 78
6.457412e-001 -1.526982e+000 2.893713e+000 158 83 78
5.770412e-001 -1.527523e+000 2.921418e+000 179 124 90
5.695167e-001 -1.566246e+000 2.978805e+000 199 62 70
4.823393e-001 -1.325892e+000 2.834804e+000 29 54 24
5.496908e-001 -1.433712e+000 2.834372e+000 143 23 35
6.511887e-001 -1.491388e+000 2.877351e+000 23 67 97
5.194415e-001 -1.473232e+000 2.987082e+000 177 121 106
5.714877e-001 -1.525516e+000 2.920369e+000 179 124 94
5.725485e-001 -1.525419e+000 2.921940e+000 179 124 94
5.193891e-001 -1.503949e+000 3.028163e+000 141 33 49
6.499957e-001 -1.564111e+000 2.931334e+000 65 36 31
5.078956e-001 -1.293194e+000 2.718429e+000 154 87 80
4.792601e-001 -1.304930e+000 2.804203e+000 121 136 99
5.107995e-001 -1.352840e+000 2.801878e+000 22 51 23
4.957258e-001 -1.384184e+000 2.898616e+000 192 119 109
5.294453e-001 -1.425937e+000 2.855663e+000 188 120 96
5.608333e-001 -1.438609e+000 2.830537e+000 146 22 38
6.520044e-001 -1.444022e+000 2.834526e+000 172 149 118
6.290075e-001 -1.461053e+000 2.819838e+000 144 100 75
5.915346e-001 -1.564209e+000 2.933688e+000 144 23 30
4.824098e-001 -1.311376e+000 2.806677e+000 26 55 35
4.889185e-001 -1.309992e+000 2.788880e+000 22 55 26
5.033444e-001 -1.343584e+000 2.789243e+000 23 56 25
5.344913e-001 -1.514076e+000 2.976093e+000 177 120 98
5.867875e-001 -1.574661e+000 2.959295e+000 152 22 34
5.237578e-001 -1.399942e+000 2.826085e+000 154 114 104
5.350779e-001 -1.480812e+000 2.854097e+000 178 113 91
5.294224e-001 -1.503011e+000 2.976215e+000 181 121 102
5.356327e-001 -1.469412e+000 2.962524e+000 181 119 96
5.686703e-001 -1.470119e+000 2.853196e+000 10 50 85
4.830312e-001 -1.274308e+000 2.762373e+000 218 139 120
4.830312e-001 -1.274308e+000 2.762373e+000 218 139 120
5.039231e-001 -1.289668e+000 2.746785e+000 208 127 111
5.097357e-001 -1.318663e+000 2.765198e+000 50 82 40
5.200895e-001 -1.506725e+000 3.001834e+000 185 62 72
5.734503e-001 -1.540454e+000 2.935735e+000 178 126 95
5.384105e-001 -1.526171e+000 2.989962e+000 193 61 66
5.627381e-001 -1.545164e+000 2.964764e+000 213 68 79
5.892928e-001 -1.564813e+000 2.938841e+000 204 54 66
5.675918e-001 -1.552426e+000 2.965637e+000 196 55 67
5.675918e-001 -1.552426e+000 2.965637e+000 196 55 67
5.345903e-001 -1.539676e+000 3.028043e+000 180 117 104
5.535458e-001 -1.552339e+000 2.995616e+000 204 58 66
5.535074e-001 -1.552333e+000 2.995613e+000 204 58 66
5.695626e-001 -1.565210e+000 2.981470e+000 203 62 72
5.822052e-001 -1.572573e+000 2.969877e+000 198 63 69
5.803042e-001 -1.574204e+000 2.970954e+000 198 63 69
6.403244e-001 -1.589953e+000 2.959895e+000 75 50 53
5.554519e-001 -1.570927e+000 3.020397e+000 175 111 93
5.702298e-001 -1.583186e+000 3.005961e+000 113 78 56
5.702404e-001 -1.583093e+000 3.006152e+000 113 78 56
5.589342e-001 -1.585050e+000 3.033413e+000 175 65 50
5.845802e-001 -1.615668e+000 3.023598e+000 152 97 44
5.485442e-001 -1.586529e+000 3.074177e+000 36 26 22
5.952825e-001 -1.657623e+000 3.065426e+000 35 10 0
5.952825e-001 -1.657623e+000 3.065426e+000 35 10 0
6.012573e-001 -1.663278e+000 3.061815e+000 44 17 0
4.987584e-001 -1.340910e+000 2.797746e+000 152 149 38
5.714221e-001 -1.479531e+000 2.860185e+000 56 31 26
5.700206e-001 -1.554197e+000 2.963547e+000 205 66 75
5.351763e-001 -1.535720e+000 3.032611e+000 116 69 56
5.535644e-001 -1.556448e+000 2.999880e+000 191 53 56
5.637946e-001 -1.566269e+000 2.987156e+000 191 63 68
5.578227e-001 -1.583978e+000 3.027578e+000 132 43 31
6.063806e-001 -1.667733e+000 3.058746e+000 59 23 6
4.835384e-001 -1.268498e+000 2.757101e+000 175 36 51
5.259370e-001 -1.472504e+000 2.929470e+000 93 50 35
5.683486e-001 -1.502061e+000 2.895138e+000 84 54 39
5.079505e-001 -1.474203e+000 2.978173e+000 176 123 113
5.159670e-001 -1.475597e+000 2.961371e+000 112 66 51
5.394078e-001 -1.504445e+000 2.952259e+000 117 71 58
5.394078e-001 -1.504445e+000 2.952259e+000 117 71 58
5.737027e-001 -1.520168e+000 2.905625e+000 71 43 26
5.748282e-001 -1.526603e+000 2.913166e+000 65 33 18
5.775540e-001 -1.539948e+000 2.927130e+000 61 35 16
5.613722e-001 -1.563799e+000 2.989282e+000 195 69 72
5.859105e-001 -1.576660e+000 2.966047e+000 218 64 78
5.845111e-001 -1.577509e+000 2.966947e+000 218 64 78
6.621330e-001 -1.629919e+000 3.013666e+000 188 80 42
6.640939e-001 -1.565361e+000 2.956900e+000 83 48 46
6.575865e-001 -1.663535e+000 3.050204e+000 171 127 99
5.256490e-001 -1.533494e+000 3.085470e+000 38 28 36
6.519421e-001 -1.622280e+000 2.999155e+000 161 124 82
6.485264e-001 -1.665689e+000 3.039974e+000 159 115 90
5.574344e-001 -1.595773e+000 3.062840e+000 154 127 103
6.112743e-001 -1.650693e+000 3.022032e+000 170 77 42
7.128687e-001 -8.866931e-001 3.251087e+000 78 56 43
7.370628e-001 -8.942880e-001 3.256000e+000 101 69 60
5.462001e-001 -1.575082e+000 3.048476e+000 130 99 78
5.706949e-001 -1.610048e+000 3.045289e+000 113 50 19
5.870571e-001 -1.625981e+000 3.032297e+000 170 79 35
5.347644e-001 -1.592619e+000 3.103958e+000 105 90 81
5.379401e-001 -1.596466e+000 3.101943e+000 99 87 76
5.379401e-001 -1.596466e+000 3.101943e+000 99 87 76
5.486266e-001 -1.610960e+000 3.100189e+000 81 31 35
6.722796e-001 -1.280455e+000 2.711761e+000 222 129 91
6.382825e-001 -1.312126e+000 2.696408e+000 136 41 27
6.382825e-001 -1.312126e+000 2.696408e+000 136 41 27
6.843543e-001 -1.450914e+000 2.867613e+000 227 134 107
6.666729e-001 -1.487653e+000 2.881089e+000 133 177 189
6.568841e-001 -1.516353e+000 2.899040e+000 174 89 79
6.704200e-001 -1.510802e+000 2.908042e+000 125 71 79
6.779305e-001 -1.515563e+000 2.920914e+000 85 61 64
6.483642e-001 -1.536561e+000 2.910352e+000 125 65 70
6.683491e-001 -1.527234e+000 2.920644e+000 61 36 38
5.793600e-001 -1.551398e+000 2.935806e+000 127 82 58
6.901065e-001 -1.531936e+000 2.951312e+000 28 15 15
6.373323e-001 -1.556871e+000 2.923878e+000 138 71 75
7.221726e-001 -1.527455e+000 2.989870e+000 152 87 60
6.444831e-001 -1.570056e+000 2.942750e+000 107 57 59
6.453114e-001 -1.581676e+000 2.952518e+000 98 49 59
6.717544e-001 -1.574158e+000 2.967269e+000 119 89 88
6.105240e-001 -1.665654e+000 3.040523e+000 183 103 51
6.251300e-001 -1.690545e+000 3.062982e+000 202 95 48
6.811359e-001 -1.273708e+000 2.721128e+000 168 142 118
6.578092e-001 -1.519672e+000 2.901224e+000 176 89 82
6.854329e-001 -1.508229e+000 2.926557e+000 88 66 71
6.538146e-001 -1.528573e+000 2.907464e+000 81 39 41
6.352194e-001 -1.546871e+000 2.915549e+000 75 32 38
7.182624e-001 -1.521353e+000 2.982147e+000 148 61 44
6.539162e-001 -1.590558e+000 2.965782e+000 85 55 51
6.412469e-001 -1.448991e+000 2.826914e+000 199 149 122
7.129870e-001 -1.461173e+000 2.922380e+000 100 23 28
7.149558e-001 -1.511788e+000 2.969600e+000 87 15 22
7.227049e-001 -1.531180e+000 2.994950e+000 116 68 37
5.634933e-001 -1.578627e+000 2.983904e+000 119 78 53
6.298371e-001 -1.507613e+000 2.874259e+000 189 138 91
6.826057e-001 -1.374837e+000 2.812260e+000 38 60 19
6.390983e-001 -1.376921e+000 2.752809e+000 164 158 108
7.117571e-001 -1.387325e+000 2.854780e+000 168 107 89
6.581574e-001 -1.661252e+000 3.038239e+000 158 52 48
6.689961e-001 -1.354181e+000 2.767070e+000 172 159 115
6.689961e-001 -1.354181e+000 2.767070e+000 172 159 115
7.108512e-001 -1.654464e+000 3.067525e+000 40 29 37
4.912697e-001 -1.273207e+000 2.714803e+000 105 161 190
4.912697e-001 -1.273207e+000 2.714803e+000 105 161 190
4.652183e-001 -1.288568e+000 2.760624e+000 235 148 120
4.777430e-001 -1.288762e+000 2.749089e+000 229 137 110
4.766120e-001 -1.291502e+000 2.753467e+000 138 48 42
4.766120e-001 -1.291502e+000 2.753467e+000 138 48 42
4.544682e-001 -1.289798e+000 2.769156e+000 245 131 114
4.544682e-001 -1.289798e+000 2.769156e+000 245 131 114
4.724338e-001 -1.291477e+000 2.758101e+000 231 137 112
4.872432e-001 -1.296058e+000 2.750479e+000 217 148 112
5.291890e-001 -1.337053e+000 2.748129e+000 143 158 62
5.309566e-001 -1.338638e+000 2.747320e+000 35 48 13
5.369491e-001 -1.360230e+000 2.761333e+000 57 94 75
5.369491e-001 -1.360230e+000 2.761333e+000 57 94 75
5.262773e-001 -1.357969e+000 2.783393e+000 67 103 73
5.302802e-001 -1.354996e+000 2.770860e+000 80 101 59
5.317142e-001 -1.401397e+000 2.833079e+000 97 67 56
4.724451e-001 -1.404945e+000 2.890177e+000 234 156 136
4.851704e-001 -1.406614e+000 2.883412e+000 121 33 29
4.851704e-001 -1.406614e+000 2.883412e+000 121 33 29
5.122162e-001 -1.412426e+000 2.869260e+000 233 159 127
5.176834e-001 -1.411983e+000 2.864684e+000 232 148 118
5.175537e-001 -1.412214e+000 2.864688e+000 232 148 118
5.416780e-001 -1.425625e+000 2.848625e+000 212 159 120
5.533549e-001 -1.433802e+000 2.839705e+000 132 36 35
5.555069e-001 -1.434144e+000 2.835105e+000 144 36 34
5.576841e-001 -1.438545e+000 2.834890e+000 118 44 34
5.584104e-001 -1.437527e+000 2.834988e+000 118 44 34
5.619060e-001 -1.438805e+000 2.830224e+000 217 152 120
4.551681e-001 -1.417178e+000 2.909825e+000 30 91 139
5.128594e-001 -1.414632e+000 2.871290e+000 221 152 119
4.976502e-001 -1.433650e+000 2.882066e+000 1 36 70
5.256647e-001 -1.417432e+000 2.865053e+000 218 154 123
5.362727e-001 -1.424403e+000 2.856064e+000 233 148 112
5.422043e-001 -1.428073e+000 2.850880e+000 211 148 110
5.519528e-001 -1.435121e+000 2.841980e+000 237 147 122
5.759890e-001 -1.460686e+000 2.830081e+000 25 76 103
4.742171e-001 -1.436114e+000 2.923736e+000 104 63 52
5.182515e-001 -1.437338e+000 2.891840e+000 9 88 131
5.699555e-001 -1.473569e+000 2.860371e+000 195 121 102
5.667851e-001 -1.482337e+000 2.880958e+000 204 129 94
4.639636e-001 -1.467378e+000 2.963443e+000 211 102 99
4.739784e-001 -1.461856e+000 2.953847e+000 191 132 116
5.007206e-001 -1.477685e+000 2.957647e+000 115 80 62
5.007206e-001 -1.477685e+000 2.957647e+000 115 80 62
4.825787e-001 -1.483672e+000 2.971866e+000 106 60 47
5.349565e-001 -1.509114e+000 2.961775e+000 192 129 101
5.348961e-001 -1.509181e+000 2.961754e+000 192 129 101
4.949832e-001 -1.520742e+000 3.002976e+000 226 97 101
5.158774e-001 -1.522197e+000 2.993751e+000 159 30 37
5.106034e-001 -1.528088e+000 2.998641e+000 154 32 37
5.172186e-001 -1.523921e+000 2.992665e+000 236 74 82
5.019647e-001 -1.533768e+000 3.014254e+000 230 67 78
5.380575e-001 -1.530976e+000 2.982770e+000 227 66 74
5.380575e-001 -1.530976e+000 2.982770e+000 227 66 74
5.360531e-001 -1.537174e+000 2.990979e+000 143 32 34
5.359680e-001 -1.537314e+000 2.990990e+000 143 32 34
5.712940e-001 -1.548013e+000 2.962119e+000 152 34 40
5.783025e-001 -1.556544e+000 2.957195e+000 231 76 75
5.496620e-001 -1.554468e+000 2.996895e+000 159 28 35
5.630194e-001 -1.562253e+000 2.986457e+000 221 73 75
5.837535e-001 -1.562277e+000 2.960483e+000 165 30 36
5.466116e-001 -1.555889e+000 3.000796e+000 157 32 36
5.468958e-001 -1.555391e+000 3.000748e+000 157 32 36
5.587426e-001 -1.560365e+000 2.992746e+000 148 34 36
5.304083e-001 -1.569802e+000 3.030403e+000 113 72 56
5.466435e-001 -1.574639e+000 3.021313e+000 193 130 111
5.309130e-001 -1.589415e+000 3.048497e+000 101 74 47
5.722091e-001 -1.598658e+000 3.019367e+000 137 79 33
5.730772e-001 -1.603144e+000 3.022420e+000 235 140 74
5.730772e-001 -1.603144e+000 3.022420e+000 235 140 74
4.569481e-001 -1.284798e+000 2.761172e+000 155 47 39
4.574327e-001 -1.284267e+000 2.761404e+000 155 47 39
4.597457e-001 -1.281955e+000 2.756453e+000 185 37 40
4.913391e-001 -1.293670e+000 2.744064e+000 167 39 45
4.913391e-001 -1.293670e+000 2.744064e+000 167 39 45
5.001993e-001 -1.296154e+000 2.736720e+000 201 142 109
4.900527e-001 -1.298156e+000 2.750727e+000 165 41 37
5.116751e-001 -1.313178e+000 2.744104e+000 21 75 88
5.068730e-001 -1.388789e+000 2.846023e+000 181 151 140
5.159486e-001 -1.391990e+000 2.842243e+000 176 158 138
4.946424e-001 -1.415203e+000 2.888271e+000 10 54 89
5.501799e-001 -1.441200e+000 2.855228e+000 15 70 98
4.703452e-001 -1.446260e+000 2.938309e+000 127 82 76
4.703452e-001 -1.446260e+000 2.938309e+000 127 82 76
5.272296e-001 -1.447473e+000 2.897077e+000 196 124 102
4.909607e-001 -1.467238e+000 2.946076e+000 98 59 42
4.836402e-001 -1.470161e+000 2.956982e+000 108 67 52
4.603501e-001 -1.483359e+000 2.973892e+000 205 92 90
5.327937e-001 -1.516140e+000 2.970018e+000 82 41 25
5.329494e-001 -1.515912e+000 2.970035e+000 82 41 25
4.877788e-001 -1.526587e+000 3.014702e+000 217 67 79
4.879065e-001 -1.522071e+000 3.007927e+000 152 45 51
5.020803e-001 -1.531286e+000 3.007089e+000 151 34 41
5.080656e-001 -1.530783e+000 3.005413e+000 148 37 43
5.341368e-001 -1.532363e+000 2.987379e+000 150 31 40
5.588726e-001 -1.539169e+000 2.972307e+000 146 32 39
5.609620e-001 -1.547904e+000 2.971049e+000 221 70 73
5.718007e-001 -1.552925e+000 2.965896e+000 152 31 34
5.785060e-001 -1.552134e+000 2.955137e+000 150 36 36
5.768158e-001 -1.555507e+000 2.961053e+000 147 35 37
5.812027e-001 -1.553578e+000 2.949034e+000 239 71 74
5.824984e-001 -1.558385e+000 2.953725e+000 201 65 57
5.888920e-001 -1.567526e+000 2.951923e+000 214 74 67
5.895606e-001 -1.566932e+000 2.948399e+000 147 37 42
5.065467e-001 -1.544393e+000 3.023557e+000 219 64 76
5.172603e-001 -1.546457e+000 3.016478e+000 153 38 44
5.560203e-001 -1.547049e+000 2.981122e+000 224 65 70
5.721357e-001 -1.563051e+000 2.965747e+000 213 64 63
5.815834e-001 -1.560521e+000 2.960044e+000 210 75 65
5.891433e-001 -1.566641e+000 2.955097e+000 167 29 39
5.688982e-001 -1.566716e+000 2.987128e+000 239 85 88
5.579766e-001 -1.579090e+000 3.015001e+000 128 82 61
4.931450e-001 -1.292254e+000 2.739213e+000 177 27 39
5.064757e-001 -1.348035e+000 2.801058e+000 154 152 43
5.064757e-001 -1.348035e+000 2.801058e+000 154 152 43
5.317827e-001 -1.363800e+000 2.781262e+000 74 109 97
5.316783e-001 -1.364322e+000 2.781513e+000 74 109 97
5.578713e-001 -1.393090e+000 2.775011e+000 88 87 66
5.579725e-001 -1.392934e+000 2.775069e+000 88 87 66
5.191322e-001 -1.446207e+000 2.902785e+000 78 42 30
5.190883e-001 -1.446231e+000 2.902798e+000 78 42 30
5.303055e-001 -1.467182e+000 2.916062e+000 204 129 110
5.232847e-001 -1.466768e+000 2.922736e+000 173 118 93
5.731218e-001 -1.492361e+000 2.884834e+000 101 55 41
5.725678e-001 -1.493433e+000 2.884884e+000 101 55 41
4.892584e-001 -1.474069e+000 2.962709e+000 137 90 77
4.892584e-001 -1.474069e+000 2.962709e+000 137 90 77
4.970199e-001 -1.477085e+000 2.959014e+000 103 57 39
5.286698e-001 -1.479243e+000 2.932629e+000 200 131 106
5.307841e-001 -1.485609e+000 2.939377e+000 199 132 105
5.771321e-001 -1.513541e+000 2.905678e+000 113 70 47
5.771978e-001 -1.522114e+000 2.913118e+000 106 76 56
5.071363e-001 -1.494870e+000 2.969599e+000 96 59 45
5.071363e-001 -1.494870e+000 2.969599e+000 96 59 45
5.423157e-001 -1.507312e+000 2.951183e+000 92 49 36
5.423738e-001 -1.507239e+000 2.951182e+000 92 49 36
4.760226e-001 -1.516750e+000 3.009273e+000 187 152 125
4.906504e-001 -1.506963e+000 2.989757e+000 119 71 57
5.013761e-001 -1.507245e+000 2.985724e+000 141 92 78
5.324863e-001 -1.507722e+000 2.963450e+000 167 114 96
5.733328e-001 -1.530029e+000 2.932156e+000 163 119 86
5.801418e-001 -1.535178e+000 2.926680e+000 90 59 41
5.820671e-001 -1.540921e+000 2.933012e+000 82 54 38
5.745952e-001 -1.544238e+000 2.948425e+000 198 142 100
4.929518e-001 -1.538920e+000 3.020468e+000 159 34 48
5.307213e-001 -1.529327e+000 2.988344e+000 153 32 36
5.494795e-001 -1.540519e+000 2.981267e+000 216 75 73
4.988368e-001 -1.547931e+000 3.029351e+000 151 36 43
5.722207e-001 -1.565595e+000 2.979181e+000 227 79 80
5.722207e-001 -1.565595e+000 2.979181e+000 227 79 80
5.939186e-001 -1.580299e+000 2.959275e+000 233 69 78
5.153845e-001 -1.558774e+000 3.029728e+000 140 90 77
5.153632e-001 -1.558851e+000 3.029746e+000 140 90 77
5.321545e-001 -1.563442e+000 3.021869e+000 123 66 55
5.145270e-001 -1.561391e+000 3.034798e+000 199 133 108
5.361127e-001 -1.570969e+000 3.027092e+000 100 60 45
5.460613e-001 -1.567425e+000 3.014496e+000 106 63 43
5.460755e-001 -1.567204e+000 3.014451e+000 106 63 43
5.620475e-001 -1.585159e+000 3.019267e+000 189 89 50
5.165025e-001 -1.595627e+000 3.068869e+000 148 118 97
4.826048e-001 -1.298087e+000 2.757376e+000 181 39 45
5.172813e-001 -1.331494e+000 2.761357e+000 158 152 22
4.768755e-001 -1.336219e+000 2.815126e+000 146 148 55
4.768755e-001 -1.336219e+000 2.815126e+000 146 148 55
5.177066e-001 -1.352282e+000 2.788900e+000 160 159 23
5.177066e-001 -1.352282e+000 2.788900e+000 160 159 23
5.008493e-001 -1.389433e+000 2.852876e+000 157 133 123
5.086459e-001 -1.413989e+000 2.877271e+000 165 25 38
5.214236e-001 -1.418426e+000 2.870714e+000 160 29 34
5.215502e-001 -1.425904e+000 2.876057e+000 5 54 83
5.313271e-001 -1.422630e+000 2.863885e+000 169 26 40
5.349739e-001 -1.452333e+000 2.899245e+000 201 130 105
5.370562e-001 -1.458296e+000 2.899805e+000 190 129 100
4.741477e-001 -1.454847e+000 2.940378e+000 200 136 118
4.741477e-001 -1.454847e+000 2.940378e+000 200 136 118
4.780859e-001 -1.460938e+000 2.947166e+000 199 134 116
4.789134e-001 -1.455825e+000 2.938878e+000 198 134 116
4.789134e-001 -1.455825e+000 2.938878e+000 198 134 116
4.844010e-001 -1.454079e+000 2.937048e+000 201 134 118
4.861697e-001 -1.451409e+000 2.937171e+000 201 134 118
5.237948e-001 -1.458449e+000 2.911229e+000 199 134 106
5.644507e-001 -1.480920e+000 2.883415e+000 176 114 90
5.682444e-001 -1.483660e+000 2.875025e+000 203 127 99
5.695730e-001 -1.490891e+000 2.882226e+000 200 131 101
5.252154e-001 -1.473598e+000 2.929488e+000 141 98 77
4.890809e-001 -1.485382e+000 2.964855e+000 199 134 109
5.264868e-001 -1.481295e+000 2.936306e+000 117 68 55
5.283436e-001 -1.487911e+000 2.943083e+000 89 51 37
4.843856e-001 -1.494427e+000 2.985552e+000 140 92 85
4.867335e-001 -1.504186e+000 2.987546e+000 198 136 115
4.877290e-001 -1.502622e+000 2.987416e+000 198 136 115
5.314335e-001 -1.499722e+000 2.952324e+000 197 133 108
5.315843e-001 -1.499206e+000 2.952358e+000 197 133 108
5.313940e-001 -1.502938e+000 2.956305e+000 160 106 87
5.313940e-001 -1.502938e+000 2.956305e+000 160 106 87
5.333822e-001 -1.507658e+000 2.958942e+000 197 133 107
5.776067e-001 -1.529892e+000 2.924468e+000 201 143 106
5.422156e-001 -1.531344e+000 2.977039e+000 162 25 38
5.714265e-001 -1.546635e+000 2.959994e+000 157 32 38
5.185473e-001 -1.560766e+000 3.031683e+000 202 132 107
5.184606e-001 -1.561078e+000 3.031862e+000 202 132 107
5.649529e-001 -1.575511e+000 3.001791e+000 76 36 9
5.305209e-001 -1.333669e+000 2.747450e+000 99 113 36
4.887546e-001 -1.336871e+000 2.797379e+000 137 141 30
5.121764e-001 -1.388009e+000 2.841234e+000 170 160 145
4.855433e-001 -1.403312e+000 2.877678e+000 171 27 42
5.040188e-001 -1.404606e+000 2.870346e+000 172 26 37
5.230464e-001 -1.412563e+000 2.859854e+000 171 30 39
5.478457e-001 -1.428055e+000 2.838458e+000 167 24 38
4.726407e-001 -1.481195e+000 2.971186e+000 207 138 123
4.796581e-001 -1.517226e+000 3.006087e+000 164 28 43
5.288637e-001 -1.527197e+000 2.984084e+000 166 23 35
4.690119e-001 -1.330520e+000 2.805582e+000 118 144 118
4.793999e-001 -1.350955e+000 2.821019e+000 29 59 32
5.335558e-001 -1.395143e+000 2.822593e+000 162 153 137
5.265059e-001 -1.544254e+000 3.003355e+000 174 21 39
5.265059e-001 -1.544254e+000 3.003355e+000 174 21 39
5.738901e-001 -1.563420e+000 2.971771e+000 176 23 37
5.738901e-001 -1.563420e+000 2.971771e+000 176 23 37
4.616916e-001 -1.302005e+000 2.787096e+000 127 141 143
4.639435e-001 -1.315947e+000 2.799857e+000 131 145 134
4.639435e-001 -1.315947e+000 2.799857e+000 131 145 134
5.431579e-001 -1.379041e+000 2.779302e+000 98 123 115
5.431579e-001 -1.379041e+000 2.779302e+000 98 123 115
4.438600e-001 -1.481562e+000 2.971534e+000 192 104 102
5.287167e-001 -1.520986e+000 2.978278e+000 199 132 106
5.480943e-001 -1.555296e+000 2.991477e+000 172 27 34
5.976412e-001 -1.584884e+000 2.961532e+000 177 27 39
5.683706e-001 -1.588813e+000 3.013540e+000 193 144 101
5.146764e-001 -1.348536e+000 2.784238e+000 62 106 117
4.734774e-001 -1.347847e+000 2.825193e+000 25 62 31
4.782705e-001 -1.344045e+000 2.814207e+000 126 146 137
4.810177e-001 -1.356507e+000 2.828046e+000 154 154 144
5.574047e-001 -1.376470e+000 2.751698e+000 52 97 120
5.107608e-001 -1.498172e+000 2.971840e+000 201 131 110
5.149858e-001 -1.481998e+000 2.946004e+000 194 133 105
5.368323e-001 -1.504682e+000 2.952086e+000 125 82 67
4.526738e-001 -1.488046e+000 2.965789e+000 184 102 90
6.012640e-001 -1.609466e+000 2.945502e+000 184 136 64
5.749378e-001 -1.573813e+000 2.963025e+000 163 35 35
4.124303e-001 -1.295291e+000 2.777785e+000 167 166 164
5.976429e-001 -1.534173e+000 2.899292e+000 179 140 97
4.484678e-001 -1.280225e+000 2.760196e+000 159 27 32
4.484678e-001 -1.280225e+000 2.760196e+000 159 27 32
5.088893e-001 -1.296677e+000 2.725843e+000 17 71 97
4.686369e-001 -1.291435e+000 2.758795e+000 203 130 94
4.791343e-001 -1.293435e+000 2.754373e+000 205 131 94
4.790303e-001 -1.293705e+000 2.754325e+000 205 131 94
5.024521e-001 -1.297919e+000 2.736917e+000 137 44 34
5.105494e-001 -1.302223e+000 2.732024e+000 20 72 96
5.096583e-001 -1.307620e+000 2.742902e+000 159 35 34
4.838902e-001 -1.317078e+000 2.776089e+000 64 72 21
5.058237e-001 -1.322589e+000 2.766263e+000 50 75 46
4.720206e-001 -1.339600e+000 2.813738e+000 130 134 32
5.169536e-001 -1.349409e+000 2.786174e+000 80 89 42
5.004556e-001 -1.382217e+000 2.843845e+000 191 106 87
5.302269e-001 -1.391528e+000 2.820786e+000 70 35 22
5.302269e-001 -1.391528e+000 2.820786e+000 70 35 22
5.078590e-001 -1.387630e+000 2.843505e+000 77 21 14
5.162202e-001 -1.389781e+000 2.839512e+000 76 12 7
5.162202e-001 -1.389781e+000 2.839512e+000 76 12 7
4.755328e-001 -1.403844e+000 2.886065e+000 198 130 98
4.988248e-001 -1.409369e+000 2.875742e+000 205 133 98
5.263335e-001 -1.417723e+000 2.862846e+000 116 27 21
5.263335e-001 -1.417723e+000 2.862846e+000 116 27 21
5.322078e-001 -1.420607e+000 2.858217e+000 92 24 18
5.359597e-001 -1.422078e+000 2.853749e+000 196 136 88
5.441014e-001 -1.426792e+000 2.846390e+000 222 128 100
5.474611e-001 -1.430262e+000 2.846720e+000 214 128 96
5.536785e-001 -1.433028e+000 2.839876e+000 115 25 23
5.647723e-001 -1.438943e+000 2.828376e+000 210 141 97
5.647723e-001 -1.438943e+000 2.828376e+000 210 141 97
4.801669e-001 -1.405705e+000 2.886976e+000 193 147 102
4.797483e-001 -1.406562e+000 2.886852e+000 193 147 102
4.876963e-001 -1.408164e+000 2.883564e+000 219 133 103
4.917590e-001 -1.409834e+000 2.881340e+000 198 133 97
4.970449e-001 -1.409742e+000 2.877679e+000 107 16 23
4.970553e-001 -1.409795e+000 2.877690e+000 107 16 23
5.092185e-001 -1.414057e+000 2.873029e+000 197 134 96
5.182985e-001 -1.416233e+000 2.868552e+000 199 139 113
5.216227e-001 -1.417241e+000 2.866954e+000 202 135 102
5.216118e-001 -1.417296e+000 2.866962e+000 202 135 102
5.249900e-001 -1.418178e+000 2.864929e+000 191 135 88
5.250620e-001 -1.418016e+000 2.864960e+000 191 135 88
5.281414e-001 -1.419434e+000 2.863024e+000 197 131 90
4.537141e-001 -1.415170e+000 2.906195e+000 26 73 108
5.209467e-001 -1.453940e+000 2.908897e+000 167 103 83
5.328420e-001 -1.456666e+000 2.902985e+000 50 15 3
5.249908e-001 -1.460184e+000 2.913725e+000 177 104 76
4.613292e-001 -1.465158e+000 2.957545e+000 140 42 36
4.917089e-001 -1.473153e+000 2.952553e+000 186 113 85
5.031548e-001 -1.468566e+000 2.939926e+000 184 106 79
4.763710e-001 -1.479912e+000 2.965342e+000 181 108 88
5.760721e-001 -1.530122e+000 2.929861e+000 178 115 74
5.812030e-001 -1.553282e+000 2.949298e+000 201 51 57
5.080271e-001 -1.529119e+000 3.002421e+000 223 66 74
5.079747e-001 -1.529347e+000 3.002460e+000 223 66 74
5.274584e-001 -1.528284e+000 2.987796e+000 198 55 66
5.212963e-001 -1.529051e+000 2.993531e+000 128 22 23
5.322535e-001 -1.534685e+000 2.990816e+000 220 70 76
4.878115e-001 -1.532774e+000 3.017040e+000 131 28 31
5.746158e-001 -1.568029e+000 2.977154e+000 218 51 56
5.322808e-001 -1.551431e+000 3.008354e+000 119 26 30
5.342717e-001 -1.553342e+000 3.007254e+000 125 22 29
5.434311e-001 -1.551921e+000 3.000171e+000 128 26 29
5.578498e-001 -1.556834e+000 2.991406e+000 222 70 81
4.643893e-001 -1.289925e+000 2.759907e+000 206 131 88
4.713756e-001 -1.289758e+000 2.754884e+000 192 132 95
4.742585e-001 -1.288644e+000 2.750699e+000 202 133 97
5.031695e-001 -1.300246e+000 2.739518e+000 142 39 30
4.840362e-001 -1.324730e+000 2.787782e+000 77 98 91
5.116978e-001 -1.349790e+000 2.795989e+000 141 139 32
5.573933e-001 -1.396153e+000 2.777192e+000 155 144 104
5.150444e-001 -1.383666e+000 2.833122e+000 92 16 19
5.049799e-001 -1.385366e+000 2.842373e+000 157 136 110
5.049296e-001 -1.385496e+000 2.842303e+000 157 136 110
5.075679e-001 -1.388170e+000 2.846174e+000 157 129 107
4.627446e-001 -1.410154e+000 2.899782e+000 24 68 104
4.915203e-001 -1.459466e+000 2.938417e+000 81 45 37
4.788495e-001 -1.465224e+000 2.950723e+000 67 43 32
4.824528e-001 -1.473530e+000 2.956742e+000 70 36 27
4.979280e-001 -1.474829e+000 2.950614e+000 70 43 36
4.979280e-001 -1.474829e+000 2.950614e+000 70 43 36
5.091676e-001 -1.470333e+000 2.937838e+000 70 41 30
4.548856e-001 -1.482153e+000 2.971372e+000 184 96 86
4.632350e-001 -1.478666e+000 2.967289e+000 179 90 81
4.893448e-001 -1.480543e+000 2.961457e+000 82 43 31
5.090480e-001 -1.490783e+000 2.960497e+000 62 28 13
5.091632e-001 -1.497079e+000 2.967717e+000 42 18 11
5.091632e-001 -1.497079e+000 2.967717e+000 42 18 11
5.141675e-001 -1.492671e+000 2.957661e+000 103 58 39
5.348309e-001 -1.496240e+000 2.946765e+000 176 108 77
5.346778e-001 -1.496603e+000 2.946687e+000 176 108 77
4.938198e-001 -1.499566e+000 2.982015e+000 64 26 25
5.038513e-001 -1.514438e+000 2.993554e+000 186 106 81
4.970428e-001 -1.523694e+000 3.004553e+000 131 22 27
4.998151e-001 -1.524144e+000 3.003437e+000 125 25 30
5.343173e-001 -1.531760e+000 2.987382e+000 131 28 30
5.706387e-001 -1.555493e+000 2.966016e+000 139 23 30
5.804901e-001 -1.558026e+000 2.957768e+000 130 20 29
5.809550e-001 -1.556310e+000 2.957886e+000 130 20 29
5.853406e-001 -1.556664e+000 2.954811e+000 133 23 25
5.925430e-001 -1.567952e+000 2.949122e+000 231 71 76
4.918784e-001 -1.529930e+000 3.011142e+000 127 28 34
4.903606e-001 -1.529046e+000 3.014092e+000 214 73 75
4.903606e-001 -1.529046e+000 3.014092e+000 214 73 75
5.396737e-001 -1.537654e+000 2.989407e+000 126 23 28
5.420826e-001 -1.542629e+000 2.990143e+000 184 38 38
5.685096e-001 -1.563273e+000 2.984057e+000 136 20 29
5.789806e-001 -1.567418e+000 2.973999e+000 212 45 51
5.787095e-001 -1.568275e+000 2.974182e+000 212 45 51
5.041085e-001 -1.544866e+000 3.022089e+000 137 24 33
5.398460e-001 -1.553911e+000 3.004514e+000 136 21 24
5.394644e-001 -1.554994e+000 3.007398e+000 237 77 91
5.430001e-001 -1.556833e+000 3.005035e+000 192 51 56
5.501251e-001 -1.556095e+000 2.998609e+000 126 23 31
5.646886e-001 -1.559940e+000 2.991243e+000 220 83 91
5.033651e-001 -1.558076e+000 3.035550e+000 56 30 16
4.749119e-001 -1.287571e+000 2.748065e+000 164 26 36
4.752557e-001 -1.286987e+000 2.748317e+000 164 26 36
4.667011e-001 -1.291483e+000 2.761087e+000 157 33 33
4.874464e-001 -1.298676e+000 2.752735e+000 188 138 98
4.870941e-001 -1.316253e+000 2.776427e+000 139 143 32
4.870941e-001 -1.316253e+000 2.776427e+000 139 143 32
5.043082e-001 -1.322953e+000 2.769313e+000 146 137 27
5.043082e-001 -1.322953e+000 2.769313e+000 146 137 27
5.087961e-001 -1.331776e+000 2.775838e+000 47 87 85
5.204565e-001 -1.344970e+000 2.777228e+000 57 83 89
4.970699e-001 -1.344151e+000 2.801090e+000 144 136 26
5.010782e-001 -1.385721e+000 2.847209e+000 149 128 106
5.157256e-001 -1.392187e+000 2.842376e+000 159 131 108
5.150091e-001 -1.414883e+000 2.868422e+000 146 19 28
4.806554e-001 -1.415078e+000 2.892012e+000 20 70 96
5.192057e-001 -1.445871e+000 2.902950e+000 72 35 16
5.227536e-001 -1.447891e+000 2.905058e+000 177 106 78
5.714729e-001 -1.485618e+000 2.877764e+000 74 32 19
4.864809e-001 -1.465911e+000 2.947848e+000 144 89 67
4.864809e-001 -1.465911e+000 2.947848e+000 144 89 67
5.738969e-001 -1.528457e+000 2.932083e+000 166 110 74
5.807538e-001 -1.532908e+000 2.926616e+000 70 35 12
4.848094e-001 -1.507291e+000 2.995001e+000 180 110 94
4.883302e-001 -1.508683e+000 2.993713e+000 189 107 86
4.877522e-001 -1.510237e+000 2.993676e+000 189 107 86
5.012366e-001 -1.507894e+000 2.985671e+000 153 92 73
5.328055e-001 -1.516121e+000 2.969998e+000 70 41 21
5.422570e-001 -1.519862e+000 2.966039e+000 68 29 22
5.912101e-001 -1.565103e+000 2.944347e+000 222 74 78
5.446044e-001 -1.533834e+000 2.981202e+000 123 21 28
5.545235e-001 -1.542362e+000 2.979642e+000 138 22 27
4.900429e-001 -1.537926e+000 3.021651e+000 133 24 33
4.895950e-001 -1.539335e+000 3.021706e+000 133 24 33
4.946863e-001 -1.537804e+000 3.020432e+000 131 21 33
4.950561e-001 -1.536264e+000 3.020468e+000 131 21 33
4.977173e-001 -1.536342e+000 3.013745e+000 132 23 32
5.077662e-001 -1.532286e+000 3.005281e+000 129 27 31
5.083647e-001 -1.537591e+000 3.011674e+000 155 23 18
5.208723e-001 -1.560836e+000 3.027519e+000 111 56 43
5.647486e-001 -1.575237e+000 3.002013e+000 70 38 24
4.620725e-001 -1.284526e+000 2.754797e+000 162 28 31
4.678457e-001 -1.285387e+000 2.752344e+000 157 27 25
4.677272e-001 -1.285611e+000 2.752223e+000 157 27 25
4.807290e-001 -1.315870e+000 2.781126e+000 139 129 25
4.864602e-001 -1.410634e+000 2.887261e+000 133 20 26
4.521605e-001 -1.414606e+000 2.909598e+000 153 144 142
5.028261e-001 -1.419929e+000 2.885732e+000 1 30 48
5.088400e-001 -1.421315e+000 2.882715e+000 2 27 45
5.753091e-001 -1.483411e+000 2.864378e+000 176 106 74
5.330446e-001 -1.454940e+000 2.899119e+000 177 110 73
5.330446e-001 -1.454940e+000 2.899119e+000 177 110 73
5.284460e-001 -1.459770e+000 2.908462e+000 180 107 74
5.696721e-001 -1.497786e+000 2.895612e+000 151 78 52
5.700870e-001 -1.499964e+000 2.900086e+000 182 109 81
5.703167e-001 -1.498313e+000 2.900087e+000 182 109 81
4.647106e-001 -1.473763e+000 2.964066e+000 144 35 38
5.265057e-001 -1.481129e+000 2.936291e+000 130 74 59
5.717294e-001 -1.503706e+000 2.907275e+000 181 114 77
5.743913e-001 -1.517387e+000 2.910463e+000 181 119 75
5.284468e-001 -1.486124e+000 2.939212e+000 178 103 82
5.300187e-001 -1.493259e+000 2.945325e+000 175 109 70
5.336808e-001 -1.494484e+000 2.943857e+000 175 108 77
5.789617e-001 -1.527118e+000 2.919867e+000 109 61 32
4.837784e-001 -1.492720e+000 2.973873e+000 177 110 88
4.891235e-001 -1.491711e+000 2.972287e+000 175 110 85
4.891235e-001 -1.491711e+000 2.972287e+000 175 110 85
4.960452e-001 -1.488921e+000 2.969656e+000 177 110 82
5.037843e-001 -1.489595e+000 2.962349e+000 115 58 39
5.400639e-001 -1.501388e+000 2.948568e+000 181 109 77
5.744040e-001 -1.528141e+000 2.927136e+000 183 120 73
4.870626e-001 -1.496307e+000 2.980480e+000 182 104 89
4.870626e-001 -1.496307e+000 2.980480e+000 182 104 89
5.018415e-001 -1.504045e+000 2.981897e+000 178 108 87
5.018415e-001 -1.504045e+000 2.981897e+000 178 108 87
5.093992e-001 -1.500837e+000 2.971122e+000 177 109 83
5.093992e-001 -1.500837e+000 2.971122e+000 177 109 83
5.376728e-001 -1.516140e+000 2.964051e+000 175 109 77
5.376728e-001 -1.516140e+000 2.964051e+000 175 109 77
4.955558e-001 -1.519674e+000 2.999327e+000 146 17 37
5.145035e-001 -1.527027e+000 2.996718e+000 137 23 37
5.145035e-001 -1.527027e+000 2.996718e+000 137 23 37
5.117674e-001 -1.535842e+000 3.008463e+000 140 22 28
4.939583e-001 -1.340290e+000 2.799506e+000 22 51 9
4.940697e-001 -1.404056e+000 2.873729e+000 141 18 19
5.251898e-001 -1.418997e+000 2.868617e+000 127 22 26
4.530954e-001 -1.448830e+000 2.941071e+000 159 47 45
5.264762e-001 -1.463092e+000 2.917663e+000 175 107 81
5.352648e-001 -1.502598e+000 2.950088e+000 178 109 78
4.785533e-001 -1.514186e+000 3.001000e+000 180 113 96
5.469885e-001 -1.566579e+000 3.009262e+000 182 107 77
4.843575e-001 -1.317955e+000 2.775787e+000 92 89 18
4.912340e-001 -1.319311e+000 2.776478e+000 24 46 21
4.621141e-001 -1.330442e+000 2.810656e+000 129 124 42
4.689762e-001 -1.330574e+000 2.805480e+000 118 121 43
5.244282e-001 -1.358159e+000 2.790234e+000 29 46 24
5.085245e-001 -1.315806e+000 2.748285e+000 16 70 98
4.780058e-001 -1.319070e+000 2.786393e+000 22 47 25
4.675135e-001 -1.460207e+000 2.949724e+000 179 111 92
4.754901e-001 -1.494280e+000 2.982028e+000 178 111 92
5.569782e-001 -1.555283e+000 2.985186e+000 154 15 31
4.765336e-001 -1.444876e+000 2.929002e+000 176 108 87
5.196805e-001 -1.473238e+000 2.935677e+000 175 106 73
4.414329e-001 -1.274200e+000 2.757401e+000 127 126 111
5.918095e-001 -1.580268e+000 2.960000e+000 169 26 31
5.918095e-001 -1.580268e+000 2.960000e+000 169 26 31
5.186422e-001 -1.519287e+000 2.977735e+000 177 109 74
5.436252e-001 -1.413345e+000 2.831231e+000 159 141 105
5.348392e-001 -1.376440e+000 2.778256e+000 24 47 19
4.742057e-001 -1.417652e+000 2.899820e+000 23 66 93
5.585756e-001 -1.457451e+000 2.844960e+000 71 117 139
5.082923e-001 -1.390369e+000 2.836677e+000 114 30 32
5.122624e-001 -1.309172e+000 2.739309e+000 37 68 44
5.142954e-001 -1.322063e+000 2.753313e+000 34 72 45
4.818127e-001 -1.327742e+000 2.786948e+000 83 106 78
5.089648e-001 -1.411578e+000 2.870586e+000 200 139 107
5.125823e-001 -1.415291e+000 2.871188e+000 218 125 98
5.768232e-001 -1.462756e+000 2.833364e+000 45 74 82
5.405048e-001 -1.448924e+000 2.876110e+000 8 49 71
5.246970e-001 -1.460877e+000 2.913751e+000 177 112 84
5.134795e-001 -1.493479e+000 2.960165e+000 182 110 82
4.894083e-001 -1.537872e+000 3.024933e+000 216 59 71
5.060100e-001 -1.296858e+000 2.730214e+000 160 34 32
5.285737e-001 -1.342177e+000 2.761525e+000 139 139 42
5.088034e-001 -1.383736e+000 2.837789e+000 169 139 112
5.172467e-001 -1.385752e+000 2.833639e+000 180 137 111
4.939042e-001 -1.499419e+000 2.982015e+000 87 49 45
5.054959e-001 -1.523438e+000 2.998382e+000 181 80 68
5.054259e-001 -1.523545e+000 2.998381e+000 181 80 68
5.672021e-001 -1.549703e+000 2.963763e+000 128 30 31
5.458947e-001 -1.535836e+000 2.981051e+000 133 24 29
4.945435e-001 -1.540919e+000 3.023490e+000 199 60 71
4.958205e-001 -1.538315e+000 3.023192e+000 199 60 71
5.088301e-001 -1.300621e+000 2.731843e+000 173 145 116
5.095099e-001 -1.324710e+000 2.763360e+000 145 141 33
4.812745e-001 -1.324798e+000 2.787859e+000 142 132 24
4.812745e-001 -1.324798e+000 2.787859e+000 142 132 24
5.433288e-001 -1.524028e+000 2.968698e+000 187 111 91
5.816012e-001 -1.541906e+000 2.933196e+000 87 49 30
4.936988e-001 -1.525425e+000 3.010904e+000 134 28 36
5.686914e-001 -1.554947e+000 2.967974e+000 140 26 30
5.039038e-001 -1.535621e+000 3.017337e+000 138 24 32
4.966425e-001 -1.310307e+000 2.610606e+000 207 174 131
4.752492e-001 -1.408181e+000 2.891460e+000 145 20 36
4.886308e-001 -1.458376e+000 2.934761e+000 182 113 90
5.194776e-001 -1.360427e+000 2.809171e+000 27 50 23
5.194776e-001 -1.360427e+000 2.809171e+000 27 50 23
4.941546e-001 -1.408267e+000 2.878532e+000 192 117 90
4.852953e-001 -1.535665e+000 3.024494e+000 151 21 31
4.716820e-001 -1.305487e+000 2.767471e+000 40 88 107
4.673765e-001 -1.513882e+000 3.001882e+000 115 24 39
5.752156e-001 -1.529161e+000 2.948329e+000 187 125 84
4.497421e-001 -1.530619e+000 3.013462e+000 186 147 135
5.460630e-001 -1.529759e+000 2.976378e+000 154 25 27
5.863613e-001 -1.636339e+000 3.047836e+000 183 150 124
5.961188e-001 -1.645059e+000 3.040352e+000 23 14 7
6.127828e-001 -1.676287e+000 3.047642e+000 48 16 2
5.747436e-001 -1.612656e+000 3.039009e+000 169 75 39
7.085492e-001 -8.938507e-001 3.237967e+000 73 53 44
6.863474e-001 -9.548680e-001 3.311567e+000 71 60 54
7.272352e-001 -8.088080e-001 3.168713e+000 159 108 85
7.226375e-001 -9.332216e-001 3.243898e+000 39 34 41
7.047437e-001 -9.031530e-001 3.252936e+000 23 12 18
6.901973e-001 -9.271705e-001 3.295601e+000 20 10 18
5.810917e-001 -1.636132e+000 3.059689e+000 164 92 47
5.240163e-001 -1.568349e+000 3.033816e+000 71 41 24
5.309496e-001 -1.568760e+000 3.030221e+000 113 72 56
5.233587e-001 -1.580790e+000 3.047213e+000 175 136 105
5.359632e-001 -1.585709e+000 3.041624e+000 135 102 74
5.139354e-001 -1.594541e+000 3.067738e+000 164 129 98
5.216285e-001 -1.597175e+000 3.063994e+000 168 129 99
5.268769e-001 -1.588105e+000 3.053061e+000 165 128 100
5.764088e-001 -1.602605e+000 3.018017e+000 189 109 52
5.744692e-001 -1.603993e+000 3.020910e+000 100 48 18
5.159452e-001 -1.599906e+000 3.071627e+000 170 130 105
5.273035e-001 -1.597536e+000 3.061111e+000 173 131 100
5.260030e-001 -1.599717e+000 3.066657e+000 172 132 102
5.515545e-001 -1.599448e+000 3.046684e+000 143 103 68
5.529769e-001 -1.605320e+000 3.047756e+000 184 126 88
5.563818e-001 -1.603810e+000 3.040961e+000 193 94 41
5.536844e-001 -1.607468e+000 3.049461e+000 188 130 87
5.552335e-001 -1.611576e+000 3.051179e+000 187 117 64
5.638307e-001 -1.605950e+000 3.036262e+000 192 78 42
5.634383e-001 -1.608422e+000 3.040880e+000 180 79 37
5.767442e-001 -1.610385e+000 3.027056e+000 185 74 37
5.388871e-001 -1.614780e+000 3.070159e+000 28 19 14
5.388829e-001 -1.614708e+000 3.070009e+000 28 19 14
5.934033e-001 -1.630439e+000 3.025525e+000 123 52 17
5.832045e-001 -1.639293e+000 3.050182e+000 32 22 17
5.828095e-001 -1.640097e+000 3.050326e+000 32 22 17
5.981249e-001 -1.644035e+000 3.037940e+000 191 149 122
6.075703e-001 -1.656267e+000 3.024758e+000 183 155 127
6.085291e-001 -1.658946e+000 3.030836e+000 178 141 114
5.115823e-001 -1.634600e+000 3.112308e+000 137 95 93
5.221584e-001 -1.634477e+000 3.100911e+000 33 23 16
5.221584e-001 -1.634477e+000 3.100911e+000 33 23 16
5.250457e-001 -1.638261e+000 3.102719e+000 153 124 113
5.334983e-001 -1.640973e+000 3.096707e+000 155 127 111
5.495295e-001 -1.643181e+000 3.085449e+000 32 22 13
5.642029e-001 -1.649803e+000 3.079076e+000 170 139 118
5.837339e-001 -1.643488e+000 3.054509e+000 38 23 15
5.833298e-001 -1.652839e+000 3.060579e+000 177 107 40
5.859477e-001 -1.645629e+000 3.053770e+000 190 156 131
5.859425e-001 -1.645784e+000 3.053763e+000 190 156 131
5.839898e-001 -1.655555e+000 3.062851e+000 174 104 38
5.957466e-001 -1.652265e+000 3.045162e+000 33 22 14
5.983433e-001 -1.654850e+000 3.050246e+000 175 93 34
5.822394e-001 -1.665738e+000 3.073136e+000 43 16 0
5.889537e-001 -1.665826e+000 3.067088e+000 157 84 30
5.978078e-001 -1.672628e+000 3.062991e+000 47 22 13
6.096228e-001 -1.676674e+000 3.055526e+000 43 22 10
5.300146e-001 -1.593956e+000 3.055800e+000 168 130 99
5.356541e-001 -1.588538e+000 3.044513e+000 168 130 93
5.417924e-001 -1.592038e+000 3.045265e+000 177 133 98
5.893537e-001 -1.613309e+000 3.009281e+000 187 54 39
5.262560e-001 -1.599269e+000 3.064135e+000 109 82 63
5.514885e-001 -1.606512e+000 3.050751e+000 97 66 41
5.511827e-001 -1.609092e+000 3.053564e+000 190 138 98
5.615966e-001 -1.603061e+000 3.036040e+000 138 50 28
5.663932e-001 -1.611609e+000 3.038843e+000 192 85 41
5.491561e-001 -1.645794e+000 3.090088e+000 171 138 119
6.032629e-001 -1.675661e+000 3.059388e+000 46 15 3
5.821331e-001 -1.592658e+000 2.996377e+000 88 57 39
5.088328e-001 -1.599542e+000 3.071151e+000 82 61 42
6.143766e-001 -1.642365e+000 2.986235e+000 151 60 52
5.501012e-001 -1.616956e+000 3.061999e+000 194 156 115
5.940138e-001 -1.657980e+000 3.055149e+000 164 91 30
6.011060e-001 -1.670502e+000 3.059372e+000 158 87 43
5.474927e-001 -1.576406e+000 3.024602e+000 201 132 103
6.034267e-001 -1.648792e+000 3.038087e+000 37 19 13
5.950701e-001 -1.665837e+000 3.063102e+000 171 96 29
6.088898e-001 -1.627987e+000 2.995956e+000 188 97 27
4.901434e-001 -1.630145e+000 3.113762e+000 190 166 156
5.736621e-001 -1.654956e+000 3.073891e+000 184 150 124
6.093964e-001 -1.648389e+000 2.975516e+000 175 134 88
6.060056e-001 -1.671079e+000 3.001326e+000 185 107 25
3.467511e-001 -1.342259e+000 2.660106e+000 216 197 173
6.244231e-001 -1.687938e+000 2.944041e+000 35 24 30
5.072114e-001 -1.636782e+000 3.004625e+000 160 32 40
4.754041e-001 -1.293529e+000 2.755317e+000 202 129 92
5.024494e-001 -1.297881e+000 2.736909e+000 137 44 34
4.789070e-001 -1.297142e+000 2.756986e+000 238 112 92
5.053901e-001 -1.306613e+000 2.742189e+000 231 116 93
5.055597e-001 -1.306067e+000 2.742297e+000 231 116 93
5.114628e-001 -1.315105e+000 2.742751e+000 37 66 36
5.062661e-001 -1.321144e+000 2.767058e+000 50 75 46
5.279611e-001 -1.343099e+000 2.761800e+000 133 132 32
5.279091e-001 -1.343373e+000 2.761759e+000 133 132 32
5.040585e-001 -1.387578e+000 2.845077e+000 78 36 27
5.040585e-001 -1.387578e+000 2.845077e+000 78 36 27
4.718960e-001 -1.401857e+000 2.885874e+000 211 131 108
4.792077e-001 -1.404728e+000 2.884535e+000 196 141 105
4.987987e-001 -1.409667e+000 2.875760e+000 205 133 98
5.212794e-001 -1.414763e+000 2.864807e+000 189 134 94
5.755056e-001 -1.453184e+000 2.824055e+000 70 44 39
4.675778e-001 -1.405448e+000 2.891746e+000 212 130 107
4.675778e-001 -1.405448e+000 2.891746e+000 212 130 107
5.261369e-001 -1.448564e+000 2.899658e+000 33 18 8
4.438013e-001 -1.482897e+000 2.967683e+000 183 85 83
4.587871e-001 -1.471861e+000 2.961206e+000 154 53 49
4.623055e-001 -1.463485e+000 2.957383e+000 140 42 36
4.599545e-001 -1.470907e+000 2.959052e+000 177 73 68
4.449281e-001 -1.489650e+000 2.978115e+000 160 42 49
4.472727e-001 -1.482677e+000 2.972580e+000 145 59 54
4.540093e-001 -1.485302e+000 2.973712e+000 146 46 45
4.422283e-001 -1.524841e+000 3.003225e+000 68 125 199
4.422283e-001 -1.524841e+000 3.003225e+000 68 125 199
4.987074e-001 -1.537036e+000 3.015886e+000 135 19 31
5.235531e-001 -1.531818e+000 2.997753e+000 129 26 30
5.287572e-001 -1.541031e+000 2.998919e+000 133 26 29
5.471608e-001 -1.556990e+000 3.003309e+000 229 67 71
5.591193e-001 -1.557389e+000 2.993076e+000 133 24 32
5.586996e-001 -1.561107e+000 2.995453e+000 219 76 77
5.268898e-001 -1.569602e+000 3.032233e+000 45 15 7
5.270898e-001 -1.569041e+000 3.032210e+000 45 15 7
5.400640e-001 -1.573372e+000 3.025303e+000 120 72 52
5.467013e-001 -1.574385e+000 3.021354e+000 184 104 81
4.611402e-001 -1.586218e+000 3.067895e+000 67 29 15
5.566159e-001 -1.592800e+000 3.032779e+000 167 46 30
5.582888e-001 -1.595193e+000 3.036174e+000 171 55 33
5.698542e-001 -1.595873e+000 3.021198e+000 120 56 25
5.624122e-001 -1.597372e+000 3.028563e+000 169 50 35
5.655399e-001 -1.594213e+000 3.027042e+000 179 44 34
5.821071e-001 -1.609698e+000 3.019924e+000 108 48 8
5.891964e-001 -1.617625e+000 3.018930e+000 125 43 21
5.262333e-001 -1.594637e+000 3.056977e+000 166 117 81
5.260255e-001 -1.593473e+000 3.059438e+000 88 55 36
5.325046e-001 -1.589705e+000 3.050377e+000 168 115 77
5.347004e-001 -1.592698e+000 3.049078e+000 161 113 80
5.379882e-001 -1.596760e+000 3.051193e+000 158 111 77
5.290646e-001 -1.593117e+000 3.058142e+000 76 45 21
5.333433e-001 -1.595395e+000 3.054189e+000 162 116 82
5.331048e-001 -1.596091e+000 3.054148e+000 162 116 82
5.443787e-001 -1.594604e+000 3.045630e+000 92 58 31
5.503454e-001 -1.595424e+000 3.040596e+000 159 89 54
5.502582e-001 -1.595662e+000 3.040519e+000 159 89 54
5.603878e-001 -1.603019e+000 3.038739e+000 170 60 33
5.569930e-001 -1.601673e+000 3.043157e+000 144 66 22
5.645584e-001 -1.602933e+000 3.033970e+000 123 44 24
5.645584e-001 -1.602933e+000 3.033970e+000 123 44 24
5.713872e-001 -1.606267e+000 3.030451e+000 167 62 25
5.679132e-001 -1.611473e+000 3.034824e+000 129 46 16
5.870508e-001 -1.626328e+000 3.032072e+000 168 78 29
5.947827e-001 -1.623777e+000 3.017368e+000 187 71 30
5.157942e-001 -1.600828e+000 3.071802e+000 168 121 86
5.307267e-001 -1.602284e+000 3.061717e+000 164 120 81
5.307267e-001 -1.602284e+000 3.061717e+000 164 120 81
5.337021e-001 -1.604847e+000 3.063155e+000 161 115 81
5.373900e-001 -1.607877e+000 3.064579e+000 161 119 84
5.459533e-001 -1.605405e+000 3.054161e+000 61 29 9
5.459533e-001 -1.605405e+000 3.054161e+000 61 29 9
5.921875e-001 -1.638632e+000 3.040537e+000 21 8 1
5.982104e-001 -1.642743e+000 3.037984e+000 202 148 109
5.010100e-001 -1.607339e+000 3.087998e+000 26 16 11
5.185675e-001 -1.610285e+000 3.080613e+000 30 21 14
5.473395e-001 -1.617986e+000 3.065582e+000 25 12 9
5.879940e-001 -1.640139e+000 3.045405e+000 184 143 108
5.968338e-001 -1.642017e+000 3.040247e+000 24 13 5
5.988830e-001 -1.647407e+000 3.039596e+000 188 127 96
5.624090e-001 -1.647247e+000 3.078028e+000 20 8 5
5.848954e-001 -1.652664e+000 3.062508e+000 161 83 36
5.819795e-001 -1.653203e+000 3.065152e+000 162 84 35
5.911057e-001 -1.663530e+000 3.064532e+000 35 11 6
6.130468e-001 -1.674909e+000 3.047590e+000 39 12 9
6.130374e-001 -1.674956e+000 3.047594e+000 39 12 9
6.173707e-001 -1.678518e+000 3.048838e+000 46 11 5
5.053676e-001 -1.632086e+000 3.109599e+000 22 12 4
5.070374e-001 -1.636653e+000 3.112071e+000 170 127 111
5.070374e-001 -1.636653e+000 3.112071e+000 170 127 111
5.077687e-001 -1.637722e+000 3.114271e+000 166 115 106
5.166027e-001 -1.634410e+000 3.104148e+000 17 9 6
5.134023e-001 -1.634921e+000 3.108994e+000 169 128 110
5.138145e-001 -1.633346e+000 3.108623e+000 169 128 110
5.213053e-001 -1.638752e+000 3.105136e+000 168 125 105
