ply
format ascii 1.0
element face 0
property list uchar int vertex_indices
element vertex 893
property float x
property float y
property float z
property uchar diffuse_red
property uchar diffuse_green
property uchar diffuse_blue
end_header
5.540420e-001 -1.587095e+000 3.042993e+000 113 62 45
5.236066e-001 -1.613609e+000 3.094275e+000 173 118 85
5.183182e-001 -1.359115e+000 2.807227e+000 69 104 101
5.365392e-001 -1.484409e+000 2.940964e+000 65 36 23
5.155031e-001 -1.553702e+000 3.037037e+000 152 25 37
5.079333e-001 -1.516129e+000 2.995755e+000 196 121 93
5.048237e-001 -1.554654e+000 3.041020e+000 148 19 30
5.235997e-001 -1.575145e+000 3.055357e+000 185 110 88
5.324710e-001 -1.581664e+000 3.051372e+000 189 112 85
5.728882e-001 -1.601776e+000 3.039372e+000 195 131 87
5.531483e-001 -1.586813e+000 3.047840e+000 197 118 79
5.334184e-001 -1.429188e+000 2.883534e+000 191 117 77
5.616823e-001 -1.558345e+000 3.009717e+000 167 25 32
4.846263e-001 -1.283544e+000 2.733830e+000 25 91 123
5.384724e-001 -1.659782e+000 3.127217e+000 91 39 30
6.196176e-001 -1.684182e+000 3.070713e+000 43 14 10
5.703804e-001 -1.667098e+000 3.104514e+000 170 125 93
5.513709e-001 -1.670159e+000 3.121602e+000 136 75 45
4.933465e-001 -1.655699e+000 3.156630e+000 41 14 26
-2.062762e-001 -2.402334e+000 1.949145e+000 97 80 60
-2.293360e-001 -2.356285e+000 1.958219e+000 120 99 76
-2.248379e-001 -2.385040e+000 1.976488e+000 68 56 56
-1.803186e-001 -2.414771e+000 1.933425e+000 93 80 63
7.070243e-001 -9.063520e-001 3.282283e+000 43 27 27
4.464470e-001 -1.505086e+000 3.002169e+000 178 42 48
5.363955e-001 -1.469591e+000 2.928261e+000 194 124 87
4.976533e-001 -1.515283e+000 3.004702e+000 66 32 26
5.311248e-001 -1.582796e+000 3.058203e+000 196 125 90
5.037687e-001 -1.400596e+000 2.772017e+000 50 101 98
5.548609e-001 -1.611613e+000 3.068387e+000 174 120 75
5.189389e-001 -1.329754e+000 2.761027e+000 38 50 14
5.310043e-001 -1.352926e+000 2.778992e+000 37 49 15
5.318973e-001 -1.562776e+000 3.036711e+000 190 39 36
5.356998e-001 -1.521283e+000 2.986214e+000 160 97 66
5.369612e-001 -1.575188e+000 3.045002e+000 107 50 31
5.369612e-001 -1.575188e+000 3.045002e+000 107 50 31
4.939248e-001 -1.373641e+000 2.845264e+000 34 56 22
4.602249e-001 -1.301588e+000 2.788546e+000 190 130 87
4.604809e-001 -1.303419e+000 2.786671e+000 190 130 87
4.977723e-001 -1.343212e+000 2.803257e+000 63 95 73
4.435774e-001 -1.515763e+000 3.006554e+000 180 35 42
7.306009e-001 -9.376204e-001 3.294384e+000 39 34 41
4.365824e-001 -1.505424e+000 2.991069e+000 165 52 56
4.085053e-001 -1.400199e+000 2.892202e+000 154 165 170
5.319423e-001 -1.648539e+000 3.122241e+000 128 99 76
5.387247e-001 -1.628005e+000 3.094780e+000 192 145 97
5.253871e-001 -1.434812e+000 2.895094e+000 26 72 98
3.187961e-001 -1.434688e+000 2.779471e+000 36 56 28
5.179280e-001 -1.348734e+000 2.798402e+000 27 42 0
3.559068e-001 -1.408709e+000 2.822760e+000 39 55 23
3.699784e-001 -1.504022e+000 2.910068e+000 102 26 33
3.825078e-001 -1.488792e+000 2.918583e+000 234 130 129
3.825078e-001 -1.488792e+000 2.918583e+000 234 130 129
3.819821e-001 -1.501099e+000 2.916953e+000 118 28 34
3.839729e-001 -1.497725e+000 2.919001e+000 215 121 117
3.604183e-001 -1.534855e+000 2.918827e+000 44 78 128
3.804282e-001 -1.535563e+000 2.932289e+000 98 129 173
4.863669e-001 -1.495936e+000 2.983652e+000 173 108 80
4.974207e-001 -1.539331e+000 3.031651e+000 183 57 54
5.523869e-001 -1.569670e+000 3.025334e+000 192 59 54
3.323810e-001 -1.438051e+000 2.805488e+000 34 57 36
3.327486e-001 -1.459094e+000 2.822515e+000 140 163 79
3.408087e-001 -1.501817e+000 2.858724e+000 127 112 115
5.141781e-001 -1.538602e+000 3.018728e+000 217 83 76
4.434142e-001 -1.549788e+000 3.026857e+000 26 77 130
5.485719e-001 -1.563680e+000 3.025239e+000 130 26 29
4.513184e-001 -1.615282e+000 3.081147e+000 148 94 59
8.334773e-001 -2.098361e+000 1.918499e+000 108 86 63
8.128496e-001 -2.131288e+000 1.917680e+000 46 35 21
3.066302e-001 -1.381073e+000 2.725228e+000 148 145 166
3.123442e-001 -1.388861e+000 2.746216e+000 157 37 46
3.493949e-001 -1.340774e+000 2.763096e+000 158 31 45
3.291827e-001 -1.441785e+000 2.806694e+000 144 166 91
3.480015e-001 -1.426362e+000 2.812556e+000 150 161 54
3.470434e-001 -1.417438e+000 2.817156e+000 150 161 54
3.367028e-001 -1.489701e+000 2.851648e+000 135 115 110
3.367028e-001 -1.489701e+000 2.851648e+000 135 115 110
3.604409e-001 -1.470664e+000 2.865068e+000 160 151 157
3.842026e-001 -1.467804e+000 2.907279e+000 155 151 160
3.636598e-001 -1.517893e+000 2.910333e+000 174 58 66
5.260533e-001 -1.475145e+000 2.946207e+000 125 70 44
4.953894e-001 -1.470209e+000 2.960987e+000 122 79 57
4.655017e-001 -1.476862e+000 2.977165e+000 150 49 44
5.372185e-001 -1.526950e+000 2.992554e+000 98 59 37
5.349269e-001 -1.530932e+000 3.002586e+000 176 112 73
5.912088e-001 -1.585594e+000 3.007535e+000 133 86 44
5.430289e-001 -1.578675e+000 3.053488e+000 177 113 74
9.565413e-001 -2.184410e+000 2.099790e+000 62 50 25
3.449714e-001 -1.464521e+000 2.828653e+000 43 54 32
3.449714e-001 -1.464521e+000 2.828653e+000 43 54 32
5.202749e-001 -1.394552e+000 2.871172e+000 124 100 74
3.451847e-001 -1.529556e+000 2.872764e+000 134 30 27
3.548976e-001 -1.489188e+000 2.879932e+000 156 151 159
5.106827e-001 -1.422476e+000 2.901437e+000 128 20 24
4.849056e-001 -1.450123e+000 2.943400e+000 124 64 39
3.810639e-001 -1.518611e+000 2.937236e+000 92 130 180
3.991035e-001 -1.522372e+000 2.960416e+000 177 121 104
4.740159e-001 -1.489878e+000 2.987956e+000 176 108 86
4.161556e-001 -1.568434e+000 3.009292e+000 183 125 111
3.863826e-001 -1.642192e+000 3.011780e+000 148 129 116
5.549548e-001 -1.601730e+000 3.055983e+000 132 43 21
4.858115e-001 -1.328819e+000 2.802281e+000 61 80 29
5.585099e-001 -1.381254e+000 2.781117e+000 60 94 95
3.716799e-001 -1.362338e+000 2.823443e+000 33 56 21
5.095869e-001 -1.357368e+000 2.823671e+000 95 102 35
4.713800e-001 -1.412486e+000 2.913010e+000 198 128 93
4.858233e-001 -1.416728e+000 2.906956e+000 166 94 75
3.692082e-001 -1.483363e+000 2.894876e+000 149 47 45
3.817496e-001 -1.496095e+000 2.910597e+000 140 23 31
4.010081e-001 -1.504846e+000 2.954287e+000 66 105 151
4.556097e-001 -1.540658e+000 3.030337e+000 161 128 105
8.636617e-001 -2.040375e+000 1.962107e+000 45 36 29
3.423610e-001 -1.389046e+000 2.780407e+000 151 159 146
5.039789e-001 -1.336833e+000 2.800105e+000 23 50 17
4.975774e-001 -1.342873e+000 2.805028e+000 61 86 54
3.587335e-001 -1.393170e+000 2.819893e+000 26 55 33
5.159707e-001 -1.358038e+000 2.809369e+000 68 93 75
3.727997e-001 -1.385554e+000 2.838133e+000 152 154 151
3.734030e-001 -1.384436e+000 2.838008e+000 152 154 151
3.700877e-001 -1.399495e+000 2.837011e+000 24 57 28
4.656281e-001 -1.420632e+000 2.908947e+000 142 18 24
3.983953e-001 -1.439056e+000 2.911168e+000 186 141 146
3.821397e-001 -1.519679e+000 2.927336e+000 92 32 62
4.889826e-001 -1.554503e+000 3.045372e+000 139 20 28
5.207204e-001 -1.553478e+000 3.031253e+000 141 20 25
3.278255e-001 -1.426683e+000 2.795319e+000 155 157 154
3.404908e-001 -1.416123e+000 2.799332e+000 27 61 34
3.583846e-001 -1.395698e+000 2.808046e+000 152 154 151
3.588795e-001 -1.396524e+000 2.818521e+000 25 54 32
3.641316e-001 -1.405522e+000 2.826775e+000 155 157 152
3.628628e-001 -1.544482e+000 2.924055e+000 98 58 73
8.331985e-001 -2.068018e+000 1.919538e+000 201 171 111
9.699846e-001 -2.231149e+000 2.247091e+000 192 166 107
4.099293e-001 -1.461364e+000 2.943033e+000 146 23 28
4.772197e-001 -1.605718e+000 3.083829e+000 162 128 101
5.533188e-001 -1.479849e+000 2.903981e+000 180 111 72
5.819586e-001 -1.588560e+000 2.997039e+000 196 52 49
5.972918e-001 -1.603554e+000 3.005412e+000 178 123 74
4.700323e-001 -1.549951e+000 3.036105e+000 160 128 103
3.186825e-001 -1.398800e+000 2.728000e+000 192 125 121
3.868460e-001 -1.346574e+000 2.801477e+000 113 134 164
4.835072e-001 -1.673012e+000 3.067285e+000 164 130 104
6.321155e-001 -1.366945e+000 2.750969e+000 82 108 112
6.713993e-001 -1.607938e+000 3.005878e+000 169 124 85
6.390135e-001 -1.589489e+000 2.966650e+000 174 118 62
6.340312e-001 -1.232123e+000 2.694193e+000 207 183 147
6.375613e-001 -1.240941e+000 2.692791e+000 212 182 140
6.447543e-001 -1.316608e+000 2.735818e+000 213 134 109
5.661917e-001 -1.414987e+000 2.796791e+000 100 96 70
7.130291e-001 -1.403966e+000 2.910298e+000 183 136 106
7.130291e-001 -1.403966e+000 2.910298e+000 183 136 106
5.883156e-001 -1.484691e+000 2.856820e+000 33 73 104
6.785673e-001 -1.463450e+000 2.892742e+000 215 140 115
5.731193e-001 -1.501515e+000 2.887642e+000 138 82 63
5.731193e-001 -1.501515e+000 2.887642e+000 138 82 63
6.746827e-001 -1.468379e+000 2.888894e+000 219 139 108
6.775839e-001 -1.469000e+000 2.894811e+000 130 24 28
6.775839e-001 -1.469000e+000 2.894811e+000 130 24 28
7.005724e-001 -1.468352e+000 2.929508e+000 38 62 71
7.052135e-001 -1.463081e+000 2.932966e+000 37 55 64
6.750873e-001 -1.495665e+000 2.912842e+000 36 65 82
6.710245e-001 -1.499336e+000 2.910828e+000 128 153 159
5.748090e-001 -1.530152e+000 2.914797e+000 192 131 100
5.768784e-001 -1.528955e+000 2.915138e+000 134 88 62
5.804285e-001 -1.533372e+000 2.919272e+000 195 136 101
6.996583e-001 -1.495017e+000 2.947714e+000 135 81 94
6.996583e-001 -1.495017e+000 2.947714e+000 135 81 94
6.668448e-001 -1.524385e+000 2.926114e+000 177 92 96
6.703848e-001 -1.525116e+000 2.929513e+000 151 80 81
6.377912e-001 -1.548616e+000 2.924190e+000 84 36 39
6.486425e-001 -1.540718e+000 2.920716e+000 172 85 80
6.486832e-001 -1.540762e+000 2.920425e+000 172 85 80
6.747630e-001 -1.535409e+000 2.943400e+000 91 55 62
6.813392e-001 -1.529148e+000 2.946712e+000 80 56 60
7.222447e-001 -1.502236e+000 3.000347e+000 40 67 82
7.230260e-001 -1.502267e+000 2.997829e+000 40 67 82
7.255109e-001 -1.499510e+000 3.003068e+000 62 96 123
7.148126e-001 -1.537488e+000 3.007439e+000 175 110 93
7.143011e-001 -1.553116e+000 2.997942e+000 109 75 76
6.472896e-001 -1.587080e+000 2.965457e+000 115 53 58
7.293818e-001 -1.549594e+000 3.043236e+000 131 79 40
6.545193e-001 -1.600863e+000 2.980521e+000 121 75 81
6.116813e-001 -1.239778e+000 2.686353e+000 221 186 151
6.330404e-001 -1.243469e+000 2.692278e+000 216 184 143
5.127905e-001 -1.328006e+000 2.744230e+000 179 49 47
6.519685e-001 -1.299701e+000 2.738074e+000 205 149 106
6.573716e-001 -1.297334e+000 2.744201e+000 157 35 44
6.464269e-001 -1.317333e+000 2.739486e+000 168 38 50
6.569033e-001 -1.300793e+000 2.748532e+000 160 37 37
6.569033e-001 -1.300793e+000 2.748532e+000 160 37 37
7.149106e-001 -1.351222e+000 2.884933e+000 88 88 64
5.768776e-001 -1.531072e+000 2.920927e+000 197 134 101
6.691566e-001 -1.513883e+000 2.917858e+000 157 67 50
6.564777e-001 -1.530111e+000 2.917197e+000 88 37 36
6.556781e-001 -1.537388e+000 2.923858e+000 171 88 85
7.002058e-001 -1.511918e+000 2.960830e+000 84 62 70
7.032522e-001 -1.560148e+000 3.003744e+000 101 71 73
6.332497e-001 -1.598645e+000 2.970427e+000 135 83 34
6.734880e-001 -1.588658e+000 2.987229e+000 117 78 81
7.329586e-001 -1.553877e+000 3.075256e+000 140 103 70
5.235329e-001 -1.217265e+000 2.700060e+000 212 107 104
6.299184e-001 -1.240499e+000 2.689592e+000 214 183 145
6.498040e-001 -1.454411e+000 2.848412e+000 170 143 116
6.374037e-001 -1.467753e+000 2.844305e+000 185 143 115
6.463982e-001 -1.468172e+000 2.856480e+000 175 145 116
6.594087e-001 -1.462814e+000 2.864930e+000 169 147 116
6.615985e-001 -1.521512e+000 2.921887e+000 164 71 58
6.773546e-001 -1.530725e+000 2.943965e+000 84 59 65
7.053233e-001 -1.524637e+000 2.980713e+000 95 70 73
6.545139e-001 -1.568431e+000 2.951543e+000 168 110 106
7.159117e-001 -1.547565e+000 3.012535e+000 79 52 47
5.952397e-001 -1.644433e+000 3.031800e+000 170 78 41
5.291755e-001 -1.228605e+000 2.705590e+000 156 134 113
6.484702e-001 -1.302414e+000 2.731295e+000 174 35 35
5.945418e-001 -1.570799e+000 2.953545e+000 197 137 103
5.895287e-001 -1.573115e+000 2.957576e+000 161 33 41
6.625062e-001 -1.633820e+000 3.014312e+000 162 124 83
6.409407e-001 -1.704952e+000 3.071558e+000 215 103 42
6.140994e-001 -1.244971e+000 2.685450e+000 151 124 93
6.140994e-001 -1.244971e+000 2.685450e+000 151 124 93
5.160101e-001 -1.362422e+000 2.780374e+000 32 60 42
6.566152e-001 -1.376444e+000 2.796647e+000 169 151 47
6.615730e-001 -1.377188e+000 2.802097e+000 30 56 28
6.469876e-001 -1.421353e+000 2.814460e+000 162 149 92
6.469608e-001 -1.421324e+000 2.814121e+000 162 149 92
6.953909e-001 -1.404983e+000 2.872546e+000 162 148 114
6.953909e-001 -1.404983e+000 2.872546e+000 162 148 114
6.780054e-001 -1.422765e+000 2.856672e+000 158 146 118
7.098650e-001 -1.406743e+000 2.909222e+000 169 114 88
7.098650e-001 -1.406743e+000 2.909222e+000 169 114 88
6.956096e-001 -1.425510e+000 2.892714e+000 160 147 115
6.944054e-001 -1.432255e+000 2.890598e+000 175 36 36
5.870435e-001 -1.492689e+000 2.867855e+000 17 78 123
6.715871e-001 -1.576945e+000 2.976114e+000 147 108 96
4.726842e-001 -1.691044e+000 3.085322e+000 51 39 49
6.610023e-001 -1.361254e+000 2.790671e+000 31 57 29
6.610023e-001 -1.361254e+000 2.790671e+000 31 57 29
7.041414e-001 -1.341252e+000 2.854921e+000 109 124 111
6.951067e-001 -1.405709e+000 2.874225e+000 167 146 113
7.110824e-001 -1.454195e+000 2.944467e+000 38 65 78
7.119529e-001 -1.454314e+000 2.941510e+000 38 65 78
6.910354e-001 -1.544354e+000 2.972282e+000 28 12 18
6.536733e-001 -1.361977e+000 2.782627e+000 169 148 103
6.536733e-001 -1.361977e+000 2.782627e+000 169 148 103
6.847206e-001 -1.348483e+000 2.817960e+000 168 151 96
6.877832e-001 -1.347861e+000 2.838776e+000 31 54 34
6.877832e-001 -1.347861e+000 2.838776e+000 31 54 34
6.822966e-001 -1.523923e+000 2.950164e+000 79 57 59
7.108372e-001 -1.522883e+000 2.989845e+000 158 123 101
5.595314e-001 -1.573338e+000 2.982228e+000 164 37 46
6.658796e-001 -1.576935e+000 2.971857e+000 134 96 86
7.322005e-001 -1.558498e+000 3.072509e+000 146 103 60
6.744239e-001 -1.622485e+000 3.019772e+000 159 113 80
6.309961e-001 -1.379571e+000 2.762482e+000 161 145 105
6.309961e-001 -1.379571e+000 2.762482e+000 161 145 105
6.501286e-001 -1.435059e+000 2.834499e+000 159 145 117
7.289651e-001 -1.571452e+000 3.062498e+000 46 16 19
6.463862e-001 -1.382377e+000 2.780677e+000 165 147 112
5.925126e-001 -1.656585e+000 3.056336e+000 165 128 101
6.126904e-001 -1.673796e+000 3.056925e+000 147 83 50
5.138088e-001 -1.407561e+000 2.848589e+000 160 157 138
5.405794e-001 -1.235007e+000 2.704548e+000 227 204 173
5.898393e-001 -1.676232e+000 3.066988e+000 38 26 36
5.797573e-001 -1.609296e+000 3.028441e+000 196 142 99
7.081383e-001 -1.599863e+000 3.058301e+000 155 113 73
7.081383e-001 -1.599863e+000 3.058301e+000 155 113 73
4.782206e-001 -1.628470e+000 3.118068e+000 135 83 59
3.596409e-001 -1.348318e+000 2.784906e+000 26 49 20
3.812758e-001 -1.378569e+000 2.850823e+000 126 148 49
3.817301e-001 -1.378974e+000 2.850572e+000 126 148 49
4.534228e-001 -1.622013e+000 3.092872e+000 86 31 29
4.954205e-001 -1.654839e+000 3.140791e+000 185 155 127
4.956498e-001 -1.654392e+000 3.145758e+000 200 141 119
4.783804e-001 -1.365644e+000 2.851397e+000 133 140 35
5.093258e-001 -1.403654e+000 2.875843e+000 150 132 104
4.290620e-001 -1.459984e+000 2.956363e+000 149 153 157
5.378871e-001 -1.530083e+000 2.999107e+000 130 83 65
5.374796e-001 -1.540014e+000 3.008067e+000 186 54 49
5.236251e-001 -1.562752e+000 3.040870e+000 184 59 51
5.321476e-001 -1.563780e+000 3.036250e+000 186 61 51
5.484978e-001 -1.583849e+000 3.046375e+000 105 61 36
5.484978e-001 -1.583849e+000 3.046375e+000 105 61 36
5.569199e-001 -1.614729e+000 3.072491e+000 157 107 58
5.241389e-001 -1.615079e+000 3.088880e+000 158 122 74
5.205912e-001 -1.578097e+000 3.057235e+000 179 114 84
3.968528e-001 -1.734578e+000 3.056016e+000 169 121 111
5.173379e-001 -1.611629e+000 3.094466e+000 61 37 10
8.522146e-001 -2.006208e+000 1.916281e+000 32 22 21
8.672124e-001 -2.047996e+000 1.937462e+000 29 20 13
3.918318e-001 -1.459758e+000 2.913211e+000 161 153 161
4.845270e-001 -1.509892e+000 3.009452e+000 152 101 72
6.160039e-001 -1.674051e+000 3.077853e+000 54 17 1
5.213593e-001 -1.649821e+000 3.127179e+000 49 33 19
3.873275e-001 -1.386849e+000 2.860069e+000 104 131 123
4.010567e-001 -1.504891e+000 2.954303e+000 66 105 151
4.834368e-001 -1.535267e+000 3.028168e+000 128 19 30
5.841227e-001 -1.601736e+000 3.205593e+000 41 30 28
4.009360e-001 -1.725227e+000 3.058608e+000 131 94 84
4.486479e-001 -1.647678e+000 3.095286e+000 163 130 110
8.264673e-001 -2.047044e+000 1.907129e+000 207 171 113
8.264673e-001 -2.047044e+000 1.907129e+000 207 171 113
5.014095e-001 -1.654423e+000 3.139217e+000 176 150 123
8.464807e-001 -2.006736e+000 1.862272e+000 215 179 119
6.246480e-001 -1.596858e+000 3.191189e+000 131 109 88
6.547792e-001 -2.163576e+000 1.682969e+000 132 105 76
8.672832e-001 -2.009247e+000 1.892987e+000 31 21 20
6.016842e-001 -1.670143e+000 3.103968e+000 33 21 21
5.927091e-001 -1.627744e+000 3.146967e+000 36 26 27
4.859025e-001 -1.499144e+000 2.994046e+000 101 53 33
5.495084e-001 -1.534832e+000 2.998112e+000 137 26 17
5.147335e-001 -1.539464e+000 3.024197e+000 175 51 48
4.959995e-001 -1.549313e+000 3.038662e+000 134 36 31
4.947346e-001 -1.561842e+000 3.052443e+000 185 53 57
5.278836e-001 -1.614789e+000 3.089877e+000 72 49 20
4.957852e-001 -1.309836e+000 2.764121e+000 157 34 28
4.888217e-001 -1.305449e+000 2.769431e+000 157 34 30
4.888217e-001 -1.305449e+000 2.769431e+000 157 34 30
4.708695e-001 -1.310213e+000 2.784684e+000 136 41 30
5.678109e-001 -1.470931e+000 2.892494e+000 132 77 50
5.241292e-001 -1.466850e+000 2.939313e+000 123 74 44
5.704956e-001 -1.495566e+000 2.922224e+000 127 74 38
3.870048e-001 -1.525862e+000 2.937418e+000 29 75 134
5.084184e-001 -1.492748e+000 2.977559e+000 110 61 36
5.372959e-001 -1.495375e+000 2.964290e+000 110 62 35
5.155388e-001 -1.499445e+000 2.981830e+000 106 65 37
5.155388e-001 -1.499445e+000 2.981830e+000 106 65 37
4.499255e-001 -1.501760e+000 2.997092e+000 171 77 70
4.914326e-001 -1.525448e+000 3.019509e+000 113 66 46
5.257344e-001 -1.615803e+000 3.092975e+000 148 113 67
4.592730e-001 -1.300878e+000 2.781449e+000 153 32 31
4.581648e-001 -1.298223e+000 2.783689e+000 153 32 31
3.607019e-001 -1.350953e+000 2.784837e+000 33 50 24
3.607019e-001 -1.350953e+000 2.784837e+000 33 50 24
3.614314e-001 -1.472777e+000 2.863115e+000 159 151 162
3.433658e-001 -1.519121e+000 2.851201e+000 128 109 115
3.578457e-001 -1.510251e+000 2.877872e+000 150 37 47
4.105662e-001 -1.442364e+000 2.927303e+000 160 153 162
5.276268e-001 -1.456342e+000 2.922878e+000 84 43 21
5.276268e-001 -1.456342e+000 2.922878e+000 84 43 21
5.297065e-001 -1.460567e+000 2.925107e+000 174 110 74
5.310908e-001 -1.472588e+000 2.939393e+000 173 109 69
5.001535e-001 -1.491823e+000 2.981014e+000 103 59 36
5.416044e-001 -1.527444e+000 2.993674e+000 182 114 79
5.622367e-001 -1.666389e+000 3.111540e+000 135 102 73
3.742103e-001 -1.418451e+000 2.857187e+000 145 165 103
3.672065e-001 -1.491109e+000 2.884844e+000 161 148 163
5.311227e-001 -1.478729e+000 2.947692e+000 180 112 73
4.634323e-001 -1.496237e+000 2.995434e+000 163 73 64
5.148161e-001 -1.569860e+000 3.056144e+000 114 66 44
5.148161e-001 -1.569860e+000 3.056144e+000 114 66 44
5.552372e-001 -1.590511e+000 3.046818e+000 180 107 67
3.528614e-001 -1.382655e+000 2.796128e+000 142 163 96
3.545090e-001 -1.413184e+000 2.814330e+000 153 158 90
3.866202e-001 -1.468287e+000 2.911703e+000 157 38 36
4.208231e-001 -1.463924e+000 2.952457e+000 160 153 159
4.323023e-001 -1.464483e+000 2.958975e+000 153 43 42
4.852016e-001 -1.340497e+000 2.820706e+000 25 50 20
5.111234e-001 -1.373772e+000 2.838234e+000 30 46 16
3.601247e-001 -1.437706e+000 2.839052e+000 156 152 151
3.601247e-001 -1.437706e+000 2.839052e+000 156 152 151
4.772344e-001 -1.535122e+000 3.031897e+000 162 126 99
5.705949e-001 -1.466079e+000 2.876975e+000 28 68 86
5.129318e-001 -1.456136e+000 2.928786e+000 175 109 81
6.275371e-001 -1.358759e+000 2.745278e+000 96 105 83
6.347652e-001 -1.473672e+000 2.848703e+000 117 71 56
6.292976e-001 -1.232877e+000 2.693384e+000 213 183 144
6.292976e-001 -1.232877e+000 2.693384e+000 213 183 144
6.410624e-001 -1.350904e+000 2.754367e+000 64 101 103
5.852334e-001 -1.559567e+000 2.944905e+000 195 141 107
6.597093e-001 -1.559243e+000 2.945110e+000 109 61 67
6.009639e-001 -1.597473e+000 2.975492e+000 218 61 71
6.617195e-001 -1.631841e+000 3.015798e+000 167 121 84
6.023038e-001 -1.577671e+000 2.952464e+000 160 29 41
3.869842e-001 -1.577515e+000 3.090754e+000 60 48 52
6.961168e-001 -1.398108e+000 2.875735e+000 170 35 41
6.987039e-001 -1.460760e+000 2.929972e+000 19 65 92
3.148737e-001 -1.067150e+000 3.139404e+000 152 124 102
2.925071e-001 -1.092106e+000 3.117045e+000 130 103 86
6.098591e-001 -1.244161e+000 2.683819e+000 94 67 50
2.832456e-001 -1.065361e+000 3.101105e+000 148 119 103
6.424400e-001 -1.495288e+000 2.876609e+000 156 26 36
4.650699e-001 -2.396573e+000 1.510041e+000 144 110 64
4.696156e-001 -1.297525e+000 2.649403e+000 162 67 45
4.303759e-001 -1.470228e+000 2.963546e+000 181 54 61
5.001117e-001 -1.551091e+000 3.039642e+000 184 58 52
4.763803e-001 -1.449529e+000 2.946537e+000 95 57 38
5.595822e-001 -1.579178e+000 3.031752e+000 139 90 55
4.653007e-001 -1.491750e+000 2.990677e+000 163 76 59
5.616925e-001 -1.327597e+000 2.679314e+000 31 24 13
5.058304e-001 -1.418186e+000 2.892590e+000 136 20 21
6.082138e-001 -1.605648e+000 3.196024e+000 134 108 93
3.096760e-001 -1.394025e+000 2.724595e+000 229 158 155
3.097179e-001 -1.393981e+000 2.724458e+000 229 158 155
3.171125e-001 -1.381581e+000 2.734328e+000 233 155 149
3.185354e-001 -1.385226e+000 2.732406e+000 233 155 149
3.211777e-001 -1.376644e+000 2.738336e+000 217 148 143
3.318016e-001 -1.362730e+000 2.749424e+000 240 156 153
3.489590e-001 -1.334238e+000 2.766572e+000 167 169 201
3.241844e-001 -1.377679e+000 2.744145e+000 202 151 141
3.256745e-001 -1.376007e+000 2.746286e+000 134 55 56
3.257187e-001 -1.376099e+000 2.746309e+000 134 55 56
3.467209e-001 -1.349974e+000 2.760451e+000 217 154 140
3.462208e-001 -1.365240e+000 2.763462e+000 155 39 46
3.523520e-001 -1.340631e+000 2.769615e+000 164 150 169
4.786032e-001 -1.306209e+000 2.785801e+000 146 49 29
3.185603e-001 -1.429977e+000 2.756124e+000 86 122 139
3.246613e-001 -1.411318e+000 2.762403e+000 67 115 155
3.696430e-001 -1.358697e+000 2.818812e+000 38 66 31
3.396828e-001 -1.430548e+000 2.806705e+000 145 159 53
3.396828e-001 -1.430548e+000 2.806705e+000 145 159 53
3.555827e-001 -1.433403e+000 2.833863e+000 29 64 31
3.501710e-001 -1.512821e+000 2.868853e+000 199 139 142
3.501710e-001 -1.512821e+000 2.868853e+000 199 139 142
4.542572e-001 -1.416498e+000 2.924173e+000 70 37 60
3.698405e-001 -1.516903e+000 2.903232e+000 215 154 139
3.732998e-001 -1.516092e+000 2.917161e+000 122 31 34
3.753324e-001 -1.520571e+000 2.915580e+000 122 31 34
3.821052e-001 -1.492389e+000 2.917404e+000 224 150 139
3.828981e-001 -1.494138e+000 2.916655e+000 224 150 139
3.621351e-001 -1.551468e+000 2.911014e+000 35 75 127
3.993083e-001 -1.510582e+000 2.951528e+000 43 75 119
3.985626e-001 -1.509127e+000 2.952318e+000 43 75 119
4.064192e-001 -1.499191e+000 2.956492e+000 97 163 235
4.049148e-001 -1.503523e+000 2.957973e+000 33 79 131
4.077573e-001 -1.498722e+000 2.959777e+000 27 78 127
4.077573e-001 -1.498722e+000 2.959777e+000 27 78 127
4.958643e-001 -1.479878e+000 2.967368e+000 85 45 21
4.958643e-001 -1.479878e+000 2.967368e+000 85 45 21
4.700228e-001 -1.486443e+000 2.983968e+000 132 50 36
4.992860e-001 -1.516703e+000 3.003087e+000 115 66 37
4.992860e-001 -1.516703e+000 3.003087e+000 115 66 37
5.204137e-001 -1.522790e+000 2.995660e+000 191 123 85
4.292241e-001 -1.555286e+000 3.013719e+000 29 80 136
4.339560e-001 -1.543641e+000 3.020085e+000 33 81 127
4.339560e-001 -1.543641e+000 3.020085e+000 33 81 127
5.231050e-001 -1.545585e+000 3.016074e+000 147 29 25
5.254055e-001 -1.546743e+000 3.017986e+000 198 56 48
3.809055e-001 -1.664675e+000 2.991399e+000 171 127 120
3.855342e-001 -1.673155e+000 2.998472e+000 116 115 148
5.020153e-001 -1.540815e+000 3.029182e+000 195 52 51
5.020153e-001 -1.540815e+000 3.029182e+000 195 52 51
5.082390e-001 -1.553986e+000 3.036185e+000 208 63 60
5.248194e-001 -1.563518e+000 3.034850e+000 207 60 53
5.493544e-001 -1.568628e+000 3.022555e+000 217 67 61
5.301925e-001 -1.562108e+000 3.031885e+000 205 59 46
5.228787e-001 -1.565227e+000 3.038611e+000 144 35 29
5.172601e-001 -1.566038e+000 3.043142e+000 194 58 51
4.383683e-001 -1.594587e+000 3.051775e+000 168 96 74
4.393589e-001 -1.596906e+000 3.051386e+000 168 96 74
4.911069e-001 -1.567515e+000 3.056132e+000 138 22 15
4.911069e-001 -1.567515e+000 3.056132e+000 138 22 15
5.436824e-001 -1.588540e+000 3.049224e+000 97 53 27
4.489203e-001 -1.613529e+000 3.077104e+000 150 100 57
4.056881e-001 -1.747011e+000 3.059891e+000 96 50 49
4.056881e-001 -1.747011e+000 3.059891e+000 96 50 49
3.144013e-001 -1.390919e+000 2.728256e+000 221 161 157
3.418694e-001 -1.350405e+000 2.755568e+000 166 29 44
4.721735e-001 -1.297262e+000 2.779771e+000 176 39 28
4.721735e-001 -1.297262e+000 2.779771e+000 176 39 28
3.282401e-001 -1.383069e+000 2.748698e+000 164 42 47
3.341354e-001 -1.371946e+000 2.759570e+000 200 163 153
3.394943e-001 -1.362228e+000 2.764513e+000 156 34 41
3.440360e-001 -1.354382e+000 2.764970e+000 163 31 37
4.651602e-001 -1.301485e+000 2.791994e+000 151 46 33
4.799187e-001 -1.306267e+000 2.789316e+000 164 40 25
3.410571e-001 -1.367879e+000 2.767475e+000 174 38 44
3.476393e-001 -1.369085e+000 2.767102e+000 173 35 48
4.625084e-001 -1.309312e+000 2.799878e+000 64 98 107
5.158225e-001 -1.371623e+000 2.835240e+000 48 55 17
3.386872e-001 -1.509517e+000 2.849864e+000 177 148 153
3.410858e-001 -1.515689e+000 2.847004e+000 177 148 153
4.042981e-001 -1.446819e+000 2.923474e+000 195 155 159
5.219265e-001 -1.454554e+000 2.925769e+000 86 47 25
3.736058e-001 -1.515932e+000 2.912628e+000 130 26 35
5.137396e-001 -1.481094e+000 2.959206e+000 125 78 49
5.137396e-001 -1.481094e+000 2.959206e+000 125 78 49
5.039199e-001 -1.497815e+000 2.978551e+000 107 64 39
5.343992e-001 -1.500828e+000 2.963556e+000 106 60 33
5.343992e-001 -1.500828e+000 2.963556e+000 106 60 33
4.700463e-001 -1.488462e+000 2.986040e+000 129 42 30
5.474487e-001 -1.518276e+000 2.972409e+000 127 78 48
5.399043e-001 -1.530293e+000 2.990831e+000 113 68 42
5.490921e-001 -1.533981e+000 2.986833e+000 106 58 30
4.977468e-001 -1.524393e+000 3.010536e+000 123 79 55
4.977468e-001 -1.524393e+000 3.010536e+000 123 79 55
4.259889e-001 -1.555562e+000 3.015101e+000 55 120 187
4.298486e-001 -1.555108e+000 3.017563e+000 65 126 198
4.374565e-001 -1.556163e+000 3.025735e+000 67 131 195
5.039206e-001 -1.551578e+000 3.035855e+000 135 31 31
3.895474e-001 -1.674231e+000 3.002523e+000 41 39 58
5.523893e-001 -1.587426e+000 3.041462e+000 191 118 85
5.977879e-001 -1.623602e+000 3.034100e+000 142 45 17
5.201693e-001 -1.582767e+000 3.057548e+000 192 124 88
5.343168e-001 -1.585175e+000 3.050933e+000 200 121 83
3.964087e-001 -1.715061e+000 3.023700e+000 185 107 94
4.016511e-001 -1.735954e+000 3.055020e+000 179 143 142
4.049043e-001 -1.739272e+000 3.058042e+000 169 148 143
3.108943e-001 -1.388474e+000 2.726373e+000 180 31 47
3.246734e-001 -1.370276e+000 2.739930e+000 178 30 43
3.243294e-001 -1.370126e+000 2.740308e+000 178 30 43
3.377194e-001 -1.353479e+000 2.753681e+000 175 38 49
3.377194e-001 -1.353479e+000 2.753681e+000 175 38 49
4.572457e-001 -1.301649e+000 2.798539e+000 169 37 33
3.586727e-001 -1.377797e+000 2.808300e+000 24 59 37
3.255308e-001 -1.454906e+000 2.787109e+000 31 63 34
4.908576e-001 -1.368011e+000 2.849749e+000 37 51 3
3.614809e-001 -1.417017e+000 2.840697e+000 30 56 43
5.213920e-001 -1.402455e+000 2.867114e+000 133 107 79
4.895430e-001 -1.426371e+000 2.915834e+000 12 59 75
3.640542e-001 -1.529631e+000 2.906361e+000 188 50 56
3.640542e-001 -1.529631e+000 2.906361e+000 188 50 56
5.319344e-001 -1.486233e+000 2.950221e+000 109 65 36
3.656597e-001 -1.573914e+000 2.922429e+000 154 83 61
3.870805e-001 -1.525806e+000 2.937415e+000 25 77 140
5.328663e-001 -1.490919e+000 2.953414e+000 181 122 76
5.328663e-001 -1.490919e+000 2.953414e+000 181 122 76
4.302028e-001 -1.489859e+000 2.981289e+000 179 45 42
5.401805e-001 -1.513279e+000 2.972460e+000 191 124 83
4.924093e-001 -1.492518e+000 2.983806e+000 100 48 31
4.924093e-001 -1.492518e+000 2.983806e+000 100 48 31
5.102376e-001 -1.500709e+000 2.979540e+000 193 122 80
5.102376e-001 -1.500709e+000 2.979540e+000 193 122 80
4.885529e-001 -1.504627e+000 2.996294e+000 195 120 85
4.446633e-001 -1.539564e+000 3.023591e+000 18 82 140
4.371401e-001 -1.601332e+000 3.058773e+000 180 137 112
3.283291e-001 -1.365992e+000 2.744353e+000 172 39 42
3.295559e-001 -1.368561e+000 2.742784e+000 172 39 42
3.482414e-001 -1.340014e+000 2.766979e+000 166 34 39
5.044948e-001 -1.326224e+000 2.791068e+000 44 60 24
5.272910e-001 -1.378463e+000 2.827445e+000 53 61 11
3.348234e-001 -1.474691e+000 2.817190e+000 171 169 105
3.348234e-001 -1.474691e+000 2.817190e+000 171 169 105
3.753140e-001 -1.397112e+000 2.844694e+000 29 59 28
3.377756e-001 -1.497639e+000 2.825623e+000 35 56 32
3.425027e-001 -1.512001e+000 2.844102e+000 132 101 109
5.332928e-001 -1.427019e+000 2.882352e+000 169 93 55
3.669839e-001 -1.494690e+000 2.891317e+000 170 35 38
3.717123e-001 -1.507030e+000 2.900068e+000 148 27 34
3.638568e-001 -1.519535e+000 2.899172e+000 111 76 64
3.763263e-001 -1.501521e+000 2.904526e+000 144 26 35
3.626333e-001 -1.579491e+000 2.908790e+000 167 111 94
3.692326e-001 -1.536765e+000 2.923233e+000 109 151 207
3.773972e-001 -1.535139e+000 2.928614e+000 88 123 162
3.835058e-001 -1.535227e+000 2.938557e+000 22 80 140
3.839623e-001 -1.529033e+000 2.933867e+000 110 143 186
4.931986e-001 -1.489720e+000 2.979767e+000 195 120 79
5.020034e-001 -1.492510e+000 2.975543e+000 188 119 77
4.866553e-001 -1.490145e+000 2.982147e+000 184 122 88
3.705704e-001 -1.637593e+000 2.954871e+000 43 19 13
5.578667e-001 -1.540858e+000 2.986961e+000 195 126 78
3.956056e-001 -1.689594e+000 3.022444e+000 159 133 119
5.275553e-001 -1.582087e+000 3.053657e+000 192 122 83
3.614781e-001 -1.311046e+000 2.778089e+000 49 102 155
7.880211e-001 -2.936810e+000 1.608512e+000 102 86 53
7.696092e-001 -2.959548e+000 1.616267e+000 96 82 55
7.492275e-001 -2.982525e+000 1.677252e+000 40 30 17
7.492275e-001 -2.982525e+000 1.677252e+000 40 30 17
5.020834e-001 -1.358899e+000 2.833591e+000 32 56 16
3.786444e-001 -1.450165e+000 2.884538e+000 162 160 166
3.835225e-001 -1.468347e+000 2.905458e+000 164 156 169
3.959117e-001 -1.446391e+000 2.914019e+000 170 159 166
3.767400e-001 -1.499777e+000 2.906015e+000 144 28 30
4.000308e-001 -1.449079e+000 2.921212e+000 119 82 83
4.006633e-001 -1.449825e+000 2.921071e+000 119 82 83
3.615902e-001 -1.560829e+000 2.896305e+000 13 77 154
5.252096e-001 -1.487068e+000 2.955399e+000 187 121 79
4.061669e-001 -1.533111e+000 2.972329e+000 150 31 37
4.096067e-001 -1.517239e+000 2.973356e+000 105 20 25
4.795494e-001 -1.504539e+000 2.998236e+000 189 126 85
4.839217e-001 -1.524594e+000 3.017617e+000 195 124 91
4.902863e-001 -1.555211e+000 3.044551e+000 153 27 31
4.013967e-001 -1.759592e+000 3.040160e+000 182 140 138
7.564387e-001 -2.829531e+000 1.530148e+000 65 62 52
4.352430e-001 -1.274357e+000 2.773726e+000 113 133 126
3.222221e-001 -1.376622e+000 2.743000e+000 190 128 122
3.333716e-001 -1.405657e+000 2.776755e+000 152 169 121
7.371864e-001 -3.034604e+000 1.748014e+000 87 73 47
3.332611e-001 -1.448955e+000 2.796274e+000 28 64 37
3.353828e-001 -1.437063e+000 2.795977e+000 164 167 166
3.514573e-001 -1.420798e+000 2.819244e+000 28 59 43
3.459687e-001 -1.442164e+000 2.818613e+000 163 169 141
3.459687e-001 -1.442164e+000 2.818613e+000 163 169 141
3.534067e-001 -1.513449e+000 2.871756e+000 168 36 47
3.886880e-001 -1.488511e+000 2.918369e+000 150 26 34
3.735923e-001 -1.529875e+000 2.919551e+000 77 33 65
3.944403e-001 -1.508729e+000 2.949679e+000 78 118 162
4.313347e-001 -1.571767e+000 2.916977e+000 34 66 112
5.289354e-001 -1.516208e+000 2.981445e+000 186 123 80
3.977376e-001 -1.708892e+000 3.031996e+000 136 29 37
7.572281e-001 -2.835257e+000 1.526339e+000 64 62 50
7.445882e-001 -2.927710e+000 1.626170e+000 29 22 14
7.445882e-001 -2.927710e+000 1.626170e+000 29 22 14
3.637269e-001 -1.340409e+000 2.797425e+000 100 130 168
3.313606e-001 -1.418948e+000 2.778390e+000 25 63 38
3.386125e-001 -1.418763e+000 2.788689e+000 167 167 161
3.293182e-001 -1.439248e+000 2.788065e+000 165 165 167
3.408621e-001 -1.416189e+000 2.799183e+000 24 64 37
3.573196e-001 -1.393025e+000 2.819484e+000 23 64 33
3.340493e-001 -1.474196e+000 2.807892e+000 28 62 36
3.649735e-001 -1.421514e+000 2.846387e+000 162 162 160
3.664161e-001 -1.423981e+000 2.844350e+000 162 162 160
3.746621e-001 -1.421102e+000 2.865739e+000 24 62 38
5.306351e-001 -1.524437e+000 2.988217e+000 188 125 82
5.306351e-001 -1.524437e+000 2.988217e+000 188 125 82
6.993881e-001 -3.044055e+000 1.812706e+000 142 119 77
3.474691e-001 -1.417089e+000 2.809492e+000 163 165 165
5.306540e-001 -1.451524e+000 2.908725e+000 22 73 94
3.782906e-001 -1.426500e+000 2.878491e+000 159 162 169
5.239078e-001 -1.532216e+000 3.001706e+000 190 122 85
3.819391e-001 -1.670798e+000 2.971786e+000 154 131 113
3.776303e-001 -1.412463e+000 2.865989e+000 23 64 34
4.168490e-001 -1.520979e+000 2.974046e+000 127 30 34
3.437480e-001 -1.327257e+000 2.748716e+000 12 84 156
3.806011e-001 -1.388993e+000 2.863845e+000 30 60 27
4.384031e-001 -1.452890e+000 2.938688e+000 165 164 160
4.392801e-001 -1.298895e+000 2.624637e+000 181 23 38
3.826798e-001 -1.360624e+000 2.659353e+000 211 190 173
4.268491e-001 -1.512851e+000 2.957898e+000 9 86 156
3.839238e-001 -1.273078e+000 2.742435e+000 212 195 169
3.839238e-001 -1.273078e+000 2.742435e+000 212 195 169
5.420355e-001 -1.801073e+000 3.035690e+000 154 101 59
6.110763e-001 -1.239893e+000 2.687363e+000 208 185 141
6.203433e-001 -1.234390e+000 2.684948e+000 123 103 73
6.578287e-001 -1.305144e+000 2.748255e+000 202 133 102
6.735723e-001 -1.297068e+000 2.773088e+000 148 43 35
7.194335e-001 -1.421718e+000 2.937650e+000 165 135 104
6.694757e-001 -1.524103e+000 2.926552e+000 70 35 30
5.860259e-001 -1.557181e+000 2.940315e+000 154 106 78
6.821215e-001 -1.581651e+000 2.992357e+000 91 66 69
6.915276e-001 -1.572479e+000 2.997237e+000 89 64 67
6.268056e-001 -1.242135e+000 2.690246e+000 206 182 144
6.750228e-001 -1.297975e+000 2.775257e+000 151 154 125
6.412707e-001 -1.351055e+000 2.754176e+000 62 95 104
5.903853e-001 -1.592822e+000 2.977225e+000 205 55 67
5.903853e-001 -1.592822e+000 2.977225e+000 205 55 67
7.298555e-001 -1.556385e+000 3.041278e+000 117 73 38
6.886625e-001 -1.529910e+000 2.959113e+000 74 56 54
6.200732e-001 -1.690847e+000 3.071718e+000 131 66 41
7.059558e-001 -1.479676e+000 2.953040e+000 76 49 67
6.525042e-001 -1.210841e+000 2.724361e+000 153 130 97
7.270505e-001 -1.484944e+000 3.013994e+000 135 107 83
7.068222e-001 -1.549281e+000 2.992937e+000 101 53 45
6.304492e-001 -1.598266e+000 2.972755e+000 132 86 36
6.385457e-001 -1.408285e+000 2.794564e+000 26 52 28
6.827680e-001 -1.283771e+000 2.761936e+000 19 75 100
7.062629e-001 -1.406910e+000 2.891937e+000 158 138 107
7.141243e-001 -1.466612e+000 2.946642e+000 99 23 25
7.141243e-001 -1.466612e+000 2.946642e+000 99 23 25
7.055464e-001 -1.296702e+000 2.848949e+000 80 104 104
6.834172e-001 -1.648200e+000 3.049966e+000 134 19 32
6.834172e-001 -1.648200e+000 3.049966e+000 134 19 32
6.568500e-001 -1.417047e+000 2.847865e+000 155 144 114
6.210718e-001 -1.234499e+000 2.698683e+000 211 173 129
6.195124e-001 -1.325605e+000 2.706444e+000 154 31 37
6.189561e-001 -1.362611e+000 3.167680e+000 72 57 27
6.923281e-001 -1.448811e+000 2.905525e+000 211 132 89
7.027364e-001 -1.467520e+000 2.938255e+000 126 152 143
6.701666e-001 -1.521300e+000 2.925360e+000 149 76 57
7.267224e-001 -1.485445e+000 2.990516e+000 102 148 149
6.817488e-001 -1.533685e+000 2.950638e+000 66 45 42
6.723918e-001 -1.564167e+000 2.966036e+000 142 99 72
6.998373e-001 -1.563284e+000 3.002188e+000 96 68 65
6.662840e-001 -1.668921e+000 3.060564e+000 93 42 21
4.948666e-001 -1.737763e+000 3.105086e+000 51 40 36
6.921664e-001 -1.520115e+000 2.952204e+000 150 122 118
7.180495e-001 -1.504718e+000 2.998482e+000 69 104 114
6.417552e-001 -1.584039e+000 2.957026e+000 165 113 58
6.475744e-001 -1.462863e+000 2.845814e+000 178 139 95
6.313841e-001 -1.597461e+000 2.971868e+000 131 81 22
5.897232e-001 -1.480644e+000 2.848836e+000 30 64 82
6.838290e-001 -1.386413e+000 2.848937e+000 163 146 55
4.607961e-001 -1.698826e+000 3.107146e+000 140 122 102
6.631113e-001 -1.664027e+000 3.056008e+000 179 135 87
6.503264e-001 -1.381411e+000 2.790339e+000 160 141 83
6.503264e-001 -1.381411e+000 2.790339e+000 160 141 83
6.831451e-001 -1.580563e+000 2.988864e+000 89 61 58
6.920189e-001 -1.475159e+000 2.907616e+000 34 43 54
6.920189e-001 -1.475159e+000 2.907616e+000 34 43 54
-2.453298e-001 -2.383300e+000 1.969749e+000 104 89 84
-3.209273e-001 -2.359019e+000 2.009475e+000 102 88 75
2.980250e-001 -1.041244e+000 3.120047e+000 112 90 77
2.980250e-001 -1.041244e+000 3.120047e+000 112 90 77
3.157398e-001 -1.035712e+000 3.126865e+000 150 122 101
9.620093e-001 -2.513069e+000 1.456496e+000 29 21 16
3.124504e-001 -1.409013e+000 2.732358e+000 173 37 37
3.314152e-001 -1.365383e+000 2.750619e+000 163 36 48
3.614057e-001 -1.380812e+000 2.812698e+000 107 125 88
3.535842e-001 -1.422302e+000 2.821758e+000 33 61 38
3.399336e-001 -1.506786e+000 2.841274e+000 162 152 161
3.420359e-001 -1.497601e+000 2.845043e+000 179 141 152
3.471588e-001 -1.496792e+000 2.848963e+000 189 145 143
3.467246e-001 -1.496301e+000 2.849096e+000 189 145 143
3.549187e-001 -1.505516e+000 2.874851e+000 163 162 168
3.930444e-001 -1.442044e+000 2.905036e+000 195 154 158
3.943440e-001 -1.444294e+000 2.903932e+000 195 154 158
3.781998e-001 -1.505330e+000 2.912949e+000 120 25 33
3.825198e-001 -1.631522e+000 2.986120e+000 121 84 68
5.988455e-001 -1.649404e+000 3.060867e+000 190 106 33
5.333839e-001 -1.613767e+000 3.082774e+000 125 92 53
5.538894e-001 -1.625870e+000 3.079557e+000 165 128 80
5.538894e-001 -1.625870e+000 3.079557e+000 165 128 80
4.050818e-001 -1.719971e+000 3.058320e+000 172 85 55
4.017907e-001 -1.742848e+000 3.055854e+000 106 52 49
5.232763e-001 -1.615696e+000 3.087658e+000 138 106 66
6.242132e-001 -1.612532e+000 3.183661e+000 54 39 34
3.415091e-001 -1.352943e+000 2.758392e+000 230 145 142
3.678261e-001 -1.567442e+000 2.922438e+000 160 73 62
5.593843e-001 -1.638671e+000 3.085674e+000 185 149 87
4.991515e-001 -1.658814e+000 3.143628e+000 73 55 39
1.626625e+000 -2.551154e+000 1.488053e+000 70 54 41
3.460076e-001 -1.497954e+000 2.844968e+000 172 37 41
3.417095e-001 -1.513889e+000 2.854613e+000 130 105 109
3.813592e-001 -1.513249e+000 2.921818e+000 199 79 81
5.247673e-001 -1.658884e+000 3.128317e+000 48 34 19
6.183187e-001 -1.610240e+000 3.189951e+000 139 113 98
1.644189e+000 -2.482347e+000 1.470230e+000 88 82 94
3.799496e-001 -1.519914e+000 2.917894e+000 110 36 26
3.708623e-001 -1.541384e+000 2.921681e+000 109 151 207
5.597608e-001 -1.608270e+000 3.054754e+000 146 44 22
5.830614e-001 -1.644314e+000 3.072764e+000 205 152 83
1.605095e+000 -2.480237e+000 1.477288e+000 79 73 79
3.588313e-001 -1.472062e+000 2.858499e+000 174 38 44
3.946702e-001 -1.445320e+000 2.914263e+000 170 159 166
9.079636e-001 -2.610797e+000 1.396746e+000 143 131 96
1.654736e+000 -2.572710e+000 1.364332e+000 118 68 38
1.601431e+000 -2.427849e+000 1.465234e+000 188 161 122
1.592232e+000 -2.449716e+000 1.465950e+000 113 100 91
6.937280e-001 -2.786331e+000 1.402833e+000 49 48 30
6.612737e-001 -2.795425e+000 1.448892e+000 53 44 28
1.658757e+000 -2.545190e+000 1.501788e+000 148 118 80
4.021492e-001 -1.767514e+000 3.053433e+000 151 108 93
4.490853e-001 -1.622423e+000 3.083194e+000 104 51 27
1.651051e+000 -2.480634e+000 1.490441e+000 145 145 166
6.852920e-001 -2.763844e+000 1.419748e+000 49 48 30
3.386478e-001 -1.382833e+000 2.769137e+000 42 102 164
3.293582e-001 -1.439201e+000 2.788023e+000 165 165 167
3.336151e-001 -1.454478e+000 2.806567e+000 163 164 167
3.719042e-001 -1.560553e+000 2.929523e+000 169 142 115
4.392966e-001 -1.565827e+000 3.036599e+000 175 147 109
7.023854e-001 -2.818626e+000 1.434831e+000 38 33 27
7.550191e-001 -2.820488e+000 1.452286e+000 21 17 14
4.796413e-001 -1.604637e+000 3.085238e+000 176 140 106
5.374037e-001 -1.653281e+000 3.107469e+000 78 57 33
6.539338e-001 -1.788444e+000 3.139328e+000 42 32 31
3.075510e-001 -1.395076e+000 2.714608e+000 146 164 192
3.397144e-001 -1.346728e+000 2.752264e+000 25 85 145
3.131977e-001 -1.398229e+000 2.733594e+000 221 154 151
3.131685e-001 -1.398193e+000 2.733607e+000 221 154 151
3.158950e-001 -1.396160e+000 2.738962e+000 246 152 151
3.158249e-001 -1.396170e+000 2.739007e+000 246 152 151
3.226780e-001 -1.376204e+000 2.741206e+000 125 41 44
3.226667e-001 -1.376239e+000 2.741260e+000 125 41 44
3.252536e-001 -1.379418e+000 2.747419e+000 225 154 146
3.318162e-001 -1.362779e+000 2.749369e+000 220 156 148
3.331328e-001 -1.372955e+000 2.755998e+000 138 41 39
3.327422e-001 -1.372162e+000 2.756081e+000 138 41 39
3.336542e-001 -1.368764e+000 2.756682e+000 224 157 152
3.461233e-001 -1.353525e+000 2.769170e+000 208 156 143
3.473977e-001 -1.350490e+000 2.769080e+000 144 33 40
3.473977e-001 -1.350490e+000 2.769080e+000 144 33 40
3.541628e-001 -1.353113e+000 2.783497e+000 146 171 202
3.655531e-001 -1.519379e+000 2.895618e+000 225 156 147
3.729166e-001 -1.525414e+000 2.911822e+000 123 27 29
3.602698e-001 -1.557484e+000 2.907312e+000 26 72 128
4.318184e-001 -1.472490e+000 2.962332e+000 194 60 62
4.092143e-001 -1.513160e+000 2.969621e+000 141 41 41
4.374162e-001 -1.545382e+000 3.022882e+000 84 146 205
3.872485e-001 -1.673835e+000 2.995289e+000 49 30 34
3.860235e-001 -1.672072e+000 2.995539e+000 49 30 34
4.171396e-001 -1.587889e+000 3.020253e+000 203 125 113
3.968685e-001 -1.718728e+000 3.028451e+000 117 22 33
4.486308e-001 -1.608886e+000 3.075031e+000 174 127 77
3.975502e-001 -1.738572e+000 3.047355e+000 134 93 82
3.131428e-001 -1.387633e+000 2.729883e+000 197 169 156
3.342100e-001 -1.371794e+000 2.759388e+000 210 164 155
3.284748e-001 -1.481947e+000 2.790800e+000 40 54 19
4.825904e-001 -1.361658e+000 2.844210e+000 41 52 16
3.422790e-001 -1.521402e+000 2.854627e+000 170 150 154
3.519727e-001 -1.521607e+000 2.868373e+000 171 31 34
3.559197e-001 -1.507465e+000 2.873833e+000 158 159 168
4.350150e-001 -1.505439e+000 2.993350e+000 192 71 73
3.833723e-001 -1.657671e+000 2.998738e+000 159 134 122
4.505640e-001 -1.605771e+000 3.076764e+000 145 101 56
3.676194e-001 -1.339070e+000 2.637321e+000 31 27 24
3.183160e-001 -1.389040e+000 2.741546e+000 176 34 44
3.168992e-001 -1.396411e+000 2.743110e+000 180 36 47
3.729350e-001 -1.515337e+000 2.906946e+000 149 23 32
4.480900e-001 -1.541871e+000 3.026002e+000 36 85 131
3.153258e-001 -1.382852e+000 2.730204e+000 177 36 45
3.152503e-001 -1.382949e+000 2.730516e+000 177 36 45
3.431647e-001 -1.348566e+000 2.758699e+000 171 35 42
3.429992e-001 -1.348577e+000 2.759192e+000 171 35 42
3.483026e-001 -1.340096e+000 2.767090e+000 170 31 42
3.502781e-001 -1.348941e+000 2.775422e+000 166 34 42
3.502804e-001 -1.348926e+000 2.775377e+000 166 34 42
3.578310e-001 -1.347476e+000 2.791201e+000 22 60 33
3.578310e-001 -1.347476e+000 2.791201e+000 22 60 33
3.136771e-001 -1.421018e+000 2.750291e+000 106 140 53
4.624634e-001 -1.339770e+000 2.836541e+000 135 132 37
3.385840e-001 -1.437741e+000 2.802638e+000 29 66 34
3.433027e-001 -1.512188e+000 2.844272e+000 111 86 90
4.006372e-001 -1.444584e+000 2.917037e+000 171 161 169
3.927376e-001 -1.675123e+000 3.008284e+000 156 134 121
4.297988e-001 -1.585156e+000 3.037671e+000 161 65 43
4.888659e-001 -1.559454e+000 3.055369e+000 152 26 30
1.035861e+000 -2.654261e+000 1.451057e+000 29 18 16
3.134222e-001 -1.401136e+000 2.737191e+000 172 37 41
5.105577e-001 -1.372639e+000 2.839040e+000 31 51 29
3.707517e-001 -1.426880e+000 2.858086e+000 25 58 41
3.691104e-001 -1.425869e+000 2.859360e+000 25 58 41
3.718525e-001 -1.548588e+000 2.926086e+000 16 81 144
3.928724e-001 -1.737838e+000 3.001126e+000 37 28 24
4.390352e-001 -1.596380e+000 3.057570e+000 127 69 47
8.813135e-001 -3.105754e+000 1.615348e+000 99 83 58
3.145117e-001 -1.420346e+000 2.741569e+000 25 59 32
9.634981e-001 -3.080414e+000 1.806150e+000 131 111 74
9.634981e-001 -3.080414e+000 1.806150e+000 131 111 74
3.370642e-001 -1.466988e+000 2.813273e+000 29 61 38
3.370642e-001 -1.466988e+000 2.813273e+000 29 61 38
3.622347e-001 -1.473612e+000 2.866142e+000 154 159 173
3.792229e-001 -1.451668e+000 2.885443e+000 161 160 167
3.577223e-001 -1.502958e+000 2.872100e+000 158 161 167
3.573814e-001 -1.502593e+000 2.872285e+000 158 161 167
3.679314e-001 -1.490817e+000 2.883155e+000 161 161 165
3.712864e-001 -1.488095e+000 2.892079e+000 170 38 40
3.845102e-001 -1.469538e+000 2.902697e+000 157 158 168
4.046472e-001 -1.496872e+000 2.950768e+000 29 60 119
5.698452e-001 -1.623960e+000 3.069520e+000 164 80 25
9.608694e-001 -2.639107e+000 1.515319e+000 197 167 113
3.129150e-001 -1.394426e+000 2.730872e+000 208 155 157
9.229315e-001 -3.120571e+000 1.589617e+000 24 19 14
9.310303e-001 -3.171658e+000 1.667099e+000 59 47 31
9.625871e-001 -3.138914e+000 1.647414e+000 103 86 55
9.625871e-001 -3.138914e+000 1.647414e+000 103 86 55
9.718123e-001 -3.108767e+000 1.691097e+000 18 14 11
3.425149e-001 -1.407158e+000 2.793261e+000 164 165 159
3.855457e-001 -1.386365e+000 2.864115e+000 113 137 165
3.860864e-001 -1.387013e+000 2.864092e+000 113 137 165
3.629463e-001 -1.436299e+000 2.849493e+000 24 63 34
3.390441e-001 -1.498677e+000 2.838619e+000 152 158 168
3.390441e-001 -1.498677e+000 2.838619e+000 152 158 168
3.933523e-001 -1.719010e+000 3.007003e+000 157 127 116
4.113942e-001 -1.727560e+000 3.079636e+000 152 98 36
8.478504e-001 -2.824972e+000 1.586781e+000 46 47 33
3.357157e-001 -1.457757e+000 2.805191e+000 164 165 171
9.786694e-001 -3.138528e+000 1.959106e+000 30 21 16
9.786694e-001 -3.138528e+000 1.959106e+000 30 21 16
3.751404e-001 -1.486701e+000 2.902004e+000 161 160 167
4.643296e-001 -1.432166e+000 2.938553e+000 16 76 118
3.666609e-001 -1.564745e+000 2.917151e+000 92 51 86
4.184009e-001 -1.546031e+000 3.000591e+000 116 21 27
4.394204e-001 -1.565507e+000 3.038182e+000 176 142 115
5.129937e-001 -1.464149e+000 2.929927e+000 188 118 82
9.387401e-001 -3.144451e+000 1.595368e+000 27 22 20
3.706501e-001 -1.447978e+000 2.863640e+000 163 162 168
5.012832e-001 -1.618697e+000 3.105275e+000 174 136 90
6.323417e-001 -1.224927e+000 2.700878e+000 59 39 12
6.496189e-001 -1.205160e+000 2.726753e+000 164 135 78
6.529245e-001 -1.198454e+000 2.738002e+000 164 128 81
6.538876e-001 -1.223058e+000 2.709157e+000 159 130 74
6.357787e-001 -1.246589e+000 2.685659e+000 53 44 24
6.346929e-001 -1.244394e+000 2.688202e+000 164 135 80
6.450241e-001 -1.236017e+000 2.695840e+000 54 38 19
6.728740e-001 -1.277861e+000 2.762171e+000 23 49 48
6.373769e-001 -1.326097e+000 2.723403e+000 160 87 56
6.374095e-001 -1.329541e+000 2.730134e+000 181 87 59
6.374095e-001 -1.329541e+000 2.730134e+000 181 87 59
6.285522e-001 -1.361928e+000 2.739851e+000 57 72 52
6.512019e-001 -1.461984e+000 2.851913e+000 81 47 22
6.512019e-001 -1.461984e+000 2.851913e+000 81 47 22
6.815195e-001 -1.458930e+000 2.899904e+000 169 96 65
6.815195e-001 -1.458930e+000 2.899904e+000 169 96 65
6.887537e-001 -1.455243e+000 2.912524e+000 89 20 16
6.895311e-001 -1.449279e+000 2.909381e+000 161 95 60
6.904161e-001 -1.449241e+000 2.912064e+000 92 17 13
6.904161e-001 -1.449241e+000 2.912064e+000 92 17 13
6.908659e-001 -1.452480e+000 2.915014e+000 91 16 13
6.908659e-001 -1.452480e+000 2.915014e+000 91 16 13
6.757985e-001 -1.472310e+000 2.897770e+000 171 81 57
6.757985e-001 -1.472310e+000 2.897770e+000 171 81 57
6.831585e-001 -1.487496e+000 2.921124e+000 100 117 103
6.940879e-001 -1.469240e+000 2.935164e+000 88 105 90
6.973657e-001 -1.463985e+000 2.941148e+000 93 106 89
7.019379e-001 -1.460743e+000 2.947498e+000 98 115 96
6.983036e-001 -1.468285e+000 2.944412e+000 94 111 95
7.017670e-001 -1.463126e+000 2.949937e+000 93 115 103
7.096332e-001 -1.457405e+000 3.007887e+000 122 43 32
6.637399e-001 -1.533220e+000 2.926505e+000 62 24 19
6.637399e-001 -1.533220e+000 2.926505e+000 62 24 19
6.695641e-001 -1.528068e+000 2.930988e+000 55 22 17
6.735454e-001 -1.523360e+000 2.932248e+000 89 49 41
6.835907e-001 -1.513279e+000 2.941093e+000 60 27 20
6.850941e-001 -1.526343e+000 2.954408e+000 52 34 27
