ply
format ascii 1.0
element face 0
property list uchar int vertex_indices
element vertex 899
property float x
property float y
property float z
property uchar diffuse_red
property uchar diffuse_green
property uchar diffuse_blue
end_header
4.955490e-001 -1.741250e+000 3.166942e+000 158 122 90
4.955490e-001 -1.741250e+000 3.166942e+000 158 122 90
4.221464e-001 -1.840504e+000 3.058164e+000 144 119 100
4.083043e-001 -1.404190e+000 2.631448e+000 192 168 130
4.967492e-001 -1.699661e+000 3.130562e+000 158 123 75
4.079900e-001 -1.783864e+000 3.027633e+000 126 98 74
4.202611e-001 -1.833798e+000 3.029385e+000 111 65 29
5.024879e-001 -1.743385e+000 3.152144e+000 151 117 89
5.024879e-001 -1.743385e+000 3.152144e+000 151 117 89
5.058455e-001 -1.787308e+000 3.170843e+000 35 25 33
4.202078e-001 -1.840641e+000 3.063623e+000 107 61 54
4.502222e-001 -1.567262e+000 3.006844e+000 147 43 40
6.659833e-001 -1.674383e+000 3.172167e+000 54 43 41
2.136829e+000 -2.576139e+000 1.771916e+000 72 58 57
4.402224e-001 -1.611397e+000 3.025975e+000 18 61 100
4.673885e-001 -1.677197e+000 3.094596e+000 134 83 39
6.496569e-001 -1.668479e+000 3.186929e+000 144 124 115
3.850574e-001 -1.597219e+000 2.920941e+000 115 26 30
6.786077e-001 -1.676299e+000 3.160410e+000 53 43 41
4.182285e-001 -1.797242e+000 3.062760e+000 150 76 37
2.160615e+000 -2.603093e+000 1.887516e+000 143 125 111
4.695639e-001 -1.679694e+000 3.096724e+000 132 80 40
2.133971e+000 -2.508737e+000 1.756319e+000 72 58 49
3.371201e-001 -1.481456e+000 2.767925e+000 67 95 94
4.210414e-001 -1.840999e+000 3.073891e+000 159 119 103
2.138057e+000 -2.519147e+000 1.802780e+000 89 76 68
2.138057e+000 -2.519147e+000 1.802780e+000 89 76 68
2.082704e+000 -2.656909e+000 2.032509e+000 195 177 139
2.317955e+000 -2.594426e+000 1.864969e+000 176 154 116
2.303555e+000 -2.917193e+000 1.716920e+000 158 138 111
2.153465e+000 -2.655348e+000 1.930708e+000 191 171 134
2.292117e+000 -2.640097e+000 1.961385e+000 204 182 141
2.130202e+000 -2.458976e+000 1.732896e+000 168 145 113
2.153455e+000 -2.636516e+000 2.004206e+000 28 22 24
2.242779e+000 -2.724791e+000 2.047629e+000 32 23 26
4.084397e-001 -1.761416e+000 3.024942e+000 13 53 87
3.580861e-001 -1.584174e+000 2.847353e+000 94 63 56
3.829694e-001 -1.589633e+000 2.915243e+000 208 114 102
4.081513e-001 -1.772005e+000 3.029460e+000 101 23 29
4.651055e-001 -1.697036e+000 3.109626e+000 90 35 46
4.187634e-001 -1.822849e+000 3.067784e+000 105 43 45
3.695698e-001 -1.643631e+000 2.889208e+000 103 77 50
8.223708e-001 -1.691867e+000 3.049161e+000 117 104 95
3.999411e-001 -1.440189e+000 2.870487e+000 130 130 21
4.479687e-001 -1.791200e+000 3.109792e+000 129 86 70
3.763766e-001 -1.635258e+000 2.920530e+000 20 52 91
4.119911e-001 -1.808700e+000 3.018251e+000 75 29 23
4.360083e-001 -1.662509e+000 3.050239e+000 153 115 78
4.115117e-001 -1.500764e+000 2.924021e+000 122 70 61
3.449468e-001 -1.434161e+000 2.761540e+000 132 50 51
4.037534e-001 -1.569301e+000 2.729682e+000 103 106 51
3.928951e-001 -1.569534e+000 2.742445e+000 37 36 7
3.928951e-001 -1.569534e+000 2.742445e+000 37 36 7
3.729140e-001 -1.561922e+000 2.758000e+000 78 74 51
3.729140e-001 -1.561922e+000 2.758000e+000 78 74 51
3.988492e-001 -1.671498e+000 2.852051e+000 74 35 25
4.059124e-001 -1.690361e+000 2.866217e+000 135 84 57
3.863901e-001 -1.529897e+000 2.704411e+000 38 39 14
3.833825e-001 -1.551864e+000 2.732662e+000 87 97 60
3.808925e-001 -1.564211e+000 2.751345e+000 40 38 25
3.800558e-001 -1.564947e+000 2.752024e+000 40 38 25
4.210201e-001 -1.454339e+000 2.911237e+000 90 103 104
3.483322e-001 -1.428438e+000 2.760542e+000 169 37 45
3.617779e-001 -1.577830e+000 2.863583e+000 167 143 130
4.017090e-001 -1.567413e+000 2.940443e+000 145 26 38
4.038853e-001 -1.568047e+000 2.940914e+000 145 26 38
4.552536e-001 -1.552842e+000 3.003547e+000 171 53 49
4.397156e-001 -1.608834e+000 3.028617e+000 93 145 195
3.948753e-001 -1.557979e+000 2.725340e+000 85 94 41
3.579618e-001 -1.497212e+000 2.821344e+000 24 64 29
4.035450e-001 -1.678149e+000 2.856493e+000 128 82 66
4.057534e-001 -1.678668e+000 2.856247e+000 128 82 66
4.553985e-001 -1.610537e+000 3.045163e+000 28 83 134
4.329491e-001 -1.643661e+000 3.034025e+000 166 65 53
4.337128e-001 -1.644228e+000 3.034506e+000 166 65 53
4.018763e-001 -1.742589e+000 3.004583e+000 142 110 99
3.868595e-001 -1.549091e+000 2.727364e+000 33 41 19
4.071500e-001 -1.621175e+000 2.783486e+000 96 30 24
4.283079e-001 -1.524000e+000 2.959155e+000 160 26 35
4.283079e-001 -1.524000e+000 2.959155e+000 160 26 35
3.839284e-001 -1.640015e+000 2.935493e+000 149 75 52
3.764110e-001 -1.411987e+000 2.805883e+000 85 119 126
3.876886e-001 -1.455488e+000 2.838907e+000 26 62 34
3.454680e-001 -1.516915e+000 2.798482e+000 148 143 87
3.873327e-001 -1.526830e+000 2.885481e+000 175 35 36
4.602777e-001 -1.711982e+000 2.837071e+000 114 63 44
4.006904e-001 -1.671000e+000 2.847535e+000 92 27 23
4.186084e-001 -1.578929e+000 2.976807e+000 39 27 52
4.034856e-001 -1.692861e+000 2.870063e+000 123 89 61
3.538516e-001 -1.487233e+000 2.810915e+000 25 60 36
4.132698e-001 -1.667993e+000 2.837654e+000 121 101 76
3.926517e-001 -1.680226e+000 2.863393e+000 89 29 21
3.642996e-001 -1.650615e+000 2.914132e+000 146 118 87
4.222539e-001 -1.790867e+000 2.965342e+000 111 79 54
4.470935e-001 -1.689130e+000 2.824725e+000 110 53 40
3.551034e-001 -1.541228e+000 2.756379e+000 104 103 90
3.880170e-001 -1.503929e+000 2.882568e+000 160 159 155
3.619077e-001 -1.583913e+000 2.856722e+000 165 127 121
4.479340e-001 -1.727030e+000 2.870409e+000 121 90 61
4.357039e-001 -1.692968e+000 2.843950e+000 116 56 40
4.426135e-001 -1.645132e+000 3.041452e+000 85 19 19
3.524076e-001 -1.449625e+000 2.754159e+000 180 123 109
3.850080e-001 -1.429579e+000 2.826441e+000 69 96 40
3.599449e-001 -1.529683e+000 2.857629e+000 156 155 151
4.473853e-001 -1.597713e+000 3.017068e+000 149 33 36
4.473853e-001 -1.597713e+000 3.017068e+000 149 33 36
3.681660e-001 -1.408926e+000 2.744997e+000 14 86 144
3.219998e-002 -1.290436e+000 3.268962e+000 53 56 87
4.226549e-001 -1.864501e+000 3.055930e+000 85 37 25
4.235839e-001 -1.843837e+000 3.037376e+000 112 67 44
5.603531e-001 -1.649785e+000 3.240887e+000 142 121 116
4.181619e-001 -1.849747e+000 3.052061e+000 127 71 38
4.474915e-001 -1.791779e+000 3.116393e+000 86 27 28
4.094722e-001 -1.807267e+000 3.024029e+000 125 70 31
4.192437e-001 -1.856803e+000 3.051251e+000 78 34 24
4.196364e-001 -1.851451e+000 3.073169e+000 133 78 49
5.925705e-001 -1.656320e+000 3.224586e+000 144 127 120
4.149998e-001 -1.826020e+000 3.058269e+000 150 119 101
4.149998e-001 -1.826020e+000 3.058269e+000 150 119 101
4.091535e-001 -1.805847e+000 3.018185e+000 76 35 17
4.220919e-001 -1.867063e+000 3.066287e+000 154 88 36
4.219789e-001 -1.867024e+000 3.066165e+000 154 88 36
4.710464e-001 -1.702890e+000 3.114271e+000 51 15 25
6.170741e-001 -1.992296e+000 2.742916e+000 34 29 36
4.245564e-001 -1.833220e+000 3.079122e+000 145 97 87
4.360826e-001 -1.322873e+000 2.715325e+000 239 203 183
3.941535e-001 -1.502620e+000 2.663624e+000 95 44 30
3.479983e-001 -1.427738e+000 2.766987e+000 145 45 45
3.479983e-001 -1.427738e+000 2.766987e+000 145 45 45
3.465516e-001 -1.433935e+000 2.766508e+000 132 51 53
3.384493e-001 -1.445882e+000 2.760303e+000 138 43 47
3.384493e-001 -1.445882e+000 2.760303e+000 138 43 47
3.634837e-001 -1.418152e+000 2.785759e+000 205 143 126
3.634837e-001 -1.418152e+000 2.785759e+000 205 143 126
4.006491e-001 -1.569513e+000 2.730389e+000 103 106 51
4.254922e-001 -1.509542e+000 2.942666e+000 190 153 148
4.254922e-001 -1.509542e+000 2.942666e+000 190 153 148
4.115477e-001 -1.648093e+000 2.814589e+000 111 64 44
4.115477e-001 -1.648093e+000 2.814589e+000 111 64 44
3.766996e-001 -1.571488e+000 2.890609e+000 160 157 149
3.766996e-001 -1.571488e+000 2.890609e+000 160 157 149
4.234853e-001 -1.677204e+000 2.832163e+000 127 88 63
3.969629e-001 -1.576717e+000 2.928229e+000 206 151 130
3.920612e-001 -1.575657e+000 2.927336e+000 206 151 130
3.977465e-001 -1.569058e+000 2.933635e+000 212 143 131
4.279530e-001 -1.691341e+000 2.837204e+000 109 57 36
4.039456e-001 -1.676326e+000 2.852099e+000 136 74 61
3.892576e-001 -1.588028e+000 2.928105e+000 134 27 33
4.269012e-001 -1.698120e+000 2.849133e+000 89 31 19
4.590059e-001 -1.567984e+000 3.010105e+000 161 53 50
4.223390e-001 -1.707511e+000 2.862999e+000 86 60 37
4.223390e-001 -1.707511e+000 2.862999e+000 86 60 37
4.475935e-001 -1.739946e+000 2.877405e+000 100 66 41
3.974700e-001 -1.755368e+000 2.995285e+000 23 12 35
3.974389e-001 -1.763391e+000 2.996831e+000 13 19 34
3.974389e-001 -1.763391e+000 2.996831e+000 13 19 34
4.149836e-001 -1.803947e+000 3.012459e+000 91 46 30
4.359179e-001 -1.400364e+000 2.625641e+000 196 152 105
4.354479e-001 -1.327378e+000 2.716943e+000 40 28 21
3.294334e-001 -1.447652e+000 2.741317e+000 161 33 43
3.573371e-001 -1.418004e+000 2.776827e+000 149 37 44
3.573371e-001 -1.418004e+000 2.776827e+000 149 37 44
3.579522e-001 -1.431217e+000 2.780153e+000 217 154 142
3.582011e-001 -1.421075e+000 2.779499e+000 153 37 45
3.326235e-001 -1.470142e+000 2.751587e+000 142 142 136
3.372434e-001 -1.482212e+000 2.763985e+000 123 134 31
3.364921e-001 -1.482104e+000 2.763964e+000 123 134 31
3.833759e-001 -1.551944e+000 2.732748e+000 87 97 60
4.043588e-001 -1.634281e+000 2.808021e+000 114 67 49
3.714894e-001 -1.577864e+000 2.884029e+000 157 148 128
4.117897e-001 -1.675871e+000 2.842666e+000 87 39 23
4.101512e-001 -1.692259e+000 2.862699e+000 79 28 20
3.805003e-001 -1.630759e+000 2.936819e+000 155 67 56
4.392409e-001 -1.737399e+000 2.883758e+000 94 63 42
3.907610e-001 -1.713000e+000 2.940035e+000 83 55 31
3.901671e-001 -1.724297e+000 2.944150e+000 36 14 9
4.345142e-001 -1.776273e+000 2.933311e+000 91 63 42
3.983093e-001 -1.746328e+000 2.961763e+000 93 62 31
4.015288e-001 -1.755098e+000 2.999013e+000 24 22 36
4.091491e-001 -1.757014e+000 3.031718e+000 27 54 88
4.053536e-001 -1.803589e+000 3.013051e+000 115 60 37
4.241762e-001 -1.834032e+000 3.022154e+000 83 42 19
4.176928e-001 -1.822836e+000 3.059827e+000 159 122 117
3.609304e-001 -1.411832e+000 2.775815e+000 168 36 43
3.741286e-001 -1.413400e+000 2.801342e+000 167 37 40
4.075339e-001 -1.537890e+000 2.690502e+000 36 38 15
3.586318e-001 -1.586449e+000 2.854341e+000 162 127 123
4.253776e-001 -1.681320e+000 2.832217e+000 76 33 25
4.253776e-001 -1.681320e+000 2.832217e+000 76 33 25
3.877830e-001 -1.590406e+000 2.925776e+000 208 79 85
9.897331e-001 -1.578610e+000 3.192192e+000 113 103 82
4.544995e-001 -1.568957e+000 3.012265e+000 188 76 70
4.544995e-001 -1.568957e+000 3.012265e+000 188 76 70
4.261470e-001 -1.743232e+000 2.896531e+000 98 66 45
4.672218e-001 -1.602660e+000 3.041989e+000 36 80 118
6.713723e-001 -1.675430e+000 3.194515e+000 143 127 103
3.994570e-001 -1.770270e+000 3.025542e+000 142 106 91
4.157108e-001 -1.816081e+000 3.015867e+000 113 57 32
3.370707e-001 -1.440009e+000 2.750184e+000 167 32 41
3.378506e-001 -1.434754e+000 2.754987e+000 166 36 44
3.417167e-001 -1.434975e+000 2.754929e+000 166 36 44
3.645242e-001 -1.407550e+000 2.780404e+000 170 34 41
3.984069e-001 -1.553787e+000 2.715151e+000 35 39 16
3.977846e-001 -1.553679e+000 2.715189e+000 35 39 16
4.760104e-001 -1.603055e+000 3.049279e+000 166 144 112
4.620393e-001 -1.667815e+000 3.097976e+000 129 80 40
4.975969e-001 -1.678130e+000 3.115941e+000 136 81 54
3.974786e-001 -1.739399e+000 3.009294e+000 32 19 21
5.835192e-001 -1.660435e+000 3.225751e+000 52 43 36
4.342912e-001 -1.836360e+000 3.011972e+000 103 63 34
4.335711e-001 -1.842598e+000 3.015400e+000 26 36 24
4.204838e-001 -1.825007e+000 3.016101e+000 65 28 18
4.182533e-001 -1.823733e+000 3.015953e+000 65 28 18
3.848985e-001 -1.548661e+000 2.727226e+000 33 41 19
3.880702e-001 -1.613803e+000 2.796713e+000 96 29 26
3.867300e-001 -1.555337e+000 2.901988e+000 156 157 149
3.962441e-001 -1.539934e+000 2.920977e+000 172 33 40
4.223247e-001 -1.513315e+000 2.940145e+000 173 127 127
3.938592e-001 -1.604158e+000 2.948968e+000 16 80 132
4.792184e-001 -1.680954e+000 3.114068e+000 43 25 23
4.137596e-001 -1.801183e+000 2.999500e+000 67 17 20
4.389761e-001 -1.806292e+000 3.107779e+000 110 67 42
3.547332e-001 -1.537342e+000 2.752899e+000 97 100 93
3.713949e-001 -1.574942e+000 2.888520e+000 165 30 36
3.786820e-001 -1.622827e+000 2.911108e+000 11 74 125
4.762619e-001 -1.871106e+000 3.010295e+000 65 67 46
4.449087e-001 -1.857747e+000 3.026827e+000 28 35 21
4.386397e-001 -1.852254e+000 3.035900e+000 102 64 44
4.933452e-001 -1.742506e+000 3.169434e+000 172 136 114
3.651314e-001 -1.455538e+000 2.816158e+000 20 63 37
4.794412e-001 -1.691405e+000 3.122594e+000 171 138 93
4.256533e-001 -1.819569e+000 3.077706e+000 148 131 123
9.598775e-001 -1.587448e+000 3.174611e+000 255 253 237
4.307337e-001 -1.808159e+000 3.097857e+000 130 79 38
4.073882e-001 -1.761611e+000 3.026126e+000 15 61 114
4.179760e-001 -1.832493e+000 3.028764e+000 112 64 28
3.328807e-001 -1.472954e+000 2.726615e+000 65 90 112
1.013007e+000 -1.615055e+000 3.155115e+000 34 29 26
4.129646e-001 -1.761412e+000 3.021496e+000 12 60 116
3.841052e-001 -1.382276e+000 2.776016e+000 8 87 146
3.810638e-001 -1.618127e+000 2.905194e+000 141 21 31
4.899644e-001 -1.831026e+000 3.155127e+000 34 24 32
3.609897e-001 -1.415060e+000 2.777015e+000 200 135 129
4.047506e-001 -1.676972e+000 2.852919e+000 135 80 67
4.242465e-001 -1.317194e+000 2.803798e+000 45 37 32
4.021328e-001 -1.593030e+000 2.950121e+000 92 123 144
3.588666e-001 -1.478124e+000 2.808160e+000 151 149 127
4.109601e-001 -1.438348e+000 2.881117e+000 20 60 39
4.175699e-001 -1.587498e+000 2.979867e+000 177 126 99
4.387958e-001 -1.634403e+000 3.038452e+000 80 17 28
3.671753e-001 -1.615403e+000 2.882304e+000 120 20 27
3.388556e-001 -1.450504e+000 2.762881e+000 229 133 123
3.761128e-001 -1.413702e+000 2.805055e+000 150 163 172
3.761128e-001 -1.413702e+000 2.805055e+000 150 163 172
4.044015e-001 -1.668941e+000 2.845277e+000 73 32 19
4.058236e-001 -1.676762e+000 2.852098e+000 136 74 61
4.322543e-001 -1.709874e+000 2.855943e+000 130 96 73
4.186404e-001 -1.839171e+000 3.064390e+000 105 62 64
4.186551e-001 -1.839106e+000 3.064341e+000 105 62 64
3.990633e-001 -1.570095e+000 2.937725e+000 137 28 40
4.189902e-001 -1.823654e+000 3.060125e+000 159 122 117
3.882536e-001 -1.590546e+000 2.925943e+000 208 79 85
6.125155e-001 -1.661528e+000 3.214336e+000 147 126 103
4.208838e-001 -1.842743e+000 3.042415e+000 71 30 18
3.967669e-001 -1.511488e+000 2.902934e+000 162 157 159
3.496659e-001 -1.505783e+000 2.804603e+000 153 149 138
3.496659e-001 -1.505783e+000 2.804603e+000 153 149 138
3.504334e-001 -1.499032e+000 2.807604e+000 154 152 140
3.079445e+000 -9.692620e-001 2.410284e+000 207 180 125
5.142293e-001 -1.636882e+000 3.263496e+000 121 106 99
2.939741e+000 -1.059696e+000 2.406519e+000 112 83 61
3.587027e-001 -1.427478e+000 2.784188e+000 244 145 139
3.855834e-001 -1.537520e+000 2.713441e+000 32 37 9
3.736397e-001 -1.561714e+000 2.757913e+000 75 70 50
3.738070e-001 -1.561670e+000 2.758091e+000 75 70 50
4.252048e-001 -1.627675e+000 2.770687e+000 143 79 53
4.131335e-001 -1.623927e+000 2.776830e+000 147 73 61
4.237360e-001 -1.675183e+000 2.824487e+000 135 111 85
4.108871e-001 -1.711031e+000 2.884023e+000 125 89 63
4.406442e-001 -1.747733e+000 2.893200e+000 103 68 46
4.357057e-001 -1.767294e+000 2.921988e+000 90 62 41
3.963581e-001 -1.740980e+000 2.968264e+000 111 79 48
4.032251e-001 -1.723524e+000 2.999896e+000 172 129 112
4.518020e-001 -1.855130e+000 3.012428e+000 59 66 49
3.819425e-001 -1.399719e+000 2.812787e+000 49 108 160
3.792104e-001 -1.439440e+000 2.828104e+000 29 64 30
4.253101e-001 -1.678037e+000 2.827790e+000 86 34 25
4.076141e-001 -1.690915e+000 2.866721e+000 138 94 64
4.023279e-001 -1.590484e+000 2.953957e+000 22 85 150
4.171970e-001 -1.594314e+000 2.980847e+000 122 46 40
3.901418e-001 -1.712705e+000 2.959170e+000 112 61 30
4.041458e-001 -1.743722e+000 3.010800e+000 37 35 59
4.041458e-001 -1.743722e+000 3.010800e+000 37 35 59
4.364385e-001 -1.807355e+000 2.967231e+000 89 53 37
3.334531e-001 -1.450754e+000 2.744380e+000 193 165 166
4.157083e-001 -1.515879e+000 2.941919e+000 178 164 166
3.890581e-001 -1.578154e+000 2.923920e+000 149 24 34
3.925606e-001 -1.571899e+000 2.929894e+000 157 26 36
4.243115e-001 -1.640601e+000 3.022508e+000 110 37 25
4.447624e-001 -1.779885e+000 2.926600e+000 93 62 41
3.964280e-001 -1.745293e+000 2.965569e+000 143 109 67
4.184555e-001 -1.807652e+000 2.995240e+000 116 63 29
4.113374e-001 -1.806739e+000 3.013704e+000 131 68 37
4.216328e-001 -1.843337e+000 3.048218e+000 151 91 39
3.516637e-001 -1.424053e+000 2.765158e+000 180 33 47
3.327538e-001 -1.465264e+000 2.751689e+000 170 38 49
3.332968e-001 -1.465091e+000 2.751613e+000 170 38 49
4.089741e-001 -1.548720e+000 2.700413e+000 32 40 16
3.917027e-001 -1.537707e+000 2.708799e+000 94 94 39
3.950434e-001 -1.558007e+000 2.725516e+000 95 99 54
4.137323e-001 -1.709127e+000 2.879183e+000 127 93 65
4.118234e-001 -1.757579e+000 3.031577e+000 19 84 151
4.139358e-001 -1.810908e+000 3.020066e+000 80 36 15
4.092435e-001 -1.789018e+000 3.043837e+000 115 29 32
4.080939e-001 -1.788633e+000 3.043474e+000 115 29 32
3.748913e-001 -1.485200e+000 2.845277e+000 160 176 115
3.983261e-001 -1.504521e+000 2.901958e+000 184 35 42
3.958772e-001 -1.512167e+000 2.902972e+000 163 165 169
3.961568e-001 -1.512157e+000 2.902972e+000 163 165 169
3.797064e-001 -1.532932e+000 2.883050e+000 159 163 170
4.231760e-001 -1.732058e+000 2.889879e+000 103 68 49
4.109289e-001 -1.761226e+000 3.039309e+000 165 132 113
4.153784e-001 -1.794070e+000 3.053261e+000 176 107 40
3.650705e-001 -1.540417e+000 2.744864e+000 54 74 85
3.583526e-001 -1.478155e+000 2.808057e+000 170 168 162
3.762537e-001 -1.455909e+000 2.828466e+000 169 162 165
3.568662e-001 -1.558054e+000 2.843084e+000 27 64 38
4.076366e-001 -1.514091e+000 2.925846e+000 172 163 168
3.752665e-001 -1.565552e+000 2.890067e+000 159 162 169
4.334165e-001 -1.835061e+000 3.009026e+000 100 62 39
3.341014e-001 -1.451897e+000 2.750538e+000 146 114 109
3.342904e-001 -1.451882e+000 2.750554e+000 146 114 109
3.604951e-001 -1.551418e+000 2.851739e+000 158 161 168
4.328485e-001 -1.566982e+000 2.977753e+000 127 170 236
4.165917e-001 -1.795978e+000 3.016520e+000 146 121 106
4.082901e-001 -1.763652e+000 3.028253e+000 18 80 154
4.081286e-001 -1.783498e+000 3.028559e+000 154 132 118
4.253289e-001 -1.792617e+000 3.078552e+000 150 25 39
4.061552e-001 -1.748981e+000 2.987396e+000 147 125 111
5.546215e-001 -1.848950e+000 2.860381e+000 49 40 31
4.530278e-001 -1.509095e+000 2.642558e+000 102 44 22
3.639172e-001 -1.417471e+000 2.778212e+000 141 50 52
3.639172e-001 -1.417471e+000 2.778212e+000 141 50 52
3.744462e-001 -1.512901e+000 2.678240e+000 29 37 22
3.744462e-001 -1.512901e+000 2.678240e+000 29 37 22
4.294774e-001 -1.549605e+000 2.674732e+000 105 108 50
4.158251e-001 -1.601772e+000 2.753787e+000 61 33 26
4.179951e-001 -1.607753e+000 2.756957e+000 132 100 87
4.230417e-001 -1.680719e+000 2.825376e+000 146 61 55
4.230417e-001 -1.680719e+000 2.825376e+000 146 61 55
4.324255e-001 -1.702040e+000 2.848017e+000 132 46 43
4.117173e-001 -1.406745e+000 2.629424e+000 44 32 22
3.678210e-001 -1.413893e+000 2.786854e+000 160 39 43
3.415152e-001 -1.446920e+000 2.761855e+000 159 46 49
4.013861e-001 -1.536723e+000 2.674042e+000 108 110 44
4.013861e-001 -1.536723e+000 2.674042e+000 108 110 44
3.811343e-001 -1.544443e+000 2.697942e+000 29 36 20
3.650841e-001 -1.553435e+000 2.716637e+000 32 36 16
3.947728e-001 -1.574020e+000 2.715500e+000 113 112 57
4.188541e-001 -1.603806e+000 2.751962e+000 141 105 86
4.304439e-001 -1.613363e+000 2.755455e+000 103 80 64
3.924617e-001 -1.634471e+000 2.797738e+000 109 60 45
3.710138e-001 -1.622969e+000 2.798132e+000 114 65 50
4.292992e-001 -1.699325e+000 2.850198e+000 82 22 17
3.561957e-001 -1.417626e+000 2.770586e+000 167 40 45
4.205897e-001 -1.520574e+000 2.650054e+000 117 42 31
3.862842e-001 -1.534149e+000 2.684153e+000 77 87 33
3.188833e-001 -1.473902e+000 2.746715e+000 52 106 154
3.980385e-001 -1.544766e+000 2.708630e+000 34 38 23
4.348482e-001 -1.571254e+000 2.700995e+000 94 96 47
4.008527e-001 -1.557935e+000 2.719870e+000 85 98 51
4.008527e-001 -1.557935e+000 2.719870e+000 85 98 51
4.268530e-001 -1.579153e+000 2.706271e+000 93 96 42
4.268530e-001 -1.579153e+000 2.706271e+000 93 96 42
4.080748e-001 -1.574016e+000 2.728640e+000 35 39 11
4.040849e-001 -1.568961e+000 2.729616e+000 99 108 54
3.701530e-001 -1.489865e+000 2.828909e+000 31 66 22
4.648933e-001 -1.729696e+000 2.854602e+000 132 95 53
4.871000e-001 -1.787892e+000 2.903247e+000 83 47 25
4.249288e-001 -1.529141e+000 2.655528e+000 44 43 22
3.902950e-001 -1.529428e+000 2.680262e+000 31 39 17
3.938243e-001 -1.541186e+000 2.676655e+000 39 43 16
4.177754e-001 -1.540083e+000 2.689438e+000 35 41 14
4.027350e-001 -1.544573e+000 2.683242e+000 123 118 50
4.020984e-001 -1.535339e+000 2.690888e+000 31 41 14
4.301429e-001 -1.551681e+000 2.690356e+000 38 42 17
4.204815e-001 -1.561474e+000 2.688500e+000 40 44 11
4.221700e-001 -1.566106e+000 2.694753e+000 93 94 49
3.995661e-001 -1.560878e+000 2.694500e+000 41 45 10
4.306267e-001 -1.575979e+000 2.700923e+000 39 42 20
4.136349e-001 -1.566427e+000 2.713240e+000 38 40 22
4.088284e-001 -1.533709e+000 2.924373e+000 156 164 174
4.049037e-001 -1.563891e+000 2.925675e+000 157 24 36
4.283740e-001 -1.687580e+000 2.834734e+000 143 80 62
4.054688e-001 -1.691877e+000 2.836149e+000 142 78 55
4.660526e-001 -1.749186e+000 2.876058e+000 131 81 47
4.555207e-001 -1.788214e+000 2.918198e+000 124 79 56
4.146806e-001 -1.528956e+000 2.665540e+000 95 94 58
3.990501e-001 -1.520611e+000 2.677060e+000 18 56 74
4.319417e-001 -1.554092e+000 2.678370e+000 42 45 14
4.319417e-001 -1.554092e+000 2.678370e+000 42 45 14
4.183409e-001 -1.555716e+000 2.683848e+000 110 107 52
4.238846e-001 -1.554738e+000 2.696917e+000 110 107 51
3.809953e-001 -1.554029e+000 2.691444e+000 110 107 51
3.533781e-001 -1.464776e+000 2.795679e+000 149 181 103
3.548922e-001 -1.464595e+000 2.795981e+000 149 181 103
3.747795e-001 -1.442533e+000 2.816706e+000 156 178 94
3.747795e-001 -1.442533e+000 2.816706e+000 156 178 94
3.932889e-001 -1.546529e+000 2.715286e+000 81 91 57
3.685441e-001 -1.546686e+000 2.711969e+000 81 91 57
3.888671e-001 -1.549848e+000 2.726998e+000 28 40 17
3.664338e-001 -1.473034e+000 2.824246e+000 169 173 127
4.159478e-001 -1.578500e+000 2.722213e+000 37 44 19
3.964663e-001 -1.577323e+000 2.719590e+000 37 44 19
3.770453e-001 -1.485044e+000 2.845870e+000 155 183 101
3.879955e-001 -1.533250e+000 2.886041e+000 158 168 175
4.085010e-001 -1.678918e+000 2.856798e+000 136 86 69
3.849084e-001 -1.616932e+000 2.936878e+000 16 89 147
4.595918e-001 -1.738117e+000 2.864975e+000 129 97 65
3.685142e-001 -1.522919e+000 2.669112e+000 26 59 68
3.597153e-001 -1.455883e+000 2.795217e+000 29 63 34
3.771586e-001 -1.540343e+000 2.693438e+000 69 80 55
4.750502e-001 -1.578923e+000 2.697367e+000 92 95 65
3.832164e-001 -1.553162e+000 2.704763e+000 69 80 62
3.832164e-001 -1.553162e+000 2.704763e+000 69 80 62
4.092767e-001 -1.569555e+000 2.719423e+000 113 112 56
3.825728e-001 -1.458362e+000 2.847170e+000 166 165 168
4.051244e-001 -1.457016e+000 2.864464e+000 24 66 37
4.061236e-001 -1.446064e+000 2.874484e+000 30 64 35
4.390976e-001 -1.605937e+000 2.740804e+000 104 79 50
4.216741e-001 -1.627753e+000 2.767208e+000 102 51 38
4.112053e-001 -1.621432e+000 2.783187e+000 104 26 24
4.588233e-001 -1.696326e+000 2.816262e+000 145 90 59
4.588233e-001 -1.696326e+000 2.816262e+000 145 90 59
4.736137e-001 -1.708247e+000 2.818612e+000 112 46 29
4.268782e-001 -1.680659e+000 2.830400e+000 89 25 23
4.265441e-001 -1.703274e+000 2.850079e+000 95 21 21
4.436107e-001 -1.715853e+000 2.856440e+000 122 107 86
3.734335e-001 -1.464256e+000 2.832745e+000 23 67 42
3.736004e-001 -1.464299e+000 2.833111e+000 23 67 42
3.670160e-001 -1.476852e+000 2.827985e+000 171 169 170
3.817870e-001 -1.603553e+000 2.748241e+000 123 94 85
4.245565e-001 -1.702937e+000 2.848845e+000 96 20 21
3.949231e-001 -1.687549e+000 2.882546e+000 73 21 18
4.759056e-001 -1.778939e+000 2.894442e+000 90 45 26
3.858104e-001 -1.501637e+000 2.640192e+000 30 58 69
4.092461e-001 -1.442113e+000 2.876492e+000 30 65 29
4.092461e-001 -1.442113e+000 2.876492e+000 30 65 29
4.062586e-001 -1.775644e+000 2.973309e+000 49 12 14
3.927661e-001 -1.473157e+000 2.883386e+000 156 171 41
4.165952e-001 -1.666938e+000 2.834162e+000 121 110 90
3.985728e-001 -1.731843e+000 2.942373e+000 36 14 17
3.663464e-001 -1.432074e+000 2.821693e+000 127 156 61
3.897826e-001 -1.761461e+000 2.941089e+000 116 95 76
2.231944e-001 -1.410808e+000 2.742204e+000 14 92 166
3.755806e-001 -1.616120e+000 2.903858e+000 153 23 31
3.755806e-001 -1.616120e+000 2.903858e+000 153 23 31
3.307872e-001 -1.382202e+000 2.706617e+000 205 194 174
3.307872e-001 -1.382202e+000 2.706617e+000 205 194 174
1.137388e-001 -1.623446e+000 3.358895e+000 19 12 6
1.137388e-001 -1.623446e+000 3.358895e+000 19 12 6
6.503943e-002 -1.421780e+000 3.223580e+000 27 24 31
6.461964e-002 -1.432173e+000 3.223614e+000 199 167 118
4.857354e-001 -1.900188e+000 3.028091e+000 27 18 23
5.183629e-001 -1.638240e+000 3.265076e+000 129 108 77
4.690338e-001 -1.858609e+000 2.996246e+000 51 53 29
4.658116e-001 -1.866249e+000 3.011343e+000 57 59 43
3.891424e-001 -1.810111e+000 3.149108e+000 56 44 46
6.165785e-001 -1.552014e+000 3.309389e+000 159 137 98
5.119661e-001 -1.643920e+000 3.253073e+000 52 40 31
3.754937e-001 -1.650174e+000 2.913518e+000 160 133 104
2.742669e+000 -6.747668e-001 2.848201e+000 129 91 42
3.855196e-001 -1.687920e+000 2.944328e+000 139 101 52
5.605446e-001 -1.655683e+000 3.233366e+000 53 42 36
2.801233e+000 -6.486047e-001 2.873654e+000 131 88 43
4.372784e-001 -1.506763e+000 2.649837e+000 110 40 26
3.950675e-001 -1.503049e+000 2.668229e+000 109 93 86
4.134656e-001 -1.535712e+000 2.687087e+000 95 105 47
4.358043e-001 -1.565817e+000 2.705552e+000 101 104 49
3.957112e-001 -1.554172e+000 2.722270e+000 34 38 13
4.103221e-001 -1.572472e+000 2.727108e+000 35 37 13
3.960477e-001 -1.569249e+000 2.738485e+000 101 114 45
3.960477e-001 -1.569249e+000 2.738485e+000 101 114 45
4.156614e-001 -1.598468e+000 2.751196e+000 42 27 16
4.149988e-001 -1.598359e+000 2.750968e+000 42 27 16
4.566749e-001 -1.633719e+000 2.758038e+000 86 42 26
4.232687e-001 -1.635072e+000 2.786291e+000 111 63 49
4.199141e-001 -1.652498e+000 2.802867e+000 111 62 44
4.232229e-001 -1.652560e+000 2.803931e+000 111 62 44
4.051258e-001 -1.646457e+000 2.815989e+000 108 62 46
4.051258e-001 -1.646457e+000 2.815989e+000 108 62 46
4.358133e-001 -1.680466e+000 2.824782e+000 85 25 21
4.299172e-001 -1.706038e+000 2.858017e+000 56 21 6
4.793539e-001 -1.662866e+000 3.061479e+000 151 43 40
4.642277e-001 -1.658120e+000 3.070126e+000 162 77 58
4.010863e-001 -1.732276e+000 3.001925e+000 173 135 126
5.166726e-001 -1.642197e+000 3.256352e+000 148 131 104
5.074114e-001 -1.866201e+000 2.975832e+000 66 76 48
5.030976e-001 -1.866111e+000 2.979923e+000 65 76 47
4.083419e-001 -1.763287e+000 3.033092e+000 98 37 48
4.583892e-001 -1.857648e+000 3.006590e+000 73 88 59
4.583892e-001 -1.857648e+000 3.006590e+000 73 88 59
4.579555e-001 -1.860896e+000 3.010256e+000 29 36 21
4.892837e-001 -1.882655e+000 3.013363e+000 75 44 27
4.289531e-001 -1.873111e+000 3.056755e+000 137 65 43
4.034898e-001 -1.544000e+000 2.700822e+000 29 36 20
3.399652e-001 -1.494821e+000 2.757106e+000 75 105 139
4.199161e-001 -1.613613e+000 2.760704e+000 126 107 91
4.178812e-001 -1.633630e+000 2.789337e+000 109 60 46
4.182385e-001 -1.633562e+000 2.789352e+000 109 60 46
4.094265e-001 -1.630839e+000 2.792694e+000 114 63 49
3.988484e-001 -1.633638e+000 2.806259e+000 116 67 52
3.630623e-001 -1.580030e+000 2.862375e+000 187 154 160
4.295537e-001 -1.699377e+000 2.850440e+000 82 22 17
4.256988e-001 -1.709526e+000 2.865018e+000 63 36 19
4.162025e-001 -1.696891e+000 2.863309e+000 130 93 69
3.972970e-001 -1.681511e+000 2.870087e+000 128 42 37
4.610934e-001 -1.743384e+000 2.867713e+000 104 60 36
4.689306e-001 -1.610747e+000 3.041653e+000 81 144 202
4.243261e-001 -1.732090e+000 2.894857e+000 72 45 28
4.770850e-001 -1.782442e+000 2.903428e+000 118 70 42
4.493832e-001 -1.664151e+000 3.071451e+000 126 77 45
4.558055e-001 -1.793468e+000 2.931788e+000 85 55 35
5.667938e-001 -1.652947e+000 3.229013e+000 147 130 102
4.788680e-001 -1.818451e+000 2.938769e+000 87 49 26
4.023312e-001 -1.747326e+000 3.006915e+000 25 20 56
5.499283e-001 -1.652494e+000 3.237711e+000 51 40 34
4.013112e-001 -1.752381e+000 3.001719e+000 27 21 62
5.136780e-001 -1.642886e+000 3.246301e+000 148 132 99
4.719128e-001 -1.859971e+000 2.998171e+000 67 79 59
4.238769e-001 -1.838985e+000 3.027651e+000 128 86 63
4.092230e-001 -1.533650e+000 2.686677e+000 77 87 33
3.851223e-001 -1.524497e+000 2.702391e+000 83 96 49
4.051674e-001 -1.545209e+000 2.701486e+000 30 40 16
3.982922e-001 -1.544781e+000 2.708926e+000 34 38 23
4.166283e-001 -1.636015e+000 2.793427e+000 146 82 64
3.979788e-001 -1.593148e+000 2.948980e+000 123 177 233
4.697754e-001 -1.604218e+000 3.039992e+000 44 87 141
4.641757e-001 -1.646462e+000 3.047932e+000 181 75 59
4.302173e-001 -1.653382e+000 3.033575e+000 176 150 120
4.347245e-001 -1.756286e+000 2.912583e+000 100 69 51
4.347245e-001 -1.756286e+000 2.912583e+000 100 69 51
5.069004e-001 -1.794950e+000 2.920620e+000 97 57 32
4.633053e-001 -1.815283e+000 2.947776e+000 85 48 30
4.768507e-001 -1.865456e+000 2.998011e+000 28 34 20
4.760334e-001 -1.865559e+000 2.997619e+000 28 34 20
4.662082e-001 -1.863380e+000 3.001546e+000 31 36 23
4.284938e-001 -1.839573e+000 3.021318e+000 111 62 29
4.211310e-001 -1.848136e+000 3.051044e+000 162 99 56
4.363311e-001 -1.544557e+000 2.687660e+000 123 118 50
3.819041e-001 -1.545505e+000 2.730039e+000 26 40 18
3.582722e-001 -1.584262e+000 2.848846e+000 146 110 117
4.414386e-001 -1.708739e+000 2.848611e+000 92 21 23
4.125789e-001 -1.692197e+000 2.863422e+000 80 23 18
4.125789e-001 -1.692197e+000 2.863422e+000 80 23 18
4.781989e-001 -1.745519e+000 2.866040e+000 94 48 25
4.445654e-001 -1.744380e+000 2.890203e+000 126 89 68
5.157012e-001 -1.775700e+000 2.916974e+000 98 66 45
4.541488e-001 -1.787513e+000 2.926122e+000 120 82 59
4.449898e-001 -1.785511e+000 2.931024e+000 118 82 58
4.449898e-001 -1.785511e+000 2.931024e+000 118 82 58
4.610551e-001 -1.809383e+000 2.952212e+000 117 81 55
4.482838e-001 -1.805525e+000 2.956154e+000 118 80 57
4.472207e-001 -1.805088e+000 2.955846e+000 118 80 57
4.080448e-001 -1.770176e+000 2.966355e+000 124 94 63
4.018817e-001 -1.767976e+000 2.990037e+000 22 24 56
5.308543e-001 -1.881689e+000 2.978663e+000 32 40 17
4.250153e-001 -1.809579e+000 2.985888e+000 111 68 49
4.162423e-001 -1.818307e+000 3.020502e+000 82 38 13
4.203609e-001 -1.827570e+000 3.023395e+000 145 87 41
4.066908e-001 -1.573666e+000 2.735132e+000 31 39 15
4.395545e-001 -1.762617e+000 2.917383e+000 120 88 65
4.632300e-001 -1.692610e+000 3.104375e+000 72 34 21
5.620296e-001 -1.896303e+000 2.985279e+000 134 87 40
5.603520e-001 -1.895717e+000 2.984573e+000 134 87 40
5.262733e-001 -1.892028e+000 2.996013e+000 86 54 34
3.751090e-001 -1.435368e+000 2.812614e+000 19 68 31
4.081259e-001 -1.569560e+000 2.719388e+000 113 112 56
3.743850e-001 -1.477998e+000 2.840398e+000 26 65 42
4.061687e-001 -1.592322e+000 2.962094e+000 30 76 138
4.309211e-001 -1.805857e+000 2.973384e+000 91 49 38
3.447789e-001 -1.471991e+000 2.767250e+000 23 67 40
4.152497e-001 -1.529178e+000 2.940867e+000 164 166 171
3.816776e-001 -1.656525e+000 2.933449e+000 165 114 69
4.361389e-001 -1.632647e+000 3.036668e+000 87 19 25
4.712821e-001 -1.629722e+000 3.064339e+000 175 155 122
3.975170e-001 -1.747813e+000 2.948903e+000 126 102 78
4.114595e-001 -1.774570e+000 3.041790e+000 139 27 34
4.257918e-001 -1.845493e+000 3.033608e+000 116 83 68
4.507187e-001 -1.480537e+000 2.626834e+000 32 61 69
4.606422e-001 -1.512810e+000 2.967454e+000 171 170 169
4.441867e-001 -1.575868e+000 2.993684e+000 126 24 33
4.441867e-001 -1.575868e+000 2.993684e+000 126 24 33
4.232846e-001 -1.789311e+000 2.965143e+000 115 88 67
4.385446e-001 -1.858806e+000 3.028793e+000 26 40 23
4.523642e-001 -1.604835e+000 3.022540e+000 140 29 31
4.712038e-001 -1.647343e+000 3.055224e+000 112 26 21
4.712038e-001 -1.647343e+000 3.055224e+000 112 26 21
4.068724e-001 -1.747970e+000 2.988874e+000 148 131 113
4.375744e-001 -1.827524e+000 2.991032e+000 111 72 47
4.365572e-001 -1.479550e+000 2.922377e+000 167 168 172
4.255577e-001 -1.623218e+000 2.981421e+000 174 147 126
4.423589e-001 -1.698027e+000 3.036661e+000 169 148 127
4.423589e-001 -1.698027e+000 3.036661e+000 169 148 127
4.067507e-001 -1.671223e+000 2.843461e+000 136 85 63
5.255076e-001 -1.877880e+000 2.982587e+000 63 68 34
4.056596e-001 -1.770429e+000 3.016693e+000 24 76 136
4.394395e-001 -1.614377e+000 3.029318e+000 51 95 144
4.711760e-001 -1.859756e+000 2.997463e+000 53 61 37
4.368297e-001 -1.619482e+000 3.029293e+000 60 111 174
5.376569e-001 -1.648714e+000 3.254341e+000 50 43 38
3.763604e-001 -1.559124e+000 2.752255e+000 112 111 85
4.310801e-001 -1.634408e+000 3.025913e+000 194 139 112
3.870224e-001 -1.473136e+000 2.867562e+000 26 65 38
3.804307e-001 -1.583906e+000 2.905011e+000 152 26 31
4.119609e-001 -1.761102e+000 3.042893e+000 166 137 121
4.551811e-001 -1.520510e+000 2.652232e+000 120 35 24
4.106490e-001 -1.512526e+000 2.664994e+000 107 31 25
3.538895e-001 -1.428167e+000 2.779698e+000 156 51 52
4.244939e-001 -1.539657e+000 2.683186e+000 34 39 8
4.157826e-001 -1.542379e+000 2.693058e+000 93 110 52
3.393363e-001 -1.477990e+000 2.769082e+000 138 171 87
4.492811e-001 -1.577610e+000 2.706934e+000 34 37 13
4.508061e-001 -1.577423e+000 2.707396e+000 34 37 13
3.848634e-001 -1.544944e+000 2.724308e+000 109 118 32
3.848634e-001 -1.544944e+000 2.724308e+000 109 118 32
3.622551e-001 -1.490157e+000 2.825591e+000 40 57 22
3.558488e-001 -1.508448e+000 2.819167e+000 40 57 22
3.827625e-001 -1.492863e+000 2.865102e+000 44 54 26
3.983977e-001 -1.476053e+000 2.892893e+000 45 57 11
4.571914e-001 -1.653764e+000 2.779006e+000 127 69 45
4.272488e-001 -1.638465e+000 2.778680e+000 122 66 50
4.136159e-001 -1.637047e+000 2.799192e+000 105 52 38
4.116880e-001 -1.637271e+000 2.798389e+000 105 52 38
3.640729e-001 -1.585520e+000 2.869684e+000 177 162 172
4.445191e-001 -1.664453e+000 2.796199e+000 126 70 46
4.145023e-001 -1.649586e+000 2.809453e+000 113 61 47
4.097651e-001 -1.648135e+000 2.812757e+000 106 59 45
4.097651e-001 -1.648135e+000 2.812757e+000 106 59 45
4.872788e-001 -1.698077e+000 2.811553e+000 117 55 34
4.559093e-001 -1.685951e+000 2.822720e+000 159 74 57
4.452144e-001 -1.696242e+000 2.831172e+000 103 50 32
4.452058e-001 -1.696297e+000 2.831400e+000 103 50 32
4.390172e-001 -1.684616e+000 2.823112e+000 173 84 71
4.405654e-001 -1.695244e+000 2.834735e+000 95 47 33
3.986042e-001 -1.668914e+000 2.850124e+000 83 30 26
4.734910e-001 -1.720492e+000 2.840111e+000 119 70 41
4.337024e-001 -1.692486e+000 2.840542e+000 104 52 37
4.326553e-001 -1.692423e+000 2.839957e+000 104 52 37
4.289832e-001 -1.703360e+000 2.842091e+000 145 51 47
4.056445e-001 -1.676609e+000 2.851807e+000 157 81 73
4.078525e-001 -1.684195e+000 2.857902e+000 180 88 74
4.066527e-001 -1.684415e+000 2.857528e+000 180 88 74
4.272950e-001 -1.703174e+000 2.857918e+000 125 70 38
4.259587e-001 -1.712722e+000 2.866829e+000 138 101 72
4.046385e-001 -1.713314e+000 2.886954e+000 132 103 80
4.391568e-001 -1.768192e+000 2.920002e+000 135 94 75
5.082327e-001 -1.831108e+000 2.936911e+000 98 60 35
4.057284e-001 -1.743459e+000 3.018986e+000 31 34 62
4.528841e-001 -1.508731e+000 2.642495e+000 119 29 20
4.507801e-001 -1.507588e+000 2.646034e+000 120 32 27
4.251361e-001 -1.505031e+000 2.654784e+000 132 27 31
4.171338e-001 -1.504240e+000 2.657052e+000 133 28 25
4.247955e-001 -1.517179e+000 2.662106e+000 121 35 28
3.317921e-001 -1.470595e+000 2.751371e+000 166 169 179
3.612793e-001 -1.442932e+000 2.797309e+000 66 117 170
4.014452e-001 -1.544779e+000 2.704788e+000 118 123 35
3.818854e-001 -1.451749e+000 2.847347e+000 51 61 25
3.967323e-001 -1.437724e+000 2.873096e+000 48 72 48
3.967323e-001 -1.437724e+000 2.873096e+000 48 72 48
4.662089e-001 -1.594545e+000 2.718919e+000 35 37 19
4.662089e-001 -1.594545e+000 2.718919e+000 35 37 19
3.575936e-001 -1.522583e+000 2.830434e+000 32 63 46
4.337154e-001 -1.607543e+000 2.745346e+000 146 109 83
4.337154e-001 -1.607543e+000 2.745346e+000 146 109 83
4.581388e-001 -1.640837e+000 2.768541e+000 117 64 40
4.081326e-001 -1.508108e+000 2.929217e+000 180 163 163
4.463055e-001 -1.641418e+000 2.767627e+000 118 64 40
4.493027e-001 -1.641441e+000 2.768905e+000 118 64 40
4.330865e-001 -1.645921e+000 2.779577e+000 124 67 48
4.409766e-001 -1.657526e+000 2.794384e+000 109 56 34
3.709712e-001 -1.577451e+000 2.883299e+000 188 158 155
3.818128e-001 -1.585034e+000 2.913993e+000 236 152 138
3.962399e-001 -1.576734e+000 2.936329e+000 237 105 103
4.973008e-001 -1.697399e+000 2.808668e+000 113 55 35
4.451654e-001 -1.739625e+000 2.877575e+000 101 71 52
4.454411e-001 -1.739108e+000 2.882667e+000 137 97 71
4.396036e-001 -1.738135e+000 2.883496e+000 77 44 29
4.346588e-001 -1.745442e+000 2.900711e+000 81 51 35
5.226101e-001 -1.810483e+000 2.912583e+000 87 55 32
4.522388e-001 -1.782612e+000 2.924398e+000 130 89 68
3.927248e-001 -1.740201e+000 2.959523e+000 109 76 43
3.654188e-001 -1.401657e+000 2.785805e+000 178 40 41
3.976501e-001 -1.502453e+000 2.664462e+000 139 21 29
3.975741e-001 -1.502483e+000 2.664523e+000 139 21 29
3.291287e-001 -1.451233e+000 2.738578e+000 171 41 51
3.350365e-001 -1.445550e+000 2.745332e+000 174 42 54
3.916728e-001 -1.512527e+000 2.680370e+000 29 41 17
3.827168e-001 -1.424792e+000 2.840108e+000 40 62 38
4.363811e-001 -1.556258e+000 2.695803e+000 125 113 40
4.360495e-001 -1.565878e+000 2.705843e+000 101 105 47
3.922584e-001 -1.449952e+000 2.862666e+000 160 178 101
3.727842e-001 -1.485253e+000 2.843684e+000 162 184 98
3.538010e-001 -1.524264e+000 2.823131e+000 161 180 88
3.538010e-001 -1.524264e+000 2.823131e+000 161 180 88
4.276989e-001 -1.612874e+000 2.755319e+000 85 56 43
4.098711e-001 -1.633178e+000 2.798207e+000 158 89 74
4.098167e-001 -1.633210e+000 2.798198e+000 158 89 74
3.971440e-001 -1.629041e+000 2.805364e+000 155 88 72
3.965136e-001 -1.629191e+000 2.804999e+000 155 88 72
4.254182e-001 -1.709608e+000 2.864796e+000 72 37 20
4.061784e-001 -1.703069e+000 2.880668e+000 137 105 76
4.241631e-001 -1.634670e+000 3.020812e+000 199 146 123
4.501369e-001 -1.625319e+000 3.050199e+000 162 141 110
4.722638e-001 -1.755119e+000 2.875452e+000 96 41 22
4.609848e-001 -1.753838e+000 2.882630e+000 83 41 18
4.626420e-001 -1.764587e+000 2.894616e+000 111 69 44
5.109237e-001 -1.789890e+000 2.896052e+000 90 58 33
4.445840e-001 -1.769161e+000 2.916763e+000 117 78 58
4.445840e-001 -1.769161e+000 2.916763e+000 117 78 58
4.859597e-001 -1.808450e+000 2.924707e+000 97 54 35
4.568407e-001 -1.793777e+000 2.932578e+000 72 41 30
3.324429e-001 -1.460033e+000 2.755968e+000 173 45 55
4.330905e-001 -1.536102e+000 2.677181e+000 121 110 31
4.115951e-001 -1.528517e+000 2.682345e+000 30 40 17
4.593885e-001 -1.548581e+000 2.677148e+000 113 113 52
3.705165e-001 -1.445541e+000 2.821114e+000 36 67 46
4.636432e-001 -1.558644e+000 2.686956e+000 110 106 27
4.441136e-001 -1.556299e+000 2.693355e+000 122 113 45
4.209268e-001 -1.563847e+000 2.708993e+000 98 102 41
3.800549e-001 -1.561570e+000 2.901171e+000 177 39 47
3.931525e-001 -1.560558e+000 2.922885e+000 157 31 37
4.087417e-001 -1.709853e+000 2.887487e+000 63 25 12
4.686767e-001 -1.760124e+000 2.885041e+000 136 76 48
5.046312e-001 -1.794567e+000 2.908198e+000 122 79 47
4.481461e-001 -1.781055e+000 2.927026e+000 112 75 65
4.689420e-001 -1.797550e+000 2.922151e+000 102 59 37
4.807213e-001 -1.818905e+000 2.940415e+000 87 46 28
4.367390e-001 -1.796241e+000 2.958240e+000 107 72 58
4.062836e-001 -1.740780e+000 3.016230e+000 32 32 53
4.185562e-001 -1.807919e+000 2.995440e+000 140 79 34
4.480528e-001 -1.512864e+000 2.649732e+000 164 96 68
4.355048e-001 -1.531334e+000 2.673037e+000 31 42 12
4.262440e-001 -1.539968e+000 2.680714e+000 31 41 19
3.677544e-001 -1.437893e+000 2.809840e+000 33 64 46
4.286119e-001 -1.551998e+000 2.689806e+000 32 42 20
4.388909e-001 -1.561630e+000 2.700316e+000 33 43 17
4.213527e-001 -1.558771e+000 2.704355e+000 28 41 15
3.524841e-001 -1.475785e+000 2.797995e+000 40 75 47
3.733723e-001 -1.456855e+000 2.827255e+000 165 175 149
4.300329e-001 -1.569747e+000 2.713051e+000 31 41 15
3.427047e-001 -1.502206e+000 2.786687e+000 166 172 150
3.666791e-001 -1.482935e+000 2.827315e+000 173 173 165
3.689177e-001 -1.482413e+000 2.828411e+000 173 173 165
3.846375e-001 -1.460168e+000 2.856867e+000 39 68 49
4.558729e-001 -1.580867e+000 2.711565e+000 90 95 63
4.229545e-001 -1.572691e+000 2.718940e+000 121 115 56
4.229545e-001 -1.572691e+000 2.718940e+000 121 115 56
3.849837e-001 -1.473728e+000 2.866279e+000 35 69 45
3.669786e-001 -1.498460e+000 2.843514e+000 43 70 36
4.345491e-001 -1.602467e+000 2.748533e+000 69 39 30
3.616342e-001 -1.553158e+000 2.852906e+000 161 168 171
3.895150e-001 -1.594293e+000 2.932833e+000 39 72 132
4.210237e-001 -1.577039e+000 2.979380e+000 76 36 43
3.991138e-001 -1.600582e+000 2.960782e+000 182 148 123
4.047146e-001 -1.678415e+000 2.855355e+000 147 87 76
4.678696e-001 -1.718633e+000 2.841572e+000 138 105 72
4.532328e-001 -1.747185e+000 2.881418e+000 137 96 66
4.485431e-001 -1.765906e+000 2.908617e+000 130 94 68
4.510668e-001 -1.796651e+000 2.946700e+000 126 90 68
4.386970e-001 -1.793979e+000 2.945133e+000 128 91 73
4.394678e-001 -1.803710e+000 2.960530e+000 131 90 70
4.481895e-001 -1.555362e+000 2.687099e+000 113 110 58
4.483234e-001 -1.555612e+000 2.687208e+000 113 110 58
4.133119e-001 -1.541969e+000 2.696972e+000 70 85 67
4.006730e-001 -1.539518e+000 2.696760e+000 72 86 62
4.248233e-001 -1.554413e+000 2.697582e+000 107 106 62
4.599250e-001 -1.576398e+000 2.704998e+000 33 41 19
3.542472e-001 -1.487214e+000 2.810964e+000 38 71 42
4.180522e-001 -1.578852e+000 2.722683e+000 33 41 20
3.557326e-001 -1.534077e+000 2.835725e+000 172 171 175
3.736610e-001 -1.507437e+000 2.859618e+000 37 69 41
4.613529e-001 -1.632281e+000 2.755172e+000 112 26 25
4.314392e-001 -1.628636e+000 2.768975e+000 168 75 65
4.186981e-001 -1.619765e+000 2.761530e+000 124 119 100
4.258297e-001 -1.517509e+000 2.950772e+000 173 169 176
4.728121e-001 -1.699121e+000 2.820880e+000 151 97 69
4.307501e-001 -1.704391e+000 2.851178e+000 100 24 24
5.696479e-001 -1.854672e+000 2.959925e+000 118 80 41
4.318571e-001 -1.642866e+000 3.034364e+000 167 67 59
4.975811e-001 -1.719389e+000 3.145854e+000 171 151 126
4.177947e-001 -1.589274e+000 2.736575e+000 106 109 102
5.039908e-001 -1.683454e+000 3.162730e+000 52 45 39
3.901492e-001 -1.557081e+000 2.735938e+000 108 115 45
3.806055e-001 -1.632954e+000 2.857933e+000 139 137 141
3.301108e+000 -6.244256e-001 2.118710e+000 173 98 37
3.322800e+000 -5.725407e-001 2.200149e+000 130 99 68
3.262344e+000 -5.186593e-001 2.258303e+000 154 112 71
2.837713e+000 -7.673727e-001 2.730437e+000 140 102 60
3.341931e+000 -6.839472e-001 2.085039e+000 117 98 94
3.310650e+000 -4.848367e-001 2.347704e+000 154 123 74
3.293279e+000 -6.565808e-001 2.216889e+000 183 127 90
3.292073e+000 -6.589592e-001 2.239179e+000 123 87 55
3.278353e+000 -6.325522e-001 2.273145e+000 88 67 49
2.847866e+000 -7.923317e-001 2.712992e+000 115 82 49
3.340621e+000 -7.272137e-001 2.092964e+000 221 155 69
3.297001e+000 -5.302734e-001 2.313749e+000 199 148 91
3.275298e+000 -5.225012e-001 2.373566e+000 190 151 86
3.375890e+000 -7.495380e-001 2.089671e+000 122 89 51
3.293442e+000 -5.194153e-001 2.407249e+000 140 109 63
2.914706e+000 -9.753886e-001 2.492573e+000 112 78 45
2.927235e+000 -9.389455e-001 2.531399e+000 115 82 40
3.311178e+000 -7.054066e-001 2.106170e+000 45 34 46
3.311219e+000 -6.706400e-001 2.132679e+000 59 40 41
3.311219e+000 -6.706400e-001 2.132679e+000 59 40 41
3.301032e+000 -5.205546e-001 2.340027e+000 109 74 36
3.293403e+000 -5.221693e-001 2.340950e+000 109 74 36
3.316909e+000 -7.771863e-001 2.117488e+000 222 189 138
3.309051e+000 -6.511728e-001 2.263421e+000 212 176 127
3.291897e+000 -7.717547e-001 2.156300e+000 51 39 25
2.928810e+000 -9.743005e-001 2.520310e+000 158 110 70
2.918118e+000 -9.757412e-001 2.521163e+000 158 110 70
3.288043e+000 -6.753925e-001 2.190788e+000 61 41 30
3.284446e+000 -5.529110e-001 2.255590e+000 220 175 114
3.288063e+000 -6.332926e-001 2.165910e+000 214 167 102
3.288063e+000 -6.332926e-001 2.165910e+000 214 167 102
3.315241e+000 -6.036975e-001 2.220096e+000 58 36 25
3.315241e+000 -6.036975e-001 2.220096e+000 58 36 25
3.322226e+000 -7.105243e-001 2.153166e+000 215 165 81
3.308815e+000 -6.799123e-001 2.097765e+000 105 86 88
3.308815e+000 -6.799123e-001 2.097765e+000 105 86 88
3.322186e+000 -8.296569e-001 2.109268e+000 237 206 149
3.307983e+000 -7.381839e-001 2.133181e+000 182 135 76
3.308284e+000 -5.506170e-001 2.222580e+000 126 92 49
3.289897e+000 -5.198565e-001 2.407443e+000 146 115 58
3.337014e+000 -6.795951e-001 2.220641e+000 220 175 117
2.842553e+000 -7.843821e-001 2.739696e+000 168 114 64
4.172280e-001 -1.826067e+000 3.059279e+000 191 158 151
3.301154e+000 -5.185797e-001 2.338780e+000 118 81 37
2.882198e+000 -1.149194e+000 2.549278e+000 69 56 40
2.815801e+000 -1.135343e+000 2.576640e+000 68 53 32
2.855324e+000 -1.096908e+000 2.571615e+000 36 27 20
4.553073e-001 -1.866279e+000 3.018234e+000 26 37 21
3.918451e-001 -1.473455e+000 2.635001e+000 31 58 79
4.551615e-001 -1.520240e+000 2.651815e+000 120 35 24
4.316217e-001 -1.515000e+000 2.656920e+000 104 32 31
3.405714e-001 -1.438653e+000 2.760940e+000 208 136 139
4.127736e-001 -1.543241e+000 2.691870e+000 93 110 52
4.721852e-001 -1.573704e+000 2.697126e+000 39 38 13
4.381560e-001 -1.602884e+000 2.740037e+000 49 23 9
4.305802e-001 -1.608067e+000 2.758256e+000 144 110 89
4.662873e-001 -1.641682e+000 2.766548e+000 121 65 41
4.206913e-001 -1.621808e+000 2.777341e+000 75 26 17
4.004481e-001 -1.520626e+000 2.927961e+000 140 119 122
4.278776e-001 -1.636382e+000 2.783047e+000 123 70 56
4.154969e-001 -1.639381e+000 2.795273e+000 113 61 47
4.449775e-001 -1.664448e+000 2.796807e+000 126 70 46
5.013095e-001 -1.702321e+000 2.813562e+000 122 57 37
4.840599e-001 -1.691660e+000 2.806030e+000 85 31 19
4.511130e-001 -1.686184e+000 2.819945e+000 159 74 57
4.906655e-001 -1.709861e+000 2.823713e+000 143 52 42
4.447214e-001 -1.694928e+000 2.837089e+000 95 47 33
4.081461e-001 -1.671143e+000 2.844750e+000 153 89 74
3.720818e-001 -1.640335e+000 2.890642e+000 157 151 172
3.707889e-001 -1.637298e+000 2.891259e+000 75 32 62
3.800042e-001 -1.618770e+000 2.924594e+000 39 88 144
3.924683e-001 -1.599102e+000 2.943493e+000 128 179 241
4.334784e-001 -1.701803e+000 2.849141e+000 158 58 53
4.567772e-001 -1.763277e+000 2.897352e+000 85 50 29
4.567772e-001 -1.763277e+000 2.897352e+000 85 50 29
4.957256e-001 -1.789238e+000 2.895452e+000 97 58 34
4.503850e-001 -1.771464e+000 2.914020e+000 133 96 71
5.203688e-001 -1.811640e+000 2.917305e+000 96 60 36
4.418768e-001 -1.808252e+000 2.963411e+000 132 87 66
4.060678e-001 -1.772549e+000 3.026039e+000 188 141 125
5.203360e-001 -1.876726e+000 2.984432e+000 47 60 33
4.762388e-001 -1.862015e+000 2.996827e+000 25 37 20
4.716034e-001 -1.868555e+000 3.009284e+000 58 70 40
4.716034e-001 -1.868555e+000 3.009284e+000 58 70 40
4.419572e-001 -1.507554e+000 2.647755e+000 127 29 28
4.365412e-001 -1.506757e+000 2.649952e+000 127 30 27
4.247417e-001 -1.505217e+000 2.654802e+000 132 27 31
4.103605e-001 -1.506601e+000 2.661615e+000 157 82 53
4.066790e-001 -1.503062e+000 2.661185e+000 132 30 27
4.201361e-001 -1.509580e+000 2.658955e+000 119 31 23
4.253912e-001 -1.516912e+000 2.662358e+000 121 35 28
4.176760e-001 -1.516427e+000 2.665065e+000 122 34 26
4.484547e-001 -1.615512e+000 2.746482e+000 94 74 49
4.425582e-001 -1.614288e+000 2.749254e+000 104 80 54
4.567420e-001 -1.641129e+000 2.767328e+000 117 64 40
4.277719e-001 -1.631868e+000 2.794833e+000 112 60 49
4.877327e-001 -1.666322e+000 2.780796e+000 127 71 46
4.619315e-001 -1.658333e+000 2.791993e+000 122 66 43
4.280975e-001 -1.643923e+000 2.787638e+000 122 69 53
4.905337e-001 -1.694499e+000 2.809785e+000 160 79 58
5.056449e-001 -1.708598e+000 2.817405e+000 91 40 25
4.638441e-001 -1.696673e+000 2.828350e+000 102 45 26
4.577450e-001 -1.697083e+000 2.825103e+000 102 45 26
4.171191e-001 -1.693774e+000 2.857873e+000 115 42 27
