ply
format ascii 1.0
element face 0
property list uchar int vertex_indices
element vertex 895
property float x
property float y
property float z
property uchar diffuse_red
property uchar diffuse_green
property uchar diffuse_blue
end_header
5.879154e-001 -1.556977e+000 2.947695e+000 199 116 86
5.936860e-001 -1.562594e+000 2.949616e+000 202 56 59
5.936533e-001 -1.562722e+000 2.949614e+000 202 56 59
5.053705e-001 -1.535277e+000 3.011078e+000 127 20 31
5.292121e-001 -1.538408e+000 3.000246e+000 130 27 25
5.455691e-001 -1.540013e+000 2.989122e+000 194 49 52
4.953717e-001 -1.541483e+000 3.025318e+000 121 28 30
4.998425e-001 -1.543053e+000 3.023250e+000 131 28 34
5.055904e-001 -1.543685e+000 3.023339e+000 220 47 64
5.242828e-001 -1.543670e+000 3.012658e+000 145 15 28
5.447749e-001 -1.547384e+000 3.002032e+000 137 23 29
4.977563e-001 -1.552262e+000 3.034959e+000 128 27 33
4.978016e-001 -1.552623e+000 3.035079e+000 128 27 33
5.125554e-001 -1.552251e+000 3.027797e+000 131 23 30
5.274805e-001 -1.553364e+000 3.018631e+000 169 27 25
5.337318e-001 -1.551221e+000 3.017185e+000 201 59 61
5.337318e-001 -1.551221e+000 3.017185e+000 201 59 61
5.352531e-001 -1.560805e+000 3.020430e+000 226 70 83
5.475314e-001 -1.564198e+000 3.013525e+000 192 51 56
5.703922e-001 -1.587807e+000 3.017726e+000 177 119 87
4.723749e-001 -1.599591e+000 3.080217e+000 149 84 54
5.258688e-001 -1.590781e+000 3.060703e+000 172 122 88
5.256654e-001 -1.591890e+000 3.060613e+000 172 122 88
5.380363e-001 -1.595169e+000 3.054291e+000 169 116 78
5.408779e-001 -1.595023e+000 3.053382e+000 171 118 76
5.474279e-001 -1.594799e+000 3.049686e+000 169 116 78
5.521634e-001 -1.598804e+000 3.046458e+000 181 108 71
5.625377e-001 -1.605075e+000 3.042169e+000 97 25 16
5.721468e-001 -1.608939e+000 3.038115e+000 177 58 27
5.822434e-001 -1.609399e+000 3.030199e+000 189 99 41
5.873459e-001 -1.611992e+000 3.025987e+000 179 93 34
5.918308e-001 -1.617889e+000 3.027318e+000 185 95 31
5.511010e-001 -1.602277e+000 3.051338e+000 168 112 75
5.579784e-001 -1.612286e+000 3.056546e+000 173 107 66
5.579784e-001 -1.612286e+000 3.056546e+000 173 107 66
5.748624e-001 -1.618326e+000 3.044917e+000 170 71 28
5.764326e-001 -1.618710e+000 3.049119e+000 178 76 30
5.263115e-001 -1.604485e+000 3.075913e+000 52 28 15
5.263115e-001 -1.604485e+000 3.075913e+000 52 28 15
5.287383e-001 -1.607216e+000 3.074447e+000 80 49 28
5.287383e-001 -1.607216e+000 3.074447e+000 80 49 28
5.529818e-001 -1.617141e+000 3.067571e+000 155 115 80
5.645270e-001 -1.619219e+000 3.057307e+000 176 92 45
6.195403e-001 -1.669439e+000 3.040576e+000 118 73 50
6.098882e-001 -1.673586e+000 3.064554e+000 44 21 13
6.156582e-001 -1.678457e+000 3.061974e+000 36 9 6
4.885712e-001 -1.646622e+000 3.137205e+000 198 134 119
5.383056e-001 -1.643926e+000 3.104520e+000 26 12 5
5.548561e-001 -1.653108e+000 3.102474e+000 106 50 31
5.647491e-001 -1.658955e+000 3.092802e+000 165 118 92
5.878529e-001 -1.668596e+000 3.079553e+000 25 6 4
5.963026e-001 -1.676138e+000 3.076583e+000 38 8 0
6.037651e-001 -1.679088e+000 3.071833e+000 29 7 4
4.759217e-001 -1.303345e+000 2.765696e+000 143 31 26
5.119120e-001 -1.333620e+000 2.771413e+000 134 137 42
5.120941e-001 -1.333269e+000 2.771639e+000 134 137 42
4.995215e-001 -1.353201e+000 2.809006e+000 144 136 26
4.396220e-001 -1.451783e+000 2.946847e+000 174 50 59
5.822102e-001 -1.525238e+000 2.920925e+000 75 46 27
5.768638e-001 -1.527031e+000 2.933394e+000 69 47 32
5.769203e-001 -1.526336e+000 2.933325e+000 69 47 32
5.445102e-001 -1.520441e+000 2.967853e+000 59 26 19
4.890123e-001 -1.514647e+000 3.003950e+000 180 110 94
5.463511e-001 -1.527500e+000 2.974209e+000 68 29 22
5.831488e-001 -1.555269e+000 2.960464e+000 219 78 77
5.539222e-001 -1.542872e+000 2.984006e+000 210 64 66
4.953173e-001 -1.555679e+000 3.041248e+000 126 26 31
5.202876e-001 -1.556941e+000 3.025403e+000 133 25 32
5.254802e-001 -1.568601e+000 3.036436e+000 111 56 43
5.366821e-001 -1.571540e+000 3.030589e+000 106 50 40
5.507014e-001 -1.573839e+000 3.023068e+000 110 62 48
5.878002e-001 -1.596158e+000 3.004379e+000 47 21 6
5.877829e-001 -1.597262e+000 3.004312e+000 47 21 6
5.539292e-001 -1.581286e+000 3.028504e+000 82 32 26
5.291585e-001 -1.589265e+000 3.058432e+000 168 123 86
4.852062e-001 -1.600430e+000 3.091286e+000 181 131 94
5.229599e-001 -1.605518e+000 3.074960e+000 171 117 79
5.237227e-001 -1.602485e+000 3.074782e+000 171 117 79
6.167359e-001 -1.658734e+000 3.028570e+000 53 32 17
6.192375e-001 -1.660475e+000 3.031833e+000 189 149 115
5.871817e-001 -1.653288e+000 3.070152e+000 164 90 37
5.999741e-001 -1.663542e+000 3.063909e+000 154 79 29
5.063809e-001 -1.642308e+000 3.127185e+000 179 143 131
5.276289e-001 -1.654384e+000 3.118461e+000 78 24 20
5.347853e-001 -1.647608e+000 3.112230e+000 151 102 88
5.604763e-001 -1.656965e+000 3.095740e+000 170 121 103
5.610438e-001 -1.658126e+000 3.099141e+000 108 47 29
5.681512e-001 -1.656060e+000 3.095074e+000 101 46 29
5.188342e-001 -1.347381e+000 2.780344e+000 24 49 17
5.082811e-001 -1.357314e+000 2.808793e+000 134 125 30
5.082811e-001 -1.357314e+000 2.808793e+000 134 125 30
4.766091e-001 -1.355267e+000 2.826226e+000 130 127 43
4.765217e-001 -1.355373e+000 2.826348e+000 130 127 43
4.565471e-001 -1.414675e+000 2.908776e+000 114 23 48
5.750138e-001 -1.461009e+000 2.841941e+000 12 48 65
4.915103e-001 -1.426413e+000 2.900331e+000 13 49 70
5.194653e-001 -1.435664e+000 2.894599e+000 12 49 73
5.809354e-001 -1.481359e+000 2.852404e+000 22 69 92
5.300325e-001 -1.480656e+000 2.932990e+000 177 108 74
5.328720e-001 -1.482880e+000 2.936673e+000 72 40 35
5.310707e-001 -1.486583e+000 2.940600e+000 178 107 72
5.310707e-001 -1.486583e+000 2.940600e+000 178 107 72
5.338859e-001 -1.490981e+000 2.943280e+000 74 45 26
5.322461e-001 -1.494866e+000 2.951434e+000 95 49 38
4.878509e-001 -1.500528e+000 2.982574e+000 177 110 88
5.357606e-001 -1.509310e+000 2.964606e+000 164 96 71
5.357606e-001 -1.509310e+000 2.964606e+000 164 96 71
5.394944e-001 -1.520268e+000 2.973887e+000 182 107 78
5.844471e-001 -1.547851e+000 2.945644e+000 184 121 79
5.110796e-001 -1.549883e+000 3.024481e+000 133 26 31
5.701493e-001 -1.579401e+000 3.010420e+000 67 36 23
5.792148e-001 -1.586885e+000 3.007788e+000 182 120 90
5.835094e-001 -1.590509e+000 3.003372e+000 190 118 79
6.184648e-001 -1.657567e+000 3.031815e+000 186 137 105
5.202370e-001 -1.617219e+000 3.089556e+000 183 135 95
4.857715e-001 -1.656367e+000 3.135089e+000 185 140 113
4.955061e-001 -1.645601e+000 3.138807e+000 132 27 41
5.706880e-001 -1.392042e+000 2.743211e+000 96 110 101
4.628658e-001 -1.435948e+000 2.928563e+000 20 72 119
5.306484e-001 -1.467299e+000 2.926517e+000 175 107 81
4.927159e-001 -1.479815e+000 2.958504e+000 176 109 84
4.931671e-001 -1.492803e+000 2.973409e+000 176 105 85
5.352801e-001 -1.530431e+000 2.987395e+000 179 105 77
5.992807e-001 -1.569003e+000 2.948388e+000 150 21 27
6.001814e-001 -1.574134e+000 2.952739e+000 144 23 27
4.902339e-001 -1.552683e+000 3.041404e+000 141 23 34
5.655515e-001 -1.578176e+000 3.008335e+000 182 117 74
5.986306e-001 -1.618536e+000 3.012292e+000 110 17 18
5.177271e-001 -1.584964e+000 3.059796e+000 75 48 33
5.179010e-001 -1.584771e+000 3.059925e+000 75 48 33
5.212647e-001 -1.596364e+000 3.069100e+000 167 121 89
5.482632e-001 -1.622166e+000 3.076126e+000 180 136 100
5.417414e-001 -1.648835e+000 3.107141e+000 159 115 92
5.295889e-001 -1.367233e+000 2.784083e+000 32 47 28
5.303562e-001 -1.365455e+000 2.784918e+000 32 47 28
5.072470e-001 -1.419663e+000 2.882567e+000 101 27 26
4.627032e-001 -1.490385e+000 2.979734e+000 171 78 71
6.021287e-001 -1.590061e+000 2.969501e+000 152 19 32
6.161781e-001 -1.636680e+000 2.995623e+000 117 23 24
5.101388e-001 -1.614751e+000 3.094544e+000 167 133 105
5.698247e-001 -1.652501e+000 3.084076e+000 26 13 8
5.262173e-001 -1.643178e+000 3.115400e+000 166 122 105
5.335107e-001 -1.371770e+000 2.790062e+000 82 97 86
6.001287e-001 -1.581958e+000 2.960392e+000 155 18 30
5.391738e-001 -1.551315e+000 3.007942e+000 147 17 29
5.391738e-001 -1.551315e+000 3.007942e+000 147 17 29
5.523392e-001 -1.564066e+000 2.999838e+000 148 18 28
5.293145e-001 -1.581921e+000 3.049032e+000 170 116 80
5.291080e-001 -1.582604e+000 3.048956e+000 170 116 80
5.934614e-001 -1.628685e+000 3.039290e+000 104 39 17
5.934614e-001 -1.628685e+000 3.039290e+000 104 39 17
5.787714e-001 -1.630191e+000 3.058801e+000 185 141 96
6.140801e-001 -1.666177e+000 3.054965e+000 173 82 27
4.987390e-001 -1.348307e+000 2.801586e+000 66 102 95
4.987390e-001 -1.348307e+000 2.801586e+000 66 102 95
4.680732e-001 -1.497872e+000 2.987638e+000 165 31 43
5.159859e-001 -1.572904e+000 3.051254e+000 182 110 86
5.166993e-001 -1.590989e+000 3.069592e+000 169 123 89
6.247351e-001 -1.686420e+000 3.042956e+000 188 87 31
5.594435e-001 -1.465799e+000 2.883829e+000 180 105 76
5.357874e-001 -1.491058e+000 2.949440e+000 154 92 63
5.357874e-001 -1.491058e+000 2.949440e+000 154 92 63
5.725460e-001 -1.457480e+000 2.834276e+000 151 25 31
4.630770e-001 -1.414382e+000 2.905581e+000 145 23 28
5.513174e-001 -1.644117e+000 3.101256e+000 154 121 98
5.069839e-001 -1.656067e+000 3.135523e+000 33 18 25
5.966431e-001 -1.607535e+000 2.990714e+000 187 120 78
5.687551e-001 -1.607953e+000 3.042143e+000 123 38 19
6.194415e-001 -1.693295e+000 3.047476e+000 180 90 37
5.060868e-001 -1.545120e+000 3.021742e+000 125 24 27
6.001221e-001 -1.696162e+000 3.045723e+000 67 41 31
5.907602e-001 -1.745324e+000 3.044318e+000 67 41 31
4.890698e-001 -1.633397e+000 3.082238e+000 170 126 91
5.009166e-001 -1.348910e+000 2.803029e+000 90 103 58
5.102206e-001 -1.414737e+000 2.842082e+000 152 141 111
4.551862e-001 -1.417087e+000 2.908315e+000 95 25 43
4.795463e-001 -1.414435e+000 2.896736e+000 207 134 108
4.984362e-001 -1.419918e+000 2.887628e+000 217 132 107
5.559019e-001 -1.441659e+000 2.849820e+000 218 135 104
4.635822e-001 -1.470566e+000 2.965182e+000 199 81 81
4.634117e-001 -1.470792e+000 2.965145e+000 199 81 81
5.069136e-001 -1.475966e+000 2.948337e+000 190 116 90
4.677823e-001 -1.490168e+000 2.980777e+000 154 50 47
5.034634e-001 -1.488245e+000 2.963703e+000 184 112 88
4.877198e-001 -1.517487e+000 2.967918e+000 180 109 86
4.992293e-001 -1.501541e+000 2.982249e+000 181 114 86
5.055191e-001 -1.543936e+000 3.023446e+000 228 63 71
5.221703e-001 -1.553023e+000 3.022282e+000 224 56 67
5.209472e-001 -1.551082e+000 3.025490e+000 133 31 33
5.563488e-001 -1.562498e+000 3.003978e+000 254 69 84
5.752281e-001 -1.570349e+000 2.989257e+000 215 56 63
5.232239e-001 -1.566755e+000 3.037345e+000 190 113 87
5.440286e-001 -1.562161e+000 3.015914e+000 218 69 70
5.309697e-001 -1.576812e+000 3.043531e+000 181 110 84
5.447393e-001 -1.580581e+000 3.033933e+000 97 56 36
5.564149e-001 -1.597282e+000 3.042143e+000 115 32 18
5.790152e-001 -1.617066e+000 3.024341e+000 136 77 33
5.457837e-001 -1.599727e+000 3.056831e+000 136 93 64
5.497660e-001 -1.601009e+000 3.054086e+000 103 69 40
5.590882e-001 -1.605122e+000 3.048316e+000 182 78 41
5.575058e-001 -1.604874e+000 3.049964e+000 110 40 13
5.575058e-001 -1.604874e+000 3.049964e+000 110 40 13
5.745125e-001 -1.607610e+000 3.034201e+000 114 41 20
5.205308e-001 -1.603550e+000 3.080781e+000 175 125 89
5.187274e-001 -1.608692e+000 3.085568e+000 178 129 89
5.188913e-001 -1.609269e+000 3.085598e+000 178 129 89
5.254898e-001 -1.609056e+000 3.080648e+000 93 65 50
5.255144e-001 -1.609171e+000 3.080753e+000 93 65 50
5.521189e-001 -1.607868e+000 3.057218e+000 121 77 48
5.557576e-001 -1.607468e+000 3.055710e+000 115 75 48
5.630971e-001 -1.623362e+000 3.063850e+000 126 54 12
5.688193e-001 -1.629853e+000 3.064780e+000 27 13 5
5.742238e-001 -1.628532e+000 3.059308e+000 193 142 108
6.132741e-001 -1.656739e+000 3.035405e+000 199 149 112
5.960344e-001 -1.655828e+000 3.060650e+000 188 144 109
5.304393e-001 -1.645623e+000 3.112684e+000 166 126 111
5.959020e-001 -1.669787e+000 3.071326e+000 165 89 28
6.238869e-001 -1.687828e+000 3.054873e+000 186 79 38
5.608006e-001 -1.674777e+000 3.101279e+000 123 55 43
6.288348e-001 -1.697138e+000 3.060645e+000 41 21 25
5.118073e-001 -1.391452e+000 2.845846e+000 169 139 112
5.519168e-001 -1.437643e+000 2.850136e+000 210 138 105
4.951775e-001 -1.467078e+000 2.946907e+000 93 51 38
5.370573e-001 -1.537672e+000 2.993456e+000 174 41 45
5.631886e-001 -1.545644e+000 2.976728e+000 178 39 42
5.861078e-001 -1.558535e+000 2.957310e+000 215 64 68
5.874435e-001 -1.570909e+000 2.962589e+000 140 27 34
4.960280e-001 -1.539669e+000 3.025183e+000 134 30 36
5.208275e-001 -1.543446e+000 3.014086e+000 142 21 30
5.534007e-001 -1.542928e+000 2.987401e+000 125 29 31
5.096549e-001 -1.550070e+000 3.027782e+000 225 57 72
5.164694e-001 -1.553889e+000 3.027372e+000 124 20 29
5.212429e-001 -1.550986e+000 3.027856e+000 205 59 66
5.618444e-001 -1.566413e+000 3.002546e+000 126 20 30
5.925718e-001 -1.580606e+000 2.976522e+000 153 23 33
5.944087e-001 -1.580099e+000 2.971860e+000 155 23 31
5.992535e-001 -1.614050e+000 3.015672e+000 190 49 39
5.206353e-001 -1.600132e+000 3.073793e+000 127 90 63
5.349624e-001 -1.596297e+000 3.060473e+000 173 121 84
5.819939e-001 -1.611227e+000 3.030399e+000 189 98 36
5.990695e-001 -1.626979e+000 3.024136e+000 136 35 20
5.686447e-001 -1.621239e+000 3.058222e+000 185 93 52
5.431348e-001 -1.623975e+000 3.077059e+000 181 136 104
5.526791e-001 -1.623814e+000 3.071942e+000 177 138 97
5.706515e-001 -1.660390e+000 3.090584e+000 184 124 112
5.706515e-001 -1.660390e+000 3.090584e+000 184 124 112
5.402855e-001 -1.655408e+000 3.111532e+000 104 47 34
4.674681e-001 -1.295590e+000 2.763525e+000 204 137 102
5.921863e-001 -1.577389e+000 2.974184e+000 231 71 77
5.373717e-001 -1.569439e+000 3.030419e+000 98 52 34
5.232455e-001 -1.603953e+000 3.074850e+000 176 123 89
6.046990e-001 -1.634034e+000 3.025173e+000 191 77 34
5.534403e-001 -1.662758e+000 3.103030e+000 112 51 33
4.808142e-001 -1.424535e+000 2.905123e+000 12 46 66
5.792743e-001 -1.547448e+000 2.956309e+000 188 126 85
5.442818e-001 -1.648656e+000 3.106150e+000 168 126 102
5.219164e-001 -1.406143e+000 2.849796e+000 116 82 63
5.453661e-001 -1.432221e+000 2.858478e+000 203 137 100
5.310144e-001 -1.479398e+000 2.932572e+000 185 113 89
5.310144e-001 -1.479398e+000 2.932572e+000 185 113 89
5.008816e-001 -1.499741e+000 2.986224e+000 185 114 94
4.807087e-001 -1.598986e+000 3.088695e+000 51 19 25
6.141968e-001 -1.643072e+000 2.995535e+000 127 21 26
5.422775e-001 -1.584974e+000 3.042345e+000 178 120 82
5.416133e-001 -1.587619e+000 3.042309e+000 178 120 82
4.835946e-001 -1.622977e+000 3.101181e+000 192 151 130
4.863838e-001 -1.480263e+000 2.965576e+000 94 59 45
5.130627e-001 -1.498158e+000 2.968968e+000 73 44 39
5.366571e-001 -1.541727e+000 2.999181e+000 225 80 85
5.379151e-001 -1.614054e+000 3.075977e+000 170 129 92
5.129175e-001 -1.477902e+000 2.946125e+000 74 43 31
5.165041e-001 -1.552406e+000 3.027476e+000 152 37 40
5.911094e-001 -1.561343e+000 2.952423e+000 246 73 92
5.774916e-001 -1.605918e+000 3.030099e+000 217 119 76
4.572785e-001 -1.414145e+000 2.908061e+000 126 30 52
5.030711e-001 -1.389807e+000 2.851943e+000 190 113 103
4.775570e-001 -1.337380e+000 2.809172e+000 111 120 116
4.738976e-001 -1.311248e+000 2.604717e+000 45 29 24
4.685070e-001 -1.301950e+000 2.772250e+000 235 127 95
4.685070e-001 -1.301950e+000 2.772250e+000 235 127 95
4.739250e-001 -1.301068e+000 2.765839e+000 219 137 106
4.941977e-001 -1.309083e+000 2.759412e+000 236 126 90
5.050211e-001 -1.309472e+000 2.747912e+000 156 53 41
5.019761e-001 -1.341189e+000 2.794264e+000 100 118 59
5.236092e-001 -1.354837e+000 2.782153e+000 144 139 19
5.325814e-001 -1.363143e+000 2.778834e+000 77 107 78
5.418462e-001 -1.363225e+000 2.771250e+000 70 100 89
5.350677e-001 -1.374584e+000 2.789775e+000 96 120 65
5.327955e-001 -1.399091e+000 2.831792e+000 181 154 119
5.327955e-001 -1.399091e+000 2.831792e+000 181 154 119
5.326488e-001 -1.402123e+000 2.838241e+000 91 42 35
5.343087e-001 -1.402911e+000 2.840005e+000 183 148 118
5.348939e-001 -1.409163e+000 2.841288e+000 116 83 64
5.161677e-001 -1.402493e+000 2.857785e+000 171 150 125
5.206605e-001 -1.419894e+000 2.872805e+000 220 154 112
5.359226e-001 -1.427946e+000 2.863803e+000 236 142 96
5.346068e-001 -1.426663e+000 2.868977e+000 232 142 97
5.391724e-001 -1.429012e+000 2.861675e+000 216 143 103
4.750535e-001 -1.410220e+000 2.894268e+000 239 140 111
4.828256e-001 -1.415381e+000 2.895069e+000 217 154 107
4.905212e-001 -1.417199e+000 2.891490e+000 229 137 109
5.001623e-001 -1.418447e+000 2.885701e+000 127 32 31
5.024594e-001 -1.419603e+000 2.885923e+000 224 146 108
5.391946e-001 -1.433063e+000 2.878827e+000 18 56 79
4.561234e-001 -1.430262e+000 2.912589e+000 24 83 124
5.766670e-001 -1.475596e+000 2.870387e+000 87 41 17
5.766670e-001 -1.475596e+000 2.870387e+000 87 41 17
5.707223e-001 -1.489190e+000 2.888226e+000 200 124 80
4.890283e-001 -1.465483e+000 2.948658e+000 204 125 96
4.425047e-001 -1.500884e+000 2.983871e+000 168 59 59
4.424108e-001 -1.500841e+000 2.983805e+000 168 59 59
4.457538e-001 -1.499927e+000 2.984953e+000 215 100 100
4.616884e-001 -1.492187e+000 2.984324e+000 167 43 38
4.991856e-001 -1.502209e+000 2.982162e+000 198 124 97
4.364921e-001 -1.532644e+000 3.003007e+000 32 86 149
5.957360e-001 -1.573485e+000 2.944548e+000 206 52 54
5.709704e-001 -1.546297e+000 2.974126e+000 136 26 30
5.746732e-001 -1.551992e+000 2.970815e+000 147 27 31
5.763949e-001 -1.555487e+000 2.974543e+000 140 27 29
5.905370e-001 -1.544035e+000 2.963589e+000 202 55 55
5.967124e-001 -1.560557e+000 2.963119e+000 153 24 29
5.695100e-001 -1.555321e+000 2.985529e+000 155 23 29
4.974436e-001 -1.539134e+000 3.022243e+000 242 88 94
4.974436e-001 -1.539134e+000 3.022243e+000 242 88 94
5.166741e-001 -1.541155e+000 3.011250e+000 143 27 36
5.421558e-001 -1.549129e+000 3.000722e+000 217 59 53
5.633058e-001 -1.567464e+000 3.003888e+000 216 65 61
5.752303e-001 -1.568436e+000 2.989490e+000 226 57 66
4.936392e-001 -1.553368e+000 3.038606e+000 235 71 75
5.520273e-001 -1.557904e+000 3.009752e+000 146 28 32
6.169610e-001 -1.629687e+000 2.999858e+000 139 30 25
5.153698e-001 -1.569553e+000 3.044431e+000 199 126 97
5.379185e-001 -1.576905e+000 3.037664e+000 207 133 96
4.679554e-001 -1.597854e+000 3.076953e+000 143 72 50
5.988499e-001 -1.627059e+000 3.024298e+000 134 46 17
5.328325e-001 -1.596217e+000 3.064235e+000 125 86 56
5.390348e-001 -1.598742e+000 3.060498e+000 133 92 60
5.379965e-001 -1.603300e+000 3.063062e+000 179 130 93
5.451891e-001 -1.598686e+000 3.057524e+000 150 108 70
5.662184e-001 -1.602276e+000 3.050677e+000 139 52 17
5.636814e-001 -1.615719e+000 3.064756e+000 138 73 21
5.175957e-001 -1.618424e+000 3.092360e+000 17 7 4
5.236859e-001 -1.617832e+000 3.090002e+000 28 18 16
5.439827e-001 -1.620733e+000 3.079626e+000 32 16 26
5.967360e-001 -1.672708e+000 3.077053e+000 30 6 1
6.042857e-001 -1.672543e+000 3.072589e+000 41 12 5
6.101348e-001 -1.673814e+000 3.068682e+000 40 13 3
5.382977e-001 -1.640022e+000 3.105096e+000 28 18 9
4.738702e-001 -1.310707e+000 2.601134e+000 185 59 53
4.741239e-001 -1.310988e+000 2.608343e+000 244 183 134
3.301135e-001 -1.353512e+000 2.732236e+000 174 41 49
3.301135e-001 -1.353512e+000 2.732236e+000 174 41 49
3.372018e-001 -1.344027e+000 2.738831e+000 160 47 58
3.364999e-001 -1.345560e+000 2.737846e+000 160 47 58
3.355061e-001 -1.391032e+000 2.767862e+000 161 178 92
5.084470e-001 -1.337473e+000 2.785112e+000 146 143 27
5.115562e-001 -1.340287e+000 2.783518e+000 51 101 93
3.422020e-001 -1.409102e+000 2.789043e+000 43 57 38
3.561014e-001 -1.410262e+000 2.812289e+000 142 162 93
3.625745e-001 -1.413780e+000 2.824214e+000 50 66 33
3.649864e-001 -1.422717e+000 2.834417e+000 50 62 35
3.589538e-001 -1.453868e+000 2.847438e+000 150 58 64
3.594192e-001 -1.452160e+000 2.847799e+000 150 58 64
5.161252e-001 -1.400828e+000 2.853575e+000 131 103 84
5.320252e-001 -1.408745e+000 2.846554e+000 180 152 122
3.944193e-001 -1.432847e+000 2.888589e+000 140 112 123
5.755820e-001 -1.490345e+000 2.886051e+000 91 42 17
4.846590e-001 -1.468553e+000 2.950357e+000 70 38 24
5.301877e-001 -1.474209e+000 2.929029e+000 186 123 96
5.753654e-001 -1.522514e+000 2.925712e+000 87 47 19
4.680620e-001 -1.500082e+000 2.973633e+000 173 86 69
5.385341e-001 -1.505339e+000 2.954620e+000 191 120 89
4.855426e-001 -1.495708e+000 2.980241e+000 74 43 29
4.239520e-001 -1.550489e+000 3.000339e+000 87 138 208
4.314473e-001 -1.533158e+000 3.001630e+000 104 157 233
5.962471e-001 -1.568801e+000 2.952458e+000 208 53 50
5.963784e-001 -1.566168e+000 2.952908e+000 208 53 50
4.294289e-001 -1.550950e+000 3.006881e+000 39 91 148
5.474320e-001 -1.533836e+000 2.976411e+000 198 118 85
5.672669e-001 -1.552367e+000 2.975472e+000 132 28 32
5.120578e-001 -1.536368e+000 3.008243e+000 143 29 34
5.405964e-001 -1.545423e+000 2.999143e+000 137 29 31
5.411495e-001 -1.540719e+000 2.999861e+000 137 29 31
5.439186e-001 -1.552119e+000 2.993635e+000 218 67 66
5.439186e-001 -1.552119e+000 2.993635e+000 218 67 66
5.539167e-001 -1.551368e+000 2.994516e+000 223 71 68
5.877956e-001 -1.573468e+000 2.978291e+000 221 61 61
4.934715e-001 -1.535073e+000 3.018642e+000 187 51 48
5.015086e-001 -1.536708e+000 3.018191e+000 149 35 41
6.133426e-001 -1.608086e+000 2.969075e+000 74 27 19
4.945828e-001 -1.557243e+000 3.035086e+000 146 34 36
4.945828e-001 -1.557243e+000 3.035086e+000 146 34 36
5.860639e-001 -1.595648e+000 3.007665e+000 193 128 86
5.326119e-001 -1.604447e+000 3.067802e+000 124 93 64
5.464301e-001 -1.601319e+000 3.059218e+000 180 133 86
5.461834e-001 -1.605631e+000 3.058835e+000 180 133 86
5.518042e-001 -1.608575e+000 3.060425e+000 187 133 88
5.577958e-001 -1.612356e+000 3.056489e+000 183 125 81
5.857377e-001 -1.621896e+000 3.042065e+000 197 111 37
5.857377e-001 -1.621896e+000 3.042065e+000 197 111 37
5.181194e-001 -1.605973e+000 3.082637e+000 177 127 92
5.666457e-001 -1.626753e+000 3.064399e+000 214 152 89
5.725542e-001 -1.625200e+000 3.057808e+000 150 66 23
5.940013e-001 -1.637256e+000 3.054405e+000 193 154 109
4.780874e-001 -1.620764e+000 3.103701e+000 125 80 59
5.346961e-001 -1.619974e+000 3.084561e+000 23 21 17
5.893618e-001 -1.655721e+000 3.069379e+000 178 94 27
5.892594e-001 -1.658059e+000 3.069297e+000 178 94 27
6.098849e-001 -1.672240e+000 3.064719e+000 47 9 0
5.764703e-001 -1.656238e+000 3.083982e+000 84 59 40
5.487071e-001 -1.651793e+000 3.101176e+000 154 124 103
4.892263e-001 -1.323865e+000 2.785304e+000 152 156 36
4.892263e-001 -1.323865e+000 2.785304e+000 152 156 36
5.065928e-001 -1.332040e+000 2.777637e+000 158 148 33
5.065346e-001 -1.332065e+000 2.777464e+000 158 148 33
5.226125e-001 -1.353299e+000 2.785659e+000 61 100 93
5.254497e-001 -1.402544e+000 2.853579e+000 174 151 119
3.691428e-001 -1.499552e+000 2.891044e+000 192 119 118
3.752478e-001 -1.492639e+000 2.897768e+000 195 115 114
4.008842e-001 -1.495546e+000 2.939549e+000 95 145 210
5.766600e-001 -1.501848e+000 2.891629e+000 122 66 38
5.132484e-001 -1.464609e+000 2.946553e+000 198 124 87
5.359779e-001 -1.482787e+000 2.925891e+000 53 20 8
5.338547e-001 -1.491131e+000 2.943199e+000 87 48 38
5.821455e-001 -1.525501e+000 2.920767e+000 124 86 58
5.407703e-001 -1.499928e+000 2.947190e+000 117 70 50
5.094686e-001 -1.504111e+000 2.978247e+000 61 30 21
5.094686e-001 -1.504111e+000 2.978247e+000 61 30 21
5.865452e-001 -1.544365e+000 2.941226e+000 101 63 42
5.356162e-001 -1.516209e+000 2.971807e+000 169 101 82
5.370596e-001 -1.522619e+000 2.978469e+000 85 50 36
5.763682e-001 -1.545971e+000 2.969128e+000 140 26 31
5.970410e-001 -1.574456e+000 2.956705e+000 208 55 51
5.073019e-001 -1.544356e+000 3.020199e+000 152 31 40
5.071907e-001 -1.544034e+000 3.020304e+000 152 31 40
5.607855e-001 -1.561360e+000 3.000564e+000 206 58 54
5.778553e-001 -1.571429e+000 2.986266e+000 233 73 78
5.778553e-001 -1.571429e+000 2.986266e+000 233 73 78
4.963206e-001 -1.553566e+000 3.032036e+000 223 71 70
5.488252e-001 -1.562405e+000 3.010350e+000 146 28 31
5.792279e-001 -1.584489e+000 3.008149e+000 189 125 86
5.486290e-001 -1.581061e+000 3.031368e+000 169 92 64
5.487364e-001 -1.578980e+000 3.031592e+000 169 92 64
5.882401e-001 -1.617015e+000 3.035384e+000 208 125 50
5.483267e-001 -1.612001e+000 3.062174e+000 182 134 84
5.483267e-001 -1.612001e+000 3.062174e+000 182 134 84
6.209874e-001 -1.658023e+000 3.028171e+000 34 15 8
6.209874e-001 -1.658023e+000 3.028171e+000 34 15 8
5.117437e-001 -1.604009e+000 3.081908e+000 171 125 90
5.706238e-001 -1.624299e+000 3.062151e+000 195 148 103
5.316372e-001 -1.618065e+000 3.083947e+000 185 144 105
5.899819e-001 -1.681301e+000 3.082834e+000 138 74 19
4.978817e-001 -1.642674e+000 3.127539e+000 96 78 70
4.928360e-001 -1.649934e+000 3.139763e+000 134 29 40
4.730957e-001 -1.315518e+000 2.610817e+000 45 28 21
4.868204e-001 -1.304032e+000 2.756004e+000 179 38 29
5.182193e-001 -1.323581e+000 2.746743e+000 29 54 21
4.834862e-001 -1.322168e+000 2.790571e+000 147 140 19
4.834862e-001 -1.322168e+000 2.790571e+000 147 140 19
5.346025e-001 -1.364921e+000 2.781846e+000 160 152 30
5.175043e-001 -1.358299e+000 2.790689e+000 64 106 112
5.288528e-001 -1.400084e+000 2.837618e+000 179 152 123
4.004746e-001 -1.447440e+000 2.904848e+000 145 114 120
4.002754e-001 -1.448211e+000 2.904647e+000 145 114 120
5.459766e-001 -1.444829e+000 2.867590e+000 12 55 73
4.091926e-001 -1.477585e+000 2.941635e+000 65 58 106
5.359570e-001 -1.466281e+000 2.906512e+000 195 127 84
5.356777e-001 -1.467392e+000 2.905777e+000 195 127 84
4.057629e-001 -1.491913e+000 2.943369e+000 90 140 206
5.252610e-001 -1.469184e+000 2.923193e+000 169 109 73
5.333243e-001 -1.474747e+000 2.923741e+000 197 121 88
5.334594e-001 -1.473341e+000 2.923910e+000 197 121 88
5.748242e-001 -1.508650e+000 2.910989e+000 126 78 43
5.746335e-001 -1.511295e+000 2.910416e+000 126 78 43
5.329235e-001 -1.492839e+000 2.947690e+000 202 122 88
5.794363e-001 -1.520291e+000 2.918459e+000 197 136 90
5.803011e-001 -1.532232e+000 2.924285e+000 195 129 83
4.863379e-001 -1.492111e+000 2.975981e+000 195 132 99
4.863379e-001 -1.492111e+000 2.975981e+000 195 132 99
5.826893e-001 -1.536590e+000 2.940589e+000 188 131 86
4.334341e-001 -1.531220e+000 2.998617e+000 26 87 154
6.076865e-001 -1.581664e+000 2.942200e+000 49 18 16
4.452920e-001 -1.528897e+000 3.008502e+000 21 88 159
4.857135e-001 -1.533104e+000 2.993431e+000 195 130 106
4.857135e-001 -1.533104e+000 2.993431e+000 195 130 106
4.375234e-001 -1.551155e+000 3.020926e+000 189 155 126
4.371923e-001 -1.551324e+000 3.020140e+000 189 155 126
5.274810e-001 -1.571070e+000 3.040248e+000 205 127 100
5.885307e-001 -1.630692e+000 3.049680e+000 202 114 37
3.601560e-001 -1.387554e+000 2.802609e+000 49 64 36
3.525130e-001 -1.402091e+000 2.801628e+000 163 170 130
3.525130e-001 -1.402091e+000 2.801628e+000 163 170 130
3.552331e-001 -1.407375e+000 2.808543e+000 99 117 75
3.686220e-001 -1.388120e+000 2.817214e+000 159 172 115
3.865863e-001 -1.374915e+000 2.840223e+000 40 65 44
4.319208e-001 -1.461158e+000 2.944307e+000 178 51 55
5.156045e-001 -1.609063e+000 3.084702e+000 167 124 93
5.099399e-001 -1.330286e+000 2.773412e+000 59 88 44
3.554287e-001 -1.378481e+000 2.787951e+000 46 66 40
3.483511e-001 -1.401332e+000 2.797259e+000 166 165 155
4.865015e-001 -1.334636e+000 2.796266e+000 93 117 105
5.473687e-001 -1.370928e+000 2.774259e+000 28 57 22
5.300189e-001 -1.364092e+000 2.785730e+000 27 55 25
5.452268e-001 -1.375370e+000 2.778780e+000 101 129 96
5.452268e-001 -1.375370e+000 2.778780e+000 101 129 96
3.563444e-001 -1.422392e+000 2.818358e+000 104 132 91
5.111433e-001 -1.355362e+000 2.806252e+000 105 128 50
3.727453e-001 -1.432138e+000 2.852802e+000 172 169 178
4.622521e-001 -1.456872e+000 2.950887e+000 181 49 47
4.202438e-001 -1.529941e+000 2.987759e+000 139 31 44
4.448454e-001 -1.541401e+000 3.016783e+000 22 93 171
5.913158e-001 -1.581180e+000 2.967240e+000 157 23 30
4.965600e-001 -1.281740e+000 2.711131e+000 26 93 122
4.804312e-001 -1.327426e+000 2.794989e+000 25 59 25
4.236532e-001 -1.558012e+000 3.010146e+000 79 24 29
4.781992e-001 -1.607293e+000 3.086349e+000 44 15 18
3.813568e-001 -1.424630e+000 2.861178e+000 168 167 177
6.169158e-001 -1.644393e+000 3.004171e+000 197 106 25
4.162157e-001 -1.497474e+000 2.961678e+000 124 31 39
3.957986e-001 -1.487989e+000 2.921801e+000 170 34 48
6.170449e-001 -1.666516e+000 2.905749e+000 39 31 29
6.001239e-001 -1.570109e+000 2.993814e+000 195 128 83
5.724068e-001 -1.416345e+000 2.761033e+000 179 162 118
4.425112e-001 -1.436280e+000 2.932088e+000 173 168 165
4.603665e-001 -1.275298e+000 2.743608e+000 15 88 120
4.500037e-001 -1.578717e+000 3.040839e+000 186 151 132
5.769011e-001 -1.430325e+000 2.941683e+000 194 130 82
5.285064e-001 -1.211508e+000 2.818673e+000 23 81 111
8.041751e-001 -8.432394e-001 3.141686e+000 97 75 60
8.028123e-001 -8.831692e-001 3.160381e+000 92 75 59
4.925490e-001 -1.306689e+000 2.756429e+000 208 127 95
4.972537e-001 -1.337236e+000 2.790994e+000 148 142 29
5.004552e-001 -1.393260e+000 2.856622e+000 66 32 22
5.004552e-001 -1.393260e+000 2.856622e+000 66 32 22
4.936813e-001 -1.552085e+000 3.038785e+000 210 63 70
4.864137e-001 -1.324776e+000 2.784850e+000 58 78 45
5.423239e-001 -1.542191e+000 2.993373e+000 125 22 26
4.953924e-001 -1.542128e+000 3.025369e+000 121 28 30
5.442658e-001 -1.543944e+000 2.997800e+000 126 23 28
5.125168e-001 -1.552257e+000 3.027774e+000 131 23 30
5.642173e-001 -1.599984e+000 3.039367e+000 177 45 33
5.955618e-001 -1.631072e+000 3.034679e+000 181 75 34
4.987557e-001 -1.494103e+000 2.974889e+000 78 49 37
5.454193e-001 -1.506775e+000 2.952413e+000 39 12 8
5.049130e-001 -1.522347e+000 3.000790e+000 148 73 60
5.842636e-001 -1.587263e+000 2.998844e+000 102 61 44
5.346553e-001 -1.421820e+000 2.862751e+000 143 19 29
5.889249e-001 -1.628258e+000 3.044879e+000 163 77 28
4.525906e-001 -1.425675e+000 2.918094e+000 151 146 143
5.602750e-001 -1.468566e+000 2.880811e+000 178 104 77
3.105614e-001 -1.375801e+000 2.713739e+000 165 38 45
3.398022e-001 -1.353935e+000 2.749324e+000 128 60 54
4.944587e-001 -1.303531e+000 2.749536e+000 224 135 101
4.890984e-001 -1.303930e+000 2.756362e+000 161 49 31
4.736208e-001 -1.317641e+000 2.787612e+000 90 113 59
4.736208e-001 -1.317641e+000 2.787612e+000 90 113 59
3.868387e-001 -1.379185e+000 2.843327e+000 130 165 98
3.868387e-001 -1.379185e+000 2.843327e+000 130 165 98
3.645385e-001 -1.430257e+000 2.837925e+000 48 61 35
5.208386e-001 -1.396378e+000 2.845833e+000 172 148 120
4.869016e-001 -1.416175e+000 2.893583e+000 230 148 110
4.049558e-001 -1.518736e+000 2.953489e+000 206 117 111
4.104873e-001 -1.560627e+000 2.994602e+000 98 56 50
4.381805e-001 -1.523726e+000 3.001568e+000 118 191 251
4.382646e-001 -1.523261e+000 3.001680e+000 118 191 251
4.377652e-001 -1.534627e+000 3.009521e+000 78 134 208
4.362174e-001 -1.538749e+000 3.012870e+000 68 136 198
4.396362e-001 -1.540543e+000 3.014163e+000 67 142 217
5.815020e-001 -1.557882e+000 2.969391e+000 137 29 36
5.604817e-001 -1.551840e+000 2.989680e+000 205 54 54
5.752113e-001 -1.568224e+000 2.986871e+000 162 24 31
5.612664e-001 -1.566329e+000 3.002883e+000 136 28 32
5.656891e-001 -1.568697e+000 3.001708e+000 214 68 63
5.655836e-001 -1.568979e+000 3.001537e+000 214 68 63
5.924996e-001 -1.588143e+000 2.992537e+000 192 128 84
5.221940e-001 -1.591617e+000 3.062105e+000 191 136 95
5.354410e-001 -1.590965e+000 3.056438e+000 179 130 88
5.537353e-001 -1.593181e+000 3.044232e+000 134 41 22
5.699069e-001 -1.613965e+000 3.046787e+000 142 50 13
6.019136e-001 -1.628107e+000 3.026804e+000 98 28 2
5.549930e-001 -1.611958e+000 3.053041e+000 178 126 78
5.704053e-001 -1.618600e+000 3.053467e+000 186 80 29
5.257165e-001 -1.607708e+000 3.080945e+000 86 60 39
5.339718e-001 -1.605935e+000 3.074667e+000 182 128 83
3.312170e-001 -1.365398e+000 2.745558e+000 171 45 57
4.802058e-001 -1.302070e+000 2.765785e+000 166 46 44
3.516105e-001 -1.366376e+000 2.773729e+000 47 63 43
3.516105e-001 -1.366376e+000 2.773729e+000 47 63 43
5.056544e-001 -1.324686e+000 2.768711e+000 24 58 18
5.306302e-001 -1.346910e+000 2.764444e+000 29 50 13
4.753381e-001 -1.346378e+000 2.823088e+000 150 145 27
5.795310e-001 -1.464332e+000 2.837677e+000 38 76 92
4.257975e-001 -1.461726e+000 2.941794e+000 179 56 63
5.574395e-001 -1.541555e+000 2.981787e+000 217 52 53
5.907135e-001 -1.577300e+000 2.961497e+000 205 55 61
5.480378e-001 -1.542711e+000 2.996119e+000 138 27 33
5.480378e-001 -1.542711e+000 2.996119e+000 138 27 33
5.762881e-001 -1.559397e+000 2.976911e+000 214 56 63
4.990520e-001 -1.548869e+000 3.032453e+000 217 65 63
5.233825e-001 -1.557966e+000 3.026587e+000 195 49 46
5.235330e-001 -1.556569e+000 3.026833e+000 195 49 46
4.534690e-001 -1.609720e+000 3.075377e+000 68 27 23
5.423274e-001 -1.596711e+000 3.056652e+000 184 133 88
5.810133e-001 -1.606235e+000 3.033914e+000 135 52 19
-1.817470e-001 -2.486969e+000 2.294548e+000 101 74 59
5.119968e-001 -1.342468e+000 2.782154e+000 50 101 98
5.317729e-001 -1.353710e+000 2.782110e+000 62 104 102
5.316281e-001 -1.404592e+000 2.841012e+000 187 141 117
3.930211e-001 -1.448161e+000 2.894868e+000 182 162 170
5.366370e-001 -1.460569e+000 2.903728e+000 93 45 23
5.687145e-001 -1.482700e+000 2.892382e+000 157 101 78
5.462085e-001 -1.527425e+000 2.974010e+000 95 51 42
5.990223e-001 -1.581090e+000 2.967488e+000 220 58 60
5.990223e-001 -1.581090e+000 2.967488e+000 220 58 60
4.973031e-001 -1.554605e+000 3.037885e+000 232 87 87
6.198558e-001 -1.640247e+000 2.998102e+000 201 115 30
4.753632e-001 -1.302252e+000 2.607340e+000 200 42 42
-1.136697e-001 -2.481433e+000 2.273783e+000 104 85 70
5.542250e-001 -1.436226e+000 2.843279e+000 165 24 31
4.210123e-001 -1.465069e+000 2.937032e+000 176 165 173
6.567006e-001 -1.911503e+000 2.725975e+000 19 15 16
5.734717e-001 -1.502507e+000 2.904559e+000 136 78 53
4.977971e-001 -1.471425e+000 2.949414e+000 195 127 87
5.268510e-001 -1.477949e+000 2.930239e+000 182 114 83
5.269293e-001 -1.473883e+000 2.931101e+000 182 114 83
4.855549e-001 -1.485943e+000 2.968926e+000 203 126 101
4.853832e-001 -1.487563e+000 2.968568e+000 203 126 101
4.704447e-001 -1.489990e+000 2.981069e+000 166 44 36
4.910864e-001 -1.493463e+000 2.978087e+000 181 113 94
4.436858e-001 -1.523795e+000 3.003597e+000 14 91 170
4.536485e-001 -1.531731e+000 3.015791e+000 192 153 122
-2.021408e-001 -2.452451e+000 2.177972e+000 101 84 66
-1.466296e-001 -2.315108e+000 2.568998e+000 58 46 31
3.909566e-001 -1.460589e+000 2.903712e+000 176 163 173
5.714684e-001 -1.480804e+000 2.866304e+000 193 120 91
5.327999e-001 -1.532682e+000 2.992750e+000 160 18 30
4.784055e-001 -1.529912e+000 3.018481e+000 189 146 112
5.541626e-001 -1.597476e+000 3.041910e+000 166 54 35
4.481154e-001 -1.280922e+000 2.756652e+000 54 103 120
-1.877444e-001 -2.486807e+000 2.313551e+000 146 122 94
5.471925e-001 -1.370202e+000 2.774896e+000 28 57 22
6.035595e-001 -1.531814e+000 2.868014e+000 37 27 26
3.581686e-001 -1.595106e+000 2.926773e+000 26 18 15
3.581686e-001 -1.595106e+000 2.926773e+000 26 18 15
3.438952e-001 -1.343761e+000 2.749264e+000 176 110 101
-1.883879e-001 -2.436941e+000 2.223271e+000 102 87 68
-1.405647e-001 -2.499994e+000 2.263168e+000 33 29 52
-1.440948e-001 -2.517269e+000 2.279088e+000 136 119 93
4.912312e-001 -1.348122e+000 2.811958e+000 24 57 23
5.239915e-001 -1.368801e+000 2.805454e+000 132 139 112
5.207062e-001 -1.550125e+000 3.017163e+000 169 21 33
5.207394e-001 -1.549579e+000 3.017221e+000 169 21 33
5.433131e-001 -1.461250e+000 2.895700e+000 195 120 88
5.373195e-001 -1.370481e+000 2.804320e+000 30 55 22
-2.652064e-001 -2.276688e+000 2.311903e+000 29 19 20
4.123912e-001 -1.315493e+000 2.784964e+000 161 159 154
5.169688e-001 -1.511382e+000 2.979517e+000 189 123 89
4.396844e-001 -1.582776e+000 3.044301e+000 134 95 78
5.604042e-001 -1.565674e+000 3.005399e+000 217 65 71
5.604042e-001 -1.565674e+000 3.005399e+000 217 65 71
5.892753e-001 -1.625944e+000 3.039416e+000 197 111 50
5.302595e-001 -1.344544e+000 2.759052e+000 38 52 6
5.331496e-001 -1.349770e+000 2.756134e+000 42 52 8
4.720268e-001 -1.446048e+000 2.936641e+000 186 115 93
5.911659e-001 -1.558651e+000 2.952646e+000 220 61 69
5.786760e-001 -1.565178e+000 2.976269e+000 159 23 29
5.228427e-001 -1.538128e+000 3.011574e+000 198 46 47
5.228427e-001 -1.538128e+000 3.011574e+000 198 46 47
5.830261e-001 -1.570123e+000 2.985946e+000 164 24 34
5.539384e-001 -1.580208e+000 3.028838e+000 113 62 45
5.235914e-001 -1.606947e+000 3.080029e+000 173 118 85
5.179099e-001 -1.352845e+000 2.792669e+000 69 104 101
5.363153e-001 -1.478233e+000 2.926706e+000 65 36 23
5.154114e-001 -1.547185e+000 3.022855e+000 152 25 37
5.077748e-001 -1.509752e+000 2.981546e+000 196 121 93
5.047335e-001 -1.548163e+000 3.026823e+000 148 19 30
5.235190e-001 -1.567961e+000 3.041246e+000 185 110 88
5.323929e-001 -1.574901e+000 3.037184e+000 189 112 85
5.727542e-001 -1.594318e+000 3.025257e+000 195 131 87
5.530614e-001 -1.579732e+000 3.033702e+000 197 118 79
5.331525e-001 -1.423110e+000 2.869133e+000 191 117 77
5.615338e-001 -1.551709e+000 2.995577e+000 167 25 32
4.839866e-001 -1.277409e+000 2.718447e+000 25 91 123
5.385070e-001 -1.652335e+000 3.112873e+000 91 39 30
6.192785e-001 -1.676125e+000 3.056456e+000 43 14 10
5.703016e-001 -1.659249e+000 3.090221e+000 170 125 93
5.513746e-001 -1.662324e+000 3.107267e+000 136 75 45
4.935060e-001 -1.648460e+000 3.142288e+000 41 14 26
-1.551857e-001 -2.323365e+000 2.007497e+000 97 80 60
-1.785858e-001 -2.283693e+000 2.013182e+000 120 99 76
-1.735042e-001 -2.308957e+000 2.031480e+000 68 56 56
-1.306313e-001 -2.334393e+000 1.993472e+000 93 80 63
7.063815e-001 -8.995745e-001 3.266581e+000 43 27 27
4.462172e-001 -1.499347e+000 2.987798e+000 178 42 48
5.361842e-001 -1.463306e+000 2.914038e+000 194 124 87
4.974854e-001 -1.509126e+000 2.990468e+000 66 32 26
5.310659e-001 -1.575922e+000 3.044030e+000 196 125 90
5.034856e-001 -1.394167e+000 2.758040e+000 50 101 98
5.547608e-001 -1.604089e+000 3.054231e+000 174 120 75
5.184765e-001 -1.323351e+000 2.746388e+000 38 50 14
5.305957e-001 -1.346517e+000 2.764534e+000 37 49 15
5.317547e-001 -1.555507e+000 3.022631e+000 190 39 36
5.355356e-001 -1.514695e+000 2.972092e+000 160 97 66
5.368713e-001 -1.568252e+000 3.030862e+000 107 50 31
5.368713e-001 -1.568252e+000 3.030862e+000 107 50 31
4.934835e-001 -1.367670e+000 2.830592e+000 34 56 22
4.595483e-001 -1.296487e+000 2.772389e+000 190 130 87
4.597600e-001 -1.297895e+000 2.770993e+000 190 130 87
4.972837e-001 -1.337167e+000 2.788409e+000 63 95 73
4.434172e-001 -1.510072e+000 2.992150e+000 180 35 42
7.299620e-001 -9.308485e-001 3.278783e+000 39 34 41
4.363892e-001 -1.500048e+000 2.976608e+000 165 52 56
4.078619e-001 -1.395428e+000 2.877184e+000 154 165 170
5.319735e-001 -1.640974e+000 3.107929e+000 128 99 76
5.386966e-001 -1.620398e+000 3.080499e+000 192 145 97
5.250707e-001 -1.428425e+000 2.880876e+000 26 72 98
3.192660e-001 -1.433443e+000 2.762486e+000 36 56 28
5.177231e-001 -1.343185e+000 2.783321e+000 27 42 0
3.558552e-001 -1.406377e+000 2.806237e+000 39 55 23
3.704042e-001 -1.500777e+000 2.894477e+000 102 26 33
3.827045e-001 -1.485205e+000 2.903167e+000 234 130 129
3.827045e-001 -1.485205e+000 2.903167e+000 234 130 129
3.824770e-001 -1.498108e+000 2.901457e+000 118 28 34
3.846282e-001 -1.495076e+000 2.903478e+000 215 121 117
3.610980e-001 -1.531388e+000 2.903303e+000 44 78 128
3.808877e-001 -1.531443e+000 2.917066e+000 98 129 173
4.861323e-001 -1.489853e+000 2.969426e+000 173 108 80
4.972601e-001 -1.532940e+000 3.017517e+000 183 57 54
5.522729e-001 -1.562638e+000 3.011144e+000 192 59 54
3.327296e-001 -1.436301e+000 2.788825e+000 34 57 36
3.332338e-001 -1.457191e+000 2.806067e+000 140 163 79
3.415487e-001 -1.499276e+000 2.842748e+000 127 112 115
5.137538e-001 -1.531134e+000 3.004787e+000 217 83 76
4.434603e-001 -1.544251e+000 3.012351e+000 26 77 130
5.484419e-001 -1.556693e+000 3.011079e+000 130 26 29
4.507692e-001 -1.606482e+000 3.066983e+000 148 94 59
8.226716e-001 -2.061251e+000 1.954222e+000 108 86 63
8.023300e-001 -2.090257e+000 1.955921e+000 46 35 21
3.067638e-001 -1.380624e+000 2.707134e+000 148 145 166
3.124471e-001 -1.388119e+000 2.728429e+000 157 37 46
3.489691e-001 -1.338849e+000 2.745452e+000 158 31 45
3.295650e-001 -1.440129e+000 2.790002e+000 144 166 91
3.484130e-001 -1.425190e+000 2.795434e+000 150 161 54
3.470994e-001 -1.415312e+000 2.800571e+000 150 161 54
3.373581e-001 -1.487461e+000 2.835500e+000 135 115 110
3.373581e-001 -1.487461e+000 2.835500e+000 135 115 110
3.610587e-001 -1.468829e+000 2.848707e+000 160 151 157
3.842568e-001 -1.464263e+000 2.891806e+000 155 151 160
3.642158e-001 -1.514563e+000 2.894766e+000 174 58 66
5.257292e-001 -1.468561e+000 2.932159e+000 125 70 44
4.951838e-001 -1.464520e+000 2.946671e+000 122 79 57
4.653761e-001 -1.471956e+000 2.962629e+000 150 49 44
5.370447e-001 -1.520261e+000 2.978438e+000 98 59 37
5.345448e-001 -1.523547e+000 2.988676e+000 176 112 73
5.912139e-001 -1.578758e+000 2.993141e+000 133 86 44
5.428600e-001 -1.571448e+000 3.039377e+000 177 113 74
9.431512e-001 -2.151152e+000 2.120203e+000 62 50 25
3.456595e-001 -1.463024e+000 2.811734e+000 43 54 32
3.456595e-001 -1.463024e+000 2.811734e+000 43 54 32
5.199188e-001 -1.388462e+000 2.856715e+000 124 100 74
3.461277e-001 -1.526452e+000 2.857065e+000 134 30 27
3.553454e-001 -1.486348e+000 2.864099e+000 156 151 159
5.103601e-001 -1.416467e+000 2.887056e+000 128 20 24
4.841092e-001 -1.443601e+000 2.929510e+000 124 64 39
3.814479e-001 -1.514871e+000 2.921895e+000 92 130 180
3.994024e-001 -1.518402e+000 2.945326e+000 177 121 104
4.738584e-001 -1.484530e+000 2.973589e+000 176 108 86
4.161991e-001 -1.562408e+000 2.994741e+000 183 125 111
3.874966e-001 -1.636730e+000 2.996518e+000 148 129 116
5.548281e-001 -1.594251e+000 3.041743e+000 132 43 21
4.854212e-001 -1.323408e+000 2.786872e+000 61 80 29
5.584418e-001 -1.375532e+000 2.766517e+000 60 94 95
3.725787e-001 -1.362350e+000 2.804947e+000 33 56 21
5.092563e-001 -1.351601e+000 2.808781e+000 95 102 35
4.707750e-001 -1.407040e+000 2.898546e+000 198 128 93
4.855901e-001 -1.411563e+000 2.892247e+000 166 94 75
3.695086e-001 -1.480249e+000 2.879192e+000 149 47 45
3.818258e-001 -1.492765e+000 2.895254e+000 140 23 31
4.011441e-001 -1.501053e+000 2.939223e+000 66 105 151
4.554972e-001 -1.534927e+000 3.016071e+000 161 128 105
8.532183e-001 -2.010662e+000 1.990240e+000 45 36 29
3.431459e-001 -1.389398e+000 2.761805e+000 151 159 146
5.036002e-001 -1.330993e+000 2.784947e+000 23 50 17
4.972495e-001 -1.337267e+000 2.789798e+000 61 86 54
3.585456e-001 -1.390819e+000 2.803249e+000 26 55 33
5.157363e-001 -1.352415e+000 2.794413e+000 68 93 75
3.732434e-001 -1.384660e+000 2.820316e+000 152 154 151
3.730480e-001 -1.381568e+000 2.821634e+000 152 154 151
3.700042e-001 -1.397426e+000 2.820350e+000 24 57 28
4.653511e-001 -1.415564e+000 2.894124e+000 142 18 24
3.981754e-001 -1.435271e+000 2.895782e+000 186 141 146
3.826860e-001 -1.516157e+000 2.911936e+000 92 32 62
4.888511e-001 -1.548011e+000 3.031208e+000 139 20 28
5.202105e-001 -1.545495e+000 3.017357e+000 141 20 25
3.280980e-001 -1.425148e+000 2.778442e+000 155 157 154
3.406571e-001 -1.415651e+000 2.781972e+000 27 61 34
3.591041e-001 -1.395447e+000 2.790008e+000 152 154 151
3.590269e-001 -1.395414e+000 2.801152e+000 25 54 32
3.646154e-001 -1.404544e+000 2.809150e+000 155 157 152
3.635903e-001 -1.540718e+000 2.908635e+000 98 58 73
8.228234e-001 -2.033579e+000 1.953622e+000 201 171 111
9.573677e-001 -2.198727e+000 2.258493e+000 192 166 107
4.098865e-001 -1.458161e+000 2.927860e+000 146 23 28
4.772294e-001 -1.598756e+000 3.069531e+000 162 128 101
5.533096e-001 -1.473900e+000 2.889623e+000 180 111 72
5.819680e-001 -1.581627e+000 2.982637e+000 196 52 49
5.974478e-001 -1.596974e+000 2.990803e+000 178 123 74
4.700062e-001 -1.544025e+000 3.021803e+000 160 128 103
3.190747e-001 -1.397921e+000 2.710452e+000 192 125 121
3.864713e-001 -1.343858e+000 2.784509e+000 113 134 164
4.838952e-001 -1.664818e+000 3.052520e+000 164 130 104
6.319366e-001 -1.361069e+000 2.736424e+000 82 108 112
6.709534e-001 -1.601969e+000 2.991608e+000 169 124 85
6.385571e-001 -1.583502e+000 2.952492e+000 174 118 62
6.342600e-001 -1.226245e+000 2.678759e+000 207 183 147
6.377205e-001 -1.235076e+000 2.677576e+000 212 182 140
6.446784e-001 -1.310725e+000 2.721051e+000 213 134 109
5.659276e-001 -1.408969e+000 2.782021e+000 100 96 70
7.134111e-001 -1.398170e+000 2.894738e+000 183 136 106
7.134111e-001 -1.398170e+000 2.894738e+000 183 136 106
5.880556e-001 -1.478772e+000 2.842125e+000 33 73 104
6.784889e-001 -1.457565e+000 2.878004e+000 215 140 115
5.728661e-001 -1.495506e+000 2.872802e+000 138 82 63
5.728661e-001 -1.495506e+000 2.872802e+000 138 82 63
6.745677e-001 -1.462454e+000 2.874130e+000 219 139 108
6.774934e-001 -1.463069e+000 2.880001e+000 130 24 28
6.774934e-001 -1.463069e+000 2.880001e+000 130 24 28
7.006645e-001 -1.462505e+000 2.914488e+000 38 62 71
7.053530e-001 -1.457242e+000 2.917868e+000 37 55 64
6.749399e-001 -1.489730e+000 2.898128e+000 36 65 82
6.708320e-001 -1.493427e+000 2.896283e+000 128 153 159
5.745403e-001 -1.524144e+000 2.899976e+000 192 131 100
5.766226e-001 -1.522952e+000 2.900295e+000 134 88 62
5.801653e-001 -1.527371e+000 2.904458e+000 195 136 101
6.995280e-001 -1.489031e+000 2.933090e+000 135 81 94
6.995280e-001 -1.489031e+000 2.933090e+000 135 81 94
6.666000e-001 -1.518450e+000 2.911570e+000 177 92 96
6.701556e-001 -1.519176e+000 2.914940e+000 151 80 81
6.374053e-001 -1.542655e+000 2.909886e+000 84 36 39
6.482741e-001 -1.534786e+000 2.906401e+000 172 85 80
6.482862e-001 -1.534801e+000 2.906181e+000 172 85 80
6.745457e-001 -1.529464e+000 2.928800e+000 91 55 62
6.811160e-001 -1.523196e+000 2.932206e+000 80 56 60
7.226151e-001 -1.496289e+000 2.984652e+000 40 67 82
7.229803e-001 -1.496221e+000 2.983084e+000 40 67 82
7.254854e-001 -1.493454e+000 2.988286e+000 62 96 123
7.149920e-001 -1.531534e+000 2.992091e+000 175 110 93
7.142476e-001 -1.547257e+000 2.983245e+000 109 75 76
6.469291e-001 -1.581137e+000 2.951078e+000 115 53 58
7.292206e-001 -1.543503e+000 3.028781e+000 131 79 40
6.541368e-001 -1.594917e+000 2.966211e+000 121 75 81
6.118483e-001 -1.233932e+000 2.671152e+000 221 186 151
6.331224e-001 -1.237606e+000 2.677258e+000 216 184 143
5.127835e-001 -1.321956e+000 2.728740e+000 179 49 47
6.519801e-001 -1.293817e+000 2.723138e+000 205 149 106
6.574301e-001 -1.291448e+000 2.729176e+000 157 35 44
6.464319e-001 -1.311469e+000 2.724566e+000 168 38 50
6.569425e-001 -1.294904e+000 2.733535e+000 160 37 37
6.569425e-001 -1.294904e+000 2.733535e+000 160 37 37
7.154769e-001 -1.345453e+000 2.869012e+000 88 88 64
5.766409e-001 -1.525069e+000 2.906041e+000 197 134 101
6.689227e-001 -1.507962e+000 2.903366e+000 157 67 50
6.561499e-001 -1.524176e+000 2.902809e+000 88 37 36
6.553364e-001 -1.531451e+000 2.909491e+000 171 88 85
7.002106e-001 -1.506058e+000 2.945969e+000 84 62 70
7.031342e-001 -1.554192e+000 2.989056e+000 101 71 73
6.328369e-001 -1.592676e+000 2.956121e+000 135 83 34
6.731823e-001 -1.582706e+000 2.972764e+000 117 78 81
7.333459e-001 -1.548078e+000 3.059676e+000 140 103 70
5.239566e-001 -1.211280e+000 2.683747e+000 212 107 104
6.300642e-001 -1.234604e+000 2.674321e+000 214 183 145
6.495599e-001 -1.448494e+000 2.833918e+000 170 143 116
6.370777e-001 -1.461843e+000 2.829954e+000 185 143 115
6.460994e-001 -1.462232e+000 2.842085e+000 175 145 116
6.591940e-001 -1.456892e+000 2.850355e+000 169 147 116
6.613353e-001 -1.515576e+000 2.907422e+000 164 71 58
6.771705e-001 -1.524781e+000 2.929303e+000 84 59 65
7.052761e-001 -1.518687e+000 2.965910e+000 95 70 73
6.541387e-001 -1.562488e+000 2.937222e+000 168 110 106
7.160729e-001 -1.541609e+000 2.997223e+000 79 52 47
5.949618e-001 -1.638449e+000 3.016987e+000 170 78 41
5.295570e-001 -1.222622e+000 2.689386e+000 156 134 113
6.484440e-001 -1.296531e+000 2.716436e+000 174 35 35
7.265944e-001 -1.489962e+000 2.992778e+000 34 59 80
5.942410e-001 -1.564808e+000 2.938843e+000 197 137 103
5.892366e-001 -1.567117e+000 2.942835e+000 161 33 41
6.621058e-001 -1.627877e+000 3.000081e+000 162 124 83
6.404743e-001 -1.698981e+000 3.057284e+000 215 103 42
6.141980e-001 -1.239120e+000 2.670435e+000 151 124 93
6.141980e-001 -1.239120e+000 2.670435e+000 151 124 93
5.160136e-001 -1.356380e+000 2.764841e+000 32 60 42
6.565493e-001 -1.370558e+000 2.781851e+000 169 151 47
6.615199e-001 -1.371285e+000 2.787262e+000 30 56 28
6.467478e-001 -1.415446e+000 2.799964e+000 162 149 92
6.467287e-001 -1.415417e+000 2.799612e+000 162 149 92
