ply
format ascii 1.0
element face 0
property list uchar int vertex_indices
element vertex 898
property float x
property float y
property float z
property uchar diffuse_red
property uchar diffuse_green
property uchar diffuse_blue
end_header
2.114746e+000 -2.625926e+000 1.357877e+000 173 145 55
1.315274e+000 -3.306171e+000 1.463297e+000 78 64 55
1.349411e+000 -3.259775e+000 1.502729e+000 96 80 62
1.328781e+000 -3.306128e+000 1.529731e+000 93 77 61
5.465917e-001 -1.727415e+000 3.267475e+000 148 119 103
2.117613e+000 -2.497488e+000 1.674233e+000 96 68 47
5.423628e-001 -1.818186e+000 3.160640e+000 190 155 130
2.099421e+000 -2.510301e+000 1.621216e+000 70 44 31
3.968869e-001 -1.470669e+000 2.760287e+000 45 94 146
2.111191e+000 -2.485054e+000 1.414839e+000 35 23 23
5.463530e-001 -1.805128e+000 3.138228e+000 191 162 128
3.994874e-001 -1.645198e+000 2.859534e+000 160 161 170
4.470296e-001 -1.599645e+000 2.920896e+000 100 48 40
3.985411e-001 -1.654232e+000 2.861571e+000 134 116 100
4.502827e-001 -1.596249e+000 2.931129e+000 173 126 105
3.955844e-001 -1.686374e+000 2.859196e+000 139 106 87
3.974802e-001 -1.687291e+000 2.859055e+000 139 106 87
4.208801e-001 -1.679031e+000 2.920274e+000 190 114 100
4.208801e-001 -1.679031e+000 2.920274e+000 190 114 100
4.213218e-001 -1.669951e+000 2.917628e+000 182 116 100
4.227235e-001 -1.675956e+000 2.922896e+000 200 109 101
4.227235e-001 -1.675956e+000 2.922896e+000 200 109 101
4.352655e-001 -1.657328e+000 2.939726e+000 183 121 93
4.395884e-001 -1.783017e+000 2.863086e+000 91 38 31
4.061489e-001 -1.732036e+000 2.892609e+000 60 25 46
4.394055e-001 -1.661429e+000 2.948086e+000 198 79 82
4.475012e-001 -1.666742e+000 2.965440e+000 97 125 144
4.122481e-001 -1.724348e+000 2.919662e+000 108 139 149
4.202916e-001 -1.707465e+000 2.930990e+000 29 51 70
4.287468e-001 -1.695122e+000 2.942813e+000 20 55 74
4.291283e-001 -1.690689e+000 2.943936e+000 104 141 163
4.263839e-001 -1.699069e+000 2.940941e+000 22 52 69
4.318616e-001 -1.687040e+000 2.950903e+000 123 140 139
4.439401e-001 -1.677885e+000 2.961401e+000 19 56 74
4.435480e-001 -1.676988e+000 2.964208e+000 104 133 147
4.392988e-001 -1.677628e+000 2.964659e+000 18 55 81
4.411872e-001 -1.803078e+000 2.887631e+000 55 35 28
4.410616e-001 -1.686715e+000 2.968971e+000 126 42 37
4.453508e-001 -1.687233e+000 2.974201e+000 118 55 40
4.453508e-001 -1.687233e+000 2.974201e+000 118 55 40
4.839495e-001 -1.691671e+000 3.030279e+000 17 55 93
4.837862e-001 -1.691460e+000 3.030331e+000 17 55 93
4.770968e-001 -1.704520e+000 3.035255e+000 27 60 84
4.769727e-001 -1.714365e+000 3.038708e+000 25 64 94
4.904025e-001 -1.699139e+000 3.043672e+000 69 117 149
4.907127e-001 -1.699416e+000 3.043701e+000 69 117 149
4.269530e-001 -1.828981e+000 2.970121e+000 79 47 29
4.254614e-001 -1.814258e+000 2.966079e+000 42 13 14
3.824634e-001 -1.524796e+000 2.763623e+000 185 129 103
3.842217e-001 -1.530825e+000 2.772756e+000 137 39 38
4.097496e-001 -1.506384e+000 2.806986e+000 128 131 121
4.292899e-001 -1.633442e+000 2.709104e+000 82 87 58
4.257179e-001 -1.514607e+000 2.841784e+000 25 40 23
4.262575e-001 -1.663933e+000 2.923704e+000 174 133 100
4.214758e-001 -1.676013e+000 2.919541e+000 116 26 28
4.324912e-001 -1.662828e+000 2.934759e+000 184 123 96
4.068583e-001 -1.736157e+000 2.895812e+000 12 46 74
4.142162e-001 -1.717684e+000 2.922802e+000 28 51 67
4.142162e-001 -1.717684e+000 2.922802e+000 28 51 67
4.832229e-001 -1.697742e+000 3.034689e+000 22 62 99
8.458931e-001 -1.805737e+000 3.119012e+000 129 116 107
8.383656e-001 -1.804402e+000 3.125673e+000 126 112 103
4.733488e-001 -1.709437e+000 3.032366e+000 25 60 86
4.665242e-001 -1.703075e+000 3.035510e+000 62 106 140
4.233795e-001 -1.806602e+000 2.959347e+000 85 47 26
4.325057e-001 -1.835724e+000 2.953247e+000 77 49 28
4.341132e-001 -1.845825e+000 3.002608e+000 20 17 30
4.362946e-001 -1.830636e+000 3.013143e+000 137 100 73
3.820126e-001 -1.533706e+000 2.769484e+000 133 43 41
4.250167e-001 -1.654934e+000 2.734919e+000 59 61 37
4.517492e-001 -1.695370e+000 2.750050e+000 98 86 74
4.590544e-001 -1.549118e+000 2.913424e+000 82 90 79
3.944608e-001 -1.672972e+000 2.855733e+000 106 70 58
3.988541e-001 -1.671259e+000 2.865535e+000 151 120 99
4.059717e-001 -1.671232e+000 2.884827e+000 137 125 103
4.107494e-001 -1.664504e+000 2.891301e+000 135 129 107
4.098965e-001 -1.664034e+000 2.891308e+000 135 129 107
4.272937e-001 -1.669146e+000 2.928328e+000 178 126 97
4.650241e-001 -1.620012e+000 2.971551e+000 148 142 123
4.068893e-001 -1.739832e+000 2.895943e+000 128 93 63
4.331011e-001 -1.689718e+000 2.947737e+000 18 58 90
4.330858e-001 -1.689741e+000 2.947812e+000 18 58 90
4.825402e-001 -1.662476e+000 3.012641e+000 179 65 64
4.232784e-001 -1.806326e+000 2.940025e+000 74 47 28
4.242836e-001 -1.812022e+000 2.945075e+000 113 75 49
4.677431e-001 -1.740408e+000 3.039930e+000 150 53 46
4.674890e-001 -1.740300e+000 3.039995e+000 150 53 46
4.356029e-001 -1.837100e+000 3.005156e+000 128 100 75
4.403386e-001 -1.868119e+000 3.028000e+000 131 100 78
3.667782e-001 -1.544341e+000 2.741011e+000 142 26 40
3.666674e-001 -1.544405e+000 2.741034e+000 142 26 40
3.740377e-001 -1.533587e+000 2.752182e+000 151 34 41
4.012430e-001 -1.501359e+000 2.782324e+000 148 29 38
3.935400e-001 -1.524685e+000 2.785431e+000 149 29 38
3.916842e-001 -1.523831e+000 2.785639e+000 149 29 38
3.703695e-001 -1.558822e+000 2.752943e+000 140 29 35
3.747651e-001 -1.576238e+000 2.765853e+000 102 102 25
3.747651e-001 -1.576238e+000 2.765853e+000 102 102 25
4.250431e-001 -1.644791e+000 2.727732e+000 38 42 26
4.040295e-001 -1.580914e+000 2.833499e+000 145 141 40
4.065422e-001 -1.671393e+000 2.884072e+000 137 126 105
4.394824e-001 -1.678870e+000 2.958175e+000 71 96 105
4.873485e-001 -1.687963e+000 3.034340e+000 18 65 102
4.907564e-001 -1.694419e+000 3.040069e+000 21 64 96
4.729016e-001 -1.709311e+000 3.029765e+000 23 61 87
4.202966e-001 -1.797127e+000 2.958672e+000 82 45 27
4.772277e-001 -1.754730e+000 3.062256e+000 78 17 22
3.687767e-001 -1.588702e+000 2.755166e+000 46 70 81
4.189096e-001 -1.539189e+000 2.839082e+000 134 136 37
4.362003e-001 -1.686973e+000 2.951293e+000 81 99 105
4.829599e-001 -1.697726e+000 3.030881e+000 20 62 102
4.884718e-001 -1.704717e+000 3.047264e+000 24 68 100
4.329452e-001 -1.838627e+000 2.961407e+000 90 58 33
4.331497e-001 -1.860405e+000 2.989834e+000 17 15 30
3.962160e-001 -1.550013e+000 2.799957e+000 23 45 24
3.824758e-001 -1.618244e+000 2.756447e+000 66 75 82
3.819849e-001 -1.618073e+000 2.756573e+000 66 75 82
4.107289e-001 -1.578801e+000 2.847063e+000 144 141 60
3.928075e-001 -1.630355e+000 2.836603e+000 140 130 105
3.928075e-001 -1.630355e+000 2.836603e+000 140 130 105
4.510888e-001 -1.555385e+000 2.906805e+000 31 45 32
4.406105e-001 -1.593460e+000 2.920374e+000 149 92 81
4.220303e-001 -1.647552e+000 2.901835e+000 136 130 113
4.601348e-001 -1.617549e+000 2.961039e+000 137 23 31
4.382283e-001 -1.778675e+000 2.863697e+000 98 39 33
4.300780e-001 -1.662662e+000 2.735929e+000 47 49 31
4.167272e-001 -1.540045e+000 2.834796e+000 135 131 83
4.083829e-001 -1.559035e+000 2.830907e+000 24 50 26
4.182274e-001 -1.551257e+000 2.849632e+000 141 131 99
4.182274e-001 -1.551257e+000 2.849632e+000 141 131 99
3.799582e-001 -1.609591e+000 2.799649e+000 134 126 54
4.482989e-001 -1.533566e+000 2.883375e+000 23 46 35
4.611443e-001 -1.618396e+000 2.961100e+000 140 21 31
4.387185e-001 -1.676645e+000 2.948992e+000 11 56 89
4.552429e-001 -1.683404e+000 2.983012e+000 156 106 73
5.155508e-001 -1.701693e+000 3.053822e+000 167 134 100
4.387935e-001 -1.869082e+000 2.973690e+000 45 15 13
3.945762e-001 -1.545834e+000 2.665545e+000 176 158 134
3.989146e-001 -1.636609e+000 2.755586e+000 103 101 88
3.784991e-001 -1.592041e+000 2.785915e+000 133 128 98
3.782484e-001 -1.591843e+000 2.785923e+000 133 128 98
3.830654e-001 -1.607758e+000 2.811038e+000 24 45 26
3.830654e-001 -1.607758e+000 2.811038e+000 24 45 26
3.953542e-001 -1.591667e+000 2.827632e+000 21 49 27
4.340973e-001 -1.541729e+000 2.874575e+000 22 48 22
4.206091e-001 -1.577183e+000 2.866539e+000 138 133 101
4.568104e-001 -1.780130e+000 2.843360e+000 114 56 45
4.257928e-001 -1.817038e+000 2.956113e+000 114 78 52
3.660560e-001 -1.565791e+000 2.729227e+000 60 79 93
3.748328e-001 -1.599593e+000 2.761139e+000 122 111 93
3.763240e-001 -1.600617e+000 2.761506e+000 122 111 93
3.770822e-001 -1.606652e+000 2.789007e+000 27 42 35
3.865995e-001 -1.625199e+000 2.826374e+000 21 45 31
3.965415e-001 -1.705716e+000 2.881980e+000 112 21 28
4.537644e-001 -1.667981e+000 2.985994e+000 95 24 27
4.287294e-001 -1.823133e+000 2.940804e+000 37 16 21
4.301491e-001 -1.824320e+000 2.941409e+000 37 16 21
4.036661e-001 -1.685860e+000 2.880095e+000 131 125 103
4.094669e-001 -1.735011e+000 2.905409e+000 10 53 85
4.089505e-001 -1.734971e+000 2.905513e+000 10 53 85
4.409627e-001 -1.841700e+000 2.990801e+000 120 95 70
3.948402e-001 -1.503341e+000 2.745038e+000 12 66 102
3.760184e-001 -1.540884e+000 2.756359e+000 124 50 43
3.966409e-001 -1.643218e+000 2.911352e+000 135 135 109
5.497015e-001 -1.725872e+000 2.676416e+000 207 190 144
4.105568e-001 -1.710611e+000 2.907766e+000 119 17 30
4.105568e-001 -1.710611e+000 2.907766e+000 119 17 30
4.652699e-001 -1.814105e+000 2.911110e+000 112 88 64
3.820389e-001 -1.531596e+000 2.766307e+000 120 55 45
3.820389e-001 -1.531596e+000 2.766307e+000 120 55 45
4.219592e-001 -1.669486e+000 2.920343e+000 98 27 31
4.242465e-001 -1.665803e+000 2.922456e+000 108 29 27
4.285879e-001 -1.663379e+000 2.926665e+000 96 15 22
4.474240e-001 -1.670719e+000 2.969575e+000 106 146 166
4.558368e-001 -1.660582e+000 2.978639e+000 97 142 165
4.823273e-001 -1.691262e+000 3.032930e+000 115 160 194
4.631388e-001 -1.733048e+000 3.028835e+000 113 44 29
4.314436e-001 -1.849546e+000 2.996119e+000 25 17 26
4.346815e-001 -1.837789e+000 3.023663e+000 33 45 56
3.668595e-001 -1.544703e+000 2.738650e+000 137 30 38
3.941643e-001 -1.510987e+000 2.778207e+000 151 35 42
3.920784e-001 -1.518153e+000 2.777550e+000 141 42 38
3.697259e-001 -1.560783e+000 2.753387e+000 145 27 31
3.697259e-001 -1.560783e+000 2.753387e+000 145 27 31
3.712684e-001 -1.588113e+000 2.758296e+000 68 77 75
4.277529e-001 -1.510826e+000 2.846123e+000 29 43 15
4.180928e-001 -1.680893e+000 2.918644e+000 122 17 27
4.263034e-001 -1.698662e+000 2.940718e+000 25 52 79
4.430056e-001 -1.672390e+000 2.963444e+000 26 60 79
4.430056e-001 -1.672390e+000 2.963444e+000 26 60 79
4.462179e-001 -1.665681e+000 2.968633e+000 29 56 77
4.019918e-001 -1.512038e+000 2.786694e+000 188 135 104
3.692527e-001 -1.573130e+000 2.754749e+000 24 44 31
4.229879e-001 -1.522283e+000 2.847849e+000 29 42 22
3.953907e-001 -1.680393e+000 2.855517e+000 146 115 95
4.991584e-001 -1.697121e+000 3.048069e+000 171 136 100
4.828944e-001 -1.624280e+000 2.977611e+000 165 50 46
4.259714e-001 -1.783929e+000 2.886389e+000 58 35 28
3.896131e-001 -1.518647e+000 2.775052e+000 158 33 39
4.271686e-001 -1.511030e+000 2.841703e+000 70 71 20
4.197844e-001 -1.669329e+000 2.920121e+000 100 34 39
4.227309e-001 -1.670962e+000 2.920194e+000 100 34 39
4.031153e-001 -1.564855e+000 2.824792e+000 150 142 56
4.211743e-001 -1.712390e+000 2.938729e+000 17 58 87
3.815468e-001 -1.596189e+000 2.806644e+000 142 136 110
4.167006e-001 -1.630656e+000 2.888502e+000 138 132 116
4.188100e-001 -1.494590e+000 2.821332e+000 87 107 114
3.833346e-001 -1.483563e+000 2.749647e+000 14 68 104
6.998260e-001 -2.204609e+000 2.688624e+000 20 15 20
4.117658e-001 -1.707477e+000 2.977885e+000 149 114 84
4.117658e-001 -1.707477e+000 2.977885e+000 149 114 84
3.861561e-001 -1.521430e+000 2.768953e+000 127 34 30
3.861561e-001 -1.521430e+000 2.768953e+000 127 34 30
4.327205e-001 -1.821908e+000 3.001095e+000 140 94 76
4.188390e-001 -1.681399e+000 2.918437e+000 118 20 26
4.359180e-001 -1.869225e+000 2.995368e+000 25 40 62
4.220588e-001 -1.809283e+000 2.966273e+000 38 12 15
4.123965e-001 -1.534078e+000 2.827110e+000 22 47 26
4.589227e-001 -1.740714e+000 3.026787e+000 84 22 25
6.083134e-002 -1.368674e+000 3.291281e+000 56 59 92
4.479524e-001 -1.926832e+000 3.053248e+000 125 85 78
4.524421e-001 -1.927306e+000 3.073853e+000 116 30 39
4.522583e-001 -1.916627e+000 3.076807e+000 107 31 47
1.988509e+000 -2.643983e+000 1.404632e+000 125 102 67
1.739207e+000 -2.728784e+000 1.423610e+000 110 105 114
1.809395e+000 -3.122649e+000 1.363106e+000 69 50 44
1.822732e+000 -3.158219e+000 1.371985e+000 131 81 46
1.863943e+000 -3.020599e+000 1.115380e+000 165 143 119
1.776053e+000 -2.694393e+000 1.414926e+000 91 91 120
1.771777e+000 -3.316301e+000 1.295428e+000 60 44 27
1.771777e+000 -3.316301e+000 1.295428e+000 60 44 27
1.841432e+000 -3.000761e+000 1.510422e+000 110 81 65
1.354527e+000 -3.155618e+000 1.498693e+000 75 62 51
1.333315e+000 -3.109090e+000 1.548300e+000 79 69 63
1.432299e+000 -3.152600e+000 1.546146e+000 96 81 74
1.504508e+000 -3.213682e+000 1.473691e+000 72 59 44
1.399716e+000 -3.114021e+000 1.604666e+000 96 81 71
1.331353e+000 -3.137934e+000 1.626960e+000 99 84 77
1.964597e+000 -2.656510e+000 1.320684e+000 150 114 87
1.898107e+000 -3.035866e+000 1.020718e+000 213 182 153
1.838958e+000 -3.212192e+000 1.443136e+000 50 34 37
1.511133e+000 -3.150911e+000 1.525830e+000 75 61 48
1.551420e+000 -3.126821e+000 1.544917e+000 76 64 51
1.907321e+000 -3.177788e+000 1.545646e+000 29 18 24
1.347205e+000 -3.156431e+000 1.581265e+000 101 84 77
1.372542e+000 -3.168417e+000 1.613564e+000 31 25 27
1.830680e+000 -3.254876e+000 1.583723e+000 29 19 18
1.752795e+000 -2.689507e+000 1.377833e+000 118 112 124
1.749836e+000 -2.718808e+000 1.488784e+000 150 126 98
1.742894e+000 -3.285490e+000 1.353191e+000 174 147 118
1.666367e+000 -3.138550e+000 1.613447e+000 122 101 82
1.666367e+000 -3.138550e+000 1.613447e+000 122 101 82
1.871495e+000 -3.239134e+000 1.621598e+000 64 52 44
1.850914e+000 -3.262897e+000 1.625785e+000 29 19 17
1.859611e+000 -3.258140e+000 1.659079e+000 69 54 51
1.844700e+000 -3.284849e+000 1.654451e+000 30 20 19
1.430330e+000 -3.515426e+000 1.712562e+000 34 26 22
1.430330e+000 -3.515426e+000 1.712562e+000 34 26 22
4.557450e-001 -1.912719e+000 3.078417e+000 161 132 140
2.007656e+000 -2.650180e+000 1.355921e+000 187 166 77
1.723744e+000 -2.737982e+000 1.356977e+000 140 74 58
1.831191e+000 -2.678008e+000 1.445055e+000 134 134 160
1.780950e+000 -3.072447e+000 1.511027e+000 35 21 21
1.861634e+000 -3.127694e+000 1.606054e+000 111 93 79
1.861634e+000 -3.127694e+000 1.606054e+000 111 93 79
1.796631e+000 -3.237536e+000 1.569046e+000 32 20 22
1.558018e+000 -3.231112e+000 1.612088e+000 199 171 131
1.702807e+000 -3.197651e+000 1.692973e+000 77 63 50
1.487291e+000 -3.148424e+000 1.740652e+000 172 151 121
1.641705e+000 -3.185501e+000 1.754510e+000 150 133 103
1.641705e+000 -3.185501e+000 1.754510e+000 150 133 103
1.636092e+000 -3.369181e+000 1.743240e+000 49 37 31
1.407559e+000 -3.526054e+000 1.789763e+000 138 118 91
1.811764e+000 -3.104856e+000 1.444123e+000 154 102 62
1.871373e+000 -3.122447e+000 1.559188e+000 36 24 29
1.867465e+000 -3.180220e+000 1.625839e+000 23 14 17
1.867465e+000 -3.180220e+000 1.625839e+000 23 14 17
1.624254e+000 -3.357974e+000 1.609492e+000 186 165 128
1.481365e+000 -3.289736e+000 1.699906e+000 200 176 138
1.354215e+000 -3.395139e+000 1.913155e+000 165 145 118
1.416566e+000 -3.374234e+000 1.950446e+000 170 150 117
1.878468e+000 -2.670162e+000 1.397120e+000 117 106 111
1.666356e+000 -2.706055e+000 1.447273e+000 179 156 125
1.435113e+000 -3.142459e+000 1.605991e+000 99 82 72
1.435113e+000 -3.142459e+000 1.605991e+000 99 82 72
1.719418e+000 -3.373929e+000 1.503714e+000 195 169 132
1.852223e+000 -3.204537e+000 1.664957e+000 63 50 44
1.594149e+000 -3.426005e+000 1.694898e+000 187 168 128
1.404645e+000 -3.414041e+000 1.789924e+000 168 147 118
1.615113e+000 -3.293490e+000 1.721488e+000 171 150 116
1.454845e+000 -3.345355e+000 1.877603e+000 161 145 112
1.384899e+000 -3.144404e+000 1.532299e+000 31 22 27
1.401143e+000 -3.334818e+000 1.666250e+000 201 176 136
1.767822e+000 -3.235983e+000 1.837335e+000 177 159 123
1.438440e+000 -3.353086e+000 1.777370e+000 31 25 27
1.438440e+000 -3.353086e+000 1.777370e+000 31 25 27
4.521163e-001 -1.924119e+000 3.063135e+000 141 75 73
2.173067e+000 -2.671279e+000 1.308751e+000 173 145 55
2.162377e+000 -2.678032e+000 1.284703e+000 100 78 37
2.188192e+000 -2.710065e+000 1.290181e+000 157 131 47
2.188671e+000 -2.540552e+000 1.351395e+000 35 23 23
2.181530e+000 -2.752075e+000 1.338577e+000 100 83 50
2.124353e+000 -2.570606e+000 1.345509e+000 194 161 108
4.080665e-001 -1.416540e+000 2.657227e+000 175 49 53
3.837532e-001 -1.530875e+000 2.769342e+000 199 118 100
4.323655e-001 -1.665777e+000 2.736699e+000 45 47 28
4.352107e-001 -1.651932e+000 2.934237e+000 191 118 97
4.515480e-001 -1.792963e+000 2.861889e+000 130 81 62
4.398752e-001 -1.793877e+000 2.875702e+000 81 59 40
4.260213e-001 -1.699134e+000 2.941138e+000 22 52 69
4.315013e-001 -1.696140e+000 2.945791e+000 105 133 135
4.451838e-001 -1.672961e+000 2.963209e+000 32 57 73
4.451838e-001 -1.672961e+000 2.963209e+000 32 57 73
6.489307e-001 -1.760298e+000 3.203971e+000 53 43 42
4.437264e-001 -1.895688e+000 3.023586e+000 86 45 25
4.404500e-001 -1.892322e+000 3.027483e+000 85 43 29
4.409777e-001 -1.916725e+000 3.052238e+000 119 78 62
4.478364e-001 -1.914836e+000 3.063395e+000 79 30 23
4.481291e-001 -1.924326e+000 3.060655e+000 154 115 97
4.489460e-001 -1.930247e+000 3.061464e+000 148 114 102
4.561737e-001 -1.603611e+000 2.943173e+000 168 124 113
4.561737e-001 -1.603611e+000 2.943173e+000 168 124 113
4.173069e-001 -1.680566e+000 2.915316e+000 170 112 100
4.262417e-001 -1.663927e+000 2.923437e+000 174 133 100
7.260432e-001 -1.774971e+000 3.162835e+000 129 115 104
4.957132e-001 -1.768776e+000 3.094134e+000 127 85 37
5.142425e-001 -1.770225e+000 3.112684e+000 119 59 39
4.508218e-001 -1.920501e+000 3.021164e+000 116 65 28
5.243273e-001 -1.805523e+000 3.146622e+000 64 35 21
4.544975e-001 -1.907642e+000 3.074529e+000 131 89 66
4.490916e-001 -1.934970e+000 3.066655e+000 158 122 108
4.491864e-001 -1.934823e+000 3.066383e+000 158 122 108
3.946370e-001 -1.512050e+000 2.779208e+000 142 31 32
3.777936e-001 -1.540395e+000 2.763067e+000 142 35 45
3.671652e-001 -1.565996e+000 2.752413e+000 52 71 85
4.231215e-001 -1.806744e+000 2.940022e+000 74 47 28
7.407234e-001 -1.778023e+000 3.158668e+000 134 120 109
7.368677e-001 -1.784235e+000 3.168773e+000 51 43 41
7.225464e-001 -1.775325e+000 3.170771e+000 140 126 113
7.070312e-001 -1.772396e+000 3.181799e+000 136 119 110
4.352464e-001 -1.827022e+000 3.002149e+000 137 97 77
6.822994e-001 -1.770584e+000 3.192439e+000 55 46 41
4.487979e-001 -1.916690e+000 3.015068e+000 65 28 12
4.869517e-001 -1.795932e+000 3.119461e+000 154 119 74
5.219467e-001 -1.799373e+000 3.141364e+000 70 37 26
4.617957e-001 -1.941216e+000 3.022518e+000 41 35 28
4.569565e-001 -1.491002e+000 2.629415e+000 136 35 46
4.817276e-001 -1.415436e+000 2.715662e+000 203 173 139
3.877673e-001 -1.531028e+000 2.779435e+000 147 30 38
3.942169e-001 -1.590353e+000 2.822381e+000 22 50 23
4.295652e-001 -1.692533e+000 2.946004e+000 100 131 138
4.392860e-001 -1.678891e+000 2.958187e+000 71 96 105
4.247141e-001 -1.782546e+000 2.885545e+000 54 27 22
4.238455e-001 -1.782197e+000 2.885613e+000 54 27 22
4.629561e-001 -1.747820e+000 3.035164e+000 146 110 81
4.198820e-001 -1.825920e+000 2.974898e+000 121 88 57
4.376305e-001 -1.836698e+000 3.011314e+000 43 16 31
5.033756e-001 -1.765707e+000 3.102205e+000 113 63 28
5.022262e-001 -1.775130e+000 3.098836e+000 123 78 37
4.921805e-001 -1.782045e+000 3.099056e+000 87 44 25
6.454263e-001 -1.762655e+000 3.211907e+000 47 38 40
4.484158e-001 -1.933879e+000 3.040732e+000 75 39 22
2.489765e+000 -3.077198e+000 2.129500e+000 159 139 112
4.243660e-001 -1.832996e+000 2.960523e+000 90 58 33
3.988356e-001 -1.509016e+000 2.782817e+000 162 111 88
3.897935e-001 -1.557946e+000 2.797694e+000 140 136 64
3.831187e-001 -1.618401e+000 2.815928e+000 23 44 26
3.831187e-001 -1.618401e+000 2.815928e+000 23 44 26
4.531552e-001 -1.596939e+000 2.930433e+000 174 129 106
4.208794e-001 -1.647683e+000 2.902203e+000 136 130 113
4.385461e-001 -1.627452e+000 2.922456e+000 136 130 108
4.441563e-001 -1.887320e+000 3.053140e+000 144 79 37
4.520743e-001 -1.920522e+000 3.072171e+000 109 33 40
4.573357e-001 -1.913796e+000 3.078588e+000 153 121 106
2.496495e+000 -2.967071e+000 2.048721e+000 189 163 126
4.389153e-001 -1.541542e+000 2.884306e+000 97 112 107
4.539135e-001 -1.721058e+000 2.779663e+000 93 45 40
4.580716e-001 -1.691138e+000 2.991255e+000 133 30 34
4.387725e-001 -1.869679e+000 2.974001e+000 45 15 13
5.312730e-001 -1.765491e+000 3.106357e+000 164 129 96
2.435579e+000 -3.002820e+000 2.113034e+000 28 23 19
4.266377e-001 -1.817696e+000 2.956613e+000 114 78 52
4.383417e-001 -1.873022e+000 3.007239e+000 12 43 80
5.280331e-001 -1.836709e+000 3.168222e+000 158 122 90
5.280331e-001 -1.836709e+000 3.168222e+000 158 122 90
4.539957e-001 -1.934571e+000 3.058585e+000 144 119 100
4.449829e-001 -1.497517e+000 2.634100e+000 192 168 130
5.289103e-001 -1.794533e+000 3.131584e+000 158 123 75
4.402544e-001 -1.877530e+000 3.028028e+000 126 98 74
4.523049e-001 -1.927681e+000 3.029785e+000 111 65 29
5.342250e-001 -1.838338e+000 3.153147e+000 151 117 89
5.342250e-001 -1.838338e+000 3.153147e+000 151 117 89
5.372197e-001 -1.882424e+000 3.171900e+000 35 25 33
4.517966e-001 -1.934515e+000 3.063994e+000 107 61 54
4.839960e-001 -1.661635e+000 3.007924e+000 147 43 40
6.980211e-001 -1.770806e+000 3.174306e+000 54 43 41
2.188552e+000 -2.690565e+000 1.771149e+000 72 58 57
4.736208e-001 -1.705612e+000 3.026845e+000 18 61 100
4.997202e-001 -1.771596e+000 3.095413e+000 134 83 39
6.815908e-001 -1.764778e+000 3.189020e+000 144 124 115
4.191857e-001 -1.690672e+000 2.921814e+000 115 26 30
7.107861e-001 -1.772840e+000 3.162608e+000 53 43 41
4.503014e-001 -1.891218e+000 3.063203e+000 150 76 37
2.212849e+000 -2.718870e+000 1.887443e+000 143 125 111
5.018629e-001 -1.774114e+000 3.097548e+000 132 80 40
2.184019e+000 -2.621348e+000 1.756623e+000 72 58 49
3.729766e-001 -1.574553e+000 2.769521e+000 67 95 94
4.527085e-001 -1.935230e+000 3.074448e+000 159 119 103
2.188513e+000 -2.632375e+000 1.803187e+000 89 76 68
2.188513e+000 -2.632375e+000 1.803187e+000 89 76 68
2.134511e+000 -2.773738e+000 2.032643e+000 195 177 139
2.371536e+000 -2.711222e+000 1.865662e+000 176 154 116
2.365959e+000 -3.043225e+000 1.710240e+000 158 138 111
2.206415e+000 -2.772439e+000 1.930285e+000 191 171 134
2.345981e+000 -2.758079e+000 1.962183e+000 204 182 141
2.178984e+000 -2.570231e+000 1.733926e+000 168 145 113
2.205777e+000 -2.753411e+000 2.004689e+000 28 22 24
2.296989e+000 -2.844455e+000 2.048051e+000 32 23 26
4.406683e-001 -1.854907e+000 3.025324e+000 13 53 87
3.927808e-001 -1.677229e+000 2.848411e+000 94 63 56
4.172079e-001 -1.683087e+000 2.916150e+000 208 114 102
4.404602e-001 -1.865657e+000 3.029854e+000 101 23 29
4.973314e-001 -1.791505e+000 3.110429e+000 90 35 46
4.504444e-001 -1.916704e+000 3.068156e+000 105 43 45
4.035617e-001 -1.736669e+000 2.889992e+000 103 77 50
8.566832e-001 -1.790180e+000 3.052274e+000 117 104 95
4.354300e-001 -1.534239e+000 2.872113e+000 130 130 21
4.795630e-001 -1.885445e+000 3.110372e+000 129 86 70
4.102627e-001 -1.728494e+000 2.921249e+000 20 52 91
4.441373e-001 -1.902346e+000 3.018621e+000 75 29 23
4.688292e-001 -1.756572e+000 3.050907e+000 153 115 78
4.462899e-001 -1.594838e+000 2.925324e+000 122 70 61
3.812994e-001 -1.527484e+000 2.763326e+000 132 50 51
4.388926e-001 -1.662381e+000 2.731547e+000 103 106 51
4.280285e-001 -1.662583e+000 2.744193e+000 37 36 7
4.280285e-001 -1.662583e+000 2.744193e+000 37 36 7
4.082261e-001 -1.654920e+000 2.759604e+000 78 74 51
4.082261e-001 -1.654920e+000 2.759604e+000 78 74 51
4.326724e-001 -1.764482e+000 2.853052e+000 74 35 25
4.396140e-001 -1.783409e+000 2.867147e+000 135 84 57
4.219765e-001 -1.622931e+000 2.706381e+000 38 39 14
4.186915e-001 -1.644894e+000 2.734440e+000 87 97 60
4.160736e-001 -1.657233e+000 2.753000e+000 40 38 25
4.152984e-001 -1.657950e+000 2.753688e+000 40 38 25
4.559106e-001 -1.548588e+000 2.912777e+000 90 103 104
3.844581e-001 -1.521771e+000 2.762348e+000 169 37 45
3.966086e-001 -1.671048e+000 2.864624e+000 167 143 130
4.359280e-001 -1.661184e+000 2.941426e+000 145 26 38
4.379833e-001 -1.661809e+000 2.941888e+000 145 26 38
4.889555e-001 -1.647251e+000 3.004670e+000 171 53 49
4.729589e-001 -1.702994e+000 3.029432e+000 93 145 195
4.301303e-001 -1.651034e+000 2.727200e+000 85 94 41
3.935460e-001 -1.590601e+000 2.822777e+000 24 64 29
4.374233e-001 -1.771212e+000 2.857489e+000 128 82 66
4.396786e-001 -1.771717e+000 2.857240e+000 128 82 66
4.885166e-001 -1.704884e+000 3.046049e+000 28 83 134
4.659192e-001 -1.737673e+000 3.034704e+000 166 65 53
4.667110e-001 -1.738268e+000 3.035210e+000 166 65 53
4.345948e-001 -1.836086e+000 3.005009e+000 142 110 99
4.223406e-001 -1.642143e+000 2.729217e+000 33 41 19
4.417791e-001 -1.714243e+000 2.784995e+000 96 30 24
4.625783e-001 -1.618196e+000 2.960354e+000 160 26 35
4.625783e-001 -1.618196e+000 2.960354e+000 160 26 35
4.178491e-001 -1.733393e+000 2.936216e+000 149 75 52
4.123467e-001 -1.505746e+000 2.807739e+000 85 119 126
4.232046e-001 -1.549300e+000 2.840565e+000 26 62 34
3.810086e-001 -1.610037e+000 2.799882e+000 148 143 87
4.222000e-001 -1.620506e+000 2.886719e+000 175 35 36
4.938107e-001 -1.805254e+000 2.838373e+000 114 63 44
4.347409e-001 -1.764004e+000 2.848551e+000 92 27 23
4.524599e-001 -1.672886e+000 2.977726e+000 39 27 52
4.372906e-001 -1.785889e+000 2.870944e+000 123 89 61
3.894841e-001 -1.580604e+000 2.812411e+000 25 60 36
4.472880e-001 -1.761098e+000 2.838813e+000 121 101 76
4.265228e-001 -1.773221e+000 2.864285e+000 89 29 21
3.982600e-001 -1.743729e+000 2.914776e+000 146 118 87
4.547575e-001 -1.884286e+000 2.965852e+000 111 79 54
4.808988e-001 -1.782350e+000 2.826072e+000 110 53 40
3.906492e-001 -1.634181e+000 2.757946e+000 104 103 90
4.229732e-001 -1.597677e+000 2.883887e+000 160 159 155
3.967453e-001 -1.677083e+000 2.857773e+000 165 127 121
4.810656e-001 -1.820223e+000 2.871458e+000 121 90 61
4.692122e-001 -1.786080e+000 2.845134e+000 116 56 40
4.755651e-001 -1.739277e+000 3.042204e+000 85 19 19
3.885225e-001 -1.542908e+000 2.755986e+000 180 123 109
4.208048e-001 -1.523427e+000 2.828219e+000 69 96 40
3.951514e-001 -1.623074e+000 2.858821e+000 156 155 151
4.807769e-001 -1.691955e+000 3.017997e+000 149 33 36
4.807769e-001 -1.691955e+000 3.017997e+000 149 33 36
4.043737e-001 -1.502409e+000 2.747067e+000 14 86 144
5.093525e-002 -1.377787e+000 3.283387e+000 53 56 87
4.542406e-001 -1.958526e+000 3.056337e+000 85 37 25
4.553068e-001 -1.937736e+000 3.037820e+000 112 67 44
5.924492e-001 -1.745711e+000 3.242774e+000 142 121 116
4.497273e-001 -1.943611e+000 3.052424e+000 127 71 38
4.790299e-001 -1.886101e+000 3.116991e+000 86 27 28
4.415032e-001 -1.900891e+000 3.024388e+000 125 70 31
4.508204e-001 -1.950718e+000 3.051619e+000 78 34 24
4.513269e-001 -1.945625e+000 3.073625e+000 133 78 49
6.247475e-001 -1.752436e+000 3.226541e+000 144 127 120
4.468638e-001 -1.919974e+000 3.058679e+000 150 119 101
4.468638e-001 -1.919974e+000 3.058679e+000 150 119 101
4.412119e-001 -1.899413e+000 3.018536e+000 76 35 17
4.535994e-001 -1.961180e+000 3.066731e+000 154 88 36
4.535015e-001 -1.961126e+000 3.066593e+000 154 88 36
5.032356e-001 -1.797447e+000 3.115073e+000 51 15 25
6.470017e-001 -2.084898e+000 2.744706e+000 34 29 36
4.562926e-001 -1.927384e+000 3.079593e+000 145 97 87
4.734508e-001 -1.416858e+000 2.718035e+000 239 203 183
4.304001e-001 -1.595696e+000 2.665825e+000 95 44 30
3.844933e-001 -1.521129e+000 2.768791e+000 145 45 45
3.844933e-001 -1.521129e+000 2.768791e+000 145 45 45
3.829911e-001 -1.527293e+000 2.768287e+000 132 51 53
3.748854e-001 -1.539121e+000 2.762024e+000 138 43 47
3.748854e-001 -1.539121e+000 2.762024e+000 138 43 47
3.998434e-001 -1.511749e+000 2.787615e+000 205 143 126
3.998434e-001 -1.511749e+000 2.787615e+000 205 143 126
4.359031e-001 -1.662582e+000 2.732250e+000 103 106 51
4.599211e-001 -1.603725e+000 2.943950e+000 190 153 148
4.599211e-001 -1.603725e+000 2.943950e+000 190 153 148
4.457438e-001 -1.741145e+000 2.815894e+000 111 64 44
4.457438e-001 -1.741145e+000 2.815894e+000 111 64 44
4.109685e-001 -1.664834e+000 2.891583e+000 160 157 149
4.109685e-001 -1.664834e+000 2.891583e+000 160 157 149
4.574808e-001 -1.770265e+000 2.833359e+000 127 88 63
4.308996e-001 -1.670309e+000 2.929146e+000 206 151 130
4.263521e-001 -1.669285e+000 2.928291e+000 206 151 130
4.320063e-001 -1.662770e+000 2.934615e+000 212 143 131
4.614151e-001 -1.784346e+000 2.838362e+000 109 57 36
4.378104e-001 -1.769348e+000 2.853110e+000 136 74 61
4.231733e-001 -1.681518e+000 2.928950e+000 134 27 33
4.602856e-001 -1.791142e+000 2.850214e+000 89 31 19
4.925238e-001 -1.662377e+000 3.011180e+000 161 53 50
4.555944e-001 -1.800516e+000 2.863965e+000 86 60 37
4.555944e-001 -1.800516e+000 2.863965e+000 86 60 37
4.806179e-001 -1.833118e+000 2.878371e+000 100 66 41
4.301655e-001 -1.848817e+000 2.995689e+000 23 12 35
4.301093e-001 -1.856860e+000 2.997232e+000 13 19 34
4.301093e-001 -1.856860e+000 2.997232e+000 13 19 34
4.470267e-001 -1.897512e+000 3.012827e+000 91 46 30
4.735272e-001 -1.493895e+000 2.628301e+000 196 152 105
4.727576e-001 -1.421369e+000 2.719640e+000 40 28 21
3.660782e-001 -1.540757e+000 2.743042e+000 161 33 43
3.938065e-001 -1.511527e+000 2.778679e+000 149 37 44
3.938065e-001 -1.511527e+000 2.778679e+000 149 37 44
3.940657e-001 -1.524700e+000 2.781952e+000 217 154 142
3.946119e-001 -1.514604e+000 2.781338e+000 153 37 45
3.685218e-001 -1.563185e+000 2.753198e+000 142 142 136
3.733341e-001 -1.575317e+000 2.765583e+000 123 134 31
3.725898e-001 -1.575209e+000 2.765562e+000 123 134 31
4.186621e-001 -1.644980e+000 2.734513e+000 87 97 60
4.384899e-001 -1.727265e+000 2.809352e+000 114 67 49
4.061186e-001 -1.671202e+000 2.885034e+000 157 148 128
4.458038e-001 -1.768932e+000 2.843766e+000 87 39 23
4.435686e-001 -1.785233e+000 2.863638e+000 79 28 20
4.141464e-001 -1.724049e+000 2.937471e+000 155 67 56
4.723240e-001 -1.830550e+000 2.884655e+000 94 63 42
4.242323e-001 -1.806172e+000 2.940602e+000 83 55 31
4.232342e-001 -1.817449e+000 2.944641e+000 36 14 9
4.671177e-001 -1.869555e+000 2.933946e+000 91 63 42
4.313992e-001 -1.839584e+000 2.962256e+000 93 62 31
4.343580e-001 -1.848572e+000 2.999488e+000 24 22 36
4.416585e-001 -1.850738e+000 3.032164e+000 27 54 88
4.378792e-001 -1.897309e+000 3.013497e+000 115 60 37
4.562150e-001 -1.927872e+000 3.022667e+000 83 42 19
4.494212e-001 -1.916800e+000 3.060279e+000 159 122 117
3.971095e-001 -1.505368e+000 2.777691e+000 168 36 43
4.100571e-001 -1.507130e+000 2.803204e+000 167 37 40
4.434035e-001 -1.631054e+000 2.692630e+000 36 38 15
3.935059e-001 -1.679580e+000 2.855381e+000 162 127 123
4.589361e-001 -1.774326e+000 2.833412e+000 76 33 25
4.589361e-001 -1.774326e+000 2.833412e+000 76 33 25
4.222165e-001 -1.683967e+000 2.926722e+000 208 79 85
1.019253e+000 -1.677294e+000 3.195343e+000 113 103 82
4.880643e-001 -1.663330e+000 3.013320e+000 188 76 70
4.880643e-001 -1.663330e+000 3.013320e+000 188 76 70
4.590739e-001 -1.836329e+000 2.897305e+000 98 66 45
5.003442e-001 -1.697100e+000 3.042954e+000 36 80 118
7.025109e-001 -1.771655e+000 3.196219e+000 143 127 103
4.320491e-001 -1.863954e+000 3.025964e+000 142 106 91
4.477454e-001 -1.909726e+000 3.016264e+000 113 57 32
3.734261e-001 -1.533200e+000 2.751942e+000 167 32 41
3.744474e-001 -1.528007e+000 2.756752e+000 166 36 44
3.780393e-001 -1.528231e+000 2.756711e+000 166 36 44
4.006708e-001 -1.501140e+000 2.782294e+000 170 34 41
4.339505e-001 -1.646874e+000 2.717100e+000 35 39 16
4.333236e-001 -1.646764e+000 2.717136e+000 35 39 16
5.091077e-001 -1.697592e+000 3.050292e+000 166 144 112
4.943571e-001 -1.762232e+000 3.098726e+000 129 80 40
5.297056e-001 -1.772854e+000 3.116835e+000 136 81 54
4.301742e-001 -1.832917e+000 3.009698e+000 32 19 21
6.152944e-001 -1.756255e+000 3.227345e+000 52 43 36
4.660662e-001 -1.930018e+000 3.012391e+000 103 63 34
4.655883e-001 -1.936469e+000 3.015964e+000 26 36 24
4.523048e-001 -1.918586e+000 3.016460e+000 65 28 18
4.502253e-001 -1.917389e+000 3.016342e+000 65 28 18
4.204355e-001 -1.641705e+000 2.729064e+000 33 41 19
4.227387e-001 -1.706798e+000 2.798052e+000 96 29 26
4.210314e-001 -1.648873e+000 2.903025e+000 156 157 149
4.308562e-001 -1.633740e+000 2.922112e+000 172 33 40
4.567240e-001 -1.607446e+000 2.941401e+000 173 127 127
4.278124e-001 -1.697752e+000 2.949772e+000 16 80 132
5.114473e-001 -1.775568e+000 3.114903e+000 43 25 23
4.460193e-001 -1.894719e+000 2.999914e+000 67 17 20
4.703464e-001 -1.900481e+000 3.108280e+000 110 67 42
3.902011e-001 -1.630311e+000 2.754462e+000 97 100 93
4.060575e-001 -1.668346e+000 2.889540e+000 165 30 36
4.129001e-001 -1.716141e+000 2.911933e+000 11 74 125
5.079080e-001 -1.965109e+000 3.010902e+000 65 67 46
4.764300e-001 -1.951564e+000 3.027266e+000 28 35 21
4.701204e-001 -1.946063e+000 3.036307e+000 102 64 44
5.253240e-001 -1.837592e+000 3.170556e+000 172 136 114
4.008865e-001 -1.549128e+000 2.817803e+000 20 63 37
5.113903e-001 -1.785990e+000 3.123386e+000 171 138 93
4.571700e-001 -1.913561e+000 3.078123e+000 148 131 123
9.896282e-001 -1.685839e+000 3.177630e+000 255 253 237
4.621585e-001 -1.902266e+000 3.098310e+000 130 79 38
4.396384e-001 -1.855185e+000 3.026500e+000 15 61 114
4.497027e-001 -1.926149e+000 3.029110e+000 112 64 28
3.692558e-001 -1.565929e+000 2.728345e+000 65 90 112
1.042364e+000 -1.713668e+000 3.158327e+000 34 29 26
4.454556e-001 -1.855047e+000 3.021942e+000 12 60 116
4.208091e-001 -1.476079e+000 2.778131e+000 8 87 146
4.149224e-001 -1.711346e+000 2.905996e+000 141 21 31
5.208825e-001 -1.925836e+000 3.155928e+000 34 24 32
3.972987e-001 -1.508618e+000 2.778888e+000 200 135 129
4.385357e-001 -1.769991e+000 2.853947e+000 135 80 67
4.607550e-001 -1.411494e+000 2.806211e+000 45 37 32
4.360035e-001 -1.686697e+000 2.950981e+000 92 123 144
3.946074e-001 -1.571555e+000 2.809726e+000 151 149 127
4.463231e-001 -1.532531e+000 2.882798e+000 20 60 39
4.514294e-001 -1.681437e+000 2.980768e+000 177 126 99
4.717982e-001 -1.728512e+000 3.039184e+000 80 17 28
4.014206e-001 -1.708504e+000 2.883168e+000 120 20 27
3.750986e-001 -1.543724e+000 2.764585e+000 229 133 123
4.120593e-001 -1.507442e+000 2.806909e+000 150 163 172
4.120593e-001 -1.507442e+000 2.806909e+000 150 163 172
4.384647e-001 -1.761966e+000 2.846325e+000 73 32 19
4.397878e-001 -1.769788e+000 2.853093e+000 136 74 61
4.656862e-001 -1.802945e+000 2.856969e+000 130 96 73
4.502056e-001 -1.933228e+000 3.064863e+000 105 62 64
4.502130e-001 -1.933173e+000 3.064807e+000 105 62 64
4.332797e-001 -1.663831e+000 2.938689e+000 137 28 40
4.506261e-001 -1.917530e+000 3.060532e+000 159 122 117
4.224443e-001 -1.684081e+000 2.926824e+000 208 79 85
6.442690e-001 -1.757398e+000 3.215940e+000 147 126 103
4.525710e-001 -1.936662e+000 3.042857e+000 71 30 18
4.315643e-001 -1.605350e+000 2.904204e+000 162 157 159
3.853070e-001 -1.599039e+000 2.806049e+000 153 149 138
3.853070e-001 -1.599039e+000 2.806049e+000 153 149 138
3.859133e-001 -1.592352e+000 2.809052e+000 154 152 140
3.091038e+000 -1.084169e+000 2.432358e+000 207 180 125
5.458722e-001 -1.732433e+000 3.265025e+000 121 106 99
2.950229e+000 -1.173248e+000 2.427936e+000 112 83 61
3.947285e-001 -1.520997e+000 2.785970e+000 244 145 139
4.212011e-001 -1.630570e+000 2.715349e+000 32 37 9
4.087967e-001 -1.654734e+000 2.759479e+000 75 70 50
4.089609e-001 -1.654694e+000 2.759655e+000 75 70 50
4.598374e-001 -1.720792e+000 2.772354e+000 143 79 53
4.477801e-001 -1.716989e+000 2.778407e+000 147 73 61
4.577887e-001 -1.768266e+000 2.825761e+000 135 111 85
4.445305e-001 -1.804077e+000 2.884857e+000 125 89 63
4.736943e-001 -1.840934e+000 2.894076e+000 103 68 46
4.687441e-001 -1.860516e+000 2.922717e+000 90 62 41
4.293128e-001 -1.834261e+000 2.968715e+000 111 79 48
4.359621e-001 -1.817006e+000 3.000326e+000 172 129 112
4.832668e-001 -1.948905e+000 3.012868e+000 59 66 49
4.177130e-001 -1.493588e+000 2.814647e+000 49 108 160
4.148619e-001 -1.533221e+000 2.829806e+000 29 64 30
4.593346e-001 -1.771096e+000 2.829029e+000 86 34 25
4.414229e-001 -1.783961e+000 2.867660e+000 138 94 64
4.364087e-001 -1.684216e+000 2.954861e+000 22 85 150
4.509374e-001 -1.688203e+000 2.981701e+000 122 46 40
4.232565e-001 -1.805955e+000 2.959651e+000 112 61 30
4.367312e-001 -1.837252e+000 3.011212e+000 37 35 59
4.367312e-001 -1.837252e+000 3.011212e+000 37 35 59
4.689935e-001 -1.900835e+000 2.967840e+000 89 53 37
3.697543e-001 -1.543868e+000 2.746097e+000 193 165 166
4.501937e-001 -1.609967e+000 2.943141e+000 178 164 166
4.234920e-001 -1.671751e+000 2.924902e+000 149 24 34
4.269732e-001 -1.665564e+000 2.930890e+000 157 26 36
4.573697e-001 -1.734503e+000 3.023142e+000 110 37 25
4.773554e-001 -1.873187e+000 2.927305e+000 93 62 41
4.294996e-001 -1.838553e+000 2.966061e+000 143 109 67
4.504801e-001 -1.901127e+000 2.995606e+000 116 63 29
4.434503e-001 -1.900355e+000 3.014087e+000 131 68 37
4.529090e-001 -1.937120e+000 3.048491e+000 151 91 39
3.875923e-001 -1.517456e+000 2.766918e+000 180 33 47
3.684388e-001 -1.558347e+000 2.753261e+000 170 38 49
3.695257e-001 -1.558187e+000 2.753274e+000 170 38 49
4.445649e-001 -1.641848e+000 2.702485e+000 32 40 16
4.270861e-001 -1.630788e+000 2.710720e+000 94 94 39
4.302478e-001 -1.651078e+000 2.727348e+000 95 99 54
4.473150e-001 -1.802220e+000 2.880072e+000 127 93 65
4.439467e-001 -1.851179e+000 3.031907e+000 19 84 151
4.460872e-001 -1.904630e+000 3.020531e+000 80 36 15
4.410433e-001 -1.882667e+000 3.044112e+000 115 29 32
4.399551e-001 -1.882288e+000 3.043758e+000 115 29 32
4.103364e-001 -1.578841e+000 2.846771e+000 160 176 115
4.332691e-001 -1.598499e+000 2.903345e+000 184 35 42
4.307414e-001 -1.606021e+000 2.904261e+000 163 165 169
4.310134e-001 -1.606011e+000 2.904260e+000 163 165 169
4.146538e-001 -1.626522e+000 2.884268e+000 159 163 170
4.564379e-001 -1.825186e+000 2.890713e+000 103 68 49
4.431545e-001 -1.854922e+000 3.039698e+000 165 132 113
4.470329e-001 -1.887787e+000 3.053543e+000 176 107 40
4.004126e-001 -1.633435e+000 2.746482e+000 54 74 85
3.941222e-001 -1.571584e+000 2.809629e+000 170 168 162
4.118874e-001 -1.549614e+000 2.830114e+000 169 162 165
3.918891e-001 -1.651276e+000 2.844252e+000 27 64 38
4.422935e-001 -1.608085e+000 2.927099e+000 172 163 168
4.100843e-001 -1.659010e+000 2.891162e+000 159 162 169
4.655675e-001 -1.928876e+000 3.009624e+000 100 62 39
3.701355e-001 -1.545035e+000 2.752202e+000 146 114 109
3.703243e-001 -1.545022e+000 2.752219e+000 146 114 109
3.956421e-001 -1.644703e+000 2.852931e+000 158 161 168
4.668000e-001 -1.661090e+000 2.978805e+000 127 170 236
4.485707e-001 -1.889542e+000 3.016859e+000 146 121 106
4.404788e-001 -1.857241e+000 3.028589e+000 18 80 154
4.401112e-001 -1.877071e+000 3.028857e+000 154 132 118
4.568156e-001 -1.886525e+000 3.078880e+000 150 25 39
4.387815e-001 -1.842390e+000 2.987823e+000 147 125 111
5.865043e-001 -1.942519e+000 2.861720e+000 49 40 31
4.886000e-001 -1.602466e+000 2.645071e+000 102 44 22
4.000656e-001 -1.511014e+000 2.780080e+000 141 50 52
4.000656e-001 -1.511014e+000 2.780080e+000 141 50 52
4.111137e-001 -1.605840e+000 2.680308e+000 29 37 22
4.111137e-001 -1.605840e+000 2.680308e+000 29 37 22
4.657972e-001 -1.642789e+000 2.677071e+000 105 108 50
4.506059e-001 -1.694869e+000 2.755515e+000 61 33 26
4.526862e-001 -1.700844e+000 2.758656e+000 132 100 87
4.574392e-001 -1.773811e+000 2.826706e+000 146 61 55
4.574392e-001 -1.773811e+000 2.826706e+000 146 61 55
4.662105e-001 -1.795094e+000 2.849138e+000 132 46 43
4.493245e-001 -1.499857e+000 2.631937e+000 44 32 22
4.039088e-001 -1.507505e+000 2.788723e+000 160 39 43
3.777562e-001 -1.540164e+000 2.763583e+000 159 46 49
4.378882e-001 -1.629757e+000 2.676235e+000 108 110 44
4.378882e-001 -1.629757e+000 2.676235e+000 108 110 44
4.174036e-001 -1.637399e+000 2.699925e+000 29 36 20
4.014333e-001 -1.646319e+000 2.718472e+000 32 36 16
4.308535e-001 -1.667024e+000 2.717459e+000 113 112 57
4.536069e-001 -1.696906e+000 2.753699e+000 141 105 86
4.654969e-001 -1.706537e+000 2.757311e+000 103 80 64
4.274229e-001 -1.727454e+000 2.799139e+000 109 60 45
4.062292e-001 -1.715872e+000 2.799460e+000 114 65 50
4.630921e-001 -1.792381e+000 2.851299e+000 82 22 17
3.921253e-001 -1.511108e+000 2.772361e+000 167 40 45
4.573383e-001 -1.613695e+000 2.652442e+000 117 42 31
4.228133e-001 -1.627127e+000 2.686241e+000 77 87 33
3.552444e-001 -1.566847e+000 2.748303e+000 52 106 154
4.333136e-001 -1.637873e+000 2.710545e+000 34 38 23
4.706740e-001 -1.664479e+000 2.703230e+000 94 96 47
4.360160e-001 -1.651038e+000 2.721734e+000 85 98 51
4.360160e-001 -1.651038e+000 2.721734e+000 85 98 51
4.627736e-001 -1.672318e+000 2.708435e+000 93 96 42
4.627736e-001 -1.672318e+000 2.708435e+000 93 96 42
4.430951e-001 -1.667118e+000 2.730476e+000 35 39 11
4.391509e-001 -1.662065e+000 2.731440e+000 99 108 54
4.056014e-001 -1.583411e+000 2.830410e+000 31 66 22
4.984050e-001 -1.822872e+000 2.855830e+000 132 95 53
5.200379e-001 -1.881278e+000 2.904320e+000 83 47 25
4.615355e-001 -1.622288e+000 2.657917e+000 44 43 22
4.268427e-001 -1.622433e+000 2.682393e+000 31 39 17
4.303305e-001 -1.634165e+000 2.678785e+000 39 43 16
4.530888e-001 -1.633270e+000 2.691561e+000 35 41 14
4.391337e-001 -1.637624e+000 2.685408e+000 123 118 50
4.374584e-001 -1.628450e+000 2.692900e+000 31 41 14
4.654619e-001 -1.644898e+000 2.692560e+000 38 42 17
4.566765e-001 -1.654605e+000 2.690723e+000 40 44 11
4.582336e-001 -1.659250e+000 2.696951e+000 93 94 49
4.358887e-001 -1.653893e+000 2.696587e+000 41 45 10
4.665897e-001 -1.669164e+000 2.703135e+000 39 42 20
4.487344e-001 -1.659548e+000 2.715189e+000 38 40 22
4.434030e-001 -1.627628e+000 2.925586e+000 156 164 174
4.391628e-001 -1.657650e+000 2.926712e+000 157 24 36
4.623058e-001 -1.780619e+000 2.835924e+000 143 80 62
4.399349e-001 -1.784888e+000 2.837332e+000 142 78 55
4.993605e-001 -1.842396e+000 2.877164e+000 131 81 47
4.886949e-001 -1.881657e+000 2.919152e+000 124 79 56
4.512485e-001 -1.622073e+000 2.667853e+000 95 94 58
4.345018e-001 -1.613709e+000 2.679126e+000 18 56 74
4.681883e-001 -1.647290e+000 2.680705e+000 42 45 14
4.681883e-001 -1.647290e+000 2.680705e+000 42 45 14
4.545979e-001 -1.648837e+000 2.686081e+000 110 107 52
4.590771e-001 -1.647925e+000 2.699023e+000 110 107 51
4.174478e-001 -1.646934e+000 2.693438e+000 110 107 51
3.892073e-001 -1.558184e+000 2.797288e+000 149 181 103
3.905849e-001 -1.558034e+000 2.797572e+000 149 181 103
4.105136e-001 -1.536236e+000 2.818423e+000 156 178 94
4.105136e-001 -1.536236e+000 2.818423e+000 156 178 94
4.286020e-001 -1.639613e+000 2.717158e+000 81 91 57
4.048597e-001 -1.639599e+000 2.713844e+000 81 91 57
4.240881e-001 -1.642938e+000 2.728779e+000 28 40 17
4.020155e-001 -1.566602e+000 2.825796e+000 169 173 127
4.509094e-001 -1.671609e+000 2.724113e+000 37 44 19
4.324280e-001 -1.670335e+000 2.721527e+000 37 44 19
4.123418e-001 -1.578714e+000 2.847338e+000 155 183 101
4.226436e-001 -1.626913e+000 2.887212e+000 158 168 175
4.426964e-001 -1.772017e+000 2.857894e+000 136 86 69
4.192447e-001 -1.710380e+000 2.937755e+000 16 89 147
4.930266e-001 -1.831277e+000 2.866113e+000 129 97 65
4.053089e-001 -1.615753e+000 2.671140e+000 26 59 68
3.954408e-001 -1.549382e+000 2.796870e+000 29 63 34
4.135736e-001 -1.633271e+000 2.695427e+000 69 80 55
5.105926e-001 -1.672367e+000 2.699836e+000 92 95 65
4.194804e-001 -1.646127e+000 2.706731e+000 69 80 62
4.194804e-001 -1.646127e+000 2.706731e+000 69 80 62
4.443453e-001 -1.662653e+000 2.721316e+000 113 112 56
4.182941e-001 -1.552171e+000 2.848888e+000 166 165 168
4.405070e-001 -1.551036e+000 2.866155e+000 24 66 37
4.414844e-001 -1.540156e+000 2.876172e+000 30 64 35
4.744283e-001 -1.699170e+000 2.742827e+000 104 79 50
4.568158e-001 -1.720865e+000 2.768954e+000 102 51 38
4.457768e-001 -1.714498e+000 2.784690e+000 104 26 24
4.931838e-001 -1.789579e+000 2.817834e+000 145 90 59
4.931838e-001 -1.789579e+000 2.817834e+000 145 90 59
5.077683e-001 -1.801551e+000 2.820212e+000 112 46 29
4.608732e-001 -1.773703e+000 2.831618e+000 89 25 23
4.606167e-001 -1.796395e+000 2.851257e+000 95 21 21
4.772510e-001 -1.808955e+000 2.857566e+000 122 107 86
4.088194e-001 -1.558016e+000 2.834318e+000 23 67 42
4.090996e-001 -1.557980e+000 2.834680e+000 23 67 42
4.025911e-001 -1.570438e+000 2.829545e+000 171 169 170
4.176747e-001 -1.696473e+000 2.749946e+000 123 94 85
4.586883e-001 -1.796051e+000 2.850028e+000 96 20 21
4.287967e-001 -1.780565e+000 2.883360e+000 73 21 18
5.086657e-001 -1.872259e+000 2.895421e+000 90 45 26
4.228425e-001 -1.594524e+000 2.642395e+000 30 58 69
4.445749e-001 -1.536249e+000 2.878194e+000 30 65 29
4.445749e-001 -1.536249e+000 2.878194e+000 30 65 29
4.391065e-001 -1.868978e+000 2.973833e+000 49 12 14
4.277036e-001 -1.567104e+000 2.884779e+000 156 171 41
4.507057e-001 -1.759992e+000 2.835347e+000 121 110 90
4.318694e-001 -1.825037e+000 2.942964e+000 36 14 17
4.020136e-001 -1.525771e+000 2.823336e+000 127 156 61
4.226777e-001 -1.854546e+000 2.941491e+000 116 95 76
2.591605e-001 -1.503279e+000 2.743128e+000 14 92 166
4.099960e-001 -1.709402e+000 2.904746e+000 153 23 31
4.099960e-001 -1.709402e+000 2.904746e+000 153 23 31
3.677466e-001 -1.475192e+000 2.708549e+000 205 194 174
3.677466e-001 -1.475192e+000 2.708549e+000 205 194 174
1.333191e-001 -1.712236e+000 3.369387e+000 19 12 6
1.333191e-001 -1.712236e+000 3.369387e+000 19 12 6
8.501208e-002 -1.509973e+000 3.235799e+000 27 24 31
8.459232e-002 -1.520395e+000 3.235724e+000 199 167 118
5.174690e-001 -1.994798e+000 3.029085e+000 27 18 23
5.493983e-001 -1.733689e+000 3.266204e+000 129 108 77
5.007323e-001 -1.952484e+000 2.996848e+000 51 53 29
4.971416e-001 -1.960080e+000 3.011823e+000 57 59 43
4.196726e-001 -1.904199e+000 3.149283e+000 56 44 46
6.480601e-001 -1.648482e+000 3.311436e+000 159 137 98
5.429296e-001 -1.739278e+000 3.254089e+000 52 40 31
4.095606e-001 -1.743355e+000 2.914244e+000 160 133 104
2.779577e+000 -7.857231e-001 2.866961e+000 129 91 42
4.190678e-001 -1.781159e+000 2.944904e+000 139 101 52
5.921458e-001 -1.751305e+000 3.234733e+000 53 42 36
2.839526e+000 -7.597237e-001 2.892937e+000 131 88 43
4.728845e-001 -1.600038e+000 2.652226e+000 110 40 26
4.309574e-001 -1.596134e+000 2.670360e+000 109 93 86
4.488710e-001 -1.628883e+000 2.689205e+000 95 105 47
4.708862e-001 -1.659063e+000 2.707683e+000 101 104 49
4.310592e-001 -1.647266e+000 2.724143e+000 34 38 13
4.454801e-001 -1.665585e+000 2.729000e+000 35 37 13
4.312393e-001 -1.662329e+000 2.740258e+000 101 114 45
4.312393e-001 -1.662329e+000 2.740258e+000 101 114 45
4.504229e-001 -1.691582e+000 2.752940e+000 42 27 16
4.497838e-001 -1.691458e+000 2.752701e+000 42 27 16
4.910975e-001 -1.726952e+000 2.759909e+000 86 42 26
4.576112e-001 -1.728147e+000 2.787793e+000 111 63 49
4.542770e-001 -1.745527e+000 2.804260e+000 111 62 44
4.574985e-001 -1.745616e+000 2.805324e+000 111 62 44
4.394002e-001 -1.739476e+000 2.817222e+000 108 62 46
4.394002e-001 -1.739476e+000 2.817222e+000 108 62 46
4.698530e-001 -1.773559e+000 2.826090e+000 85 25 21
4.636674e-001 -1.799094e+000 2.859075e+000 56 21 6
5.118692e-001 -1.757180e+000 3.062242e+000 151 43 40
4.969318e-001 -1.752418e+000 3.070912e+000 162 77 58
4.340663e-001 -1.825790e+000 3.002475e+000 173 135 126
5.493162e-001 -1.737730e+000 3.258432e+000 148 131 104
5.393056e-001 -1.960134e+000 2.976719e+000 66 76 48
5.349908e-001 -1.960053e+000 2.980790e+000 65 76 47
4.407922e-001 -1.856975e+000 3.033594e+000 98 37 48
4.905125e-001 -1.951674e+000 3.007428e+000 73 88 59
4.905125e-001 -1.951674e+000 3.007428e+000 73 88 59
4.900419e-001 -1.954970e+000 3.011108e+000 29 36 21
5.209851e-001 -1.976817e+000 3.014185e+000 75 44 27
4.599306e-001 -1.967065e+000 3.057057e+000 137 65 43
4.389213e-001 -1.637108e+000 2.702829e+000 29 36 20
3.754277e-001 -1.587933e+000 2.758552e+000 75 105 139
4.547144e-001 -1.706692e+000 2.762415e+000 126 107 91
4.522708e-001 -1.726689e+000 2.790802e+000 109 60 46
4.527170e-001 -1.726635e+000 2.790842e+000 109 60 46
4.438641e-001 -1.723882e+000 2.794099e+000 114 63 49
4.333315e-001 -1.726636e+000 2.807550e+000 116 67 52
3.978897e-001 -1.673250e+000 2.863428e+000 187 154 160
4.633668e-001 -1.792426e+000 2.851544e+000 82 22 17
4.594085e-001 -1.802572e+000 2.866006e+000 63 36 19
