ply
format ascii 1.0
element face 0
property list uchar int vertex_indices
element vertex 896
property float x
property float y
property float z
property uchar diffuse_red
property uchar diffuse_green
property uchar diffuse_blue
end_header
4.900476e-001 -1.421103e+000 2.900929e+000 121 33 29
5.169799e-001 -1.427060e+000 2.886481e+000 233 159 127
5.223880e-001 -1.426703e+000 2.881860e+000 232 148 118
5.222741e-001 -1.426897e+000 2.881857e+000 232 148 118
5.463519e-001 -1.440252e+000 2.865536e+000 212 159 120
5.580387e-001 -1.448448e+000 2.856586e+000 132 36 35
5.601756e-001 -1.448778e+000 2.851965e+000 144 36 34
5.624820e-001 -1.453067e+000 2.851805e+000 118 44 34
5.631150e-001 -1.452120e+000 2.851829e+000 118 44 34
5.665939e-001 -1.453379e+000 2.847034e+000 217 152 120
4.604367e-001 -1.431048e+000 2.927814e+000 30 91 139
5.176476e-001 -1.429246e+000 2.888510e+000 221 152 119
5.025325e-001 -1.448097e+000 2.899432e+000 1 36 70
5.303057e-001 -1.432265e+000 2.882170e+000 218 154 123
5.409524e-001 -1.439156e+000 2.873094e+000 233 148 112
5.468997e-001 -1.442757e+000 2.867842e+000 211 148 110
5.567179e-001 -1.449724e+000 2.858930e+000 237 147 122
5.808833e-001 -1.475033e+000 2.846830e+000 25 76 103
4.795098e-001 -1.450159e+000 2.941472e+000 104 63 52
5.232561e-001 -1.451832e+000 2.909067e+000 9 88 131
5.750751e-001 -1.487899e+000 2.877205e+000 195 121 102
5.720666e-001 -1.496571e+000 2.897810e+000 204 129 94
4.696164e-001 -1.481076e+000 2.981471e+000 211 102 99
4.795462e-001 -1.475716e+000 2.971703e+000 191 132 116
5.062228e-001 -1.491890e+000 2.975299e+000 115 80 62
5.062228e-001 -1.491890e+000 2.975299e+000 115 80 62
4.883566e-001 -1.497479e+000 2.989785e+000 106 60 47
5.406739e-001 -1.523376e+000 2.979205e+000 192 129 101
5.407082e-001 -1.523317e+000 2.979169e+000 192 129 101
5.011754e-001 -1.534420e+000 3.021029e+000 226 97 101
5.218737e-001 -1.536267e+000 3.011560e+000 159 30 37
5.168349e-001 -1.541842e+000 3.016532e+000 154 32 37
5.233117e-001 -1.537876e+000 3.010447e+000 236 74 82
5.082584e-001 -1.547539e+000 3.032342e+000 230 67 78
5.441280e-001 -1.545040e+000 3.000310e+000 227 66 74
5.441280e-001 -1.545040e+000 3.000310e+000 227 66 74
5.422505e-001 -1.551121e+000 3.008586e+000 143 32 34
5.421225e-001 -1.551338e+000 3.008609e+000 143 32 34
5.772780e-001 -1.562272e+000 2.979326e+000 152 34 40
5.845261e-001 -1.570503e+000 2.974341e+000 231 76 75
5.559729e-001 -1.568516e+000 3.014470e+000 159 28 35
5.693891e-001 -1.576245e+000 3.003887e+000 221 73 75
5.901206e-001 -1.576072e+000 2.977603e+000 165 30 36
5.529638e-001 -1.569906e+000 3.018431e+000 157 32 36
5.533162e-001 -1.569276e+000 3.018355e+000 157 32 36
5.651840e-001 -1.574263e+000 3.010222e+000 148 34 36
5.370949e-001 -1.583537e+000 3.048412e+000 113 72 56
5.533159e-001 -1.588459e+000 3.039111e+000 193 130 111
5.377361e-001 -1.603376e+000 3.066796e+000 101 74 47
5.791157e-001 -1.612516e+000 3.037033e+000 137 79 33
5.800332e-001 -1.617012e+000 3.040116e+000 235 140 74
5.800332e-001 -1.617012e+000 3.040116e+000 235 140 74
4.605041e-001 -1.300889e+000 2.778976e+000 155 47 39
4.610025e-001 -1.300248e+000 2.779118e+000 155 47 39
4.632745e-001 -1.298029e+000 2.774205e+000 185 37 40
4.946620e-001 -1.309952e+000 2.761620e+000 167 39 45
4.946620e-001 -1.309952e+000 2.761620e+000 167 39 45
5.032920e-001 -1.312613e+000 2.754159e+000 201 142 109
4.932760e-001 -1.314741e+000 2.768232e+000 165 41 37
5.150359e-001 -1.329198e+000 2.761424e+000 21 75 88
5.113669e-001 -1.403636e+000 2.863234e+000 181 151 140
5.203102e-001 -1.407031e+000 2.859387e+000 176 158 138
4.995409e-001 -1.429691e+000 2.905650e+000 10 54 89
5.549964e-001 -1.455768e+000 2.872129e+000 15 70 98
4.757311e-001 -1.460196e+000 2.956103e+000 127 82 76
4.757311e-001 -1.460196e+000 2.956103e+000 127 82 76
5.323586e-001 -1.461834e+000 2.914229e+000 196 124 102
4.965519e-001 -1.481163e+000 2.963794e+000 98 59 42
4.892733e-001 -1.484065e+000 2.974792e+000 108 67 52
4.662309e-001 -1.496803e+000 2.992150e+000 205 92 90
5.387381e-001 -1.530157e+000 2.987504e+000 82 41 25
5.387771e-001 -1.530108e+000 2.987540e+000 82 41 25
4.939897e-001 -1.540329e+000 3.032973e+000 217 67 79
4.941414e-001 -1.535663e+000 3.026094e+000 152 45 51
5.084110e-001 -1.544849e+000 3.025123e+000 151 34 41
5.143298e-001 -1.544542e+000 3.023362e+000 148 37 43
5.403207e-001 -1.546273e+000 3.004971e+000 150 31 40
5.650066e-001 -1.553146e+000 2.989608e+000 146 32 39
5.671391e-001 -1.561937e+000 2.988385e+000 221 70 73
5.780819e-001 -1.566772e+000 2.983111e+000 152 31 34
5.847089e-001 -1.566032e+000 2.972249e+000 150 36 36
5.831035e-001 -1.569358e+000 2.978214e+000 147 35 37
5.872783e-001 -1.567887e+000 2.966126e+000 239 71 74
5.886452e-001 -1.572447e+000 2.970830e+000 201 65 57
5.952593e-001 -1.581330e+000 2.968990e+000 214 74 67
5.959117e-001 -1.580735e+000 2.965448e+000 147 37 42
5.129607e-001 -1.558159e+000 3.041684e+000 219 64 76
5.236165e-001 -1.560350e+000 3.034477e+000 153 38 44
5.622943e-001 -1.560931e+000 2.998515e+000 224 65 70
5.785400e-001 -1.576865e+000 2.983012e+000 213 64 63
5.879313e-001 -1.574344e+000 2.977178e+000 210 75 65
5.954584e-001 -1.580542e+000 2.972163e+000 167 29 39
5.753721e-001 -1.580594e+000 3.004511e+000 239 85 88
5.646556e-001 -1.592949e+000 3.032668e+000 128 82 61
4.963189e-001 -1.308802e+000 2.756721e+000 177 27 39
5.103061e-001 -1.363617e+000 2.818274e+000 154 152 43
5.103061e-001 -1.363617e+000 2.818274e+000 154 152 43
5.355961e-001 -1.379297e+000 2.798343e+000 74 109 97
5.355414e-001 -1.379571e+000 2.798463e+000 74 109 97
5.619136e-001 -1.407950e+000 2.791757e+000 88 87 66
5.620327e-001 -1.407719e+000 2.791796e+000 88 87 66
5.242957e-001 -1.460541e+000 2.920029e+000 78 42 30
5.242269e-001 -1.460624e+000 2.920057e+000 78 42 30
5.356045e-001 -1.481535e+000 2.933291e+000 204 129 110
5.286306e-001 -1.481073e+000 2.940035e+000 173 118 93
5.785295e-001 -1.506429e+000 2.901614e+000 101 55 41
5.779790e-001 -1.507582e+000 2.901735e+000 101 55 41
4.948023e-001 -1.488148e+000 2.980480e+000 137 90 77
4.948023e-001 -1.488148e+000 2.980480e+000 137 90 77
5.025490e-001 -1.491233e+000 2.976705e+000 103 57 39
5.340775e-001 -1.493583e+000 2.949943e+000 200 131 106
5.362485e-001 -1.499946e+000 2.956706e+000 199 132 105
5.828264e-001 -1.527482e+000 2.922535e+000 113 70 47
5.829627e-001 -1.536144e+000 2.930060e+000 106 76 56
5.128222e-001 -1.509013e+000 2.987294e+000 96 59 45
5.128222e-001 -1.509013e+000 2.987294e+000 96 59 45
5.479700e-001 -1.521610e+000 2.968502e+000 92 49 36
5.481168e-001 -1.521414e+000 2.968485e+000 92 49 36
4.821800e-001 -1.530362e+000 3.027599e+000 187 152 125
4.967473e-001 -1.520538e+000 3.007754e+000 119 71 57
5.073939e-001 -1.521041e+000 3.003565e+000 141 92 78
5.382015e-001 -1.521979e+000 2.980905e+000 167 114 96
5.792553e-001 -1.544013e+000 2.949181e+000 163 119 86
5.860951e-001 -1.549113e+000 2.943646e+000 90 59 41
5.881291e-001 -1.554745e+000 2.949982e+000 82 54 38
5.805956e-001 -1.558345e+000 2.965543e+000 198 142 100
4.992627e-001 -1.552699e+000 3.038789e+000 159 34 48
5.368835e-001 -1.543281e+000 3.005975e+000 153 32 36
5.556599e-001 -1.554536e+000 2.998714e+000 216 75 73
5.053778e-001 -1.561437e+000 3.047600e+000 151 36 43
5.785877e-001 -1.579586e+000 2.996499e+000 227 79 80
5.785877e-001 -1.579586e+000 2.996499e+000 227 79 80
6.004573e-001 -1.594035e+000 2.976365e+000 233 69 78
5.219970e-001 -1.572372e+000 3.047827e+000 140 90 77
5.219404e-001 -1.572547e+000 3.047854e+000 140 90 77
5.387257e-001 -1.577248e+000 3.039774e+000 123 66 55
5.211603e-001 -1.575047e+000 3.052947e+000 199 133 108
5.427745e-001 -1.584788e+000 3.045026e+000 100 60 45
5.525453e-001 -1.581440e+000 3.032250e+000 106 63 43
5.526426e-001 -1.581082e+000 3.032190e+000 106 63 43
5.687823e-001 -1.599113e+000 3.036965e+000 189 89 50
5.235183e-001 -1.609333e+000 3.087392e+000 148 118 97
4.860353e-001 -1.314430e+000 2.775027e+000 181 39 45
5.208273e-001 -1.347324e+000 2.778593e+000 158 152 22
4.808188e-001 -1.351597e+000 2.832479e+000 146 148 55
4.808188e-001 -1.351597e+000 2.832479e+000 146 148 55
5.215761e-001 -1.367754e+000 2.806060e+000 160 159 23
5.215761e-001 -1.367754e+000 2.806060e+000 160 159 23
5.054238e-001 -1.404164e+000 2.870132e+000 157 133 123
5.134420e-001 -1.428630e+000 2.894522e+000 165 25 38
5.262012e-001 -1.433096e+000 2.887870e+000 160 29 34
5.264195e-001 -1.440449e+000 2.893198e+000 5 54 83
5.360424e-001 -1.437378e+000 2.880967e+000 169 26 40
5.400005e-001 -1.466925e+000 2.916377e+000 201 130 105
5.422352e-001 -1.472693e+000 2.916923e+000 190 129 100
4.798050e-001 -1.468389e+000 2.958222e+000 200 136 118
4.798050e-001 -1.468389e+000 2.958222e+000 200 136 118
4.836390e-001 -1.474826e+000 2.965003e+000 199 134 116
4.844289e-001 -1.469697e+000 2.956694e+000 198 134 116
4.844289e-001 -1.469697e+000 2.956694e+000 198 134 116
4.898589e-001 -1.468074e+000 2.954765e+000 201 134 118
4.914342e-001 -1.465626e+000 2.954810e+000 201 134 118
5.290706e-001 -1.472729e+000 2.928476e+000 199 134 106
5.697299e-001 -1.495181e+000 2.900310e+000 176 114 90
5.735277e-001 -1.497878e+000 2.891877e+000 203 127 99
5.749439e-001 -1.505077e+000 2.899091e+000 200 131 101
5.306950e-001 -1.487759e+000 2.946795e+000 141 98 77
4.949403e-001 -1.498946e+000 2.982688e+000 199 134 109
5.320479e-001 -1.495424e+000 2.953631e+000 117 68 55
5.339970e-001 -1.501967e+000 2.960424e+000 89 51 37
4.901717e-001 -1.508357e+000 3.003559e+000 140 92 85
4.927462e-001 -1.517881e+000 3.005575e+000 198 136 115
4.936896e-001 -1.516398e+000 3.005427e+000 198 136 115
5.372119e-001 -1.513719e+000 2.969690e+000 197 133 108
5.373202e-001 -1.513306e+000 2.969743e+000 197 133 108
5.370744e-001 -1.517171e+000 2.973734e+000 160 106 87
5.370744e-001 -1.517171e+000 2.973734e+000 160 106 87
5.392467e-001 -1.521633e+000 2.976336e+000 197 133 107
5.834951e-001 -1.543864e+000 2.941440e+000 201 143 106
5.483371e-001 -1.545297e+000 2.994501e+000 162 25 38
5.776220e-001 -1.560503e+000 2.977163e+000 157 32 38
5.251633e-001 -1.574471e+000 3.049782e+000 202 132 107
5.250773e-001 -1.574762e+000 3.049944e+000 202 132 107
5.715732e-001 -1.589385e+000 3.019325e+000 76 36 9
5.339840e-001 -1.349349e+000 2.764469e+000 99 113 36
4.926783e-001 -1.352411e+000 2.814833e+000 137 141 30
5.166112e-001 -1.402908e+000 2.858373e+000 170 160 145
4.904727e-001 -1.417529e+000 2.895042e+000 171 27 42
5.086187e-001 -1.419417e+000 2.887596e+000 172 26 37
5.276790e-001 -1.427298e+000 2.876817e+000 171 30 39
5.524995e-001 -1.442694e+000 2.855339e+000 167 24 38
4.784380e-001 -1.494889e+000 2.989235e+000 207 138 123
4.858445e-001 -1.530787e+000 3.024339e+000 164 28 43
5.349850e-001 -1.541106e+000 3.001706e+000 166 23 35
4.730889e-001 -1.345955e+000 2.823308e+000 118 144 118
4.836063e-001 -1.366222e+000 2.838511e+000 29 59 32
5.378412e-001 -1.410216e+000 2.839623e+000 162 153 137
5.328447e-001 -1.558087e+000 3.021150e+000 174 21 39
5.328447e-001 -1.558087e+000 3.021150e+000 174 21 39
5.801611e-001 -1.577474e+000 2.989041e+000 176 23 37
5.801611e-001 -1.577474e+000 2.989041e+000 176 23 37
4.654416e-001 -1.317628e+000 2.804586e+000 127 141 143
4.678988e-001 -1.331284e+000 2.817316e+000 131 145 134
4.678988e-001 -1.331284e+000 2.817316e+000 131 145 134
5.470666e-001 -1.394357e+000 2.796292e+000 98 123 115
5.470666e-001 -1.394357e+000 2.796292e+000 98 123 115
4.493729e-001 -1.495243e+000 2.989911e+000 192 104 102
5.347613e-001 -1.534943e+000 2.995848e+000 199 132 106
5.544676e-001 -1.569221e+000 3.009065e+000 172 27 34
6.042298e-001 -1.598589e+000 2.978602e+000 177 27 39
5.751009e-001 -1.602813e+000 3.031188e+000 193 144 101
5.184787e-001 -1.364077e+000 2.801410e+000 62 106 117
4.779247e-001 -1.362557e+000 2.842912e+000 25 62 31
4.824524e-001 -1.359269e+000 2.831766e+000 126 146 137
4.853926e-001 -1.371380e+000 2.845532e+000 154 154 144
5.611937e-001 -1.391485e+000 2.768483e+000 52 97 120
5.164812e-001 -1.512318e+000 2.989515e+000 201 131 110
5.206149e-001 -1.496052e+000 2.963486e+000 194 133 105
5.424796e-001 -1.518968e+000 2.969455e+000 125 82 67
4.583019e-001 -1.501687e+000 2.984069e+000 184 102 90
6.084184e-001 -1.622617e+000 2.962620e+000 184 136 64
5.814723e-001 -1.587562e+000 2.980337e+000 163 35 35
4.162545e-001 -1.310079e+000 2.795365e+000 167 166 164
6.034599e-001 -1.548076e+000 2.916069e+000 179 140 97
4.519818e-001 -1.296445e+000 2.778035e+000 159 27 32
4.519818e-001 -1.296445e+000 2.778035e+000 159 27 32
5.120608e-001 -1.312887e+000 2.743329e+000 17 71 97
4.721954e-001 -1.307665e+000 2.776635e+000 203 130 94
4.825718e-001 -1.309658e+000 2.772003e+000 205 131 94
4.824654e-001 -1.309869e+000 2.771923e+000 205 131 94
5.057297e-001 -1.314137e+000 2.754435e+000 137 44 34
5.137677e-001 -1.318370e+000 2.749406e+000 20 72 96
5.130313e-001 -1.323675e+000 2.760363e+000 159 35 34
4.875859e-001 -1.332901e+000 2.793612e+000 64 72 21
5.094141e-001 -1.338431e+000 2.783619e+000 50 75 46
4.760960e-001 -1.354934e+000 2.831264e+000 130 134 32
5.207996e-001 -1.364793e+000 2.803335e+000 80 89 42
5.048991e-001 -1.397159e+000 2.861148e+000 191 106 87
5.345441e-001 -1.406456e+000 2.837828e+000 70 35 22
5.345441e-001 -1.406456e+000 2.837828e+000 70 35 22
5.123251e-001 -1.402523e+000 2.860746e+000 77 21 14
5.206591e-001 -1.404679e+000 2.856673e+000 76 12 7
5.206591e-001 -1.404679e+000 2.856673e+000 76 12 7
4.804535e-001 -1.418305e+000 2.903736e+000 198 130 98
5.036380e-001 -1.423955e+000 2.893120e+000 205 133 98
5.310821e-001 -1.432350e+000 2.879966e+000 116 27 21
5.310821e-001 -1.432350e+000 2.879966e+000 116 27 21
5.369390e-001 -1.435227e+000 2.875281e+000 92 24 18
5.406540e-001 -1.436716e+000 2.870739e+000 196 136 88
5.488008e-001 -1.441359e+000 2.863338e+000 222 128 100
5.521885e-001 -1.444789e+000 2.863643e+000 214 128 96
5.583779e-001 -1.447467e+000 2.856690e+000 115 25 23
5.694562e-001 -1.453201e+000 2.845042e+000 210 141 97
5.694562e-001 -1.453201e+000 2.845042e+000 210 141 97
4.850470e-001 -1.420197e+000 2.904532e+000 193 147 102
4.846587e-001 -1.420978e+000 2.904429e+000 193 147 102
4.925507e-001 -1.422702e+000 2.901044e+000 219 133 103
4.966316e-001 -1.424366e+000 2.898816e+000 198 133 97
5.018527e-001 -1.424346e+000 2.895063e+000 107 16 23
5.018931e-001 -1.424362e+000 2.895100e+000 107 16 23
5.140218e-001 -1.428654e+000 2.890302e+000 197 134 96
5.230781e-001 -1.430809e+000 2.885723e+000 199 139 113
5.263910e-001 -1.431841e+000 2.884097e+000 202 135 102
5.263855e-001 -1.431897e+000 2.884113e+000 202 135 102
5.297534e-001 -1.432777e+000 2.882048e+000 191 135 88
5.298252e-001 -1.432640e+000 2.882093e+000 191 135 88
5.328992e-001 -1.434052e+000 2.880129e+000 197 131 90
4.588240e-001 -1.429117e+000 2.924065e+000 26 73 108
5.261803e-001 -1.468249e+000 2.926176e+000 167 103 83
5.380677e-001 -1.470910e+000 2.920124e+000 50 15 3
5.302948e-001 -1.474443e+000 2.930987e+000 177 104 76
4.669830e-001 -1.478834e+000 2.975657e+000 140 42 36
4.973588e-001 -1.487050e+000 2.970301e+000 186 113 85
5.086882e-001 -1.482604e+000 2.957493e+000 184 106 79
4.821553e-001 -1.493581e+000 2.983364e+000 181 108 88
5.820135e-001 -1.543989e+000 2.946862e+000 178 115 74
5.874489e-001 -1.567042e+000 2.966382e+000 201 51 57
5.142583e-001 -1.542850e+000 3.020353e+000 223 66 74
5.142145e-001 -1.543049e+000 3.020391e+000 223 66 74
5.336196e-001 -1.542101e+000 3.005437e+000 198 55 66
5.274892e-001 -1.542840e+000 3.011268e+000 128 22 23
5.384635e-001 -1.548531e+000 3.008448e+000 220 70 76
4.941553e-001 -1.546277e+000 3.035307e+000 131 28 31
5.810911e-001 -1.581786e+000 2.994451e+000 218 51 56
5.387054e-001 -1.565206e+000 3.026129e+000 119 26 30
5.407040e-001 -1.567125e+000 3.025020e+000 125 22 29
5.498302e-001 -1.565710e+000 3.017785e+000 128 26 29
5.642661e-001 -1.570601e+000 3.008856e+000 222 70 81
4.679250e-001 -1.306036e+000 2.777652e+000 206 131 88
4.748426e-001 -1.305960e+000 2.772589e+000 192 132 95
4.777133e-001 -1.304969e+000 2.768494e+000 202 133 97
5.064899e-001 -1.316425e+000 2.757040e+000 142 39 30
4.878493e-001 -1.340340e+000 2.805231e+000 77 98 91
5.156428e-001 -1.365205e+000 2.813239e+000 141 139 32
5.615172e-001 -1.410850e+000 2.794008e+000 155 144 104
5.194111e-001 -1.398612e+000 2.850284e+000 92 16 19
5.094352e-001 -1.400267e+000 2.859644e+000 157 136 110
5.094140e-001 -1.400287e+000 2.859559e+000 157 136 110
5.120621e-001 -1.403036e+000 2.863421e+000 157 129 107
4.677939e-001 -1.424331e+000 2.917578e+000 24 68 104
4.970122e-001 -1.473482e+000 2.956090e+000 81 45 37
4.845073e-001 -1.478943e+000 2.968614e+000 67 43 32
4.881779e-001 -1.487223e+000 2.974645e+000 70 36 27
5.035693e-001 -1.488763e+000 2.968285e+000 70 43 36
5.035693e-001 -1.488763e+000 2.968285e+000 70 43 36
5.146976e-001 -1.484382e+000 2.955334e+000 70 41 30
4.608368e-001 -1.495061e+000 2.989765e+000 184 96 86
4.691894e-001 -1.491614e+000 2.985473e+000 179 90 81
4.950818e-001 -1.494379e+000 2.979281e+000 82 43 31
5.148301e-001 -1.504677e+000 2.978115e+000 62 28 13
5.150169e-001 -1.510965e+000 2.985382e+000 42 18 11
5.150169e-001 -1.510965e+000 2.985382e+000 42 18 11
5.199511e-001 -1.506586e+000 2.975232e+000 103 58 39
5.405665e-001 -1.510193e+000 2.964073e+000 176 108 77
5.404009e-001 -1.510630e+000 2.964016e+000 176 108 77
4.997717e-001 -1.513321e+000 2.999911e+000 64 26 25
5.099568e-001 -1.528173e+000 3.011426e+000 186 106 81
5.032671e-001 -1.537331e+000 3.022598e+000 131 22 27
5.060030e-001 -1.537883e+000 3.021450e+000 125 25 30
5.405065e-001 -1.545574e+000 3.004956e+000 131 28 30
5.769419e-001 -1.569321e+000 2.983264e+000 139 23 30
5.868101e-001 -1.571776e+000 2.974909e+000 130 20 29
5.872674e-001 -1.570024e+000 2.975012e+000 130 20 29
5.916628e-001 -1.570271e+000 2.971876e+000 133 23 25
5.989767e-001 -1.581535e+000 2.966163e+000 231 71 76
4.982313e-001 -1.543295e+000 3.029331e+000 127 28 34
4.966410e-001 -1.542674e+000 3.032304e+000 214 73 75
4.966410e-001 -1.542674e+000 3.032304e+000 214 73 75
5.459104e-001 -1.551474e+000 3.006955e+000 126 23 28
5.483639e-001 -1.556447e+000 3.007698e+000 184 38 38
5.749620e-001 -1.577011e+000 3.001400e+000 136 20 29
5.854506e-001 -1.581145e+000 2.991249e+000 212 45 51
5.851850e-001 -1.581996e+000 2.991427e+000 212 45 51
5.105225e-001 -1.558575e+000 3.040247e+000 137 24 33
5.462658e-001 -1.567725e+000 3.022203e+000 136 21 24
5.459083e-001 -1.568834e+000 3.025108e+000 237 77 91
5.494595e-001 -1.570615e+000 3.022703e+000 192 51 56
5.565256e-001 -1.570025e+000 3.016174e+000 126 23 31
5.711460e-001 -1.573667e+000 3.008633e+000 220 83 91
5.099979e-001 -1.571497e+000 3.053831e+000 56 30 16
4.782648e-001 -1.304175e+000 2.765806e+000 164 26 36
4.786261e-001 -1.303314e+000 2.765994e+000 164 26 36
4.702636e-001 -1.307638e+000 2.778868e+000 157 33 33
4.908173e-001 -1.315124e+000 2.770274e+000 188 138 98
4.907754e-001 -1.332098e+000 2.793914e+000 139 143 32
4.907754e-001 -1.332098e+000 2.793914e+000 139 143 32
5.079429e-001 -1.338758e+000 2.786695e+000 146 137 27
5.079429e-001 -1.338758e+000 2.786695e+000 146 137 27
5.125008e-001 -1.347461e+000 2.793143e+000 47 87 85
5.242116e-001 -1.360527e+000 2.794414e+000 57 83 89
5.010692e-001 -1.359517e+000 2.818306e+000 144 136 26
5.055738e-001 -1.400597e+000 2.864519e+000 149 128 106
5.202003e-001 -1.407028e+000 2.859536e+000 159 131 108
5.198305e-001 -1.429368e+000 2.885641e+000 146 19 28
4.855793e-001 -1.429523e+000 2.909581e+000 20 70 96
5.243664e-001 -1.460147e+000 2.920183e+000 72 35 16
5.279415e-001 -1.462218e+000 2.922300e+000 177 106 78
5.768205e-001 -1.499629e+000 2.894587e+000 74 32 19
4.921250e-001 -1.479685e+000 2.965626e+000 144 89 67
4.921250e-001 -1.479685e+000 2.965626e+000 144 89 67
5.798349e-001 -1.542306e+000 2.949091e+000 166 110 74
5.867379e-001 -1.546619e+000 2.943561e+000 70 35 12
4.908865e-001 -1.520914e+000 3.013090e+000 180 110 94
4.943892e-001 -1.522369e+000 3.011764e+000 189 107 86
4.937924e-001 -1.523975e+000 3.011748e+000 189 107 86
5.072657e-001 -1.521631e+000 3.003521e+000 153 92 73
5.387952e-001 -1.529993e+000 2.987470e+000 70 41 21
5.482599e-001 -1.533728e+000 2.983413e+000 68 29 22
5.975872e-001 -1.578757e+000 2.961377e+000 222 74 78
5.507874e-001 -1.547637e+000 2.998645e+000 123 21 28
5.607703e-001 -1.556149e+000 2.997019e+000 138 22 27
4.964325e-001 -1.551472e+000 3.039941e+000 133 24 33
4.960261e-001 -1.552775e+000 3.040014e+000 133 24 33
5.010638e-001 -1.551397e+000 3.038647e+000 131 21 33
5.014343e-001 -1.549855e+000 3.038667e+000 131 21 33
5.041096e-001 -1.549786e+000 3.031886e+000 132 23 32
5.140373e-001 -1.545994e+000 3.023244e+000 129 27 31
5.146800e-001 -1.551347e+000 3.029690e+000 155 23 18
5.274451e-001 -1.574548e+000 3.045563e+000 111 56 43
5.713724e-001 -1.588979e+000 3.019523e+000 70 38 24
4.655944e-001 -1.300811e+000 2.772686e+000 162 28 31
4.713261e-001 -1.301705e+000 2.770183e+000 157 27 25
4.711600e-001 -1.302189e+000 2.770082e+000 157 27 25
4.844555e-001 -1.331680e+000 2.798648e+000 139 129 25
4.913880e-001 -1.425109e+000 2.904800e+000 133 20 26
4.573104e-001 -1.428656e+000 2.927556e+000 153 144 142
5.077566e-001 -1.434424e+000 2.903099e+000 1 30 48
5.137530e-001 -1.435810e+000 2.900011e+000 2 27 45
5.805864e-001 -1.497416e+000 2.881135e+000 176 106 74
5.382315e-001 -1.469259e+000 2.916269e+000 177 110 73
5.382315e-001 -1.469259e+000 2.916269e+000 177 110 73
5.337216e-001 -1.473995e+000 2.925663e+000 180 107 74
5.751755e-001 -1.511828e+000 2.912469e+000 151 78 52
5.755291e-001 -1.514356e+000 2.916887e+000 182 109 81
5.758530e-001 -1.512214e+000 2.916946e+000 182 109 81
4.705373e-001 -1.487159e+000 2.982219e+000 144 35 38
5.320814e-001 -1.495182e+000 2.953624e+000 130 74 59
5.773564e-001 -1.517565e+000 2.924167e+000 181 114 77
5.801276e-001 -1.531386e+000 2.927399e+000 181 119 75
5.340549e-001 -1.500216e+000 2.956558e+000 178 103 82
5.357238e-001 -1.507258e+000 2.962681e+000 175 109 70
5.393659e-001 -1.508554e+000 2.961170e+000 175 108 77
5.848611e-001 -1.540907e+000 2.936809e+000 109 61 32
4.896673e-001 -1.506381e+000 2.991880e+000 177 110 88
4.949751e-001 -1.505488e+000 2.990192e+000 175 110 85
4.949751e-001 -1.505488e+000 2.990192e+000 175 110 85
5.018783e-001 -1.502741e+000 2.987444e+000 177 110 82
5.096016e-001 -1.503389e+000 2.980036e+000 115 58 39
5.458478e-001 -1.515331e+000 2.965850e+000 181 109 77
5.803277e-001 -1.541981e+000 2.944141e+000 183 120 73
4.929626e-001 -1.510090e+000 2.998445e+000 182 104 89
4.929626e-001 -1.510090e+000 2.998445e+000 182 104 89
5.077978e-001 -1.517885e+000 2.999711e+000 178 108 87
5.077978e-001 -1.517885e+000 2.999711e+000 178 108 87
5.153065e-001 -1.514706e+000 2.988787e+000 177 109 83
5.153065e-001 -1.514706e+000 2.988787e+000 177 109 83
5.436155e-001 -1.530093e+000 2.981465e+000 175 109 77
5.436155e-001 -1.530093e+000 2.981465e+000 175 109 77
5.017071e-001 -1.533372e+000 3.017367e+000 146 17 37
5.207050e-001 -1.540765e+000 3.014532e+000 137 23 37
5.207050e-001 -1.540765e+000 3.014532e+000 137 23 37
5.180905e-001 -1.549522e+000 3.026390e+000 140 22 28
4.979002e-001 -1.355780e+000 2.816880e+000 22 51 9
4.988972e-001 -1.418493e+000 2.890955e+000 141 18 19
5.299814e-001 -1.433571e+000 2.885734e+000 127 22 26
4.586746e-001 -1.462350e+000 2.959222e+000 159 47 45
5.318359e-001 -1.477260e+000 2.934909e+000 175 107 81
5.410514e-001 -1.516583e+000 2.967436e+000 178 109 78
4.848013e-001 -1.527377e+000 3.019170e+000 180 113 96
5.535255e-001 -1.580429e+000 3.026966e+000 182 107 77
4.879871e-001 -1.333988e+000 2.793338e+000 92 89 18
4.949265e-001 -1.335111e+000 2.793938e+000 24 46 21
4.662310e-001 -1.345849e+000 2.828404e+000 129 124 42
4.730738e-001 -1.346037e+000 2.823263e+000 118 121 43
5.283392e-001 -1.373497e+000 2.807335e+000 29 46 24
4.818261e-001 -1.334969e+000 2.804073e+000 22 47 25
4.732934e-001 -1.473355e+000 2.967669e+000 179 111 92
4.815506e-001 -1.507551e+000 2.999994e+000 178 111 92
5.633453e-001 -1.569125e+000 3.002641e+000 154 15 31
4.820107e-001 -1.458524e+000 2.946839e+000 176 108 87
5.252133e-001 -1.487316e+000 2.953062e+000 175 106 73
4.455318e-001 -1.289877e+000 2.776581e+000 127 126 111
5.983922e-001 -1.593942e+000 2.977146e+000 169 26 31
5.983922e-001 -1.593942e+000 2.977146e+000 169 26 31
5.246723e-001 -1.533211e+000 2.995453e+000 177 109 74
5.481258e-001 -1.427992e+000 2.848086e+000 159 141 105
5.387365e-001 -1.391414e+000 2.795063e+000 24 47 19
4.793313e-001 -1.431789e+000 2.917576e+000 23 66 93
5.634730e-001 -1.471816e+000 2.861686e+000 71 117 139
5.126875e-001 -1.405311e+000 2.853876e+000 114 30 32
5.155760e-001 -1.325194e+000 2.756671e+000 37 68 44
5.177685e-001 -1.337954e+000 2.770627e+000 34 72 45
4.856514e-001 -1.343208e+000 2.804354e+000 83 106 78
5.137616e-001 -1.426156e+000 2.887855e+000 200 139 107
5.173873e-001 -1.429879e+000 2.888431e+000 218 125 98
5.816404e-001 -1.477346e+000 2.850060e+000 45 74 82
5.454538e-001 -1.463510e+000 2.893157e+000 8 49 71
5.299962e-001 -1.475159e+000 2.931024e+000 177 112 84
5.192710e-001 -1.507408e+000 2.977743e+000 182 110 82
4.958039e-001 -1.551467e+000 3.043264e+000 216 59 71
5.092400e-001 -1.313110e+000 2.747733e+000 160 34 32
5.321326e-001 -1.357957e+000 2.778709e+000 139 139 42
5.132290e-001 -1.398648e+000 2.855018e+000 169 139 112
5.216240e-001 -1.400686e+000 2.850777e+000 180 137 111
4.998899e-001 -1.513114e+000 2.999906e+000 87 49 45
5.116846e-001 -1.537139e+000 3.016292e+000 181 80 68
5.116159e-001 -1.537249e+000 3.016296e+000 181 80 68
5.734302e-001 -1.563573e+000 2.981011e+000 128 30 31
5.520769e-001 -1.549678e+000 2.998491e+000 133 24 29
5.009825e-001 -1.554442e+000 3.041722e+000 199 60 71
5.022201e-001 -1.551935e+000 3.041419e+000 199 60 71
5.119389e-001 -1.317034e+000 2.749146e+000 173 145 116
5.130521e-001 -1.340597e+000 2.780689e+000 145 141 33
4.851373e-001 -1.340275e+000 2.805298e+000 142 132 24
4.851373e-001 -1.340275e+000 2.805298e+000 142 132 24
5.493537e-001 -1.537948e+000 2.986091e+000 187 111 91
5.876359e-001 -1.555811e+000 2.950193e+000 87 49 30
4.999714e-001 -1.539038e+000 3.029030e+000 134 28 36
5.749847e-001 -1.568799e+000 2.985240e+000 140 26 30
5.102715e-001 -1.549266e+000 3.035401e+000 138 24 32
4.987453e-001 -1.326570e+000 2.626982e+000 207 174 131
4.802534e-001 -1.422483e+000 2.909124e+000 145 20 36
4.941147e-001 -1.472323e+000 2.952473e+000 182 113 90
5.235479e-001 -1.375759e+000 2.826380e+000 27 50 23
5.235479e-001 -1.375759e+000 2.826380e+000 27 50 23
4.990438e-001 -1.422601e+000 2.895938e+000 192 117 90
4.916834e-001 -1.549216e+000 3.042867e+000 151 21 31
4.751943e-001 -1.321628e+000 2.785099e+000 40 88 107
4.734635e-001 -1.527440e+000 3.020311e+000 115 24 39
5.812097e-001 -1.542913e+000 2.965341e+000 187 125 84
4.558427e-001 -1.544157e+000 3.032372e+000 186 147 135
5.521825e-001 -1.543596e+000 2.993769e+000 154 25 27
5.938265e-001 -1.649976e+000 3.065722e+000 183 150 124
6.036945e-001 -1.658579e+000 3.058079e+000 23 14 7
6.209032e-001 -1.689466e+000 3.065426e+000 48 16 2
5.818478e-001 -1.626506e+000 3.056790e+000 169 75 39
7.062303e-001 -9.060341e-001 3.264820e+000 73 53 44
6.848424e-001 -9.672474e-001 3.338352e+000 71 60 54
7.237881e-001 -8.208851e-001 3.195816e+000 159 108 85
7.208300e-001 -9.450928e-001 3.270665e+000 39 34 41
7.025492e-001 -9.153682e-001 3.279807e+000 23 12 18
6.883268e-001 -9.395441e-001 3.322502e+000 20 10 18
5.885794e-001 -1.649802e+000 3.077638e+000 164 92 47
5.306036e-001 -1.582271e+000 3.051952e+000 71 41 24
5.375087e-001 -1.582733e+000 3.048246e+000 113 72 56
5.301765e-001 -1.594526e+000 3.065455e+000 175 136 105
5.427900e-001 -1.599553e+000 3.059735e+000 135 102 74
5.209422e-001 -1.608183e+000 3.086280e+000 164 129 98
5.286479e-001 -1.610898e+000 3.082462e+000 168 129 99
5.337827e-001 -1.601847e+000 3.071334e+000 165 128 100
5.833491e-001 -1.616462e+000 3.035657e+000 189 109 52
5.814190e-001 -1.617864e+000 3.038582e+000 100 48 18
5.230040e-001 -1.613611e+000 3.090231e+000 170 130 105
5.343017e-001 -1.611347e+000 3.079519e+000 173 131 100
5.331090e-001 -1.613287e+000 3.085061e+000 172 132 102
5.583143e-001 -1.613694e+000 3.064774e+000 143 103 68
5.599109e-001 -1.619391e+000 3.065862e+000 184 126 88
5.633448e-001 -1.617786e+000 3.058962e+000 193 94 41
5.607327e-001 -1.621384e+000 3.067542e+000 188 130 87
5.623329e-001 -1.625494e+000 3.069285e+000 187 117 64
5.708263e-001 -1.619859e+000 3.054139e+000 192 78 42
5.705026e-001 -1.622311e+000 3.058814e+000 180 79 37
5.837471e-001 -1.624311e+000 3.044763e+000 185 74 37
5.460624e-001 -1.628711e+000 3.088622e+000 28 19 14
5.460613e-001 -1.628657e+000 3.088512e+000 28 19 14
6.007020e-001 -1.644183e+000 3.043146e+000 123 52 17
5.906512e-001 -1.653155e+000 3.068136e+000 32 22 17
5.902716e-001 -1.653943e+000 3.068281e+000 32 22 17
6.056195e-001 -1.657892e+000 3.055759e+000 191 149 122
6.154340e-001 -1.669494e+000 3.042315e+000 183 155 127
6.163349e-001 -1.672367e+000 3.048482e+000 178 141 114
5.190301e-001 -1.648552e+000 3.131621e+000 137 95 93
5.296266e-001 -1.648319e+000 3.119944e+000 33 23 16
5.296266e-001 -1.648319e+000 3.119944e+000 33 23 16
5.325778e-001 -1.652214e+000 3.121876e+000 153 124 113
5.410220e-001 -1.654900e+000 3.115629e+000 155 127 111
5.570451e-001 -1.657192e+000 3.104111e+000 32 22 13
5.718362e-001 -1.663773e+000 3.097572e+000 170 139 118
5.912289e-001 -1.657455e+000 3.072573e+000 38 23 15
5.910414e-001 -1.666594e+000 3.078690e+000 177 107 40
5.934688e-001 -1.659557e+000 3.071791e+000 190 156 131
5.934715e-001 -1.659713e+000 3.071797e+000 190 156 131
5.917410e-001 -1.669320e+000 3.080990e+000 174 104 38
6.034399e-001 -1.665892e+000 3.062976e+000 33 22 14
6.059764e-001 -1.668665e+000 3.068087e+000 175 93 34
5.904041e-001 -1.679068e+000 3.091373e+000 43 16 0
5.968888e-001 -1.679499e+000 3.085262e+000 157 84 30
6.057753e-001 -1.686431e+000 3.081132e+000 47 22 13
6.175972e-001 -1.690550e+000 3.073553e+000 43 22 10
5.370111e-001 -1.607591e+000 3.074071e+000 168 130 99
5.425305e-001 -1.602341e+000 3.062652e+000 168 130 93
5.487208e-001 -1.605792e+000 3.063333e+000 177 133 98
5.963989e-001 -1.627071e+000 3.026773e+000 187 54 39
5.333465e-001 -1.612838e+000 3.082532e+000 109 82 63
5.584941e-001 -1.620498e+000 3.068877e+000 97 66 41
5.582782e-001 -1.622970e+000 3.071703e+000 190 138 98
5.685858e-001 -1.616953e+000 3.053938e+000 138 50 28
5.734382e-001 -1.625553e+000 3.056746e+000 192 85 41
5.567562e-001 -1.659592e+000 3.108780e+000 171 138 119
6.113801e-001 -1.689166e+000 3.077394e+000 46 15 3
5.888474e-001 -1.606550e+000 3.013777e+000 88 57 39
5.159596e-001 -1.613222e+000 3.089979e+000 82 61 42
6.221029e-001 -1.655248e+000 3.003447e+000 151 60 52
5.572196e-001 -1.631019e+000 3.080320e+000 194 156 115
6.017871e-001 -1.671676e+000 3.073116e+000 164 91 30
6.090077e-001 -1.684361e+000 3.077458e+000 158 87 43
5.540962e-001 -1.590407e+000 3.042431e+000 201 132 103
6.109099e-001 -1.663002e+000 3.055956e+000 37 19 13
6.027868e-001 -1.680250e+000 3.081389e+000 171 96 29
6.161204e-001 -1.641539e+000 3.013239e+000 188 97 27
4.975337e-001 -1.643957e+000 3.133459e+000 190 166 156
5.813042e-001 -1.669065e+000 3.092313e+000 184 150 124
6.172640e-001 -1.661201e+000 2.992855e+000 175 134 88
6.143178e-001 -1.683812e+000 3.018974e+000 185 107 25
3.503237e-001 -1.354142e+000 2.676509e+000 216 197 173
6.341915e-001 -1.697877e+000 2.961125e+000 35 24 30
5.143895e-001 -1.650664e+000 3.023513e+000 160 32 40
4.789212e-001 -1.309732e+000 2.773096e+000 202 129 92
5.057199e-001 -1.314086e+000 2.754410e+000 137 44 34
4.824303e-001 -1.313306e+000 2.774708e+000 238 112 92
5.087147e-001 -1.322665e+000 2.759574e+000 231 116 93
5.088996e-001 -1.322109e+000 2.759713e+000 231 116 93
5.148193e-001 -1.330992e+000 2.760038e+000 37 66 36
5.098545e-001 -1.337020e+000 2.784420e+000 50 75 46
5.315519e-001 -1.358621e+000 2.778841e+000 133 132 32
5.315119e-001 -1.358800e+000 2.778800e+000 133 132 32
5.085424e-001 -1.402461e+000 2.862363e+000 78 36 27
5.085424e-001 -1.402461e+000 2.862363e+000 78 36 27
4.768286e-001 -1.416288e+000 2.903606e+000 211 131 108
4.841204e-001 -1.419201e+000 2.902177e+000 196 141 105
5.036283e-001 -1.424213e+000 2.893160e+000 205 133 98
5.260242e-001 -1.429369e+000 2.881952e+000 189 134 94
5.802772e-001 -1.467155e+000 2.840546e+000 70 44 39
4.725811e-001 -1.419807e+000 2.909562e+000 212 130 107
4.725811e-001 -1.419807e+000 2.909562e+000 212 130 107
5.312942e-001 -1.462838e+000 2.916841e+000 33 18 8
4.497066e-001 -1.495280e+000 2.986341e+000 183 85 83
4.646045e-001 -1.485105e+000 2.979496e+000 154 53 49
4.679712e-001 -1.477151e+000 2.975498e+000 140 42 36
4.657649e-001 -1.483838e+000 2.977350e+000 177 73 68
4.507615e-001 -1.502991e+000 2.996691e+000 160 42 49
4.530660e-001 -1.496072e+000 2.991066e+000 145 59 54
4.599984e-001 -1.497803e+000 2.992065e+000 146 46 45
4.484017e-001 -1.537413e+000 3.022230e+000 68 125 199
4.484017e-001 -1.537413e+000 3.022230e+000 68 125 199
5.050792e-001 -1.550536e+000 3.034025e+000 135 19 31
5.298057e-001 -1.545509e+000 3.015477e+000 129 26 30
5.350638e-001 -1.554776e+000 3.016654e+000 133 26 29
5.536297e-001 -1.570719e+000 3.020922e+000 229 67 71
5.655564e-001 -1.571140e+000 3.010523e+000 133 24 32
5.651708e-001 -1.574887e+000 3.012942e+000 219 76 77
5.335526e-001 -1.583328e+000 3.050277e+000 45 15 7
5.337366e-001 -1.582806e+000 3.050249e+000 45 15 7
5.467249e-001 -1.587173e+000 3.043184e+000 120 72 52
5.533819e-001 -1.588122e+000 3.039146e+000 184 104 81
4.678464e-001 -1.599656e+000 3.087271e+000 67 29 15
5.635074e-001 -1.606543e+000 3.050601e+000 167 46 30
5.652211e-001 -1.608959e+000 3.054015e+000 171 55 33
5.767521e-001 -1.609695e+000 3.038881e+000 120 56 25
5.693303e-001 -1.611164e+000 3.046354e+000 169 50 35
5.724372e-001 -1.607949e+000 3.044748e+000 179 44 34
5.891459e-001 -1.623459e+000 3.037532e+000 108 48 8
5.963289e-001 -1.631520e+000 3.036580e+000 125 43 21
5.331851e-001 -1.608345e+000 3.075323e+000 166 117 81
5.329801e-001 -1.607245e+000 3.077804e+000 88 55 36
5.394162e-001 -1.603411e+000 3.068553e+000 168 115 77
5.416063e-001 -1.606515e+000 3.067277e+000 161 113 80
5.449534e-001 -1.610516e+000 3.069375e+000 158 111 77
5.360197e-001 -1.606876e+000 3.076446e+000 76 45 21
5.402935e-001 -1.609200e+000 3.072444e+000 162 116 82
5.400761e-001 -1.609772e+000 3.072394e+000 162 116 82
5.513208e-001 -1.608345e+000 3.063681e+000 92 58 31
5.572774e-001 -1.609227e+000 3.058569e+000 159 89 54
5.571921e-001 -1.609445e+000 3.058490e+000 159 89 54
5.673905e-001 -1.616821e+000 3.056632e+000 170 60 33
5.640074e-001 -1.615452e+000 3.061096e+000 144 66 22
5.715485e-001 -1.616732e+000 3.051789e+000 123 44 24
5.715485e-001 -1.616732e+000 3.051789e+000 123 44 24
5.784100e-001 -1.620044e+000 3.048195e+000 167 62 25
5.749981e-001 -1.625347e+000 3.052722e+000 129 46 16
5.943147e-001 -1.640118e+000 3.049800e+000 168 78 29
6.020155e-001 -1.637571e+000 3.034986e+000 187 71 30
5.228992e-001 -1.613987e+000 3.090362e+000 168 121 86
5.377653e-001 -1.616018e+000 3.080087e+000 164 120 81
5.377653e-001 -1.616018e+000 3.080087e+000 164 120 81
5.407819e-001 -1.618608e+000 3.081509e+000 161 115 81
5.445062e-001 -1.621650e+000 3.082918e+000 161 119 84
5.530153e-001 -1.619209e+000 3.072323e+000 61 29 9
5.530153e-001 -1.619209e+000 3.072323e+000 61 29 9
5.996223e-001 -1.652555e+000 3.058387e+000 21 8 1
6.057024e-001 -1.656727e+000 3.055821e+000 202 148 109
5.082626e-001 -1.620375e+000 3.106871e+000 26 16 11
5.257577e-001 -1.623918e+000 3.099284e+000 30 21 14
5.545507e-001 -1.631826e+000 3.083882e+000 25 12 9
5.954426e-001 -1.654033e+000 3.063306e+000 184 143 108
6.043171e-001 -1.656076e+000 3.058083e+000 24 13 5
6.064591e-001 -1.661094e+000 3.057368e+000 188 127 96
5.699611e-001 -1.661312e+000 3.096515e+000 20 8 5
5.925142e-001 -1.666858e+000 3.080698e+000 161 83 36
5.896108e-001 -1.667246e+000 3.083366e+000 162 84 35
5.988725e-001 -1.677646e+000 3.082759e+000 35 11 6
6.210019e-001 -1.688841e+000 3.065529e+000 39 12 9
6.210163e-001 -1.688740e+000 3.065497e+000 39 12 9
6.253786e-001 -1.692649e+000 3.066834e+000 46 11 5
5.128381e-001 -1.645452e+000 3.128777e+000 22 12 4
5.145727e-001 -1.649877e+000 3.131286e+000 170 127 111
5.145727e-001 -1.649877e+000 3.131286e+000 170 127 111
5.153021e-001 -1.651318e+000 3.133588e+000 166 115 106
5.240668e-001 -1.648128e+000 3.123256e+000 17 9 6
5.209173e-001 -1.648600e+000 3.128207e+000 169 128 110
5.212516e-001 -1.647280e+000 3.127873e+000 169 128 110
5.288278e-001 -1.652569e+000 3.124274e+000 168 125 105
5.279913e-001 -1.655474e+000 3.124355e+000 168 125 105
5.367046e-001 -1.654608e+000 3.118006e+000 161 119 97
5.366709e-001 -1.654689e+000 3.117974e+000 161 119 97
5.487163e-001 -1.654552e+000 3.109060e+000 11 9 9
5.667040e-001 -1.663282e+000 3.101174e+000 163 120 96
5.775443e-001 -1.667969e+000 3.096578e+000 172 122 91
5.897893e-001 -1.680140e+000 3.091671e+000 34 6 2
5.898383e-001 -1.679644e+000 3.091706e+000 34 6 2
6.007216e-001 -1.681158e+000 3.083665e+000 152 78 37
6.121380e-001 -1.685634e+000 3.077576e+000 25 10 3
5.400414e-001 -1.653561e+000 3.125955e+000 117 46 42
5.410591e-001 -1.668031e+000 3.124340e+000 116 50 35
5.052505e-001 -1.316737e+000 2.759509e+000 204 133 99
5.095389e-001 -1.345429e+000 2.793706e+000 141 133 21
4.106370e-001 -1.396673e+000 2.885107e+000 96 110 121
5.215883e-001 -1.400779e+000 2.850809e+000 164 138 102
5.298487e-001 -1.411262e+000 2.852222e+000 165 126 90
4.875761e-001 -1.419501e+000 2.899922e+000 201 133 108
4.919475e-001 -1.421384e+000 2.898764e+000 186 133 94
4.699093e-001 -1.425369e+000 2.916475e+000 23 71 106
4.869114e-001 -1.472372e+000 2.960136e+000 49 22 17
4.846787e-001 -1.478625e+000 2.968696e+000 67 43 32
4.964238e-001 -1.483326e+000 2.963321e+000 58 38 22
4.873115e-001 -1.501491e+000 2.989637e+000 62 48 37
4.972602e-001 -1.507366e+000 2.993558e+000 62 32 19
4.995033e-001 -1.514216e+000 2.999903e+000 64 26 25
5.897435e-001 -1.563924e+000 2.956733e+000 199 116 86
5.955695e-001 -1.569155e+000 2.958695e+000 202 56 59
5.955362e-001 -1.569288e+000 2.958694e+000 202 56 59
5.072548e-001 -1.541805e+000 3.020297e+000 127 20 31
5.310776e-001 -1.544991e+000 3.009413e+000 130 27 25
5.474300e-001 -1.546584e+000 2.998262e+000 194 49 52
4.972706e-001 -1.548012e+000 3.034560e+000 121 28 30
5.017468e-001 -1.549565e+000 3.032491e+000 131 28 34
5.074881e-001 -1.550224e+000 3.032560e+000 220 47 64
5.261673e-001 -1.550261e+000 3.021844e+000 145 15 28
5.466543e-001 -1.553955e+000 3.011178e+000 137 23 29
4.996715e-001 -1.558798e+000 3.044210e+000 128 27 33
4.997304e-001 -1.559100e+000 3.044338e+000 128 27 33
5.144631e-001 -1.558805e+000 3.037014e+000 131 23 30
5.293797e-001 -1.559942e+000 3.027822e+000 169 27 25
5.356299e-001 -1.557782e+000 3.026357e+000 201 59 61
5.356299e-001 -1.557782e+000 3.026357e+000 201 59 61
5.371628e-001 -1.567390e+000 3.029615e+000 226 70 83
5.494412e-001 -1.570788e+000 3.022690e+000 192 51 56
5.723436e-001 -1.594423e+000 3.026881e+000 177 119 87
4.743766e-001 -1.606757e+000 3.089485e+000 149 84 54
5.278531e-001 -1.597365e+000 3.069956e+000 172 122 88
5.276399e-001 -1.598494e+000 3.069868e+000 172 122 88
5.400127e-001 -1.601802e+000 3.063528e+000 169 116 78
5.428568e-001 -1.601644e+000 3.062610e+000 171 118 76
5.493991e-001 -1.601439e+000 3.058900e+000 169 116 78
5.541414e-001 -1.605450e+000 3.055671e+000 181 108 71
5.645271e-001 -1.611730e+000 3.051373e+000 97 25 16
5.741448e-001 -1.615576e+000 3.047300e+000 177 58 27
5.842181e-001 -1.616114e+000 3.039366e+000 189 99 41
5.893216e-001 -1.618723e+000 3.035148e+000 179 93 34
5.938192e-001 -1.624700e+000 3.036484e+000 185 95 31
5.530822e-001 -1.608941e+000 3.060562e+000 168 112 75
5.599843e-001 -1.618948e+000 3.065772e+000 173 107 66
5.599843e-001 -1.618948e+000 3.065772e+000 173 107 66
5.768781e-001 -1.625024e+000 3.054122e+000 170 71 28
5.784392e-001 -1.625408e+000 3.058316e+000 178 76 30
5.283219e-001 -1.611021e+000 3.085193e+000 52 28 15
5.283219e-001 -1.611021e+000 3.085193e+000 52 28 15
5.307440e-001 -1.613856e+000 3.083732e+000 80 49 28
5.307440e-001 -1.613856e+000 3.083732e+000 80 49 28
5.550010e-001 -1.623809e+000 3.076820e+000 155 115 80
5.665490e-001 -1.625882e+000 3.066531e+000 176 92 45
6.216959e-001 -1.676148e+000 3.049786e+000 118 73 50
6.120476e-001 -1.680443e+000 3.073816e+000 44 21 13
6.178318e-001 -1.685301e+000 3.071228e+000 36 9 6
4.906210e-001 -1.653432e+000 3.146759e+000 198 134 119
5.403820e-001 -1.650660e+000 3.113886e+000 26 12 5
5.569567e-001 -1.659662e+000 3.111802e+000 106 50 31
5.668523e-001 -1.665748e+000 3.102136e+000 165 118 92
5.899842e-001 -1.675408e+000 3.088856e+000 25 6 4
5.984681e-001 -1.682908e+000 3.085870e+000 38 8 0
6.059408e-001 -1.685860e+000 3.081108e+000 29 7 4
4.774094e-001 -1.310246e+000 2.775084e+000 143 31 26
5.133724e-001 -1.340453e+000 2.780703e+000 134 137 42
5.135522e-001 -1.340104e+000 2.780925e+000 134 137 42
5.010463e-001 -1.360039e+000 2.818213e+000 144 136 26
4.414075e-001 -1.458292e+000 2.956140e+000 174 50 59
5.840073e-001 -1.531782e+000 2.929994e+000 75 46 27
5.786723e-001 -1.533573e+000 2.942476e+000 69 47 32
5.787219e-001 -1.532895e+000 2.942401e+000 69 47 32
5.463305e-001 -1.527006e+000 2.976981e+000 59 26 19
4.908710e-001 -1.521181e+000 3.013174e+000 180 110 94
5.481862e-001 -1.534061e+000 2.983338e+000 68 29 22
5.850168e-001 -1.561850e+000 2.969553e+000 219 78 77
5.557618e-001 -1.549603e+000 2.993123e+000 210 64 66
4.972541e-001 -1.562158e+000 3.050515e+000 126 26 31
5.221958e-001 -1.563514e+000 3.034613e+000 133 25 32
5.274105e-001 -1.575181e+000 3.045651e+000 111 56 43
5.386127e-001 -1.578132e+000 3.039787e+000 106 50 40
5.526218e-001 -1.580516e+000 3.032234e+000 110 62 48
5.897650e-001 -1.602801e+000 3.013516e+000 47 21 6
5.897485e-001 -1.603872e+000 3.013449e+000 47 21 6
5.558620e-001 -1.587946e+000 3.037681e+000 82 32 26
5.311368e-001 -1.595844e+000 3.067674e+000 168 123 86
4.872115e-001 -1.606978e+000 3.100660e+000 181 131 94
5.249593e-001 -1.612139e+000 3.084253e+000 171 117 79
5.257081e-001 -1.609165e+000 3.084077e+000 171 117 79
6.188660e-001 -1.665396e+000 3.037751e+000 53 32 17
6.213827e-001 -1.667085e+000 3.041003e+000 189 149 115
5.892831e-001 -1.660018e+000 3.079405e+000 164 90 37
6.021040e-001 -1.670315e+000 3.073159e+000 154 79 29
5.085036e-001 -1.648813e+000 3.136598e+000 179 143 131
5.297142e-001 -1.661187e+000 3.127898e+000 78 24 20
5.368770e-001 -1.654128e+000 3.121596e+000 151 102 88
5.625729e-001 -1.663757e+000 3.105078e+000 170 121 103
5.631471e-001 -1.664902e+000 3.108480e+000 108 47 29
5.702465e-001 -1.662727e+000 3.104393e+000 101 46 29
5.203053e-001 -1.354174e+000 2.789594e+000 24 49 17
5.098060e-001 -1.364086e+000 2.818041e+000 134 125 30
5.098060e-001 -1.364086e+000 2.818041e+000 134 125 30
4.781892e-001 -1.362090e+000 2.835474e+000 130 127 43
4.781021e-001 -1.362198e+000 2.835594e+000 130 127 43
4.582814e-001 -1.421248e+000 2.918045e+000 114 23 48
5.766573e-001 -1.467561e+000 2.851015e+000 12 48 65
4.932035e-001 -1.433027e+000 2.909531e+000 13 49 70
5.211385e-001 -1.442280e+000 2.903751e+000 12 49 73
5.826190e-001 -1.487897e+000 2.861455e+000 22 69 92
5.317708e-001 -1.487287e+000 2.942115e+000 177 108 74
5.346262e-001 -1.489451e+000 2.945803e+000 72 40 35
5.328226e-001 -1.493210e+000 2.949725e+000 178 107 72
5.328226e-001 -1.493210e+000 2.949725e+000 178 107 72
5.356520e-001 -1.497553e+000 2.952407e+000 74 45 26
5.340197e-001 -1.501486e+000 2.960562e+000 95 49 38
4.896860e-001 -1.507043e+000 2.991800e+000 177 110 88
5.375577e-001 -1.515941e+000 2.973734e+000 164 96 71
5.375577e-001 -1.515941e+000 2.973734e+000 164 96 71
5.413206e-001 -1.526828e+000 2.983022e+000 182 107 78
5.863003e-001 -1.554398e+000 2.954728e+000 184 121 79
5.129914e-001 -1.556404e+000 3.033706e+000 133 26 31
5.720831e-001 -1.586001e+000 3.019562e+000 67 36 23
5.811609e-001 -1.593509e+000 3.016925e+000 182 120 90
5.854401e-001 -1.597365e+000 3.012489e+000 190 118 79
6.205901e-001 -1.664362e+000 3.041011e+000 186 137 105
5.222606e-001 -1.623842e+000 3.098881e+000 183 135 95
4.877926e-001 -1.663634e+000 3.144592e+000 185 140 113
4.975657e-001 -1.652395e+000 3.148328e+000 132 27 41
5.721516e-001 -1.398672e+000 2.752339e+000 96 110 101
4.646237e-001 -1.442498e+000 2.937813e+000 20 72 119
5.323788e-001 -1.473872e+000 2.935647e+000 175 107 81
4.945108e-001 -1.486347e+000 2.967708e+000 176 109 84
4.949961e-001 -1.499266e+000 2.982605e+000 176 105 85
5.371205e-001 -1.537072e+000 2.996540e+000 179 105 77
6.011762e-001 -1.575584e+000 2.957461e+000 150 21 27
6.020923e-001 -1.580701e+000 2.961818e+000 144 23 27
4.921587e-001 -1.559197e+000 3.050671e+000 141 23 34
5.674580e-001 -1.584877e+000 3.017487e+000 182 117 74
6.006493e-001 -1.625175e+000 3.021442e+000 110 17 18
5.196942e-001 -1.591561e+000 3.069057e+000 75 48 33
5.198774e-001 -1.591303e+000 3.069188e+000 75 48 33
5.232486e-001 -1.603003e+000 3.078380e+000 167 121 89
5.502246e-001 -1.629218e+000 3.085445e+000 180 136 100
5.438305e-001 -1.655390e+000 3.116499e+000 159 115 92
5.310709e-001 -1.373970e+000 2.793283e+000 32 47 28
5.318418e-001 -1.372198e+000 2.794133e+000 32 47 28
5.089027e-001 -1.426301e+000 2.891746e+000 101 27 26
4.645501e-001 -1.496817e+000 2.989015e+000 171 78 71
6.040496e-001 -1.597039e+000 2.978581e+000 152 19 32
6.182536e-001 -1.643293e+000 3.004754e+000 117 23 24
5.121834e-001 -1.621196e+000 3.103884e+000 167 133 105
5.719156e-001 -1.659272e+000 3.093378e+000 26 13 8
5.283168e-001 -1.649706e+000 3.124769e+000 166 122 105
5.349670e-001 -1.378605e+000 2.799186e+000 82 97 86
6.020558e-001 -1.588569e+000 2.969478e+000 155 18 30
5.410634e-001 -1.557889e+000 3.017106e+000 147 17 29
5.410634e-001 -1.557889e+000 3.017106e+000 147 17 29
5.542398e-001 -1.570672e+000 3.008997e+000 148 18 28
5.312750e-001 -1.588505e+000 3.058262e+000 170 116 80
5.310643e-001 -1.589211e+000 3.058186e+000 170 116 80
5.955078e-001 -1.635341e+000 3.048470e+000 104 39 17
5.955078e-001 -1.635341e+000 3.048470e+000 104 39 17
5.808006e-001 -1.636977e+000 3.068044e+000 185 141 96
6.162244e-001 -1.672989e+000 3.064195e+000 173 82 27
5.002394e-001 -1.355171e+000 2.810829e+000 66 102 95
5.002394e-001 -1.355171e+000 2.810829e+000 66 102 95
4.699563e-001 -1.504129e+000 2.996905e+000 165 31 43
5.179362e-001 -1.579506e+000 3.060497e+000 182 110 86
5.186993e-001 -1.597534e+000 3.078862e+000 169 123 89
6.269412e-001 -1.693353e+000 3.052214e+000 188 87 31
5.610835e-001 -1.472699e+000 2.892813e+000 180 105 76
5.375637e-001 -1.497609e+000 2.958566e+000 154 92 63
5.375637e-001 -1.497609e+000 2.958566e+000 154 92 63
5.741718e-001 -1.464042e+000 2.843332e+000 151 25 31
4.648635e-001 -1.420555e+000 2.914926e+000 145 23 28
5.533938e-001 -1.650860e+000 3.110586e+000 154 121 98
5.090988e-001 -1.662475e+000 3.144975e+000 33 18 25
5.986404e-001 -1.614122e+000 2.999838e+000 187 120 78
5.707330e-001 -1.614681e+000 3.051350e+000 123 38 19
6.216653e-001 -1.700116e+000 3.056735e+000 180 90 37
5.079827e-001 -1.551674e+000 3.030967e+000 125 24 27
6.023248e-001 -1.703178e+000 3.055060e+000 67 41 31
5.930407e-001 -1.752786e+000 3.053788e+000 67 41 31
4.910333e-001 -1.640281e+000 3.091735e+000 170 126 91
5.024368e-001 -1.355709e+000 2.812296e+000 90 103 58
5.118118e-001 -1.421430e+000 2.851239e+000 152 141 111
4.569152e-001 -1.423677e+000 2.917568e+000 95 25 43
4.812382e-001 -1.421067e+000 2.905953e+000 207 134 108
5.001085e-001 -1.426547e+000 2.896816e+000 217 132 107
5.575269e-001 -1.448265e+000 2.858936e+000 218 135 104
4.653813e-001 -1.477114e+000 2.974422e+000 199 81 81
4.652121e-001 -1.477335e+000 2.974383e+000 199 81 81
5.086800e-001 -1.482552e+000 2.957500e+000 190 116 90
4.696194e-001 -1.496672e+000 2.990031e+000 154 50 47
5.052557e-001 -1.494822e+000 2.972877e+000 184 112 88
4.895099e-001 -1.524150e+000 2.977153e+000 180 109 86
5.010543e-001 -1.508099e+000 2.991438e+000 181 114 86
5.074233e-001 -1.550479e+000 3.032670e+000 228 63 71
5.240720e-001 -1.559606e+000 3.031479e+000 224 56 67
5.228361e-001 -1.557698e+000 3.034692e+000 133 31 33
5.582504e-001 -1.569086e+000 3.013122e+000 254 69 84
5.771346e-001 -1.576938e+000 2.998379e+000 215 56 63
5.251518e-001 -1.573358e+000 3.046563e+000 190 113 87
5.459281e-001 -1.568791e+000 3.025085e+000 218 69 70
5.329143e-001 -1.583421e+000 3.052749e+000 181 110 84
5.466779e-001 -1.587212e+000 3.043129e+000 97 56 36
5.583901e-001 -1.603914e+000 3.051341e+000 115 32 18
5.810411e-001 -1.623690e+000 3.033519e+000 136 77 33
5.477623e-001 -1.606384e+000 3.066062e+000 136 93 64
