ply
format ascii 1.0
element face 0
property list uchar int vertex_indices
element vertex 896
property float x
property float y
property float z
property uchar diffuse_red
property uchar diffuse_green
property uchar diffuse_blue
end_header
3.996305e-001 -1.130716e+000 2.869044e+000 231 76 75
3.732693e-001 -1.128761e+000 2.911992e+000 159 28 35
3.864408e-001 -1.136636e+000 2.900096e+000 221 73 75
4.054978e-001 -1.137087e+000 2.871962e+000 165 30 36
3.705355e-001 -1.130140e+000 2.916152e+000 157 32 36
3.710420e-001 -1.129179e+000 2.916030e+000 157 32 36
3.825963e-001 -1.134507e+000 2.906846e+000 148 34 36
3.572729e-001 -1.143319e+000 2.947135e+000 113 72 56
3.732053e-001 -1.148568e+000 2.936650e+000 193 130 111
3.594351e-001 -1.164276e+000 2.965293e+000 101 74 47
3.999279e-001 -1.173738e+000 2.932403e+000 137 79 33
4.011641e-001 -1.178474e+000 2.935393e+000 235 140 74
4.011641e-001 -1.178474e+000 2.935393e+000 235 140 74
2.517255e-001 -8.503438e-001 2.683770e+000 155 47 39
2.517255e-001 -8.503438e-001 2.683770e+000 155 47 39
2.535280e-001 -8.479937e-001 2.678505e+000 185 37 40
2.849566e-001 -8.604956e-001 2.662877e+000 167 39 45
2.849566e-001 -8.604956e-001 2.662877e+000 167 39 45
2.934276e-001 -8.631495e-001 2.654462e+000 201 142 109
2.841127e-001 -8.651885e-001 2.669411e+000 165 41 37
3.064064e-001 -8.806711e-001 2.660872e+000 21 75 88
3.120877e-001 -9.588235e-001 2.764489e+000 181 151 140
3.204768e-001 -9.631686e-001 2.759873e+000 176 158 138
3.037356e-001 -9.861516e-001 2.808030e+000 10 54 89
3.584589e-001 -1.013202e+000 2.769297e+000 15 70 98
2.846810e-001 -1.016686e+000 2.860051e+000 127 82 76
2.846810e-001 -1.016686e+000 2.860051e+000 127 82 76
3.388328e-001 -1.018942e+000 2.813794e+000 196 124 102
3.074576e-001 -1.036892e+000 2.866025e+000 98 59 42
3.004830e-001 -1.041260e+000 2.877586e+000 108 67 52
2.805307e-001 -1.050579e+000 2.896108e+000 205 92 90
3.526038e-001 -1.089308e+000 2.886481e+000 82 41 25
3.523359e-001 -1.089772e+000 2.886591e+000 82 41 25
3.105987e-001 -1.099546e+000 2.934988e+000 217 67 79
3.113156e-001 -1.092797e+000 2.927950e+000 152 45 51
3.257836e-001 -1.102416e+000 2.925974e+000 151 34 41
3.312322e-001 -1.103278e+000 2.923909e+000 148 37 43
3.562003e-001 -1.105166e+000 2.903668e+000 150 31 40
3.801248e-001 -1.113279e+000 2.886514e+000 146 32 39
3.825498e-001 -1.122007e+000 2.884749e+000 221 70 73
3.929155e-001 -1.128586e+000 2.878663e+000 152 31 34
3.993503e-001 -1.126619e+000 2.867072e+000 150 36 36
3.981957e-001 -1.130053e+000 2.873196e+000 147 35 37
4.019975e-001 -1.127284e+000 2.860676e+000 239 71 74
4.041064e-001 -1.132046e+000 2.865125e+000 201 65 57
4.106147e-001 -1.141699e+000 2.862537e+000 214 74 67
4.110047e-001 -1.141066e+000 2.858852e+000 147 37 42
3.315876e-001 -1.117206e+000 2.942319e+000 219 64 76
3.416407e-001 -1.119942e+000 2.934383e+000 153 38 44
3.783962e-001 -1.120832e+000 2.895469e+000 224 65 70
3.947188e-001 -1.136487e+000 2.877978e+000 213 64 63
4.031476e-001 -1.135233e+000 2.871720e+000 210 75 65
4.110416e-001 -1.140952e+000 2.865872e+000 167 29 39
3.927492e-001 -1.141115e+000 2.900260e+000 239 85 88
3.843498e-001 -1.153449e+000 2.929353e+000 128 82 61
2.865005e-001 -8.585697e-001 2.657741e+000 177 27 39
3.061881e-001 -9.177507e-001 2.719336e+000 154 152 43
3.061881e-001 -9.177507e-001 2.719336e+000 154 152 43
3.314407e-001 -9.333661e-001 2.696448e+000 74 109 97
3.314895e-001 -9.336106e-001 2.696827e+000 74 109 97
3.585767e-001 -9.638143e-001 2.687250e+000 88 87 66
3.586079e-001 -9.636257e-001 2.687116e+000 88 87 66
3.310112e-001 -1.017569e+000 2.820236e+000 78 42 30
3.307805e-001 -1.018020e+000 2.820343e+000 78 42 30
3.437568e-001 -1.039870e+000 2.832625e+000 204 129 110
3.371754e-001 -1.039329e+000 2.839958e+000 173 118 93
3.860355e-001 -1.065795e+000 2.796725e+000 101 55 41
3.855191e-001 -1.066749e+000 2.796687e+000 101 55 41
3.056890e-001 -1.046757e+000 2.883161e+000 137 90 77
3.056890e-001 -1.046757e+000 2.883161e+000 137 90 77
3.133402e-001 -1.049998e+000 2.878761e+000 103 57 39
3.436110e-001 -1.052485e+000 2.849485e+000 200 131 106
3.465064e-001 -1.059043e+000 2.856118e+000 199 132 105
3.925321e-001 -1.087463e+000 2.817272e+000 113 70 47
3.938254e-001 -1.095478e+000 2.824630e+000 106 76 56
3.251277e-001 -1.068207e+000 2.888444e+000 96 59 45
3.251277e-001 -1.068207e+000 2.888444e+000 96 59 45
3.601170e-001 -1.081065e+000 2.866836e+000 92 49 36
3.603565e-001 -1.080717e+000 2.866771e+000 92 49 36
2.987335e-001 -1.088146e+000 2.930276e+000 187 152 125
3.121964e-001 -1.076710e+000 2.909580e+000 119 71 57
3.220339e-001 -1.079145e+000 2.904791e+000 141 92 78
3.509655e-001 -1.081567e+000 2.880121e+000 167 114 96
3.913688e-001 -1.103955e+000 2.844352e+000 163 119 86
3.981323e-001 -1.109226e+000 2.838053e+000 90 59 41
4.007584e-001 -1.115425e+000 2.844331e+000 82 54 38
3.949267e-001 -1.117810e+000 2.860631e+000 198 142 100
3.167941e-001 -1.112081e+000 2.940176e+000 159 34 48
3.523352e-001 -1.103170e+000 2.904844e+000 153 32 36
3.715150e-001 -1.114113e+000 2.896246e+000 216 75 73
3.246334e-001 -1.119737e+000 2.948449e+000 151 36 43
3.954368e-001 -1.140055e+000 2.891899e+000 227 79 80
3.954368e-001 -1.140055e+000 2.891899e+000 227 79 80
4.168857e-001 -1.154679e+000 2.869408e+000 233 69 78
3.417991e-001 -1.131401e+000 2.947667e+000 140 90 77
3.417991e-001 -1.131401e+000 2.947667e+000 140 90 77
3.581629e-001 -1.136814e+000 2.938441e+000 123 66 55
3.413766e-001 -1.134150e+000 2.952864e+000 199 133 108
3.627477e-001 -1.145071e+000 2.943386e+000 100 60 45
3.714857e-001 -1.141880e+000 2.929972e+000 106 63 43
3.715527e-001 -1.141698e+000 2.929905e+000 106 63 43
3.888101e-001 -1.160815e+000 2.933452e+000 189 89 50
3.474424e-001 -1.169213e+000 2.986870e+000 148 118 97
2.772374e-001 -8.649814e-001 2.677094e+000 181 39 45
3.140368e-001 -8.998770e-001 2.677854e+000 158 152 22
2.769292e-001 -9.050724e-001 2.736307e+000 146 148 55
2.769292e-001 -9.050724e-001 2.736307e+000 146 148 55
3.172518e-001 -9.215522e-001 2.705785e+000 160 159 23
3.172518e-001 -9.215522e-001 2.705785e+000 160 159 23
3.062186e-001 -9.603637e-001 2.771775e+000 157 133 123
3.168875e-001 -9.852884e-001 2.795815e+000 165 25 38
3.295205e-001 -9.898725e-001 2.788009e+000 160 29 34
3.305235e-001 -9.971398e-001 2.793180e+000 5 54 83
3.390930e-001 -9.944304e-001 2.780172e+000 169 26 40
3.464031e-001 -1.025217e+000 2.815568e+000 201 130 105
3.491200e-001 -1.030707e+000 2.815658e+000 190 129 100
2.894474e-001 -1.024897e+000 2.861786e+000 200 136 118
2.894474e-001 -1.024897e+000 2.861786e+000 200 136 118
2.938573e-001 -1.031502e+000 2.868131e+000 199 134 116
2.944374e-001 -1.025036e+000 2.859842e+000 198 134 116
2.944374e-001 -1.025036e+000 2.859842e+000 198 134 116
2.995003e-001 -1.024040e+000 2.857591e+000 201 134 118
2.997108e-001 -1.023604e+000 2.857767e+000 201 134 118
3.368391e-001 -1.030102e+000 2.828249e+000 199 134 106
3.766568e-001 -1.053877e+000 2.796102e+000 176 114 90
3.800179e-001 -1.056609e+000 2.787043e+000 203 127 99
3.821578e-001 -1.064098e+000 2.794154e+000 200 131 101
3.402779e-001 -1.045548e+000 2.846478e+000 141 98 77
3.077741e-001 -1.055427e+000 2.884905e+000 199 134 109
3.423723e-001 -1.053459e+000 2.853129e+000 117 68 55
3.449495e-001 -1.060412e+000 2.859829e+000 89 51 37
3.034386e-001 -1.067152e+000 2.906275e+000 140 92 85
3.073324e-001 -1.075617e+000 2.907696e+000 198 136 115
3.080503e-001 -1.074429e+000 2.907588e+000 198 136 115
3.496912e-001 -1.071431e+000 2.868799e+000 197 133 108
3.493082e-001 -1.072128e+000 2.868893e+000 197 133 108
3.491755e-001 -1.076557e+000 2.872945e+000 160 106 87
3.491755e-001 -1.076557e+000 2.872945e+000 160 106 87
3.520831e-001 -1.080618e+000 2.875231e+000 197 133 107
3.951565e-001 -1.103932e+000 2.836091e+000 201 143 106
3.634563e-001 -1.104652e+000 2.892551e+000 162 25 38
3.923095e-001 -1.120896e+000 2.872706e+000 157 32 38
3.450855e-001 -1.133805e+000 2.949474e+000 202 132 107
3.450871e-001 -1.133846e+000 2.949527e+000 202 132 107
3.902247e-001 -1.150023e+000 2.915355e+000 76 36 9
3.254237e-001 -9.040632e-001 2.661524e+000 99 113 36
2.882380e-001 -9.049737e-001 2.717142e+000 137 141 30
3.170374e-001 -9.581400e-001 2.759170e+000 170 160 145
2.939769e-001 -9.731944e-001 2.798130e+000 171 27 42
3.108296e-001 -9.761888e-001 2.789287e+000 172 26 37
3.306458e-001 -9.833044e-001 2.776606e+000 171 30 39
3.543993e-001 -9.996649e-001 2.752585e+000 167 24 38
2.911007e-001 -1.051884e+000 2.892499e+000 207 138 123
3.023358e-001 -1.088454e+000 2.926783e+000 164 28 43
3.503692e-001 -1.100071e+000 2.900815e+000 166 23 35
2.686444e-001 -8.983865e-001 2.727371e+000 118 144 118
2.817738e-001 -9.185462e-001 2.742643e+000 29 59 32
3.373229e-001 -9.660158e-001 2.738185e+000 162 153 137
3.501395e-001 -1.117413e+000 2.920253e+000 174 21 39
3.501395e-001 -1.117413e+000 2.920253e+000 174 21 39
3.967255e-001 -1.137422e+000 2.884164e+000 176 23 37
3.967255e-001 -1.137422e+000 2.884164e+000 176 23 37
2.587198e-001 -8.687719e-001 2.709481e+000 127 141 143
2.622381e-001 -8.834934e-001 2.722034e+000 131 145 134
2.622381e-001 -8.834934e-001 2.722034e+000 131 145 134
3.436377e-001 -9.486981e-001 2.693106e+000 98 123 115
3.436377e-001 -9.486981e-001 2.693106e+000 98 123 115
2.616791e-001 -1.051815e+000 2.894400e+000 192 104 102
3.494699e-001 -1.093947e+000 2.894988e+000 199 132 106
3.714967e-001 -1.129077e+000 2.906354e+000 172 27 34
4.211609e-001 -1.159335e+000 2.871372e+000 177 27 39
3.934801e-001 -1.167778e+000 2.927171e+000 193 144 101
3.137136e-001 -9.175882e-001 2.701297e+000 62 106 117
2.747468e-001 -9.180037e-001 2.746552e+000 25 62 31
2.794832e-001 -9.119644e-001 2.735569e+000 126 146 137
2.835182e-001 -9.262147e-001 2.749542e+000 154 154 144
3.557926e-001 -9.466362e-001 2.663559e+000 52 97 120
3.291033e-001 -1.071649e+000 2.890437e+000 201 131 110
3.316730e-001 -1.053626e+000 2.863904e+000 194 133 105
3.544689e-001 -1.078357e+000 2.868183e+000 125 82 67
2.704348e-001 -1.058396e+000 2.887650e+000 184 102 90
4.249186e-001 -1.183519e+000 2.853421e+000 184 136 64
3.973031e-001 -1.148181e+000 2.874620e+000 163 35 35
2.096127e-001 -8.582125e-001 2.703062e+000 167 166 164
4.150994e-001 -1.106375e+000 2.808677e+000 179 140 97
2.424387e-001 -8.464973e-001 2.683485e+000 159 27 32
2.424387e-001 -8.464973e-001 2.683485e+000 159 27 32
3.015157e-001 -8.636671e-001 2.642497e+000 17 71 97
2.630250e-001 -8.583477e-001 2.679998e+000 203 130 94
2.733356e-001 -8.603913e-001 2.674593e+000 205 131 94
2.732100e-001 -8.606739e-001 2.674515e+000 205 131 94
2.958702e-001 -8.648917e-001 2.654517e+000 137 44 34
3.038465e-001 -8.693970e-001 2.648653e+000 20 72 96
3.040426e-001 -8.748273e-001 2.659891e+000 159 35 34
2.808159e-001 -8.847585e-001 2.696137e+000 64 72 21
3.024030e-001 -8.906055e-001 2.684067e+000 50 75 46
2.725962e-001 -9.081191e-001 2.735316e+000 130 134 32
3.162217e-001 -9.183763e-001 2.703109e+000 80 89 42
3.051190e-001 -9.520743e-001 2.762931e+000 191 106 87
3.337305e-001 -9.619901e-001 2.736582e+000 70 35 22
3.337305e-001 -9.619901e-001 2.736582e+000 70 35 22
3.128218e-001 -9.574272e-001 2.761786e+000 77 21 14
3.210409e-001 -9.596805e-001 2.757019e+000 76 12 7
3.210409e-001 -9.596805e-001 2.757019e+000 76 12 7
2.843641e-001 -9.733188e-001 2.807418e+000 198 130 98
3.071215e-001 -9.793399e-001 2.795034e+000 205 133 98
3.338995e-001 -9.889716e-001 2.779472e+000 116 27 21
3.338995e-001 -9.889716e-001 2.779472e+000 116 27 21
3.396560e-001 -9.918400e-001 2.774209e+000 92 24 18
3.432263e-001 -9.933679e-001 2.769290e+000 196 136 88
3.510320e-001 -9.983440e-001 2.760911e+000 222 128 100
3.546259e-001 -1.001862e+000 2.760916e+000 214 128 96
3.605204e-001 -1.004920e+000 2.753343e+000 115 25 23
3.711817e-001 -1.011363e+000 2.740546e+000 210 141 97
3.711817e-001 -1.011363e+000 2.740546e+000 210 141 97
2.891207e-001 -9.755218e-001 2.808058e+000 193 147 102
2.887008e-001 -9.762268e-001 2.807861e+000 193 147 102
2.964266e-001 -9.782762e-001 2.803918e+000 219 133 103
3.004676e-001 -9.796757e-001 2.801218e+000 198 133 97
3.054040e-001 -9.800253e-001 2.797158e+000 107 16 23
3.055442e-001 -9.796086e-001 2.797140e+000 107 16 23
3.175050e-001 -9.843172e-001 2.791305e+000 197 134 96
3.263817e-001 -9.867051e-001 2.785988e+000 199 139 113
3.296649e-001 -9.877299e-001 2.784086e+000 202 135 102
3.296308e-001 -9.879010e-001 2.784110e+000 202 135 102
3.329034e-001 -9.888964e-001 2.781741e+000 191 135 88
3.328286e-001 -9.891500e-001 2.781758e+000 191 135 88
3.358493e-001 -9.906321e-001 2.779496e+000 197 131 90
2.652297e-001 -9.831496e-001 2.829399e+000 26 73 108
3.335417e-001 -1.025461e+000 2.826219e+000 167 103 83
3.453020e-001 -1.028047e+000 2.819208e+000 50 15 3
3.382154e-001 -1.031944e+000 2.830718e+000 177 104 76
2.780561e-001 -1.035670e+000 2.879722e+000 140 42 36
3.087547e-001 -1.043135e+000 2.872474e+000 186 113 85
3.187557e-001 -1.039553e+000 2.858819e+000 184 106 79
2.949089e-001 -1.048483e+000 2.886507e+000 181 108 88
3.938619e-001 -1.104684e+000 2.841710e+000 178 115 74
4.015493e-001 -1.128340e+000 2.860766e+000 201 51 57
3.310343e-001 -1.100950e+000 2.920929e+000 223 66 74
3.309448e-001 -1.101299e+000 2.920957e+000 223 66 74
3.493521e-001 -1.100724e+000 2.904691e+000 198 55 66
3.436545e-001 -1.101247e+000 2.910977e+000 128 22 23
3.545858e-001 -1.107657e+000 2.907364e+000 220 70 76
3.119110e-001 -1.104615e+000 2.937045e+000 131 28 31
3.976724e-001 -1.142979e+000 2.889556e+000 218 51 56
3.567812e-001 -1.124322e+000 2.924884e+000 119 26 30
3.587822e-001 -1.126247e+000 2.923568e+000 125 22 29
3.674290e-001 -1.124983e+000 2.915778e+000 128 26 29
3.814851e-001 -1.130618e+000 2.905682e+000 222 70 81
2.588000e-001 -8.565711e-001 2.681570e+000 206 131 88
2.654192e-001 -8.564649e-001 2.675779e+000 192 132 95
2.682059e-001 -8.549189e-001 2.671479e+000 202 133 97
2.967632e-001 -8.674731e-001 2.656953e+000 142 39 30
2.822282e-001 -8.925392e-001 2.708064e+000 77 98 91
3.115439e-001 -9.189198e-001 2.713616e+000 141 139 32
3.582020e-001 -9.671500e-001 2.689004e+000 155 144 104
3.190928e-001 -9.535575e-001 2.750704e+000 92 16 19
3.097434e-001 -9.551894e-001 2.760921e+000 157 136 110
3.097434e-001 -9.551894e-001 2.760921e+000 157 136 110
3.127164e-001 -9.581597e-001 2.764653e+000 157 129 107
2.726437e-001 -9.800117e-001 2.822210e+000 24 68 104
3.065808e-001 -1.030186e+000 2.858303e+000 81 45 37
2.953276e-001 -1.035086e+000 2.871698e+000 67 43 32
2.999095e-001 -1.042717e+000 2.877435e+000 70 36 27
3.146565e-001 -1.045655e+000 2.869969e+000 70 43 36
3.146565e-001 -1.045655e+000 2.869969e+000 70 43 36
3.246957e-001 -1.041564e+000 2.856246e+000 70 41 30
2.746577e-001 -1.048361e+000 2.894161e+000 184 96 86
2.826687e-001 -1.045234e+000 2.889699e+000 179 90 81
3.070238e-001 -1.051588e+000 2.881464e+000 82 43 31
3.271324e-001 -1.062303e+000 2.878894e+000 62 28 13
3.281313e-001 -1.068635e+000 2.886173e+000 42 18 11
3.281313e-001 -1.068635e+000 2.886173e+000 42 18 11
3.323226e-001 -1.063709e+000 2.875602e+000 103 58 39
3.522239e-001 -1.068453e+000 2.862915e+000 176 108 77
3.519961e-001 -1.069157e+000 2.862899e+000 176 108 77
3.140212e-001 -1.070657e+000 2.901784e+000 64 26 25
3.255226e-001 -1.086092e+000 2.912574e+000 186 106 81
3.199026e-001 -1.095322e+000 2.923964e+000 131 22 27
3.226557e-001 -1.095782e+000 2.922626e+000 125 25 30
3.563661e-001 -1.104501e+000 2.903759e+000 131 28 30
3.922238e-001 -1.130189e+000 2.878666e+000 139 23 30
4.018037e-001 -1.132772e+000 2.869451e+000 130 20 29
4.019516e-001 -1.132370e+000 2.869523e+000 130 20 29
4.063469e-001 -1.131994e+000 2.866115e+000 133 23 25
4.135396e-001 -1.144244e+000 2.859301e+000 231 71 76
3.157786e-001 -1.100140e+000 2.930818e+000 127 28 34
3.143415e-001 -1.100173e+000 2.934006e+000 214 73 75
3.143415e-001 -1.100173e+000 2.934006e+000 214 73 75
3.620716e-001 -1.110908e+000 2.905378e+000 126 23 28
3.648468e-001 -1.115797e+000 2.905785e+000 184 38 38
3.918516e-001 -1.137880e+000 2.897261e+000 136 20 29
4.018028e-001 -1.142829e+000 2.886087e+000 212 45 51
4.015869e-001 -1.143497e+000 2.886216e+000 212 45 51
3.292982e-001 -1.116787e+000 2.940908e+000 137 24 33
3.641067e-001 -1.127365e+000 2.920419e+000 136 21 24
3.640097e-001 -1.128531e+000 2.923374e+000 237 77 91
3.675709e-001 -1.129972e+000 2.920655e+000 192 51 56
3.742148e-001 -1.129760e+000 2.913670e+000 126 23 31
3.882472e-001 -1.135316e+000 2.904959e+000 220 83 91
3.301339e-001 -1.129701e+000 2.954285e+000 56 30 16
2.685202e-001 -8.538724e-001 2.668575e+000 164 26 36
2.686789e-001 -8.536923e-001 2.668754e+000 164 26 36
2.612872e-001 -8.582803e-001 2.682593e+000 157 33 33
2.819421e-001 -8.652447e-001 2.672077e+000 188 138 98
2.839124e-001 -8.842036e-001 2.696217e+000 139 143 32
2.839124e-001 -8.842036e-001 2.696217e+000 139 143 32
3.010963e-001 -8.910074e-001 2.687337e+000 146 137 27
3.010963e-001 -8.910074e-001 2.687337e+000 146 137 27
3.065474e-001 -8.998925e-001 2.693553e+000 47 87 85
3.188511e-001 -9.139406e-001 2.693650e+000 57 83 89
2.970259e-001 -9.131309e-001 2.720631e+000 144 136 26
3.062388e-001 -9.553204e-001 2.766198e+000 149 128 106
3.207834e-001 -9.623908e-001 2.759909e+000 159 131 108
3.232391e-001 -9.846032e-001 2.786099e+000 146 19 28
2.905042e-001 -9.847560e-001 2.812924e+000 20 70 96
3.310024e-001 -1.017246e+000 2.820221e+000 72 35 16
3.348120e-001 -1.019386e+000 2.822348e+000 177 106 78
3.833069e-001 -1.059509e+000 2.789415e+000 74 32 19
3.031668e-001 -1.035097e+000 2.868326e+000 144 89 67
3.031668e-001 -1.035097e+000 2.868326e+000 144 89 67
3.919109e-001 -1.102574e+000 2.844262e+000 166 110 74
3.984933e-001 -1.107771e+000 2.837966e+000 70 35 12
3.063477e-001 -1.078163e+000 2.915419e+000 180 110 94
3.098807e-001 -1.079566e+000 2.913831e+000 189 107 86
3.093120e-001 -1.081256e+000 2.913745e+000 189 107 86
3.219840e-001 -1.079405e+000 2.904759e+000 153 92 73
3.528694e-001 -1.088375e+000 2.886406e+000 70 41 21
3.622256e-001 -1.092549e+000 2.881635e+000 68 29 22
4.117253e-001 -1.141128e+000 2.854528e+000 222 74 78
3.663552e-001 -1.106844e+000 2.896683e+000 123 21 28
3.766066e-001 -1.115725e+000 2.894180e+000 138 22 27
3.148021e-001 -1.109592e+000 2.941526e+000 133 24 33
3.148021e-001 -1.109592e+000 2.941526e+000 133 24 33
3.194298e-001 -1.109429e+000 2.939983e+000 131 21 33
3.197660e-001 -1.107778e+000 2.940063e+000 131 21 33
3.220421e-001 -1.107335e+000 2.932938e+000 132 23 32
3.310524e-001 -1.104330e+000 2.923795e+000 129 27 31
3.324282e-001 -1.109615e+000 2.930178e+000 155 23 18
3.472295e-001 -1.133371e+000 2.945034e+000 111 56 43
3.899536e-001 -1.149841e+000 2.915667e+000 70 38 24
2.558840e-001 -8.509760e-001 2.676606e+000 162 28 31
2.615559e-001 -8.518387e-001 2.673592e+000 157 27 25
2.615559e-001 -8.518387e-001 2.673592e+000 157 27 25
2.778766e-001 -8.837285e-001 2.701623e+000 139 129 25
2.955910e-001 -9.805391e-001 2.807619e+000 133 20 26
2.633243e-001 -9.839824e-001 2.832869e+000 153 144 142
3.122907e-001 -9.901568e-001 2.804640e+000 1 30 48
3.180642e-001 -9.919485e-001 2.801040e+000 2 27 45
3.861007e-001 -1.057379e+000 2.775324e+000 176 106 74
3.449900e-001 -1.026805e+000 2.815276e+000 177 110 73
3.449900e-001 -1.026805e+000 2.815276e+000 177 110 73
3.413959e-001 -1.031205e+000 2.825036e+000 180 107 74
3.834692e-001 -1.071629e+000 2.807801e+000 151 78 52
3.845692e-001 -1.071893e+000 2.812382e+000 182 109 81
3.845692e-001 -1.071893e+000 2.812382e+000 182 109 81
2.836404e-001 -1.040583e+000 2.886350e+000 144 35 38
3.424704e-001 -1.052743e+000 2.853169e+000 130 74 59
3.867070e-001 -1.077550e+000 2.819504e+000 181 114 77
3.900848e-001 -1.091825e+000 2.822094e+000 181 119 75
3.447141e-001 -1.058355e+000 2.855922e+000 178 103 82
3.471592e-001 -1.065427e+000 2.861903e+000 175 109 70
3.507199e-001 -1.066938e+000 2.860045e+000 175 108 77
3.958369e-001 -1.101938e+000 2.831201e+000 109 61 32
3.034152e-001 -1.061844e+000 2.894283e+000 177 110 88
3.081554e-001 -1.062723e+000 2.892284e+000 175 110 85
3.081554e-001 -1.062723e+000 2.892284e+000 175 110 85
3.147856e-001 -1.060059e+000 2.889225e+000 177 110 82
3.225146e-001 -1.059340e+000 2.881335e+000 115 58 39
3.579137e-001 -1.073677e+000 2.864345e+000 181 109 77
3.918355e-001 -1.102723e+000 2.839012e+000 183 120 73
3.069747e-001 -1.067294e+000 2.900683e+000 182 104 89
3.069747e-001 -1.067294e+000 2.900683e+000 182 104 89
3.221533e-001 -1.075573e+000 2.901001e+000 178 108 87
3.221533e-001 -1.075573e+000 2.901001e+000 178 108 87
3.287818e-001 -1.072585e+000 2.889438e+000 177 109 83
3.287818e-001 -1.072585e+000 2.889438e+000 177 109 83
3.571792e-001 -1.089010e+000 2.879991e+000 175 109 77
3.571792e-001 -1.089010e+000 2.879991e+000 175 109 77
3.179289e-001 -1.091001e+000 2.918816e+000 146 17 37
3.369515e-001 -1.099098e+000 2.914731e+000 137 23 37
3.369515e-001 -1.099098e+000 2.914731e+000 137 23 37
3.354316e-001 -1.107945e+000 2.926630e+000 140 22 28
2.935644e-001 -9.089980e-001 2.718917e+000 22 51 9
3.021689e-001 -9.745271e-001 2.793151e+000 141 18 19
3.334570e-001 -9.895436e-001 2.785485e+000 127 22 26
2.687198e-001 -1.017133e+000 2.864193e+000 159 47 45
3.402497e-001 -1.034507e+000 2.834527e+000 175 107 81
3.532101e-001 -1.074991e+000 2.866149e+000 178 109 78
3.012615e-001 -1.083530e+000 2.921868e+000 180 113 96
3.722214e-001 -1.140388e+000 2.924486e+000 182 107 77
2.822086e-001 -8.837575e-001 2.696276e+000 92 89 18
2.882222e-001 -8.873149e-001 2.695811e+000 24 46 21
2.620678e-001 -8.984683e-001 2.733029e+000 129 124 42
2.686388e-001 -8.983803e-001 2.727354e+000 118 121 43
3.244832e-001 -9.272526e-001 2.706550e+000 29 46 24
3.033233e-001 -8.829046e-001 2.665673e+000 16 70 98
2.756844e-001 -8.871938e-001 2.707202e+000 22 47 25
2.691251e-001 -9.050332e-001 2.733043e+000 23 48 18
2.840051e-001 -1.030468e+000 2.872315e+000 179 111 92
2.958562e-001 -1.064741e+000 2.903609e+000 178 111 92
3.792066e-001 -1.132235e+000 2.899180e+000 154 15 31
2.904550e-001 -1.014586e+000 2.850343e+000 176 108 87
3.351933e-001 -1.044865e+000 2.853274e+000 175 106 73
2.341284e-001 -8.415672e-001 2.681443e+000 127 126 111
4.141573e-001 -1.156660e+000 2.870225e+000 169 26 31
4.141573e-001 -1.156660e+000 2.870225e+000 169 26 31
3.401636e-001 -1.088650e+000 2.895116e+000 177 109 74
3.492048e-001 -9.838094e-001 2.745880e+000 159 141 105
3.353048e-001 -9.449282e-001 2.693415e+000 24 47 19
2.844362e-001 -9.879615e-001 2.820834e+000 23 66 93
3.667630e-001 -1.030447e+000 2.757481e+000 71 117 139
3.129159e-001 -9.601681e-001 2.754758e+000 114 30 32
3.063602e-001 -8.769576e-001 2.655967e+000 37 68 44
3.099941e-001 -8.901085e-001 2.669986e+000 34 72 45
2.801142e-001 -8.954141e-001 2.707198e+000 83 106 78
3.169310e-001 -9.820918e-001 2.789013e+000 200 139 107
3.207274e-001 -9.860049e-001 2.789249e+000 218 125 98
3.844389e-001 -1.036316e+000 2.743567e+000 45 74 82
3.503411e-001 -1.021281e+000 2.791163e+000 8 49 71
3.378840e-001 -1.032873e+000 2.830818e+000 177 112 84
3.317176e-001 -1.065128e+000 2.878236e+000 182 110 82
3.147027e-001 -1.108871e+000 2.944889e+000 216 59 71
2.990870e-001 -8.636056e-001 2.647397e+000 160 34 32
3.257658e-001 -9.111364e-001 2.676710e+000 139 139 42
3.131992e-001 -9.536206e-001 2.756081e+000 169 139 112
3.214714e-001 -9.557366e-001 2.751025e+000 180 137 111
3.142291e-001 -1.070291e+000 2.901800e+000 87 49 45
3.279876e-001 -1.094969e+000 2.917081e+000 181 80 68
3.279912e-001 -1.094948e+000 2.917072e+000 181 80 68
3.883137e-001 -1.124222e+000 2.876753e+000 128 30 31
3.676269e-001 -1.109291e+000 2.896476e+000 133 24 29
3.195644e-001 -1.112619e+000 2.943018e+000 199 60 71
3.209329e-001 -1.109679e+000 2.942741e+000 199 60 71
3.018907e-001 -8.678336e-001 2.648440e+000 173 145 116
3.058597e-001 -8.930749e-001 2.680641e+000 145 141 33
2.794889e-001 -8.924971e-001 2.708301e+000 142 132 24
2.794889e-001 -8.924971e-001 2.708301e+000 142 132 24
3.635422e-001 -1.097338e+000 2.884254e+000 187 111 91
4.002215e-001 -1.116838e+000 2.844395e+000 87 49 30
3.173526e-001 -1.096530e+000 2.930652e+000 134 28 36
3.903885e-001 -1.129547e+000 2.880846e+000 140 26 30
3.283991e-001 -1.107365e+000 2.936370e+000 138 24 32
2.831390e-001 -8.714583e-001 2.521212e+000 207 174 131
2.849561e-001 -9.771653e-001 2.813098e+000 145 20 36
3.038691e-001 -1.027798e+000 2.855005e+000 182 113 90
3.204819e-001 -9.306735e-001 2.726381e+000 27 50 23
3.204819e-001 -9.306735e-001 2.726381e+000 27 50 23
3.028459e-001 -9.782301e-001 2.798340e+000 192 117 90
3.104810e-001 -1.106475e+000 2.944738e+000 151 21 31
2.658749e-001 -8.751567e-001 2.687610e+000 40 88 107
2.903755e-001 -1.083027e+000 2.923171e+000 115 24 39
3.946916e-001 -1.102985e+000 2.861119e+000 187 125 84
2.747453e-001 -1.098562e+000 2.935343e+000 186 147 135
3.671993e-001 -1.103111e+000 2.891860e+000 154 25 27
4.180582e-001 -1.212706e+000 2.959885e+000 183 150 124
4.279347e-001 -1.221351e+000 2.951241e+000 23 14 7
4.472203e-001 -1.252783e+000 2.956794e+000 48 16 2
4.043562e-001 -1.188789e+000 2.952179e+000 169 75 39
3.916791e-001 -1.182601e+000 2.966781e+000 140 85 45
4.391864e-001 -4.889429e-001 3.032143e+000 73 53 44
4.236528e-001 -5.540550e-001 3.106593e+000 71 60 54
4.482335e-001 -4.004540e-001 2.959719e+000 159 108 85
4.579557e-001 -5.275026e-001 3.039483e+000 39 34 41
4.363577e-001 -4.990806e-001 3.046913e+000 23 12 18
4.242395e-001 -5.257329e-001 3.089095e+000 20 10 18
4.135290e-001 -1.212663e+000 2.972602e+000 164 92 47
3.507068e-001 -1.142323e+000 2.951165e+000 71 41 24
3.574204e-001 -1.142991e+000 2.947062e+000 113 72 56
3.520078e-001 -1.154172e+000 2.964565e+000 175 136 105
3.644745e-001 -1.159553e+000 2.957909e+000 135 102 74
3.448277e-001 -1.167596e+000 2.985813e+000 164 129 98
3.523373e-001 -1.170512e+000 2.981394e+000 168 129 99
3.563225e-001 -1.161687e+000 2.970177e+000 165 128 100
4.042619e-001 -1.177824e+000 2.930642e+000 189 109 52
4.025181e-001 -1.179329e+000 2.933729e+000 100 48 18
3.472506e-001 -1.173472e+000 2.989592e+000 170 130 105
3.577685e-001 -1.171273e+000 2.978149e+000 173 131 100
3.569627e-001 -1.173375e+000 2.983799e+000 172 132 102
3.805524e-001 -1.175186e+000 2.961981e+000 143 103 68
3.824993e-001 -1.180838e+000 2.962753e+000 184 126 88
3.856036e-001 -1.178981e+000 2.955542e+000 193 94 41
3.837576e-001 -1.182490e+000 2.964362e+000 188 130 87
3.856313e-001 -1.186702e+000 2.965912e+000 187 117 64
3.929604e-001 -1.181160e+000 2.950170e+000 192 78 42
3.930858e-001 -1.183622e+000 2.954880e+000 180 79 37
4.056364e-001 -1.185812e+000 2.939758e+000 185 74 37
3.707089e-001 -1.189525e+000 2.986348e+000 28 19 14
3.702357e-001 -1.190249e+000 2.986305e+000 28 19 14
4.234931e-001 -1.206189e+000 2.936510e+000 123 52 17
4.151800e-001 -1.215560e+000 2.962424e+000 32 22 17
4.148793e-001 -1.216224e+000 2.962533e+000 32 22 17
4.294494e-001 -1.221348e+000 2.948781e+000 191 149 122
4.398344e-001 -1.231084e+000 2.933778e+000 183 155 127
4.406940e-001 -1.235189e+000 2.940149e+000 178 141 114
3.474818e-001 -1.208739e+000 3.030770e+000 137 95 93
3.572542e-001 -1.208675e+000 3.018405e+000 33 23 16
3.572542e-001 -1.208675e+000 3.018405e+000 33 23 16
3.599712e-001 -1.213511e+000 3.020068e+000 153 124 113
3.686917e-001 -1.215326e+000 3.013126e+000 155 127 111
3.840339e-001 -1.218373e+000 3.000644e+000 32 22 13
3.985232e-001 -1.225860e+000 2.993061e+000 170 139 118
4.161238e-001 -1.220225e+000 2.966774e+000 38 23 15
4.167454e-001 -1.229230e+000 2.972706e+000 177 107 40
4.185662e-001 -1.221974e+000 2.965759e+000 190 156 131
4.185715e-001 -1.222092e+000 2.965756e+000 190 156 131
4.177237e-001 -1.231994e+000 2.974938e+000 174 104 38
4.286007e-001 -1.228052e+000 2.955914e+000 33 22 14
4.315900e-001 -1.231159e+000 2.961036e+000 175 93 34
4.174853e-001 -1.241740e+000 2.985268e+000 43 16 0
4.235507e-001 -1.242545e+000 2.978732e+000 157 84 30
4.324883e-001 -1.249939e+000 2.973799e+000 47 22 13
4.441150e-001 -1.254490e+000 2.965265e+000 43 22 10
3.598699e-001 -1.167978e+000 2.972571e+000 168 130 99
3.646546e-001 -1.162071e+000 2.960775e+000 168 130 93
3.708646e-001 -1.166396e+000 2.961156e+000 177 133 98
4.173661e-001 -1.188609e+000 2.920446e+000 187 54 39
3.571523e-001 -1.172489e+000 2.981171e+000 109 82 63
3.814521e-001 -1.181732e+000 2.965877e+000 97 66 41
3.810442e-001 -1.185515e+000 2.968778e+000 190 138 98
3.905320e-001 -1.178297e+000 2.950159e+000 138 50 28
3.959470e-001 -1.187079e+000 2.952511e+000 192 85 41
3.835881e-001 -1.223024e+000 3.005466e+000 171 138 119
4.381677e-001 -1.252579e+000 2.969588e+000 46 15 3
4.080870e-001 -1.167595e+000 2.908191e+000 88 57 39
3.393996e-001 -1.173770e+000 2.989566e+000 82 61 42
4.438706e-001 -1.215546e+000 2.893753e+000 151 60 52
3.811282e-001 -1.192715e+000 2.977295e+000 194 156 115
4.275426e-001 -1.234519e+000 2.966309e+000 164 91 30
4.354104e-001 -1.248053e+000 2.969951e+000 158 87 43
3.740851e-001 -1.151085e+000 2.940059e+000 201 132 103
4.345021e-001 -1.228609e+000 2.948592e+000 37 19 13
4.289679e-001 -1.244309e+000 2.974227e+000 171 96 29
4.371830e-001 -1.203381e+000 2.904937e+000 188 97 27
3.259295e-001 -1.202971e+000 3.033334e+000 190 166 156
4.079833e-001 -1.231157e+000 2.986907e+000 184 150 124
4.372195e-001 -1.223261e+000 2.882703e+000 175 134 88
4.366073e-001 -1.246535e+000 2.908893e+000 185 107 25
1.376574e-001 -8.972546e-001 2.580600e+000 216 197 173
4.555929e-001 -1.255879e+000 2.847258e+000 35 24 30
3.345768e-001 -1.208780e+000 2.918549e+000 160 32 40
2.697405e-001 -8.603258e-001 2.675862e+000 202 129 92
2.959275e-001 -8.646280e-001 2.654645e+000 137 44 34
2.735789e-001 -8.639486e-001 2.677282e+000 238 112 92
2.996703e-001 -8.734492e-001 2.659720e+000 231 116 93
2.998698e-001 -8.730084e-001 2.659851e+000 231 116 93
3.063375e-001 -8.821628e-001 2.659824e+000 37 66 36
3.027916e-001 -8.891243e-001 2.684799e+000 50 75 46
3.251684e-001 -9.123698e-001 2.677040e+000 133 132 32
3.253022e-001 -9.121816e-001 2.677276e+000 133 132 32
3.091417e-001 -9.571181e-001 2.763715e+000 78 36 27
3.091417e-001 -9.571181e-001 2.763715e+000 78 36 27
2.804912e-001 -9.715972e-001 2.807401e+000 211 131 108
2.878558e-001 -9.744450e-001 2.805462e+000 196 141 105
3.070955e-001 -9.795362e-001 2.795023e+000 205 133 98
3.291147e-001 -9.847750e-001 2.782073e+000 189 134 94
3.823416e-001 -1.026539e+000 2.735060e+000 70 44 39
2.768596e-001 -9.749143e-001 2.813688e+000 212 130 107
2.768596e-001 -9.749143e-001 2.813688e+000 212 130 107
3.379836e-001 -1.019351e+000 2.816513e+000 33 18 8
2.627811e-001 -1.050885e+000 2.891038e+000 183 85 83
2.764255e-001 -1.041337e+000 2.883588e+000 154 53 49
2.789844e-001 -1.034213e+000 2.879512e+000 140 42 36
2.777335e-001 -1.038762e+000 2.881669e+000 177 73 68
2.646196e-001 -1.059823e+000 2.901186e+000 160 42 49
2.660832e-001 -1.053236e+000 2.895501e+000 145 59 54
2.732193e-001 -1.053826e+000 2.896212e+000 146 46 45
2.661780e-001 -1.091289e+000 2.926311e+000 68 125 199
2.661780e-001 -1.091289e+000 2.926311e+000 68 125 199
3.228852e-001 -1.109457e+000 2.935048e+000 135 19 31
3.463644e-001 -1.103876e+000 2.915095e+000 129 26 30
3.520914e-001 -1.113326e+000 2.915713e+000 133 26 29
3.716648e-001 -1.129994e+000 2.918650e+000 229 67 71
3.829663e-001 -1.130646e+000 2.907345e+000 133 24 32
3.828832e-001 -1.134466e+000 2.909713e+000 219 76 77
3.540122e-001 -1.142448e+000 2.949271e+000 45 15 7
3.541069e-001 -1.142147e+000 2.949262e+000 45 15 7
3.667833e-001 -1.147056e+000 2.941248e+000 120 72 52
3.733391e-001 -1.147676e+000 2.936763e+000 184 104 81
2.915611e-001 -1.158661e+000 2.989117e+000 67 29 15
3.849156e-001 -1.167300e+000 2.947423e+000 167 46 30
3.871131e-001 -1.168953e+000 2.950791e+000 171 55 33
3.976315e-001 -1.170170e+000 2.934577e+000 120 56 25
3.906773e-001 -1.172016e+000 2.942547e+000 169 50 35
3.936239e-001 -1.168823e+000 2.940928e+000 179 44 34
4.104060e-001 -1.185616e+000 2.932113e+000 108 48 8
4.179749e-001 -1.193454e+000 2.930379e+000 125 43 21
3.563527e-001 -1.167769e+000 2.974064e+000 166 117 81
3.561778e-001 -1.166918e+000 2.976628e+000 88 55 36
3.620939e-001 -1.162547e+000 2.967033e+000 168 115 77
3.640816e-001 -1.166359e+000 2.965476e+000 161 113 80
3.678168e-001 -1.170290e+000 2.967366e+000 158 111 77
3.591208e-001 -1.166672e+000 2.975149e+000 76 45 21
3.632421e-001 -1.169019e+000 2.970751e+000 162 116 82
3.630545e-001 -1.169769e+000 2.970711e+000 162 116 82
3.737696e-001 -1.168057e+000 2.961349e+000 92 58 31
3.793422e-001 -1.169411e+000 2.955718e+000 159 89 54
3.792739e-001 -1.169806e+000 2.955649e+000 159 89 54
3.897039e-001 -1.177566e+000 2.953014e+000 170 60 33
3.865937e-001 -1.175685e+000 2.957847e+000 144 66 22
3.934448e-001 -1.177992e+000 2.947890e+000 123 44 24
3.934448e-001 -1.177992e+000 2.947890e+000 123 44 24
4.002231e-001 -1.181669e+000 2.943756e+000 167 62 25
3.973584e-001 -1.186175e+000 2.948291e+000 129 46 16
4.170721e-001 -1.202801e+000 2.943890e+000 168 78 29
4.236419e-001 -1.200556e+000 2.928227e+000 187 71 30
3.471109e-001 -1.174876e+000 2.989652e+000 168 121 86
3.615907e-001 -1.175528e+000 2.978476e+000 164 120 81
3.615907e-001 -1.175528e+000 2.978476e+000 164 120 81
3.647603e-001 -1.178530e+000 2.979694e+000 161 115 81
3.687345e-001 -1.181597e+000 2.980868e+000 161 119 84
3.764046e-001 -1.179553e+000 2.969708e+000 61 29 9
3.764046e-001 -1.179553e+000 2.969708e+000 61 29 9
4.235512e-001 -1.215136e+000 2.951927e+000 21 8 1
4.295342e-001 -1.220371e+000 2.948822e+000 202 148 109
3.337323e-001 -1.180112e+000 3.006903e+000 26 16 11
3.511308e-001 -1.183468e+000 2.998354e+000 30 21 14
3.791880e-001 -1.192718e+000 2.981020e+000 25 12 9
4.196701e-001 -1.216857e+000 2.957220e+000 184 143 108
4.284615e-001 -1.218087e+000 2.951302e+000 24 13 5
4.305946e-001 -1.224709e+000 2.950324e+000 188 127 96
3.967189e-001 -1.222265e+000 2.992167e+000 20 8 5
4.185297e-001 -1.228475e+000 2.974702e+000 161 83 36
4.156670e-001 -1.229842e+000 2.977595e+000 162 84 35
4.253661e-001 -1.240588e+000 2.976050e+000 35 11 6
4.467343e-001 -1.253931e+000 2.956951e+000 39 12 9
4.467577e-001 -1.253779e+000 2.956942e+000 39 12 9
4.514462e-001 -1.257391e+000 2.957813e+000 46 11 5
3.410196e-001 -1.205367e+000 3.028308e+000 22 12 4
3.428508e-001 -1.211646e+000 3.030722e+000 170 127 111
3.428508e-001 -1.211646e+000 3.030722e+000 170 127 111
3.440741e-001 -1.210998e+000 3.032778e+000 166 115 106
3.520105e-001 -1.207922e+000 3.021972e+000 17 9 6
3.491695e-001 -1.208295e+000 3.027066e+000 169 128 110
3.493832e-001 -1.207050e+000 3.026758e+000 169 128 110
3.569605e-001 -1.212456e+000 3.022544e+000 168 125 105
3.563644e-001 -1.215401e+000 3.022692e+000 168 125 105
3.644968e-001 -1.215101e+000 3.015887e+000 161 119 97
3.644851e-001 -1.215624e+000 3.015907e+000 161 119 97
3.759457e-001 -1.215155e+000 3.006182e+000 11 9 9
3.936750e-001 -1.224818e+000 2.996946e+000 163 120 96
4.045669e-001 -1.229536e+000 2.991621e+000 172 122 91
4.169285e-001 -1.242294e+000 2.985487e+000 34 6 2
4.169842e-001 -1.241393e+000 2.985574e+000 34 6 2
4.273326e-001 -1.244602e+000 2.976851e+000 152 78 37
4.386441e-001 -1.248665e+000 2.969800e+000 25 10 3
3.685505e-001 -1.213707e+000 3.024150e+000 117 46 42
3.699930e-001 -1.227624e+000 3.021571e+000 116 50 35
2.957649e-001 -8.675752e-001 2.659707e+000 204 133 99
3.037199e-001 -8.970279e-001 2.694664e+000 141 133 21
2.142502e-001 -9.489614e-001 2.794745e+000 96 110 121
3.214548e-001 -9.554642e-001 2.751083e+000 164 138 102
3.302742e-001 -9.664347e-001 2.751756e+000 165 126 90
2.912532e-001 -9.745134e-001 2.803005e+000 201 133 108
2.956722e-001 -9.763875e-001 2.801571e+000 186 133 94
2.747537e-001 -9.811822e-001 2.820695e+000 23 71 106
2.966317e-001 -1.029238e+000 2.862939e+000 49 22 17
2.952990e-001 -1.035306e+000 2.871656e+000 67 43 32
3.072312e-001 -1.037971e+000 2.865752e+000 58 38 22
3.005438e-001 -1.056957e+000 2.892403e+000 62 48 37
3.107559e-001 -1.064735e+000 2.895526e+000 62 32 19
3.135619e-001 -1.072158e+000 2.901627e+000 64 26 25
4.037867e-001 -1.119356e+000 2.851979e+000 199 116 86
4.093773e-001 -1.130633e+000 2.852431e+000 202 56 59
4.093818e-001 -1.130584e+000 2.852402e+000 202 56 59
3.241915e-001 -1.098161e+000 2.921362e+000 127 20 31
3.471435e-001 -1.103791e+000 2.908675e+000 130 27 25
3.629409e-001 -1.105208e+000 2.896501e+000 194 49 52
3.149394e-001 -1.107205e+000 2.935961e+000 121 28 30
3.195731e-001 -1.106795e+000 2.933717e+000 131 28 34
3.252165e-001 -1.109008e+000 2.933419e+000 220 47 64
3.431876e-001 -1.108756e+000 2.921468e+000 145 15 28
3.633965e-001 -1.112396e+000 2.909612e+000 137 23 29
3.185875e-001 -1.117587e+000 2.945452e+000 128 27 33
3.185875e-001 -1.117587e+000 2.945452e+000 128 27 33
3.329344e-001 -1.117499e+000 2.937455e+000 131 23 30
3.473803e-001 -1.118474e+000 2.927273e+000 169 27 25
3.535115e-001 -1.116233e+000 2.925607e+000 201 59 61
3.535115e-001 -1.116233e+000 2.925607e+000 201 59 61
3.556221e-001 -1.126063e+000 2.928493e+000 226 70 83
3.675660e-001 -1.129928e+000 2.920644e+000 192 51 56
3.917866e-001 -1.154568e+000 2.922993e+000 177 119 87
2.981868e-001 -1.162734e+000 2.991354e+000 149 84 54
3.500634e-001 -1.156985e+000 2.969157e+000 172 122 88
3.499876e-001 -1.157876e+000 2.969121e+000 172 122 88
3.620477e-001 -1.161574e+000 2.961896e+000 169 116 78
3.646861e-001 -1.162163e+000 2.960801e+000 171 118 76
3.711093e-001 -1.161651e+000 2.956776e+000 169 116 78
3.758099e-001 -1.165831e+000 2.953046e+000 181 108 71
3.862604e-001 -1.171962e+000 2.947909e+000 97 25 16
3.956908e-001 -1.176957e+000 2.943187e+000 177 58 27
4.052102e-001 -1.179338e+000 2.934634e+000 189 99 41
4.102624e-001 -1.181733e+000 2.929947e+000 179 93 34
4.150171e-001 -1.189630e+000 2.930748e+000 185 95 31
3.744122e-001 -1.172393e+000 2.957986e+000 168 112 75
3.829099e-001 -1.179620e+000 2.962700e+000 173 107 66
3.829099e-001 -1.179620e+000 2.962700e+000 173 107 66
3.996600e-001 -1.184128e+000 2.949856e+000 170 71 28
4.009328e-001 -1.189504e+000 2.954006e+000 178 76 30
3.517867e-001 -1.173486e+000 2.984048e+000 52 28 15
3.517867e-001 -1.173486e+000 2.984048e+000 52 28 15
3.545534e-001 -1.173797e+000 2.982593e+000 80 49 28
3.545534e-001 -1.173797e+000 2.982593e+000 80 49 28
3.788263e-001 -1.184497e+000 2.974099e+000 155 115 80
3.897781e-001 -1.187026e+000 2.962907e+000 176 92 45
4.459099e-001 -1.240775e+000 2.941043e+000 118 73 50
4.380720e-001 -1.243807e+000 2.966095e+000 44 21 13
4.440013e-001 -1.248335e+000 2.963037e+000 36 9 6
3.206838e-001 -1.211232e+000 3.046609e+000 198 134 119
3.677242e-001 -1.210994e+000 3.011576e+000 26 12 5
3.839604e-001 -1.227608e+000 3.008204e+000 106 50 31
3.941360e-001 -1.226671e+000 2.997870e+000 165 118 92
4.166770e-001 -1.238084e+000 2.982767e+000 25 6 4
4.252267e-001 -1.246361e+000 2.979116e+000 38 8 0
4.325682e-001 -1.249643e+000 2.973786e+000 29 7 4
2.683775e-001 -8.609032e-001 2.678083e+000 143 31 26
3.063652e-001 -8.925256e-001 2.680832e+000 134 137 42
3.065479e-001 -8.921606e-001 2.681026e+000 134 137 42
2.971347e-001 -9.126137e-001 2.720802e+000 144 136 26
2.503537e-001 -1.015506e+000 2.861698e+000 174 50 59
3.944319e-001 -1.092030e+000 2.824806e+000 75 46 27
3.899469e-001 -1.093593e+000 2.837859e+000 69 47 32
3.900379e-001 -1.092837e+000 2.837832e+000 69 47 32
3.596416e-001 -1.085152e+000 2.875373e+000 59 26 19
3.062628e-001 -1.078787e+000 2.915456e+000 180 110 94
3.621893e-001 -1.092559e+000 2.881562e+000 68 29 22
3.991856e-001 -1.123467e+000 2.864343e+000 219 78 77
3.713039e-001 -1.106741e+000 2.890919e+000 210 64 66
3.167122e-001 -1.119959e+000 2.951861e+000 126 26 31
3.408042e-001 -1.121983e+000 2.934496e+000 133 25 32
3.470961e-001 -1.134601e+000 2.945060e+000 111 56 43
3.581352e-001 -1.137252e+000 2.938474e+000 106 50 40
3.717479e-001 -1.140382e+000 2.929903e+000 110 62 48
4.085921e-001 -1.164549e+000 2.907976e+000 47 21 6
4.085492e-001 -1.165945e+000 2.907912e+000 47 21 6
3.755677e-001 -1.148751e+000 2.935185e+000 82 32 26
3.529802e-001 -1.156037e+000 2.966672e+000 168 123 86
3.115868e-001 -1.168132e+000 3.002007e+000 181 131 94
3.490104e-001 -1.170427e+000 2.983375e+000 171 117 79
3.494313e-001 -1.168512e+000 2.983251e+000 171 117 79
4.417107e-001 -1.230164e+000 2.929206e+000 53 32 17
4.447166e-001 -1.231677e+000 2.932477e+000 189 149 115
4.148825e-001 -1.222272e+000 2.973818e+000 164 90 37
4.276529e-001 -1.233305e+000 2.966345e+000 154 79 29
3.372086e-001 -1.208002e+000 3.036134e+000 179 143 131
3.584457e-001 -1.221087e+000 3.025847e+000 78 24 20
3.645598e-001 -1.217887e+000 3.019365e+000 151 102 88
3.899471e-001 -1.224901e+000 3.001178e+000 170 121 103
3.908714e-001 -1.225657e+000 3.004634e+000 108 47 29
3.973498e-001 -1.231478e+000 2.999831e+000 101 46 29
3.145432e-001 -9.068759e-001 2.689346e+000 24 49 17
3.061210e-001 -9.169875e-001 2.719127e+000 134 125 30
3.061210e-001 -9.169875e-001 2.719127e+000 134 125 30
2.759836e-001 -9.127831e-001 2.740814e+000 130 127 43
2.759836e-001 -9.127831e-001 2.740814e+000 130 127 43
2.633428e-001 -9.764467e-001 2.823295e+000 114 23 48
3.794498e-001 -1.026296e+000 2.746005e+000 12 48 65
2.982847e-001 -9.877814e-001 2.812334e+000 13 49 70
3.259505e-001 -9.987081e-001 2.804129e+000 12 49 73
3.867161e-001 -1.048402e+000 2.755689e+000 22 69 92
3.413710e-001 -1.042612e+000 2.841875e+000 177 108 74
3.443169e-001 -1.046567e+000 2.845231e+000 72 40 35
3.430796e-001 -1.048984e+000 2.849397e+000 178 107 72
3.430796e-001 -1.048984e+000 2.849397e+000 178 107 72
3.461454e-001 -1.054749e+000 2.851738e+000 74 45 26
3.452202e-001 -1.058415e+000 2.860048e+000 95 49 38
3.034398e-001 -1.061949e+000 2.894343e+000 177 110 88
3.502859e-001 -1.072663e+000 2.872992e+000 164 96 71
3.502859e-001 -1.072663e+000 2.872992e+000 164 96 71
3.549996e-001 -1.084928e+000 2.881838e+000 182 107 78
3.991700e-001 -1.115455e+000 2.849305e+000 184 121 79
3.313912e-001 -1.113070e+000 2.934277e+000 133 26 31
3.907169e-001 -1.145954e+000 2.915792e+000 67 36 23
3.997722e-001 -1.155488e+000 2.912219e+000 182 120 90
4.037506e-001 -1.163495e+000 2.906922e+000 190 118 79
4.436632e-001 -1.229602e+000 2.932387e+000 186 137 105
3.473977e-001 -1.184893e+000 2.998110e+000 183 135 95
3.183901e-001 -1.217532e+000 3.045576e+000 185 140 113
3.276320e-001 -1.210754e+000 3.048271e+000 132 27 41
3.659203e-001 -9.562968e-001 2.645785e+000 96 110 101
2.716359e-001 -9.986779e-001 2.842256e+000 20 72 119
3.407435e-001 -1.030678e+000 2.835361e+000 175 107 81
3.055483e-001 -1.042009e+000 2.870036e+000 176 109 84
3.077094e-001 -1.055861e+000 2.884855e+000 176 105 85
3.522059e-001 -1.093466e+000 2.895756e+000 179 105 77
4.151316e-001 -1.138180e+000 2.850629e+000 150 21 27
4.165510e-001 -1.142850e+000 2.854877e+000 144 23 27
3.114339e-001 -1.118460e+000 2.952389e+000 141 23 34
3.855084e-001 -1.146761e+000 2.913874e+000 182 117 74
4.209295e-001 -1.187683e+000 2.914786e+000 110 17 18
3.418737e-001 -1.149875e+000 2.968790e+000 75 48 33
3.418017e-001 -1.150885e+000 2.968850e+000 75 48 33
3.463151e-001 -1.162379e+000 2.977828e+000 167 121 89
3.745236e-001 -1.191085e+000 2.982653e+000 180 136 100
3.712464e-001 -1.221044e+000 3.013796e+000 159 115 92
3.262005e-001 -9.288708e-001 2.691798e+000 32 47 28
3.271577e-001 -9.260345e-001 2.692855e+000 32 47 28
3.124386e-001 -9.814288e-001 2.793245e+000 101 27 26
2.774228e-001 -1.053643e+000 2.892830e+000 171 78 71
4.206097e-001 -1.158173e+000 2.871704e+000 152 19 32
4.379036e-001 -1.207897e+000 2.895902e+000 117 23 24
3.372981e-001 -1.182475e+000 3.003546e+000 167 133 105
3.982342e-001 -1.221112e+000 2.988906e+000 26 13 8
3.557186e-001 -1.212808e+000 3.023252e+000 166 122 105
3.295492e-001 -9.389430e-001 2.695261e+000 82 97 86
4.172688e-001 -1.151265e+000 2.862455e+000 155 18 30
3.582515e-001 -1.116714e+000 2.915775e+000 147 17 29
3.582515e-001 -1.116714e+000 2.915775e+000 147 17 29
3.713741e-001 -1.130086e+000 2.906299e+000 148 18 28
3.521106e-001 -1.149005e+000 2.957264e+000 170 116 80
3.519854e-001 -1.149308e+000 2.957246e+000 170 116 80
4.181103e-001 -1.197326e+000 2.942630e+000 104 39 17
4.181103e-001 -1.197326e+000 2.942630e+000 104 39 17
4.046056e-001 -1.202261e+000 2.963588e+000 185 141 96
4.417317e-001 -1.233119e+000 2.956655e+000 173 82 27
2.957001e-001 -9.076165e-001 2.712476e+000 66 102 95
2.957001e-001 -9.076165e-001 2.712476e+000 66 102 95
2.845768e-001 -1.056918e+000 2.901614e+000 165 31 43
3.388506e-001 -1.138246e+000 2.960482e+000 182 110 86
3.412819e-001 -1.157402e+000 2.978637e+000 169 123 89
4.516245e-001 -1.258390e+000 2.942253e+000 188 87 31
3.671783e-001 -1.030811e+000 2.790292e+000 180 105 76
3.485321e-001 -1.054605e+000 2.857983e+000 154 92 63
3.485321e-001 -1.054605e+000 2.857983e+000 154 92 63
3.764973e-001 -1.021621e+000 2.738856e+000 151 25 31
2.695631e-001 -9.767195e-001 2.819438e+000 145 23 28
3.806181e-001 -1.211723e+000 3.007792e+000 154 121 98
3.378490e-001 -1.229558e+000 3.044206e+000 33 18 25
4.167794e-001 -1.176882e+000 2.892939e+000 187 120 78
3.921919e-001 -1.178487e+000 2.947711e+000 123 38 19
4.468880e-001 -1.265423e+000 2.947141e+000 180 90 37
3.256424e-001 -1.110585e+000 2.931716e+000 125 24 27
4.271252e-001 -1.266770e+000 2.945985e+000 67 41 31
4.187257e-001 -1.315121e+000 2.942140e+000 67 41 31
3.171822e-001 -1.195912e+000 2.990269e+000 170 126 91
2.978813e-001 -9.086789e-001 2.713744e+000 90 103 58
3.105717e-001 -9.823811e-001 2.750529e+000 152 141 111
2.628466e-001 -9.764500e-001 2.823711e+000 95 25 43
2.853848e-001 -9.762603e-001 2.809556e+000 207 134 108
3.043097e-001 -9.810104e-001 2.799152e+000 217 132 107
3.599659e-001 -1.005563e+000 2.755771e+000 218 135 104
2.763202e-001 -1.033766e+000 2.878617e+000 199 81 81
2.760600e-001 -1.034149e+000 2.878560e+000 199 81 81
3.187400e-001 -1.039503e+000 2.858811e+000 190 116 90
2.832264e-001 -1.050689e+000 2.894051e+000 154 50 47
3.168212e-001 -1.052033e+000 2.874345e+000 184 112 88
3.026014e-001 -1.081368e+000 2.878420e+000 180 109 86
3.144168e-001 -1.065369e+000 2.893105e+000 181 114 86
3.253061e-001 -1.107991e+000 2.933534e+000 228 63 71
3.421844e-001 -1.118435e+000 2.931247e+000 224 56 67
3.411536e-001 -1.116443e+000 2.934764e+000 133 31 33
3.756889e-001 -1.128807e+000 2.910440e+000 254 69 84
3.938305e-001 -1.138010e+000 2.894043e+000 215 56 63
3.448887e-001 -1.132343e+000 2.946212e+000 190 113 87
3.640583e-001 -1.128427e+000 2.923382e+000 218 69 70
3.535743e-001 -1.142502e+000 2.951848e+000 181 110 84
3.667016e-001 -1.147172e+000 2.941197e+000 97 56 36
3.797176e-001 -1.164424e+000 2.948492e+000 115 32 18
4.015889e-001 -1.186082e+000 2.928202e+000 136 77 33
3.701880e-001 -1.166501e+000 2.964000e+000 136 93 64
3.740412e-001 -1.167941e+000 2.960949e+000 103 69 40
3.832378e-001 -1.172177e+000 2.954408e+000 182 78 41
3.817875e-001 -1.171733e+000 2.956197e+000 110 40 13
3.817875e-001 -1.171733e+000 2.956197e+000 110 40 13
3.978327e-001 -1.175371e+000 2.939041e+000 114 41 20
3.466804e-001 -1.169535e+000 2.989491e+000 175 125 89
3.454355e-001 -1.174735e+000 2.994381e+000 178 129 89
3.454931e-001 -1.175833e+000 2.994467e+000 178 129 89
3.519292e-001 -1.175184e+000 2.989014e+000 93 65 50
3.518292e-001 -1.175754e+000 2.989192e+000 93 65 50
3.767848e-001 -1.175195e+000 2.963793e+000 121 77 48
3.805226e-001 -1.174416e+000 2.962102e+000 115 75 48
3.889512e-001 -1.191197e+000 2.969547e+000 126 54 12
3.950427e-001 -1.197967e+000 2.970003e+000 27 13 5
4.001195e-001 -1.196718e+000 2.964196e+000 193 142 108
4.389337e-001 -1.227141e+000 2.936596e+000 199 149 112
4.231061e-001 -1.225824e+000 2.963457e+000 188 144 109
3.602399e-001 -1.212893e+000 3.020155e+000 166 126 111
4.241160e-001 -1.240218e+000 2.974003e+000 165 89 28
4.520470e-001 -1.259901e+000 2.955067e+000 186 79 38
3.912161e-001 -1.242728e+000 3.005940e+000 123 55 43
4.578004e-001 -1.269813e+000 2.960492e+000 41 21 25
3.133338e-001 -9.531959e-001 2.756013e+000 169 139 112
3.558169e-001 -1.001327e+000 2.756472e+000 210 138 105
3.065709e-001 -1.030152e+000 2.858298e+000 93 51 38
3.545677e-001 -1.103050e+000 2.901454e+000 174 41 45
3.798819e-001 -1.112487e+000 2.882584e+000 178 39 42
4.020608e-001 -1.126482e+000 2.860859e+000 215 64 68
4.042634e-001 -1.138956e+000 2.865805e+000 140 27 34
3.155909e-001 -1.104606e+000 2.936000e+000 134 30 36
3.399163e-001 -1.108591e+000 2.923277e+000 142 21 30
3.710219e-001 -1.108157e+000 2.894291e+000 125 29 31
3.299439e-001 -1.115076e+000 2.937640e+000 225 57 72
3.369850e-001 -1.118757e+000 2.936717e+000 124 20 29
3.416913e-001 -1.116239e+000 2.937212e+000 205 59 66
3.812510e-001 -1.133050e+000 2.908543e+000 126 20 30
