ply
format ascii 1.0
element face 0
property list uchar int vertex_indices
element vertex 896
property float x
property float y
property float z
property uchar diffuse_red
property uchar diffuse_green
property uchar diffuse_blue
end_header
4.223570e-001 -1.185181e+000 2.904981e+000 169 26 40
4.274073e-001 -1.215011e+000 2.940680e+000 201 130 105
4.296190e-001 -1.220933e+000 2.941152e+000 190 129 100
3.672252e-001 -1.217134e+000 2.984577e+000 200 136 118
3.672252e-001 -1.217134e+000 2.984577e+000 200 136 118
3.717682e-001 -1.222657e+000 2.991292e+000 199 134 116
3.722033e-001 -1.217674e+000 2.982851e+000 198 134 116
3.722033e-001 -1.217674e+000 2.982851e+000 198 134 116
3.776781e-001 -1.216004e+000 2.980823e+000 201 134 118
3.794578e-001 -1.213264e+000 2.980849e+000 201 134 118
4.166096e-001 -1.220905e+000 2.953210e+000 199 134 106
4.569239e-001 -1.243835e+000 2.923463e+000 176 114 90
4.605070e-001 -1.246588e+000 2.914796e+000 203 127 99
4.621329e-001 -1.253847e+000 2.922038e+000 200 131 101
4.187794e-001 -1.236055e+000 2.971639e+000 141 98 77
3.834878e-001 -1.247858e+000 3.008733e+000 199 134 109
4.203483e-001 -1.243760e+000 2.978479e+000 117 68 55
4.225190e-001 -1.250354e+000 2.985264e+000 89 51 37
3.797691e-001 -1.256025e+000 3.029804e+000 140 92 85
3.821935e-001 -1.265951e+000 3.031737e+000 198 136 115
3.833363e-001 -1.264164e+000 3.031549e+000 198 136 115
4.260745e-001 -1.262096e+000 2.994490e+000 197 133 108
4.261789e-001 -1.261696e+000 2.994519e+000 197 133 108
4.261879e-001 -1.265351e+000 2.998505e+000 160 106 87
4.261879e-001 -1.265351e+000 2.998505e+000 160 106 87
4.283232e-001 -1.270040e+000 3.001100e+000 197 133 107
4.719256e-001 -1.292882e+000 2.964498e+000 201 143 106
4.379669e-001 -1.293881e+000 3.019029e+000 162 25 38
4.669668e-001 -1.309531e+000 3.000671e+000 157 32 38
4.161808e-001 -1.322829e+000 3.075063e+000 202 132 107
4.160960e-001 -1.323152e+000 3.075244e+000 202 132 107
4.620441e-001 -1.338189e+000 3.043126e+000 76 36 9
4.169834e-001 -1.095803e+000 2.786825e+000 99 113 36
3.763562e-001 -1.098697e+000 2.839039e+000 137 141 30
4.020080e-001 -1.150155e+000 2.882732e+000 170 160 145
3.761724e-001 -1.165947e+000 2.920403e+000 171 27 42
3.947217e-001 -1.166886e+000 2.912519e+000 172 26 37
4.134627e-001 -1.176039e+000 2.900960e+000 171 30 39
4.381967e-001 -1.190840e+000 2.878528e+000 167 24 38
3.672822e-001 -1.242758e+000 3.015757e+000 207 138 123
3.758452e-001 -1.278774e+000 3.050709e+000 164 28 43
4.247171e-001 -1.289550e+000 3.026656e+000 166 23 35
3.565581e-001 -1.092227e+000 2.848095e+000 118 144 118
3.677877e-001 -1.112806e+000 2.863400e+000 29 59 32
4.229957e-001 -1.157685e+000 2.862987e+000 162 153 137
4.231182e-001 -1.306506e+000 3.046181e+000 174 21 39
4.231182e-001 -1.306506e+000 3.046181e+000 174 21 39
4.700769e-001 -1.326098e+000 3.012441e+000 176 23 37
4.700769e-001 -1.326098e+000 3.012441e+000 176 23 37
3.483533e-001 -1.063297e+000 2.829540e+000 127 141 143
3.512320e-001 -1.077248e+000 2.842420e+000 131 145 134
3.512320e-001 -1.077248e+000 2.842420e+000 131 145 134
4.311462e-001 -1.141582e+000 2.818643e+000 98 123 115
4.311462e-001 -1.141582e+000 2.818643e+000 98 123 115
3.384556e-001 -1.242275e+000 3.017020e+000 192 104 102
4.243214e-001 -1.283360e+000 3.020803e+000 199 132 106
4.445473e-001 -1.317831e+000 3.033356e+000 172 27 34
4.938107e-001 -1.347795e+000 3.001153e+000 177 27 39
4.661098e-001 -1.351179e+000 3.054823e+000 193 144 101
4.022268e-001 -1.110728e+000 2.824718e+000 62 106 117
3.616851e-001 -1.110283e+000 2.867680e+000 25 62 31
3.663089e-001 -1.105847e+000 2.856419e+000 126 146 137
3.694000e-001 -1.119400e+000 2.870567e+000 154 154 144
4.446182e-001 -1.139063e+000 2.790027e+000 52 97 120
4.058592e-001 -1.260289e+000 3.014987e+000 201 131 110
4.090903e-001 -1.244273e+000 2.988726e+000 194 133 105
4.315270e-001 -1.267197e+000 2.994033e+000 125 82 67
3.472999e-001 -1.248766e+000 3.010859e+000 184 102 90
4.973301e-001 -1.371914e+000 2.984675e+000 184 136 64
4.708713e-001 -1.336526e+000 3.003512e+000 163 35 35
2.986871e-001 -1.055083e+000 2.821725e+000 167 166 164
4.915619e-001 -1.297025e+000 2.938270e+000 179 140 97
3.338058e-001 -1.041522e+000 2.802753e+000 159 27 32
3.338058e-001 -1.041522e+000 2.802753e+000 159 27 32
3.940172e-001 -1.058391e+000 2.765546e+000 17 71 97
3.542883e-001 -1.052960e+000 2.800570e+000 203 130 94
3.647747e-001 -1.055059e+000 2.795694e+000 205 131 94
3.646795e-001 -1.055289e+000 2.795651e+000 205 131 94
3.878825e-001 -1.059608e+000 2.777066e+000 137 44 34
3.960184e-001 -1.063851e+000 2.771853e+000 20 72 96
3.954678e-001 -1.069453e+000 2.782916e+000 159 35 34
3.705577e-001 -1.078788e+000 2.817607e+000 64 72 21
3.924890e-001 -1.084479e+000 2.806811e+000 50 75 46
3.600071e-001 -1.101325e+000 2.856307e+000 130 134 32
4.046590e-001 -1.111472e+000 2.826631e+000 80 89 42
3.901365e-001 -1.144383e+000 2.885811e+000 191 106 87
4.195280e-001 -1.154010e+000 2.861247e+000 70 35 22
4.195280e-001 -1.154010e+000 2.861247e+000 70 35 22
3.976623e-001 -1.149822e+000 2.885186e+000 77 21 14
4.059904e-001 -1.152116e+000 2.880808e+000 76 12 7
4.059904e-001 -1.152116e+000 2.880808e+000 76 12 7
3.665518e-001 -1.165833e+000 2.929556e+000 198 130 98
3.898111e-001 -1.171521e+000 2.918227e+000 205 133 98
4.172086e-001 -1.180265e+000 2.904099e+000 116 27 21
4.172086e-001 -1.180265e+000 2.904099e+000 116 27 21
4.230170e-001 -1.183199e+000 2.899175e+000 92 24 18
4.266573e-001 -1.184719e+000 2.894489e+000 196 136 88
4.346890e-001 -1.189497e+000 2.886698e+000 222 128 100
4.381289e-001 -1.192992e+000 2.886905e+000 214 128 96
4.441556e-001 -1.195945e+000 2.879687e+000 115 25 23
4.550497e-001 -1.201932e+000 2.867585e+000 210 141 97
4.550497e-001 -1.201932e+000 2.867585e+000 210 141 97
3.713345e-001 -1.167610e+000 2.930323e+000 193 147 102
3.708989e-001 -1.168426e+000 2.930202e+000 193 147 102
3.788250e-001 -1.170193e+000 2.926575e+000 219 133 103
3.828444e-001 -1.171964e+000 2.924156e+000 198 133 97
3.880696e-001 -1.171904e+000 2.920253e+000 107 16 23
3.880771e-001 -1.171964e+000 2.920260e+000 107 16 23
4.002413e-001 -1.176365e+000 2.915072e+000 197 134 96
4.093092e-001 -1.178562e+000 2.910201e+000 199 139 113
4.125949e-001 -1.179686e+000 2.908440e+000 202 135 102
4.125782e-001 -1.179763e+000 2.908450e+000 202 135 102
4.159277e-001 -1.180690e+000 2.906259e+000 191 135 88
4.160011e-001 -1.180538e+000 2.906294e+000 191 135 88
4.190596e-001 -1.181988e+000 2.904212e+000 197 131 90
3.455358e-001 -1.176293e+000 2.950755e+000 26 73 108
4.136064e-001 -1.216430e+000 2.950965e+000 167 103 83
4.254495e-001 -1.219256e+000 2.944520e+000 50 15 3
4.179013e-001 -1.222722e+000 2.955702e+000 177 104 76
3.552289e-001 -1.226798e+000 3.002400e+000 140 42 36
3.857177e-001 -1.235287e+000 2.996213e+000 186 113 85
3.968308e-001 -1.230771e+000 2.983031e+000 184 106 79
3.707646e-001 -1.241702e+000 3.009689e+000 181 108 88
4.705333e-001 -1.293170e+000 2.970016e+000 178 115 74
4.765253e-001 -1.316320e+000 2.989457e+000 201 51 57
4.043617e-001 -1.291165e+000 3.045947e+000 223 66 74
4.042943e-001 -1.291437e+000 3.045987e+000 223 66 74
4.234264e-001 -1.290638e+000 3.030460e+000 198 55 66
4.174218e-001 -1.291310e+000 3.036482e+000 128 22 23
4.284022e-001 -1.297103e+000 3.033326e+000 220 70 76
3.844913e-001 -1.294586e+000 3.061436e+000 131 28 31
4.709017e-001 -1.330927e+000 3.017860e+000 218 51 56
4.291522e-001 -1.313775e+000 3.051008e+000 119 26 30
4.311378e-001 -1.315699e+000 3.049819e+000 125 22 29
4.401225e-001 -1.314406e+000 3.042332e+000 128 26 29
4.544027e-001 -1.319486e+000 3.032929e+000 222 70 81
3.500227e-001 -1.051336e+000 2.801857e+000 206 131 88
3.569094e-001 -1.051260e+000 2.796489e+000 192 132 95
3.597019e-001 -1.050137e+000 2.792139e+000 202 133 97
3.886898e-001 -1.062046e+000 2.779693e+000 142 39 30
3.711868e-001 -1.086415e+000 2.829487e+000 77 98 91
3.996281e-001 -1.111947e+000 2.836792e+000 141 139 32
4.456064e-001 -1.158763e+000 2.815873e+000 155 144 104
4.045743e-001 -1.145870e+000 2.874392e+000 92 16 19
3.946999e-001 -1.147551e+000 2.884143e+000 157 136 110
3.946467e-001 -1.147688e+000 2.884075e+000 157 136 110
3.974880e-001 -1.150314e+000 2.887917e+000 157 129 107
3.541080e-001 -1.171941e+000 2.943911e+000 24 68 104
3.849738e-001 -1.221528e+000 2.981949e+000 81 45 37
3.726026e-001 -1.227184e+000 2.994844e+000 67 43 32
3.765357e-001 -1.235460e+000 3.000769e+000 70 36 27
3.919570e-001 -1.236957e+000 2.994031e+000 70 43 36
3.919570e-001 -1.236957e+000 2.994031e+000 70 43 36
4.028386e-001 -1.232593e+000 2.980692e+000 70 41 30
3.492796e-001 -1.243727e+000 3.016540e+000 184 96 86
3.576560e-001 -1.239937e+000 3.012355e+000 179 90 81
3.837208e-001 -1.242563e+000 3.005308e+000 82 43 31
4.036337e-001 -1.253047e+000 3.003589e+000 62 28 13
4.040797e-001 -1.259242e+000 3.010891e+000 42 18 11
4.040797e-001 -1.259242e+000 3.010891e+000 42 18 11
4.087760e-001 -1.254785e+000 3.000520e+000 103 58 39
4.292652e-001 -1.258690e+000 2.988744e+000 176 108 77
4.290659e-001 -1.259213e+000 2.988670e+000 176 108 77
3.891520e-001 -1.261423e+000 3.025907e+000 64 26 25
3.997508e-001 -1.276425e+000 3.037180e+000 186 106 81
3.933204e-001 -1.285598e+000 3.048518e+000 131 22 27
3.960642e-001 -1.286137e+000 3.047283e+000 125 25 30
4.303567e-001 -1.294189e+000 3.029787e+000 131 28 30
4.664238e-001 -1.318409e+000 3.006765e+000 139 23 30
4.761345e-001 -1.320958e+000 2.998048e+000 130 20 29
4.766610e-001 -1.318963e+000 2.998188e+000 130 20 29
4.808743e-001 -1.319814e+000 2.994880e+000 133 23 25
4.880899e-001 -1.330980e+000 2.988823e+000 231 71 76
3.883705e-001 -1.291756e+000 3.055320e+000 127 28 34
3.869922e-001 -1.290736e+000 3.058383e+000 214 73 75
3.869922e-001 -1.290736e+000 3.058383e+000 214 73 75
4.358607e-001 -1.300151e+000 3.031624e+000 126 23 28
4.383530e-001 -1.305144e+000 3.032265e+000 184 38 38
4.649528e-001 -1.326050e+000 3.025086e+000 136 20 29
4.752728e-001 -1.330112e+000 3.014521e+000 212 45 51
4.749462e-001 -1.331177e+000 3.014707e+000 212 45 51
4.011991e-001 -1.306786e+000 3.065923e+000 137 24 33
4.366492e-001 -1.316382e+000 3.046846e+000 136 21 24
4.364707e-001 -1.317120e+000 3.049770e+000 237 77 91
4.398873e-001 -1.319293e+000 3.047252e+000 192 51 56
4.469455e-001 -1.318314e+000 3.040497e+000 126 23 31
4.613770e-001 -1.322438e+000 3.032528e+000 220 83 91
4.009845e-001 -1.319947e+000 3.079487e+000 56 30 16
3.602321e-001 -1.049106e+000 2.789388e+000 164 26 36
3.605755e-001 -1.048555e+000 2.789669e+000 164 26 36
3.524260e-001 -1.052943e+000 2.802992e+000 157 33 33
3.732088e-001 -1.060296e+000 2.793707e+000 188 138 98
3.737769e-001 -1.078060e+000 2.817826e+000 139 143 32
3.737769e-001 -1.078060e+000 2.817826e+000 139 143 32
3.910389e-001 -1.084896e+000 2.809960e+000 146 137 27
3.910389e-001 -1.084896e+000 2.809960e+000 146 137 27
3.958913e-001 -1.093735e+000 2.816424e+000 47 87 85
4.078533e-001 -1.107087e+000 2.817413e+000 57 83 89
3.849287e-001 -1.106195e+000 2.842551e+000 144 136 26
3.909234e-001 -1.147833e+000 2.889204e+000 149 128 106
4.056383e-001 -1.154435e+000 2.883753e+000 159 131 108
4.059842e-001 -1.177128e+000 2.910189e+000 146 19 28
3.720791e-001 -1.176971e+000 2.935390e+000 20 70 96
4.116768e-001 -1.207985e+000 2.945050e+000 72 35 16
4.152610e-001 -1.210400e+000 2.947026e+000 177 106 78
4.638422e-001 -1.248631e+000 2.917427e+000 74 32 19
3.802264e-001 -1.227917e+000 2.991657e+000 144 89 67
3.802264e-001 -1.227917e+000 2.991657e+000 144 89 67
4.684156e-001 -1.291434e+000 2.972349e+000 166 110 74
4.751233e-001 -1.296130e+000 2.966524e+000 70 35 12
3.805845e-001 -1.268975e+000 3.039345e+000 180 110 94
3.840972e-001 -1.270416e+000 3.037908e+000 189 107 86
3.834857e-001 -1.272063e+000 3.037882e+000 189 107 86
3.967667e-001 -1.269969e+000 3.029312e+000 153 92 73
4.281242e-001 -1.278600e+000 3.012287e+000 70 41 21
4.375463e-001 -1.282476e+000 3.007929e+000 68 29 22
4.865570e-001 -1.328160e+000 2.984036e+000 222 74 78
4.405671e-001 -1.296310e+000 3.023154e+000 123 21 28
4.505503e-001 -1.305026e+000 3.021191e+000 138 22 27
3.869727e-001 -1.299650e+000 3.066007e+000 133 24 33
3.865053e-001 -1.301066e+000 3.066063e+000 133 24 33
3.916230e-001 -1.299571e+000 3.064603e+000 131 21 33
3.919868e-001 -1.298029e+000 3.064636e+000 131 21 33
3.944025e-001 -1.298177e+000 3.057737e+000 132 23 32
4.041939e-001 -1.294358e+000 3.048843e+000 129 27 31
4.050680e-001 -1.299626e+000 3.055266e+000 155 23 18
4.183904e-001 -1.322936e+000 3.070762e+000 111 56 43
4.618316e-001 -1.337938e+000 3.043348e+000 70 38 24
3.474576e-001 -1.045926e+000 2.796758e+000 162 28 31
3.532315e-001 -1.046825e+000 2.794049e+000 157 27 25
3.530624e-001 -1.047126e+000 2.793867e+000 157 27 25
3.674947e-001 -1.077612e+000 2.822844e+000 139 129 25
3.777218e-001 -1.172659e+000 2.930371e+000 133 20 26
3.439891e-001 -1.176028e+000 2.954295e+000 153 144 142
3.942660e-001 -1.182162e+000 2.928195e+000 1 30 48
4.002603e-001 -1.183567e+000 2.924912e+000 2 27 45
4.672575e-001 -1.246456e+000 2.903690e+000 176 106 74
4.255019e-001 -1.217574e+000 2.940602e+000 177 110 73
4.255019e-001 -1.217574e+000 2.940602e+000 177 110 73
4.212135e-001 -1.222321e+000 2.950226e+000 180 107 74
4.626504e-001 -1.260946e+000 2.935577e+000 151 78 52
4.633955e-001 -1.262478e+000 2.940188e+000 182 109 81
4.634871e-001 -1.261363e+000 2.940095e+000 182 109 81
3.588369e-001 -1.235568e+000 3.008818e+000 144 35 38
4.203639e-001 -1.243616e+000 2.978465e+000 130 74 59
4.651688e-001 -1.266842e+000 2.947320e+000 181 114 77
4.680822e-001 -1.280507e+000 2.950430e+000 181 119 75
4.224456e-001 -1.248677e+000 2.981347e+000 178 103 82
4.243380e-001 -1.255689e+000 2.987465e+000 175 109 70
4.280442e-001 -1.256762e+000 2.985845e+000 175 108 77
4.731106e-001 -1.290144e+000 2.959777e+000 109 61 32
3.786387e-001 -1.254535e+000 3.018025e+000 177 110 88
3.839874e-001 -1.253601e+000 3.016254e+000 175 110 85
3.839874e-001 -1.253601e+000 3.016254e+000 175 110 85
3.908629e-001 -1.250925e+000 3.013350e+000 177 110 82
3.984275e-001 -1.251602e+000 3.005660e+000 115 58 39
4.346095e-001 -1.264022e+000 2.990365e+000 181 109 77
4.687515e-001 -1.291130e+000 2.967310e+000 183 120 73
3.822299e-001 -1.258172e+000 3.024600e+000 182 104 89
3.822299e-001 -1.258172e+000 3.024600e+000 182 104 89
3.972135e-001 -1.266150e+000 3.025484e+000 178 108 87
3.972135e-001 -1.266150e+000 3.025484e+000 178 108 87
4.043067e-001 -1.263648e+000 3.014286e+000 177 109 83
4.043067e-001 -1.263648e+000 3.014286e+000 177 109 83
4.328147e-001 -1.278744e+000 3.006092e+000 175 109 77
4.328147e-001 -1.278744e+000 3.006092e+000 175 109 77
3.916387e-001 -1.281508e+000 3.043299e+000 146 17 37
4.106481e-001 -1.289247e+000 3.039954e+000 137 23 37
4.106481e-001 -1.289247e+000 3.039954e+000 137 23 37
4.083448e-001 -1.297997e+000 3.051903e+000 140 22 28
3.817142e-001 -1.102253e+000 2.841029e+000 22 51 9
3.846433e-001 -1.167806e+000 2.915731e+000 141 18 19
4.162733e-001 -1.181478e+000 2.909998e+000 127 22 26
3.460771e-001 -1.210572e+000 2.986014e+000 159 47 45
4.195661e-001 -1.225606e+000 2.959626e+000 175 107 81
4.298285e-001 -1.265161e+000 2.992072e+000 178 109 78
3.744714e-001 -1.275895e+000 3.045714e+000 180 113 96
4.440926e-001 -1.329133e+000 3.051351e+000 182 107 77
3.709869e-001 -1.079686e+000 2.817228e+000 92 89 18
3.780145e-001 -1.081103e+000 2.817722e+000 24 46 21
3.498248e-001 -1.092034e+000 2.853575e+000 129 124 42
3.565155e-001 -1.092375e+000 2.847977e+000 118 121 43
4.124144e-001 -1.120360e+000 2.830476e+000 29 46 24
3.945855e-001 -1.077611e+000 2.788589e+000 16 70 98
3.649184e-001 -1.080847e+000 2.828223e+000 22 47 25
3.609073e-001 -1.223294e+000 2.994659e+000 179 111 92
3.704306e-001 -1.257207e+000 3.026812e+000 178 111 92
4.533664e-001 -1.317710e+000 3.026681e+000 154 15 31
3.692977e-001 -1.207160e+000 2.972946e+000 176 108 87
4.134053e-001 -1.235627e+000 2.978123e+000 175 106 73
3.269772e-001 -1.034452e+000 2.800603e+000 127 126 111
4.877826e-001 -1.343286e+000 2.999825e+000 169 26 31
4.877826e-001 -1.343286e+000 2.999825e+000 169 26 31
4.142211e-001 -1.281284e+000 3.020605e+000 177 109 74
4.336676e-001 -1.175847e+000 2.871379e+000 159 141 105
4.227192e-001 -1.138663e+000 2.817914e+000 24 47 19
3.657870e-001 -1.179587e+000 2.943495e+000 23 66 93
4.494377e-001 -1.220525e+000 2.884606e+000 71 117 139
3.978729e-001 -1.152617e+000 2.878205e+000 114 30 32
3.980420e-001 -1.070933e+000 2.779180e+000 37 68 44
4.006339e-001 -1.084003e+000 2.793335e+000 34 72 45
3.689635e-001 -1.089316e+000 2.828678e+000 83 106 78
4.000018e-001 -1.173651e+000 2.912627e+000 200 139 107
4.036905e-001 -1.177442e+000 2.913099e+000 218 125 98
4.675169e-001 -1.226071e+000 2.872170e+000 45 74 82
4.322064e-001 -1.211677e+000 2.916991e+000 8 49 71
4.176824e-001 -1.223269e+000 2.955752e+000 177 112 84
4.081260e-001 -1.255755e+000 3.003096e+000 182 110 82
3.865480e-001 -1.299380e+000 3.069332e+000 216 59 71
3.913066e-001 -1.058535e+000 2.770194e+000 160 34 32
4.155844e-001 -1.104284e+000 2.801194e+000 139 139 42
3.985007e-001 -1.145762e+000 2.879368e+000 169 139 112
4.068345e-001 -1.147993e+000 2.874826e+000 180 137 111
3.893374e-001 -1.261096e+000 3.025893e+000 87 49 45
4.015931e-001 -1.285538e+000 3.041970e+000 181 80 68
4.015216e-001 -1.285645e+000 3.041970e+000 181 80 68
4.628037e-001 -1.312681e+000 3.004631e+000 128 30 31
4.418734e-001 -1.298365e+000 3.022947e+000 133 24 29
3.915134e-001 -1.302846e+000 3.067702e+000 199 60 71
3.929415e-001 -1.299934e+000 3.067342e+000 199 60 71
3.942264e-001 -1.062337e+000 2.771716e+000 173 145 116
3.961913e-001 -1.086595e+000 2.803757e+000 145 141 33
3.684426e-001 -1.086351e+000 2.829646e+000 142 132 24
3.684426e-001 -1.086351e+000 2.829646e+000 142 132 24
4.387699e-001 -1.286603e+000 3.010575e+000 187 111 91
4.762685e-001 -1.305097e+000 2.973163e+000 87 49 30
3.903117e-001 -1.287016e+000 3.055037e+000 134 28 36
4.644997e-001 -1.317889e+000 3.008823e+000 140 26 30
4.008611e-001 -1.297374e+000 3.061144e+000 138 24 32
3.779038e-001 -1.071302e+000 2.648327e+000 207 174 131
3.664590e-001 -1.170051e+000 2.934988e+000 145 20 36
3.819032e-001 -1.220352e+000 2.978320e+000 182 113 90
4.081262e-001 -1.122571e+000 2.849969e+000 27 50 23
4.081262e-001 -1.122571e+000 2.849969e+000 27 50 23
3.849593e-001 -1.171224e+000 2.921055e+000 192 117 90
3.823522e-001 -1.297159e+000 3.069046e+000 151 21 31
3.577372e-001 -1.067060e+000 2.809209e+000 40 88 107
3.635203e-001 -1.274889e+000 3.046876e+000 115 24 39
4.703651e-001 -1.291936e+000 2.988792e+000 187 125 84
3.461082e-001 -1.291599e+000 3.059180e+000 186 147 135
4.418536e-001 -1.292281e+000 3.018231e+000 154 25 27
4.856193e-001 -1.398873e+000 3.088685e+000 183 150 124
4.952732e-001 -1.407718e+000 3.080711e+000 23 14 7
5.124535e-001 -1.439191e+000 3.087381e+000 48 16 2
4.734981e-001 -1.375035e+000 3.080259e+000 169 75 39
5.984970e-001 -6.452059e-001 3.254897e+000 73 53 44
5.788913e-001 -7.065550e-001 3.329884e+000 71 60 54
6.141999e-001 -5.595863e-001 3.183837e+000 159 108 85
6.135541e-001 -6.847710e-001 3.260975e+000 39 34 41
5.951626e-001 -6.545371e-001 3.270047e+000 23 12 18
5.818952e-001 -6.786484e-001 3.313348e+000 20 10 18
4.807275e-001 -1.398528e+000 3.100843e+000 164 92 47
4.218762e-001 -1.330363e+000 3.076985e+000 71 41 24
4.287075e-001 -1.330936e+000 3.073107e+000 113 72 56
4.217128e-001 -1.342810e+000 3.090513e+000 175 136 105
4.342567e-001 -1.347899e+000 3.084398e+000 135 102 74
4.130097e-001 -1.356355e+000 3.111530e+000 164 129 98
4.206536e-001 -1.359095e+000 3.107468e+000 168 129 99
4.255068e-001 -1.350143e+000 3.096271e+000 165 128 100
4.743369e-001 -1.365278e+000 3.059032e+000 189 109 52
4.724784e-001 -1.366654e+000 3.062025e+000 100 48 18
4.152335e-001 -1.361658e+000 3.115364e+000 170 130 105
4.262909e-001 -1.359503e+000 3.104352e+000 173 131 100
4.252031e-001 -1.361592e+000 3.109992e+000 172 132 102
4.501625e-001 -1.361902e+000 3.088921e+000 143 103 68
4.517865e-001 -1.367580e+000 3.089907e+000 184 126 88
4.549289e-001 -1.366208e+000 3.082942e+000 193 94 41
4.525095e-001 -1.369829e+000 3.091610e+000 188 130 87
4.541544e-001 -1.373944e+000 3.093277e+000 187 117 64
4.622727e-001 -1.368477e+000 3.077913e+000 192 78 42
4.621006e-001 -1.370805e+000 3.082587e+000 180 79 37
4.750226e-001 -1.373038e+000 3.068132e+000 185 74 37
4.383639e-001 -1.376868e+000 3.113022e+000 28 19 14
4.385085e-001 -1.376549e+000 3.112844e+000 28 19 14
4.919348e-001 -1.393115e+000 3.065904e+000 123 52 17
4.825048e-001 -1.401868e+000 3.091168e+000 32 22 17
4.821397e-001 -1.402614e+000 3.091312e+000 32 22 17
4.972295e-001 -1.406596e+000 3.078239e+000 191 149 122
5.066951e-001 -1.418347e+000 3.064436e+000 183 155 127
5.076216e-001 -1.421458e+000 3.070606e+000 178 141 114
4.124998e-001 -1.396019e+000 3.156459e+000 137 95 93
4.227436e-001 -1.396114e+000 3.144576e+000 33 23 16
4.227436e-001 -1.396114e+000 3.144576e+000 33 23 16
4.258017e-001 -1.399833e+000 3.146298e+000 153 124 113
4.340433e-001 -1.402776e+000 3.139905e+000 155 127 111
4.498106e-001 -1.405202e+000 3.127970e+000 32 22 13
4.644131e-001 -1.412042e+000 3.121000e+000 170 139 118
4.832651e-001 -1.405900e+000 3.095497e+000 38 23 15
4.831349e-001 -1.415210e+000 3.101600e+000 177 107 40
4.854411e-001 -1.408181e+000 3.094670e+000 190 156 131
4.854423e-001 -1.408310e+000 3.094670e+000 190 156 131
4.839011e-001 -1.417904e+000 3.103860e+000 174 104 38
4.952407e-001 -1.414582e+000 3.085537e+000 33 22 14
4.979110e-001 -1.417419e+000 3.090604e+000 175 93 34
4.828703e-001 -1.427424e+000 3.114182e+000 43 16 0
4.891214e-001 -1.428122e+000 3.107926e+000 157 84 30
4.979080e-001 -1.435126e+000 3.103464e+000 47 22 13
5.095860e-001 -1.439289e+000 3.095485e+000 43 22 10
4.288422e-001 -1.355882e+000 3.098904e+000 168 130 99
4.340709e-001 -1.350690e+000 3.087314e+000 168 130 93
4.403550e-001 -1.354113e+000 3.087841e+000 177 133 98
4.871952e-001 -1.376033e+000 3.049682e+000 187 54 39
4.253744e-001 -1.361127e+000 3.107427e+000 109 82 63
4.503489e-001 -1.368820e+000 3.092991e+000 97 66 41
4.501774e-001 -1.371321e+000 3.095831e+000 190 138 98
4.600540e-001 -1.365432e+000 3.077774e+000 138 50 28
4.649855e-001 -1.374132e+000 3.080405e+000 192 85 41
4.496777e-001 -1.407667e+000 3.132639e+000 171 138 119
5.033951e-001 -1.438006e+000 3.099584e+000 46 15 3
4.793219e-001 -1.355451e+000 3.036957e+000 88 57 39
4.084124e-001 -1.360663e+000 3.115081e+000 82 61 42
5.123979e-001 -1.404232e+000 3.025271e+000 151 60 52
4.494715e-001 -1.379079e+000 3.104358e+000 194 156 115
4.937538e-001 -1.420446e+000 3.095710e+000 164 91 30
5.010555e-001 -1.433137e+000 3.099709e+000 158 87 43
4.452130e-001 -1.338838e+000 3.066812e+000 201 132 103
5.026641e-001 -1.411207e+000 3.078175e+000 37 19 13
4.951899e-001 -1.428032e+000 3.103668e+000 171 96 29
5.065918e-001 -1.390793e+000 3.035435e+000 188 97 27
3.910539e-001 -1.391091e+000 3.158675e+000 190 166 156
4.738361e-001 -1.417198e+000 3.115387e+000 184 150 124
5.068520e-001 -1.410579e+000 3.014622e+000 175 134 88
5.044934e-001 -1.432988e+000 3.040760e+000 185 107 25
2.305121e-001 -1.098348e+000 2.704018e+000 216 197 173
5.230680e-001 -1.446494e+000 2.981943e+000 35 24 30
4.047271e-001 -1.397597e+000 3.047669e+000 160 32 40
3.610557e-001 -1.055070e+000 2.796788e+000 202 129 92
3.878887e-001 -1.059489e+000 2.777070e+000 137 44 34
3.647016e-001 -1.058689e+000 2.798372e+000 238 112 92
3.911625e-001 -1.068150e+000 2.782411e+000 231 116 93
3.912940e-001 -1.067745e+000 2.782452e+000 231 116 93
3.973782e-001 -1.076802e+000 2.782720e+000 37 66 36
3.929356e-001 -1.083039e+000 2.807577e+000 50 75 46
4.148535e-001 -1.105363e+000 2.801347e+000 133 132 32
4.148401e-001 -1.105524e+000 2.801357e+000 133 132 32
3.938651e-001 -1.149788e+000 2.886917e+000 78 36 27
3.938651e-001 -1.149788e+000 2.886917e+000 78 36 27
3.628991e-001 -1.163746e+000 2.929521e+000 211 131 108
3.702582e-001 -1.166691e+000 2.927888e+000 196 141 105
3.897885e-001 -1.171816e+000 2.918252e+000 205 133 98
4.121576e-001 -1.177178e+000 2.906283e+000 189 134 94
4.658326e-001 -1.216442e+000 2.862726e+000 70 44 39
3.586994e-001 -1.167522e+000 2.935575e+000 212 130 107
3.586994e-001 -1.167522e+000 2.935575e+000 212 130 107
4.185033e-001 -1.211054e+000 2.941406e+000 33 18 8
3.379940e-001 -1.244172e+000 3.013229e+000 183 85 83
3.527227e-001 -1.233897e+000 3.006112e+000 154 53 49
3.562786e-001 -1.224998e+000 3.002227e+000 140 42 36
3.538465e-001 -1.232941e+000 3.003912e+000 177 73 68
3.395170e-001 -1.251483e+000 3.023676e+000 160 42 49
3.416275e-001 -1.244557e+000 3.018013e+000 145 59 54
3.485168e-001 -1.246915e+000 3.018932e+000 146 46 45
3.379190e-001 -1.286739e+000 3.049042e+000 68 125 199
3.379190e-001 -1.286739e+000 3.049042e+000 68 125 199
3.954527e-001 -1.299025e+000 3.059865e+000 135 19 31
4.198582e-001 -1.294087e+000 3.040668e+000 129 26 30
4.252122e-001 -1.303322e+000 3.041631e+000 133 26 29
4.440314e-001 -1.319468e+000 3.045369e+000 229 67 71
4.557536e-001 -1.319993e+000 3.034587e+000 133 24 32
4.554414e-001 -1.323676e+000 3.036992e+000 219 76 77
4.246747e-001 -1.331750e+000 3.075283e+000 45 15 7
4.248348e-001 -1.331288e+000 3.075255e+000 45 15 7
4.377051e-001 -1.335776e+000 3.067793e+000 120 72 52
4.443062e-001 -1.336756e+000 3.063577e+000 184 104 81
3.600002e-001 -1.346824e+000 3.113503e+000 67 29 15
4.547977e-001 -1.355269e+000 3.074689e+000 167 46 30
4.566364e-001 -1.357592e+000 3.078076e+000 171 55 33
4.677907e-001 -1.358443e+000 3.062522e+000 120 56 25
4.605187e-001 -1.359950e+000 3.070209e+000 169 50 35
4.636085e-001 -1.356824e+000 3.068584e+000 179 44 34
4.801722e-001 -1.372484e+000 3.060735e+000 108 48 8
4.874550e-001 -1.380027e+000 3.059452e+000 125 43 21
4.250638e-001 -1.356507e+000 3.100221e+000 166 117 81
4.248738e-001 -1.355541e+000 3.102716e+000 88 55 36
4.310881e-001 -1.351838e+000 3.093344e+000 168 115 77
4.332405e-001 -1.354944e+000 3.091947e+000 161 113 80
4.367130e-001 -1.358814e+000 3.093962e+000 158 111 77
4.278870e-001 -1.355229e+000 3.101300e+000 76 45 21
4.320639e-001 -1.357612e+000 3.097150e+000 162 116 82
4.318749e-001 -1.358142e+000 3.097118e+000 162 116 82
4.429390e-001 -1.356800e+000 3.088127e+000 92 58 31
4.488192e-001 -1.357518e+000 3.082831e+000 159 89 54
4.486704e-001 -1.358050e+000 3.082734e+000 159 89 54
4.588800e-001 -1.365472e+000 3.080543e+000 170 60 33
4.556114e-001 -1.364017e+000 3.085160e+000 144 66 22
4.628977e-001 -1.365526e+000 3.075587e+000 123 44 24
4.628977e-001 -1.365526e+000 3.075587e+000 123 44 24
4.696902e-001 -1.368925e+000 3.071774e+000 167 62 25
4.663754e-001 -1.374048e+000 3.076304e+000 129 46 16
4.856783e-001 -1.389084e+000 3.072785e+000 168 78 29
4.929283e-001 -1.386884e+000 3.057644e+000 187 71 30
4.150810e-001 -1.362563e+000 3.115529e+000 168 121 86
4.298012e-001 -1.364186e+000 3.104822e+000 164 120 81
4.298012e-001 -1.364186e+000 3.104822e+000 164 120 81
4.328380e-001 -1.366915e+000 3.106153e+000 161 115 81
4.366273e-001 -1.369954e+000 3.107455e+000 161 119 84
4.448966e-001 -1.367555e+000 3.096638e+000 61 29 9
4.448966e-001 -1.367555e+000 3.096638e+000 61 29 9
4.912318e-001 -1.401340e+000 3.081116e+000 21 8 1
4.973264e-001 -1.405124e+000 3.078312e+000 202 148 109
4.007671e-001 -1.369006e+000 3.132382e+000 26 16 11
4.182158e-001 -1.372148e+000 3.124297e+000 30 21 14
4.467771e-001 -1.379968e+000 3.108088e+000 25 12 9
4.871583e-001 -1.402868e+000 3.086183e+000 184 143 108
4.959555e-001 -1.404646e+000 3.080654e+000 24 13 5
4.980009e-001 -1.410192e+000 3.079882e+000 188 127 96
4.625521e-001 -1.409400e+000 3.120011e+000 20 8 5
4.847363e-001 -1.415030e+000 3.103527e+000 161 83 36
4.818410e-001 -1.415788e+000 3.106304e+000 162 84 35
4.911051e-001 -1.426121e+000 3.105299e+000 35 11 6
5.127460e-001 -1.437715e+000 3.087379e+000 39 12 9
5.127210e-001 -1.437824e+000 3.087372e+000 39 12 9
5.171434e-001 -1.441414e+000 3.088463e+000 46 11 5
4.060752e-001 -1.393615e+000 3.153909e+000 22 12 4
4.078905e-001 -1.398083e+000 3.156313e+000 170 127 111
4.078905e-001 -1.398083e+000 3.156313e+000 170 127 111
4.087827e-001 -1.398973e+000 3.158505e+000 166 115 106
4.172819e-001 -1.395871e+000 3.148006e+000 17 9 6
4.142012e-001 -1.396412e+000 3.153014e+000 169 128 110
4.145039e-001 -1.395126e+000 3.152682e+000 169 128 110
4.220336e-001 -1.400386e+000 3.148836e+000 168 125 105
4.212982e-001 -1.403054e+000 3.148920e+000 168 125 105
4.297933e-001 -1.402496e+000 3.142395e+000 161 119 97
4.297723e-001 -1.402629e+000 3.142386e+000 161 119 97
4.415847e-001 -1.402556e+000 3.133153e+000 11 9 9
4.593518e-001 -1.411523e+000 3.124721e+000 163 120 96
4.701483e-001 -1.416114e+000 3.119806e+000 172 122 91
4.822542e-001 -1.428238e+000 3.114390e+000 34 6 2
4.823124e-001 -1.427583e+000 3.114434e+000 34 6 2
4.929587e-001 -1.429688e+000 3.106162e+000 152 78 37
5.042269e-001 -1.433928e+000 3.099665e+000 25 10 3
4.333876e-001 -1.401552e+000 3.150445e+000 117 46 42
4.343778e-001 -1.415708e+000 3.148444e+000 116 50 35
3.875974e-001 -1.062075e+000 2.782360e+000 204 133 99
3.929332e-001 -1.091540e+000 2.817140e+000 141 133 21
2.948011e-001 -1.146645e+000 2.911248e+000 96 110 121
4.067601e-001 -1.148169e+000 2.874832e+000 164 138 102
4.151817e-001 -1.158897e+000 2.876033e+000 165 126 90
3.736526e-001 -1.167127e+000 2.925469e+000 201 133 108
3.780673e-001 -1.169006e+000 2.924193e+000 186 133 94
3.562767e-001 -1.172981e+000 2.942701e+000 23 71 106
3.748661e-001 -1.220443e+000 2.986264e+000 49 22 17
3.727962e-001 -1.226982e+000 2.994887e+000 67 43 32
3.845977e-001 -1.231371e+000 2.989164e+000 58 38 22
3.761178e-001 -1.249896e+000 3.015808e+000 62 48 37
3.863994e-001 -1.255516e+000 3.019589e+000 62 32 19
3.887817e-001 -1.262629e+000 3.025881e+000 64 26 25
4.788408e-001 -1.311165e+000 2.979970e+000 199 116 86
4.844410e-001 -1.318692e+000 2.981444e+000 202 56 59
4.844438e-001 -1.318684e+000 2.981446e+000 202 56 59
3.972480e-001 -1.290185e+000 3.046023e+000 127 20 31
4.210061e-001 -1.293393e+000 3.034525e+000 130 27 25
4.371484e-001 -1.295261e+000 3.022847e+000 194 49 52
3.875640e-001 -1.296651e+000 3.060570e+000 121 28 30
3.920689e-001 -1.297858e+000 3.058379e+000 131 28 34
3.978242e-001 -1.298836e+000 3.058330e+000 220 47 64
4.164450e-001 -1.298259e+000 3.047138e+000 145 15 28
4.367563e-001 -1.302513e+000 3.035876e+000 137 23 29
3.902924e-001 -1.307428e+000 3.070143e+000 128 27 33
3.903417e-001 -1.307701e+000 3.070260e+000 128 27 33
4.049975e-001 -1.307381e+000 3.062596e+000 131 23 30
4.198244e-001 -1.308372e+000 3.052986e+000 169 27 25
4.260624e-001 -1.306348e+000 3.051418e+000 201 59 61
4.260624e-001 -1.306348e+000 3.051418e+000 201 59 61
4.277126e-001 -1.315895e+000 3.054543e+000 226 70 83
4.398709e-001 -1.319439e+000 3.047239e+000 192 51 56
4.630310e-001 -1.343231e+000 3.050691e+000 177 119 87
3.665085e-001 -1.351264e+000 3.115976e+000 149 84 54
4.194817e-001 -1.345743e+000 3.095077e+000 172 122 88
4.192659e-001 -1.346949e+000 3.094988e+000 172 122 88
4.315363e-001 -1.350249e+000 3.088273e+000 169 116 78
4.344331e-001 -1.349945e+000 3.087288e+000 171 118 76
4.408407e-001 -1.350009e+000 3.083419e+000 169 116 78
4.455749e-001 -1.353771e+000 3.080013e+000 181 108 71
4.558576e-001 -1.360278e+000 3.075362e+000 97 25 16
4.653828e-001 -1.364415e+000 3.071016e+000 177 58 27
4.754811e-001 -1.364426e+000 3.062761e+000 189 99 41
4.805041e-001 -1.367026e+000 3.058358e+000 179 93 34
4.850580e-001 -1.372667e+000 3.059525e+000 185 95 31
4.446976e-001 -1.357178e+000 3.084884e+000 168 112 75
4.516634e-001 -1.367559e+000 3.089896e+000 173 107 66
4.516634e-001 -1.367559e+000 3.089896e+000 173 107 66
4.684085e-001 -1.373156e+000 3.077702e+000 170 71 28
4.701592e-001 -1.373707e+000 3.081894e+000 178 76 30
4.203985e-001 -1.359496e+000 3.110263e+000 52 28 15
4.203985e-001 -1.359496e+000 3.110263e+000 52 28 15
4.227815e-001 -1.362181e+000 3.108663e+000 80 49 28
4.227815e-001 -1.362181e+000 3.108663e+000 80 49 28
4.469639e-001 -1.372320e+000 3.101069e+000 155 115 80
4.582712e-001 -1.374541e+000 3.090425e+000 176 92 45
5.130111e-001 -1.425266e+000 3.071622e+000 118 73 50
5.041272e-001 -1.428024e+000 3.095966e+000 44 21 13
5.097886e-001 -1.433603e+000 3.093160e+000 36 9 6
3.844961e-001 -1.400469e+000 3.171979e+000 198 134 119
4.333292e-001 -1.398649e+000 3.138221e+000 26 12 5
4.499796e-001 -1.408347e+000 3.135754e+000 106 50 31
4.595959e-001 -1.413677e+000 3.125645e+000 165 118 92
4.824437e-001 -1.423450e+000 3.111611e+000 25 6 4
4.907145e-001 -1.431525e+000 3.108405e+000 38 8 0
4.980993e-001 -1.434430e+000 3.103407e+000 29 7 4
3.596006e-001 -1.055571e+000 2.798907e+000 143 31 26
3.964307e-001 -1.086576e+000 2.803733e+000 134 137 42
3.966827e-001 -1.086073e+000 2.804049e+000 134 137 42
3.848768e-001 -1.106320e+000 2.842355e+000 144 136 26
3.288316e-001 -1.206106e+000 2.983349e+000 174 50 59
4.720535e-001 -1.281169e+000 2.952981e+000 75 46 27
4.669833e-001 -1.283046e+000 2.965707e+000 69 47 32
4.672161e-001 -1.281582e+000 2.965767e+000 69 47 32
4.354333e-001 -1.275659e+000 3.001523e+000 59 26 19
3.805619e-001 -1.269302e+000 3.039430e+000 180 110 94
4.374661e-001 -1.282822e+000 3.007846e+000 68 29 22
4.742664e-001 -1.310512e+000 2.992855e+000 219 78 77
4.455477e-001 -1.297309e+000 3.017520e+000 210 64 66
3.880532e-001 -1.310582e+000 3.076530e+000 126 26 31
4.127570e-001 -1.312028e+000 3.059942e+000 133 25 32
4.183349e-001 -1.323698e+000 3.070852e+000 111 56 43
4.294496e-001 -1.326682e+000 3.064656e+000 106 50 40
4.434419e-001 -1.328426e+000 3.056759e+000 110 62 48
4.802276e-001 -1.351245e+000 3.036730e+000 47 21 6
4.801962e-001 -1.352766e+000 3.036601e+000 47 21 6
4.468767e-001 -1.336120e+000 3.062039e+000 82 32 26
4.227363e-001 -1.344196e+000 3.092744e+000 168 123 86
3.794784e-001 -1.355341e+000 3.126663e+000 181 131 94
4.169987e-001 -1.360511e+000 3.109333e+000 171 117 79
4.177540e-001 -1.357329e+000 3.109140e+000 171 117 79
5.098181e-001 -1.414791e+000 3.059738e+000 53 32 17
5.125099e-001 -1.416373e+000 3.062987e+000 189 149 115
4.814262e-001 -1.408629e+000 3.102432e+000 164 90 37
4.940540e-001 -1.419054e+000 3.095688e+000 154 79 29
4.018120e-001 -1.397380e+000 3.161877e+000 179 143 131
4.230889e-001 -1.408743e+000 3.152290e+000 78 24 20
4.300635e-001 -1.402745e+000 3.146072e+000 151 102 88
4.554320e-001 -1.411432e+000 3.128734e+000 170 121 103
4.560671e-001 -1.412834e+000 3.132143e+000 108 47 29
4.631587e-001 -1.410975e+000 3.127884e+000 101 46 29
4.038181e-001 -1.100500e+000 2.812743e+000 24 49 17
3.938871e-001 -1.110626e+000 2.841896e+000 134 125 30
3.938871e-001 -1.110626e+000 2.841896e+000 134 125 30
3.621567e-001 -1.108405e+000 2.860501e+000 130 127 43
3.620722e-001 -1.108512e+000 2.860627e+000 130 127 43
3.444254e-001 -1.169115e+000 2.944483e+000 114 23 48
4.625069e-001 -1.216573e+000 2.873431e+000 12 48 65
3.796762e-001 -1.180812e+000 2.935037e+000 13 49 70
4.078569e-001 -1.190123e+000 2.928505e+000 12 49 73
4.687304e-001 -1.237441e+000 2.883783e+000 22 69 92
4.197983e-001 -1.235242e+000 2.966929e+000 177 108 74
4.227120e-001 -1.237869e+000 2.970520e+000 72 40 35
4.210756e-001 -1.241188e+000 2.974568e+000 178 107 72
4.210756e-001 -1.241188e+000 2.974568e+000 178 107 72
4.239709e-001 -1.245901e+000 2.977156e+000 74 45 26
4.226274e-001 -1.249259e+000 2.985515e+000 95 49 38
3.786538e-001 -1.255230e+000 3.017922e+000 177 110 88
4.265532e-001 -1.263968e+000 2.998575e+000 164 96 71
4.265532e-001 -1.263968e+000 2.998575e+000 164 96 71
4.305439e-001 -1.275455e+000 3.007756e+000 182 107 78
4.749701e-001 -1.304070e+000 2.977749e+000 184 121 79
4.034656e-001 -1.304578e+000 3.059336e+000 133 26 31
4.625702e-001 -1.334864e+000 3.043408e+000 67 36 23
4.716857e-001 -1.341991e+000 3.040481e+000 182 120 90
4.759585e-001 -1.344983e+000 3.035931e+000 190 118 79
5.117850e-001 -1.412310e+000 3.062971e+000 186 137 105
4.147034e-001 -1.372225e+000 3.123965e+000 183 135 95
3.820764e-001 -1.405918e+000 3.170200e+000 185 140 113
3.914513e-001 -1.399651e+000 3.173522e+000 132 27 41
4.552190e-001 -1.147071e+000 2.773305e+000 96 110 101
3.515109e-001 -1.190563e+000 2.964276e+000 20 72 119
4.201253e-001 -1.222218e+000 2.960380e+000 175 107 81
3.827642e-001 -1.234559e+000 2.993598e+000 176 109 84
3.835484e-001 -1.249167e+000 3.008400e+000 176 105 85
4.267793e-001 -1.284981e+000 3.021483e+000 179 105 77
4.901506e-001 -1.324390e+000 2.980136e+000 150 21 27
4.910556e-001 -1.330354e+000 2.984334e+000 144 23 27
3.828816e-001 -1.307927e+000 3.076817e+000 141 23 34
4.580239e-001 -1.333085e+000 3.041406e+000 182 117 74
4.912493e-001 -1.374330e+000 3.044168e+000 110 17 18
4.112276e-001 -1.339993e+000 3.094415e+000 75 48 33
4.114548e-001 -1.339596e+000 3.094576e+000 75 48 33
4.151075e-001 -1.351260e+000 3.103569e+000 167 121 89
4.425759e-001 -1.376889e+000 3.109539e+000 180 136 100
4.369227e-001 -1.403929e+000 3.140754e+000 159 115 92
4.148945e-001 -1.120779e+000 2.816311e+000 32 47 28
4.156063e-001 -1.119175e+000 2.816975e+000 32 47 28
3.950943e-001 -1.173947e+000 2.916674e+000 101 27 26
3.530383e-001 -1.245707e+000 3.015623e+000 171 78 71
4.937826e-001 -1.343799e+000 3.001494e+000 152 19 32
5.083814e-001 -1.392694e+000 3.026738e+000 117 23 24
4.046656e-001 -1.369950e+000 3.129274e+000 167 133 105
4.644708e-001 -1.407245e+000 3.116825e+000 26 13 8
4.214847e-001 -1.398275e+000 3.149539e+000 166 122 105
4.191160e-001 -1.125205e+000 2.822597e+000 82 97 86
4.913427e-001 -1.337252e+000 2.992135e+000 155 18 30
4.312638e-001 -1.306518e+000 3.041926e+000 147 17 29
4.312638e-001 -1.306518e+000 3.041926e+000 147 17 29
4.442952e-001 -1.319397e+000 3.033266e+000 148 18 28
4.226239e-001 -1.336800e+000 3.083335e+000 170 116 80
4.223732e-001 -1.337670e+000 3.083249e+000 170 116 80
4.868235e-001 -1.384487e+000 3.071461e+000 104 39 17
4.868235e-001 -1.384487e+000 3.071461e+000 104 39 17
4.728719e-001 -1.384524e+000 3.091432e+000 185 141 96
5.080670e-001 -1.420820e+000 3.086316e+000 173 82 27
3.838925e-001 -1.101692e+000 2.834578e+000 66 102 95
3.838925e-001 -1.101692e+000 2.834578e+000 66 102 95
3.588479e-001 -1.252601e+000 3.023871e+000 165 31 43
4.091475e-001 -1.328055e+000 3.085922e+000 182 110 86
4.105112e-001 -1.345870e+000 3.104272e+000 169 123 89
5.183191e-001 -1.440706e+000 3.073645e+000 188 87 31
4.480840e-001 -1.222105e+000 2.916344e+000 180 105 76
4.260356e-001 -1.246130e+000 2.983331e+000 154 92 63
4.260356e-001 -1.246130e+000 2.983331e+000 154 92 63
4.599143e-001 -1.212501e+000 2.866009e+000 151 25 31
3.506615e-001 -1.170410e+000 2.940477e+000 145 23 28
4.463107e-001 -1.399002e+000 3.134674e+000 154 121 98
4.028391e-001 -1.411178e+000 3.170000e+000 33 18 25
4.886149e-001 -1.363446e+000 3.022557e+000 187 120 78
4.623271e-001 -1.362493e+000 3.075147e+000 123 38 19
5.130609e-001 -1.448731e+000 3.078291e+000 180 90 37
3.983077e-001 -1.300127e+000 3.056694e+000 125 24 27
4.934628e-001 -1.451423e+000 3.076739e+000 67 41 31
4.840576e-001 -1.498818e+000 3.074890e+000 67 41 31
3.834965e-001 -1.386903e+000 3.116752e+000 170 126 91
3.861904e-001 -1.102151e+000 2.836195e+000 90 103 58
3.970439e-001 -1.168844e+000 2.875684e+000 152 141 111
3.431377e-001 -1.171221e+000 2.944136e+000 95 25 43
3.673978e-001 -1.168629e+000 2.931772e+000 207 134 108
3.863043e-001 -1.174223e+000 2.922038e+000 217 132 107
4.434151e-001 -1.196642e+000 2.882028e+000 218 135 104
3.536037e-001 -1.224975e+000 3.001202e+000 199 81 81
3.533902e-001 -1.225268e+000 3.001169e+000 199 81 81
3.968224e-001 -1.230713e+000 2.983041e+000 190 116 90
3.583025e-001 -1.244804e+000 3.016670e+000 154 50 47
3.938262e-001 -1.243022e+000 2.998593e+000 184 112 88
3.783515e-001 -1.271803e+000 3.002964e+000 180 109 86
3.900963e-001 -1.256445e+000 3.017347e+000 181 114 86
3.977950e-001 -1.298739e+000 3.058443e+000 228 63 71
4.145524e-001 -1.308096e+000 3.056798e+000 224 56 67
4.134650e-001 -1.305993e+000 3.060071e+000 133 31 33
4.484574e-001 -1.317925e+000 3.037398e+000 254 69 84
4.671123e-001 -1.325807e+000 3.021964e+000 215 56 63
4.160885e-001 -1.321776e+000 3.071838e+000 190 113 87
4.365054e-001 -1.317061e+000 3.049725e+000 218 69 70
4.241008e-001 -1.331862e+000 3.077797e+000 181 110 84
4.376740e-001 -1.335770e+000 3.067731e+000 97 56 36
4.496837e-001 -1.352551e+000 3.075565e+000 115 32 18
4.717151e-001 -1.372985e+000 3.056866e+000 136 77 33
4.394404e-001 -1.354795e+000 3.090588e+000 136 93 64
4.433616e-001 -1.356134e+000 3.087717e+000 103 69 40
4.525575e-001 -1.360394e+000 3.081653e+000 182 78 41
4.510122e-001 -1.360139e+000 3.083356e+000 110 40 13
4.510122e-001 -1.360139e+000 3.083356e+000 110 40 13
4.676451e-001 -1.363125e+000 3.067017e+000 114 41 20
4.147510e-001 -1.358281e+000 3.115220e+000 175 125 89
4.130321e-001 -1.363615e+000 3.120102e+000 178 129 89
4.131928e-001 -1.364197e+000 3.120111e+000 178 129 89
4.197474e-001 -1.363860e+000 3.114957e+000 93 65 50
4.197173e-001 -1.364137e+000 3.115081e+000 93 65 50
4.457725e-001 -1.363101e+000 3.090747e+000 121 77 48
4.494284e-001 -1.362690e+000 3.089168e+000 115 75 48
4.570274e-001 -1.378625e+000 3.096998e+000 126 54 12
4.628083e-001 -1.385157e+000 3.097729e+000 27 13 5
4.680976e-001 -1.383901e+000 3.092111e+000 193 142 108
5.065722e-001 -1.412729e+000 3.066795e+000 199 149 112
4.901494e-001 -1.410760e+000 3.092530e+000 188 144 109
4.256157e-001 -1.400324e+000 3.146556e+000 166 126 111
4.900890e-001 -1.425451e+000 3.103237e+000 165 89 28
5.176897e-001 -1.443875e+000 3.085818e+000 186 79 38
4.558908e-001 -1.429177e+000 3.133958e+000 123 55 43
5.228003e-001 -1.453209e+000 3.091412e+000 41 21 25
3.986043e-001 -1.145371e+000 2.879428e+000 169 139 112
4.393903e-001 -1.192538e+000 2.882473e+000 210 138 105
3.848668e-001 -1.221782e+000 2.981932e+000 93 51 38
4.286875e-001 -1.292865e+000 3.027458e+000 174 41 45
4.545977e-001 -1.300956e+000 3.009833e+000 178 39 42
4.770109e-001 -1.314555e+000 2.989478e+000 215 64 68
4.785345e-001 -1.326785e+000 2.994670e+000 140 27 34
3.882506e-001 -1.294568e+000 3.060474e+000 134 30 36
4.129296e-001 -1.298521e+000 3.048649e+000 142 21 30
4.450379e-001 -1.298171e+000 3.020896e+000 125 29 31
4.020654e-001 -1.305121e+000 3.062683e+000 225 57 72
4.089395e-001 -1.308957e+000 3.062068e+000 124 20 29
4.138822e-001 -1.305804e+000 3.062452e+000 205 59 66
4.539502e-001 -1.321916e+000 3.035779e+000 126 20 30
4.840929e-001 -1.336638e+000 3.008575e+000 153 23 33
4.859446e-001 -1.335758e+000 3.003810e+000 155 23 31
4.920216e-001 -1.369922e+000 3.047678e+000 190 49 39
4.146528e-001 -1.354925e+000 3.108262e+000 127 90 63
4.286427e-001 -1.351297e+000 3.094557e+000 173 121 84
4.750719e-001 -1.366796e+000 3.062948e+000 189 98 36
4.921486e-001 -1.382410e+000 3.056012e+000 136 35 20
4.624737e-001 -1.376532e+000 3.091227e+000 185 93 52
4.373090e-001 -1.379016e+000 3.110729e+000 181 136 104
4.468287e-001 -1.378837e+000 3.105384e+000 177 138 97
4.653362e-001 -1.415593e+000 3.123285e+000 184 124 112
4.653362e-001 -1.415593e+000 3.123285e+000 184 124 112
4.355039e-001 -1.410076e+000 3.145039e+000 104 47 34
3.508502e-001 -1.047521e+000 2.796754e+000 204 137 102
4.837529e-001 -1.332952e+000 3.006247e+000 231 71 77
4.301578e-001 -1.324539e+000 3.064475e+000 98 52 34
4.172614e-001 -1.358893e+000 3.109237e+000 176 123 89
4.977974e-001 -1.389371e+000 3.056834e+000 191 77 34
4.483894e-001 -1.417712e+000 3.136128e+000 112 51 33
3.689948e-001 -1.178800e+000 2.940210e+000 12 46 66
4.701131e-001 -1.303329e+000 2.988735e+000 188 126 85
4.393589e-001 -1.403448e+000 3.139652e+000 168 126 102
4.089790e-001 -1.160363e+000 2.883064e+000 116 82 63
4.331342e-001 -1.186775e+000 2.891280e+000 203 137 100
4.207070e-001 -1.234374e+000 2.966436e+000 185 113 89
4.207070e-001 -1.234374e+000 2.966436e+000 185 113 89
3.919176e-001 -1.254546e+000 3.021365e+000 185 114 94
3.751200e-001 -1.352993e+000 3.124017e+000 51 19 25
5.061961e-001 -1.399550e+000 3.026673e+000 127 21 26
4.353081e-001 -1.340969e+000 3.076073e+000 178 120 82
4.348003e-001 -1.342702e+000 3.076175e+000 178 120 82
3.781374e-001 -1.377446e+000 3.136245e+000 192 151 130
3.765428e-001 -1.234960e+000 3.000920e+000 94 59 45
4.037067e-001 -1.252991e+000 3.003612e+000 73 44 39
4.284617e-001 -1.296895e+000 3.033219e+000 225 80 85
4.320940e-001 -1.369013e+000 3.109917e+000 170 129 92
4.028199e-001 -1.232683e+000 2.980639e+000 74 43 31
4.090256e-001 -1.307326e+000 3.062177e+000 152 37 40
4.819412e-001 -1.317309e+000 2.984389e+000 246 73 92
4.706942e-001 -1.360836e+000 3.062775e+000 217 119 76
3.451912e-001 -1.168212e+000 2.943834e+000 126 30 52
3.896912e-001 -1.144118e+000 2.885437e+000 190 113 103
3.625789e-001 -1.090228e+000 2.843004e+000 111 120 116
3.538561e-001 -1.064006e+000 2.637447e+000 45 29 24
3.521220e-001 -1.054371e+000 2.805543e+000 235 127 95
3.521220e-001 -1.054371e+000 2.805543e+000 235 127 95
3.574602e-001 -1.053456e+000 2.798879e+000 219 137 106
3.780377e-001 -1.061264e+000 2.792018e+000 236 126 90
3.886232e-001 -1.062226e+000 2.779749e+000 156 53 41
3.869821e-001 -1.094269e+000 2.827219e+000 100 118 59
4.086704e-001 -1.108315e+000 2.814378e+000 144 139 19
4.178337e-001 -1.116203e+000 2.811139e+000 77 107 78
4.270271e-001 -1.116322e+000 2.803193e+000 70 100 89
4.206020e-001 -1.128216e+000 2.821980e+000 96 120 65
4.195260e-001 -1.152961e+000 2.864660e+000 181 154 119
4.195260e-001 -1.152961e+000 2.864660e+000 181 154 119
4.195935e-001 -1.155902e+000 2.871265e+000 91 42 35
4.212793e-001 -1.156922e+000 2.872895e+000 183 148 118
4.219419e-001 -1.163166e+000 2.874230e+000 116 83 64
4.033926e-001 -1.156457e+000 2.891397e+000 171 150 125
4.084283e-001 -1.174036e+000 2.906495e+000 220 154 112
4.236576e-001 -1.182154e+000 2.896988e+000 236 142 96
4.224687e-001 -1.180814e+000 2.902266e+000 232 142 97
4.268945e-001 -1.183207e+000 2.894759e+000 216 143 103
3.627190e-001 -1.164729e+000 2.929264e+000 239 140 111
3.706416e-001 -1.169887e+000 2.929870e+000 217 154 107
3.783638e-001 -1.171620e+000 2.926080e+000 229 137 109
3.879932e-001 -1.172760e+000 2.920011e+000 127 32 31
3.903298e-001 -1.173926e+000 2.920178e+000 224 146 108
4.273804e-001 -1.187436e+000 2.912055e+000 18 56 79
3.442527e-001 -1.185085e+000 2.948205e+000 24 83 124
4.651280e-001 -1.230085e+000 2.902606e+000 87 41 17
4.651280e-001 -1.230085e+000 2.902606e+000 87 41 17
4.596500e-001 -1.243555e+000 2.920791e+000 200 124 80
3.786190e-001 -1.220716e+000 2.983723e+000 204 125 96
3.329758e-001 -1.255972e+000 3.020173e+000 168 59 59
3.329061e-001 -1.255930e+000 3.020030e+000 168 59 59
3.362507e-001 -1.255644e+000 3.021341e+000 215 100 100
3.520985e-001 -1.248105e+000 3.020145e+000 167 43 38
3.900106e-001 -1.257521e+000 3.017162e+000 198 124 97
3.278100e-001 -1.285475e+000 3.039689e+000 32 86 149
4.864671e-001 -1.327313e+000 2.976679e+000 206 52 54
4.624001e-001 -1.300899e+000 3.007180e+000 136 26 30
4.660207e-001 -1.306731e+000 3.003671e+000 147 27 31
4.678865e-001 -1.309963e+000 3.007412e+000 140 27 29
4.818368e-001 -1.298772e+000 2.996109e+000 202 55 55
4.880228e-001 -1.315145e+000 2.995371e+000 153 24 29
4.612372e-001 -1.310223e+000 3.018605e+000 155 23 29
3.894594e-001 -1.295119e+000 3.057310e+000 242 88 94
3.894594e-001 -1.295119e+000 3.057310e+000 242 88 94
4.086921e-001 -1.295710e+000 3.045933e+000 143 27 36
4.340638e-001 -1.304302e+000 3.034579e+000 217 59 53
4.555192e-001 -1.322415e+000 3.037163e+000 216 65 61
4.671484e-001 -1.322882e+000 3.022409e+000 226 57 66
3.861998e-001 -1.309123e+000 3.073823e+000 235 71 75
4.442975e-001 -1.313051e+000 3.043431e+000 146 28 32
5.093385e-001 -1.383488e+000 3.031356e+000 139 30 25
4.082978e-001 -1.325372e+000 3.079049e+000 199 126 97
4.308940e-001 -1.332255e+000 3.071698e+000 207 133 96
3.615990e-001 -1.354246e+000 3.112320e+000 143 72 50
4.918975e-001 -1.381016e+000 3.056397e+000 134 46 17
4.265426e-001 -1.351881e+000 3.098393e+000 125 86 56
4.327511e-001 -1.353801e+000 3.094502e+000 133 92 60
4.317946e-001 -1.358298e+000 3.097042e+000 179 130 93
4.388373e-001 -1.353942e+000 3.091358e+000 150 108 70
4.598442e-001 -1.357254e+000 3.084006e+000 139 52 17
4.576923e-001 -1.370821e+000 3.098076e+000 138 73 21
4.120410e-001 -1.374360e+000 3.126754e+000 17 7 4
4.181760e-001 -1.373179e+000 3.124327e+000 28 18 16
4.382765e-001 -1.376139e+000 3.113375e+000 32 16 26
4.912849e-001 -1.426041e+000 3.108964e+000 30 6 1
4.987272e-001 -1.426200e+000 3.104336e+000 41 12 5
5.044779e-001 -1.427398e+000 3.100268e+000 40 13 3
4.333958e-001 -1.395356e+000 3.138970e+000 28 18 9
3.537547e-001 -1.063403e+000 2.633899e+000 185 59 53
