ply
format ascii 1.0
element face 0
property list uchar int vertex_indices
element vertex 582
property float x
property float y
property float z
property uchar diffuse_red
property uchar diffuse_green
property uchar diffuse_blue
end_header
2.796650e-001 -8.116110e-001 2.686047e+000 172 39 52
2.899791e-001 -8.874907e-001 2.749203e+000 37 55 32
2.838241e-001 -8.902136e-001 2.772822e+000 38 52 27
2.694673e-001 -8.423364e-001 2.745891e+000 28 55 40
2.718847e-001 -8.487867e-001 2.745938e+000 135 139 46
2.911001e-001 -9.264356e-001 2.805477e+000 151 32 42
2.897188e-001 -8.121791e-001 2.675071e+000 164 37 42
2.546595e-001 -7.930285e-001 2.699710e+000 173 37 49
3.045212e-001 -8.903091e-001 2.735902e+000 146 150 114
2.978658e-001 -8.834131e-001 2.736141e+000 28 58 35
2.840782e-001 -8.631672e-001 2.731926e+000 35 54 33
3.204666e-001 -9.274752e-001 2.754897e+000 155 144 131
3.228067e-001 -8.625937e-001 2.687098e+000 30 53 25
3.495568e-001 -9.151475e-001 2.712922e+000 28 51 29
3.221434e-001 -9.000107e-001 2.724589e+000 113 124 81
3.221989e-001 -8.999137e-001 2.724653e+000 113 124 81
3.202881e-001 -8.682624e-001 2.694226e+000 143 155 38
3.325829e-001 -8.896604e-001 2.704791e+000 29 54 40
4.009581e-001 -1.154023e+000 2.916729e+000 123 39 29
3.845115e-001 -1.159573e+000 2.945110e+000 146 70 35
4.119801e-001 -1.206071e+000 2.968672e+000 138 75 37
3.774641e-001 -1.087042e+000 2.867268e+000 140 25 37
3.810259e-001 -1.164023e+000 2.953992e+000 37 27 21
2.943340e-001 -8.526114e-001 2.708039e+000 24 57 45
2.925839e-001 -8.657704e-001 2.721183e+000 72 111 134
2.999516e-001 -8.279827e-001 2.679381e+000 175 35 40
3.359495e-001 -9.102368e-001 2.721237e+000 30 56 21
2.761364e-001 -8.049812e-001 2.684710e+000 178 41 55
3.169034e-001 -8.776285e-001 2.706985e+000 131 139 34
3.888485e-001 -1.084986e+000 2.852515e+000 185 121 98
3.903591e-001 -1.126766e+000 2.898263e+000 116 75 60
3.723541e-001 -1.119882e+000 2.909748e+000 182 127 106
3.642054e-001 -1.114432e+000 2.916003e+000 187 114 101
4.260454e-001 -1.216584e+000 2.964246e+000 146 76 51
3.213409e-001 -8.725546e-001 2.696039e+000 49 97 110
3.212761e-001 -8.725184e-001 2.695923e+000 49 97 110
2.972112e-001 -8.165553e-001 2.670151e+000 173 39 40
2.823263e-001 -8.211143e-001 2.689575e+000 165 44 55
4.369719e-001 -1.225035e+000 2.959757e+000 151 80 56
2.775616e-001 -8.566501e-001 2.745187e+000 31 58 33
2.919412e-001 -8.149455e-001 2.674846e+000 222 135 101
3.015109e-001 -8.320820e-001 2.678914e+000 146 162 155
3.510696e-001 -9.671516e-001 2.764713e+000 204 138 106
3.234810e-001 -9.542450e-001 2.780720e+000 193 126 106
4.025927e-001 -1.107628e+000 2.862736e+000 128 32 36
3.953947e-001 -1.158015e+000 2.928918e+000 123 65 27
4.308441e-001 -1.217512e+000 2.957849e+000 164 91 57
3.282802e-001 -8.737558e-001 2.694246e+000 27 52 33
3.163066e-001 -8.727045e-001 2.703422e+000 34 59 38
3.338722e-001 -8.854383e-001 2.698649e+000 148 153 33
3.338722e-001 -8.854383e-001 2.698649e+000 148 153 33
2.972112e-001 -8.165553e-001 2.670151e+000 173 39 40
3.472216e-001 -9.678114e-001 2.768975e+000 177 112 87
3.605222e-001 -9.882020e-001 2.777903e+000 13 50 79
3.186986e-001 -8.867228e-001 2.714810e+000 92 109 53
3.189095e-001 -8.866729e-001 2.715068e+000 92 109 53
3.227951e-001 -9.250456e-001 2.749735e+000 108 28 39
4.287918e-001 -1.192297e+000 2.933328e+000 94 73 70
4.406216e-001 -1.223069e+000 2.953891e+000 171 91 54
3.856582e-001 -1.088239e+000 2.859048e+000 177 117 95
3.899440e-001 -1.126743e+000 2.897795e+000 116 75 60
4.124545e-001 -1.188410e+000 2.944872e+000 180 145 132
3.238293e-001 -8.586045e-001 2.682572e+000 110 125 47
3.596549e-001 -1.111027e+000 2.917837e+000 183 115 104
4.187479e-001 -1.208447e+000 2.962863e+000 155 87 48
3.060642e-001 -8.859349e-001 2.725349e+000 28 55 36
3.119484e-001 -9.208140e-001 2.760075e+000 172 136 127
4.380791e-001 -1.214864e+000 2.946791e+000 171 90 43
2.810749e-001 -8.731063e-001 2.757385e+000 29 55 35
3.814905e-001 -1.002617e+000 2.770868e+000 8 72 110
3.989056e-001 -1.093589e+000 2.852157e+000 177 122 101
4.057178e-001 -1.168670e+000 2.925238e+000 83 21 6
3.229635e-001 -9.332788e-001 2.757683e+000 169 136 122
4.308441e-001 -1.217512e+000 2.957849e+000 164 91 57
3.740513e-001 -1.032737e+000 2.812477e+000 177 110 93
4.073999e-001 -1.100503e+000 2.850500e+000 144 23 34
2.815970e-001 -8.590058e-001 2.730557e+000 116 133 63
2.835526e-001 -8.578244e-001 2.733892e+000 116 133 63
3.803906e-001 -1.160167e+000 2.951267e+000 184 135 100
4.169285e-001 -1.194766e+000 2.947459e+000 27 21 17
3.716004e-001 -1.015507e+000 2.795216e+000 53 20 11
3.945060e-001 -1.103524e+000 2.867520e+000 129 31 40
4.338669e-001 -1.197886e+000 2.930962e+000 178 142 144
2.957941e-001 -8.488216e-001 2.702801e+000 154 156 34
3.934498e-001 -1.098656e+000 2.862565e+000 137 26 39
3.800547e-001 -1.110323e+000 2.890914e+000 142 27 40
4.269280e-001 -1.196491e+000 2.939221e+000 176 147 142
3.793835e-001 -1.054939e+000 2.830825e+000 179 121 99
3.180021e-001 -1.028482e+000 2.878829e+000 182 121 110
3.238438e-001 -8.865995e-001 2.709537e+000 32 57 38
3.238438e-001 -8.865995e-001 2.709537e+000 32 57 38
3.330202e-001 -9.850859e-001 2.802640e+000 5 40 72
2.840085e-001 -8.264169e-001 2.696981e+000 17 85 136
2.806921e-001 -8.373681e-001 2.713266e+000 67 98 55
2.874778e-001 -8.681884e-001 2.734000e+000 23 56 32
3.679253e-001 -9.771916e-001 2.757706e+000 227 134 117
4.035522e-001 -1.111870e+000 2.866755e+000 140 27 44
3.329113e-001 -9.603539e-001 2.776237e+000 204 135 120
3.968112e-001 -1.101454e+000 2.860594e+000 130 32 37
3.995566e-001 -1.166109e+000 2.934093e+000 190 111 66
4.128955e-001 -1.171865e+000 2.923867e+000 66 14 4
4.429118e-001 -1.224222e+000 2.951751e+000 44 17 9
4.417224e-001 -1.176033e+000 2.907863e+000 177 96 31
4.210632e-001 -1.173857e+000 2.917381e+000 190 92 44
3.858628e-001 -1.157273e+000 2.940303e+000 167 81 41
3.703058e-001 -1.017941e+000 2.799793e+000 176 115 95
2.899746e-001 -8.875724e-001 2.749195e+000 37 55 32
2.602519e-001 -8.013165e-001 2.700327e+000 202 139 122
2.602519e-001 -8.013165e-001 2.700327e+000 202 139 122
2.747622e-001 -8.527386e-001 2.731391e+000 110 130 131
4.039718e-001 -1.162977e+000 2.923656e+000 132 50 28
4.002445e-001 -1.180035e+000 2.950184e+000 174 138 123
4.405076e-001 -1.125166e+000 2.865597e+000 126 82 36
2.687463e-001 -7.991678e-001 2.693170e+000 162 42 42
4.521866e-001 -1.147290e+000 2.883414e+000 28 26 42
4.079295e-001 -1.184437e+000 2.945772e+000 179 147 136
4.397144e-001 -1.200385e+000 2.927648e+000 22 11 14
3.009672e-001 -9.349799e-001 2.796229e+000 137 30 40
3.858648e-001 -1.128943e+000 2.899921e+000 187 125 104
2.847788e-001 -8.442423e-001 2.710110e+000 25 55 35
3.006703e-001 -8.793231e-001 2.727192e+000 95 120 49
3.005692e-001 -8.793864e-001 2.727204e+000 95 120 49
3.888413e-001 -1.164193e+000 2.939192e+000 148 74 39
4.282816e-001 -1.210295e+000 2.950935e+000 170 87 41
4.258965e-001 -1.171977e+000 2.910766e+000 177 86 40
4.280804e-001 -1.157717e+000 2.896592e+000 88 18 32
3.328532e-001 -8.987501e-001 2.711828e+000 33 54 35
4.528712e-001 -1.060385e+000 2.812988e+000 168 85 86
4.114374e-001 -1.169418e+000 2.923564e+000 172 69 42
3.218833e-001 -8.689474e-001 2.695256e+000 148 148 17
4.397204e-001 -1.031740e+000 2.787447e+000 162 147 118
4.403957e-001 -1.037094e+000 2.791595e+000 170 126 90
3.767708e-001 -1.057678e+000 2.834593e+000 86 53 40
3.965806e-001 -1.156743e+000 2.925594e+000 180 104 45
3.535782e-001 -1.138687e+000 2.962807e+000 159 137 113
3.769669e-001 -1.158569e+000 2.953268e+000 182 142 108
4.386205e-001 -1.202353e+000 2.932000e+000 176 141 140
3.841872e-001 -1.162845e+000 2.949702e+000 186 142 106
4.013978e-001 -1.174421e+000 2.941174e+000 194 104 52
2.777708e-001 -8.420627e-001 2.719306e+000 25 55 38
3.654041e-001 -9.728872e-001 2.759677e+000 201 142 110
4.497711e-001 -1.055161e+000 2.808513e+000 88 43 38
4.567455e-001 -1.056388e+000 2.812082e+000 80 30 32
4.484151e-001 -1.123578e+000 2.863441e+000 132 89 44
4.576397e-001 -1.123241e+000 2.865155e+000 63 25 40
4.647851e-001 -1.138634e+000 2.880555e+000 32 28 43
4.683160e-001 -1.137237e+000 2.880925e+000 29 26 36
4.162333e-001 -1.195127e+000 2.946262e+000 27 21 17
2.972440e-001 -8.569918e-001 2.708198e+000 141 151 58
3.514655e-001 -9.669131e-001 2.765570e+000 204 138 106
4.607140e-001 -1.028470e+000 2.791526e+000 131 157 154
4.043455e-001 -1.102135e+000 2.861915e+000 132 28 35
4.028558e-001 -1.106940e+000 2.863671e+000 128 32 36
4.069236e-001 -1.110992e+000 2.865895e+000 230 82 98
3.545589e-001 -1.107479e+000 2.920634e+000 183 120 101
3.514985e-001 -1.107468e+000 2.923334e+000 127 82 72
4.230973e-001 -1.198104e+000 2.942160e+000 29 22 20
5.473729e-001 -2.499811e-001 2.961108e+000 51 35 46
4.437537e-001 -1.121532e+000 2.861494e+000 124 78 36
3.718185e-001 -1.129254e+000 2.919230e+000 165 81 51
5.071492e-001 -2.512206e-001 2.974163e+000 71 59 59
5.269208e-001 -2.786236e-001 2.986167e+000 80 71 66
2.625007e-001 -8.104337e-001 2.715921e+000 120 130 91
3.158325e-001 -8.730748e-001 2.702473e+000 34 59 38
3.590375e-001 -9.666462e-001 2.760119e+000 141 23 37
4.498611e-001 -1.076673e+000 2.824027e+000 86 40 43
5.300431e-001 -3.057560e-001 3.003822e+000 83 74 57
3.608385e-001 -9.726675e-001 2.762913e+000 131 71 53
4.565398e-001 -1.093472e+000 2.841154e+000 75 30 33
5.233600e-001 -2.479028e-001 2.968547e+000 100 85 52
5.233600e-001 -2.479028e-001 2.968547e+000 100 85 52
2.822526e-001 -8.672591e-001 2.746389e+000 120 136 131
2.855767e-001 -8.816615e-001 2.757340e+000 148 146 130
5.482745e-001 -2.334039e-001 2.949831e+000 70 53 54
3.604505e-001 -9.002153e-001 2.688712e+000 55 102 128
3.516516e-001 -1.074343e+000 2.880132e+000 151 34 45
3.763785e-001 -9.819390e-001 2.757952e+000 139 24 38
4.674650e-001 -7.900210e-001 2.641297e+000 167 150 130
4.165737e-001 -8.313037e-001 2.626283e+000 197 151 106
4.697795e-001 -8.020316e-001 2.660479e+000 162 43 46
4.947948e-001 -9.804749e-001 2.789086e+000 207 73 77
3.709040e-001 -1.016955e+000 2.798526e+000 177 111 94
4.606781e-001 -1.045804e+000 2.806557e+000 169 93 74
4.530183e-001 -1.064185e+000 2.816832e+000 173 92 99
4.770046e-001 -1.059112e+000 2.827251e+000 121 86 90
4.509716e-001 -1.093246e+000 2.838869e+000 77 41 37
3.884540e-001 -1.112996e+000 2.883403e+000 206 54 69
4.625993e-001 -1.123047e+000 2.865642e+000 69 34 40
4.652971e-001 -1.216421e+000 2.941778e+000 159 63 43
4.355370e-001 -1.219102e+000 2.954188e+000 163 84 47
4.133434e-001 -8.288405e-001 2.624924e+000 169 41 43
4.129329e-001 -8.548198e-001 2.632390e+000 155 163 143
4.135705e-001 -8.540533e-001 2.634344e+000 155 163 143
3.055076e-001 -8.565888e-001 2.694638e+000 35 57 29
4.053329e-001 -8.750035e-001 2.652316e+000 81 105 112
3.230934e-001 -9.543527e-001 2.780392e+000 193 126 106
4.621662e-001 -9.802124e-001 2.760737e+000 175 41 48
4.621662e-001 -9.802124e-001 2.760737e+000 175 41 48
4.507986e-001 -1.051421e+000 2.807662e+000 179 125 83
4.642346e-001 -1.059533e+000 2.816759e+000 71 37 36
5.037297e-001 -1.062965e+000 2.851026e+000 34 22 18
4.503002e-001 -1.086350e+000 2.833823e+000 70 35 41
4.544936e-001 -1.108290e+000 2.852513e+000 60 22 29
3.892552e-001 -1.098058e+000 2.864660e+000 131 32 41
3.971664e-001 -1.101171e+000 2.862101e+000 130 32 37
3.957084e-001 -1.113321e+000 2.879279e+000 142 28 44
3.830591e-001 -1.143591e+000 2.922334e+000 192 121 68
4.597544e-001 -1.177318e+000 2.908839e+000 138 65 41
4.232850e-001 -1.208920e+000 2.958702e+000 154 89 48
3.074717e-001 -8.335777e-001 2.674032e+000 31 55 37
4.493074e-001 -9.677939e-001 2.744819e+000 138 97 79
4.485235e-001 -9.689208e-001 2.743312e+000 138 97 79
3.099476e-001 -9.565999e-001 2.800974e+000 13 56 101
4.528641e-001 -1.043513e+000 2.801506e+000 177 123 73
3.837709e-001 -1.067001e+000 2.838792e+000 82 48 38
3.837709e-001 -1.067001e+000 2.838792e+000 82 48 38
3.559646e-001 -1.071663e+000 2.875819e+000 184 119 94
3.890682e-001 -1.084985e+000 2.853215e+000 185 121 98
4.402628e-001 -1.096457e+000 2.842244e+000 108 58 28
3.590207e-001 -1.083005e+000 2.882407e+000 131 26 40
3.802463e-001 -1.108802e+000 2.885880e+000 205 55 72
3.792487e-001 -1.152816e+000 2.938275e+000 99 38 14
3.940682e-001 -1.175180e+000 2.947904e+000 172 84 38
4.558868e-001 -2.243988e-001 2.972606e+000 91 63 56
4.065119e-001 -2.458145e-001 3.004239e+000 70 51 57
4.129804e-001 -2.495330e-001 3.000853e+000 93 62 70
4.588055e-001 -8.589967e-001 2.686603e+000 168 161 83
4.272734e-001 -9.076657e-001 2.680878e+000 166 156 56
4.348539e-001 -9.769191e-001 2.740504e+000 159 108 89
4.684282e-001 -9.735592e-001 2.761349e+000 176 43 48
3.995082e-001 -1.030110e+000 2.792668e+000 163 142 118
4.466092e-001 -1.059586e+000 2.811836e+000 103 48 48
4.476628e-001 -1.066449e+000 2.817528e+000 96 43 48
4.734310e-001 -1.128579e+000 2.878408e+000 161 124 90
4.734310e-001 -1.128579e+000 2.878408e+000 161 124 90
4.630997e-001 -2.263481e-001 2.974020e+000 136 102 92
4.238839e-001 -2.263811e-001 2.988463e+000 117 60 65
4.188661e-001 -2.330649e-001 2.993594e+000 95 44 49
4.380810e-001 -2.513508e-001 2.999355e+000 71 42 51
4.677948e-001 -2.492571e-001 2.988760e+000 132 97 93
5.001518e-001 -2.430563e-001 2.977874e+000 70 54 55
4.403399e-001 -2.766447e-001 3.013014e+000 47 29 29
4.488628e-001 -2.714185e-001 3.009528e+000 59 42 48
4.465636e-001 -2.815527e-001 3.015189e+000 104 88 65
3.195197e-001 -9.503854e-001 2.781355e+000 147 27 42
3.390887e-001 -9.636934e-001 2.772697e+000 214 137 117
4.628411e-001 -1.039729e+000 2.803202e+000 174 100 76
4.927697e-001 -1.092540e+000 2.859228e+000 129 99 91
3.922812e-001 -1.131738e+000 2.897450e+000 181 125 99
4.790858e-001 -2.511752e-001 2.983495e+000 148 66 45
4.397534e-001 -2.866740e-001 3.019283e+000 67 40 36
4.783696e-001 -2.874805e-001 3.010729e+000 130 105 101
4.883376e-001 -2.889248e-001 3.008182e+000 52 30 19
4.910573e-001 -3.039933e-001 3.016519e+000 110 54 39
4.161003e-001 -3.138546e-001 3.046821e+000 83 60 70
4.161003e-001 -3.138546e-001 3.046821e+000 83 60 70
4.353373e-001 -3.218873e-001 3.045275e+000 164 94 62
2.986188e-001 -8.370084e-001 2.682026e+000 13 80 122
2.975119e-001 -8.481572e-001 2.699036e+000 47 82 51
2.971896e-001 -8.493391e-001 2.698548e+000 47 82 51
4.422670e-001 -9.250770e-001 2.706190e+000 34 59 28
5.130097e-001 -2.673433e-001 2.985067e+000 131 116 111
4.834044e-001 -2.792630e-001 3.002294e+000 21 10 16
4.220810e-001 -2.961144e-001 3.032196e+000 33 19 32
2.769088e-001 -8.520951e-001 2.735409e+000 110 130 131
3.254692e-001 -8.925394e-001 2.710796e+000 78 110 105
4.520182e-001 -1.046570e+000 2.804613e+000 171 127 80
4.587697e-001 -1.158144e+000 2.895382e+000 16 64 104
4.714932e-001 -1.164291e+000 2.901034e+000 156 120 85
4.886944e-001 -2.265406e-001 2.967371e+000 39 55 44
4.886944e-001 -2.265406e-001 2.967371e+000 39 55 44
4.578188e-001 -2.316396e-001 2.980103e+000 134 106 89
4.977079e-001 -2.375648e-001 2.971117e+000 169 115 68
4.977079e-001 -2.375648e-001 2.971117e+000 169 115 68
5.062297e-001 -2.310737e-001 2.959550e+000 34 33 32
4.211423e-001 -9.005679e-001 2.674023e+000 30 59 29
4.497117e-001 -1.034767e+000 2.793210e+000 15 74 108
4.466201e-001 -1.109920e+000 2.853615e+000 154 110 63
3.817004e-001 -1.134434e+000 2.912569e+000 176 127 95
4.337356e-001 -1.147512e+000 2.885069e+000 67 19 27
3.625441e-001 -1.135304e+000 2.939931e+000 156 120 96
3.971927e-001 -1.192456e+000 2.966347e+000 167 129 107
4.578129e-001 -1.231819e+000 2.957297e+000 176 80 40
4.968182e-001 -2.594937e-001 2.982022e+000 25 16 21
4.624323e-001 -2.882568e-001 3.015508e+000 30 19 27
4.312334e-001 -1.108857e+000 2.855852e+000 41 15 23
3.538044e-001 -1.146567e+000 2.970888e+000 79 63 56
3.653890e-001 -1.149836e+000 2.952687e+000 167 139 110
5.032307e-001 -2.770552e-001 2.995404e+000 156 116 86
4.673265e-001 -2.369487e-001 2.980515e+000 120 83 75
4.690190e-001 -2.699511e-001 3.000094e+000 25 15 24
4.567052e-001 -1.199285e+000 2.934095e+000 174 92 36
4.565539e-001 -8.348845e-001 2.663755e+000 69 98 116
4.608026e-001 -8.833325e-001 2.700198e+000 50 56 22
4.614149e-001 -9.436036e-001 2.735423e+000 149 55 55
4.614149e-001 -9.436036e-001 2.735423e+000 149 55 55
4.749300e-001 -1.016315e+000 2.797709e+000 36 72 102
4.736863e-001 -1.043826e+000 2.816369e+000 73 31 28
4.601055e-001 -1.048413e+000 2.811621e+000 85 33 31
4.855869e-001 -1.056247e+000 2.832810e+000 110 77 84
4.788373e-001 -1.124391e+000 2.876953e+000 109 50 35
4.697139e-001 -1.153008e+000 2.893435e+000 25 58 90
2.675703e-001 -8.066444e-001 2.702557e+000 148 45 50
2.865073e-001 -8.192437e-001 2.685190e+000 146 49 49
4.159929e-001 -8.485812e-001 2.634269e+000 179 37 39
4.234599e-001 -8.743691e-001 2.658927e+000 76 106 114
3.937390e-001 -1.100751e+000 2.868946e+000 197 59 74
4.023941e-001 -1.109142e+000 2.866689e+000 208 70 81
3.671544e-001 -1.105621e+000 2.896280e+000 184 61 71
3.740139e-001 -1.118442e+000 2.903815e+000 112 76 54
4.730678e-001 -1.209462e+000 2.940087e+000 132 75 61
4.353134e-001 -1.219770e+000 2.961168e+000 36 13 8
4.434435e-001 -1.220636e+000 2.954278e+000 48 16 7
2.650905e-001 -7.966967e-001 2.697292e+000 175 37 47
2.780168e-001 -8.169645e-001 2.695801e+000 173 41 52
2.949335e-001 -8.503471e-001 2.701963e+000 154 156 34
3.082533e-001 -9.218689e-001 2.763909e+000 158 146 134
3.082533e-001 -9.218689e-001 2.763909e+000 158 146 134
3.793609e-001 -1.015019e+000 2.789218e+000 178 112 91
4.650621e-001 -1.059240e+000 2.819134e+000 71 37 36
4.798654e-001 -1.055729e+000 2.828078e+000 59 39 38
3.808260e-001 -1.086308e+000 2.859464e+000 181 125 99
3.917324e-001 -1.104722e+000 2.872127e+000 189 45 60
4.446162e-001 -1.125851e+000 2.865651e+000 162 116 66
4.895338e-001 -9.941962e-001 2.796660e+000 28 69 100
4.419522e-001 -1.064880e+000 2.815042e+000 168 126 90
4.403399e-001 -2.766447e-001 3.013014e+000 47 29 29
3.030721e-001 -8.559446e-001 2.694290e+000 29 56 36
4.670111e-001 -8.480221e-001 2.684435e+000 39 62 33
4.454346e-001 -8.660960e-001 2.673038e+000 42 59 35
4.860230e-001 -8.562375e-001 2.707962e+000 169 157 85
4.566274e-001 -8.911953e-001 2.699206e+000 36 61 35
4.433248e-001 -9.514638e-001 2.729528e+000 42 57 22
4.433248e-001 -9.514638e-001 2.729528e+000 42 57 22
3.661170e-001 -9.747069e-001 2.756482e+000 123 61 43
3.409182e-001 -1.103875e+000 2.929441e+000 179 124 108
3.840831e-001 -2.297320e-001 2.998054e+000 110 86 74
3.864401e-001 -2.427686e-001 3.004149e+000 104 85 71
4.118777e-001 -2.956410e-001 3.035262e+000 78 71 87
4.509395e-001 -8.800578e-001 2.685164e+000 38 62 29
4.812616e-001 -8.633200e-001 2.710849e+000 169 160 92
3.161304e-001 -8.813534e-001 2.713164e+000 29 55 34
4.959160e-001 -8.885911e-001 2.737470e+000 48 60 30
4.801393e-001 -9.687312e-001 2.769373e+000 167 154 122
4.449132e-001 -1.222637e+000 2.955775e+000 69 28 16
3.945515e-001 -2.343819e-001 2.998093e+000 164 146 126
4.239825e-001 -2.423432e-001 2.996622e+000 134 84 83
5.111948e-001 -2.437413e-001 2.968544e+000 41 30 29
3.965444e-001 -2.473940e-001 3.007341e+000 139 120 106
3.787269e-001 -1.082549e+000 2.860865e+000 177 124 101
3.759105e-001 -1.102314e+000 2.884512e+000 154 22 37
4.288372e-001 -2.744694e-001 3.016250e+000 142 46 57
2.921498e-001 -8.665450e-001 2.719925e+000 72 111 134
4.061443e-001 -1.169841e+000 2.928559e+000 165 73 45
4.968182e-001 -2.594937e-001 2.982022e+000 25 16 21
4.055010e-001 -2.650963e-001 3.017866e+000 19 14 21
4.082509e-001 -1.142378e+000 2.891802e+000 179 123 94
4.235169e-001 -8.267796e-001 2.628584e+000 224 142 104
4.622992e-001 -8.063158e-001 2.649447e+000 230 125 104
4.181145e-001 -8.636180e-001 2.652689e+000 136 141 21
2.909967e-001 -8.709542e-001 2.729084e+000 29 54 25
5.060368e-001 -9.892306e-001 2.805339e+000 127 168 199
4.935534e-001 -1.001283e+000 2.799061e+000 131 161 176
4.703880e-001 -1.018300e+000 2.792390e+000 120 166 191
3.739313e-001 -1.034188e+000 2.814730e+000 178 110 91
4.628837e-001 -1.052750e+000 2.813196e+000 73 31 28
4.645222e-001 -1.049714e+000 2.811167e+000 163 82 78
4.674455e-001 -1.053650e+000 2.817177e+000 74 36 35
4.770972e-001 -1.043861e+000 2.816302e+000 154 85 83
4.778845e-001 -1.047931e+000 2.819520e+000 146 83 84
4.666287e-001 -1.056307e+000 2.818786e+000 149 81 83
4.685500e-001 -1.057294e+000 2.817004e+000 82 42 40
4.667679e-001 -1.062437e+000 2.821015e+000 149 103 108
4.543833e-001 -1.077786e+000 2.828657e+000 105 52 62
4.531189e-001 -1.101760e+000 2.847225e+000 58 17 26
3.885721e-001 -1.112733e+000 2.884105e+000 206 54 69
4.576654e-001 -1.146280e+000 2.885891e+000 147 143 157
4.557547e-001 -1.148248e+000 2.886119e+000 31 31 52
3.991836e-001 -1.180343e+000 2.948106e+000 174 138 123
4.278589e-001 -1.213579e+000 2.959710e+000 45 17 10
4.336283e-001 -1.216444e+000 2.957292e+000 39 6 5
4.545709e-001 -7.986160e-001 2.644655e+000 169 43 42
4.553763e-001 -8.135424e-001 2.647240e+000 158 44 48
4.373289e-001 -8.269469e-001 2.641569e+000 155 50 47
4.630287e-001 -9.744463e-001 2.759568e+000 178 148 122
4.851545e-001 -9.918227e-001 2.785877e+000 200 76 76
4.652274e-001 -1.046405e+000 2.811209e+000 82 32 32
3.770304e-001 -1.057137e+000 2.835799e+000 86 53 40
4.482151e-001 -1.074652e+000 2.824777e+000 84 43 44
4.864138e-001 -1.086244e+000 2.853655e+000 26 22 19
5.137859e-001 -1.076124e+000 2.869497e+000 120 81 82
3.531714e-001 -1.083105e+000 2.887837e+000 139 37 43
3.531714e-001 -1.083105e+000 2.887837e+000 139 37 43
3.760012e-001 -1.108112e+000 2.888831e+000 135 28 38
2.606381e-001 -7.968136e-001 2.697795e+000 170 40 53
4.419242e-001 -8.088875e-001 2.636980e+000 170 44 45
4.423586e-001 -8.087184e-001 2.638052e+000 170 44 45
4.460882e-001 -8.247253e-001 2.649877e+000 167 46 51
4.292439e-001 -8.392993e-001 2.639862e+000 173 42 43
3.014688e-001 -8.608719e-001 2.706131e+000 49 91 115
3.267183e-001 -8.735012e-001 2.691736e+000 28 54 29
3.268969e-001 -8.735999e-001 2.692240e+000 28 54 29
2.843689e-001 -8.773507e-001 2.750512e+000 38 53 26
5.128887e-001 -9.115120e-001 2.756007e+000 147 106 87
3.847858e-001 -1.056888e+000 2.832155e+000 176 121 90
4.552733e-001 -1.074349e+000 2.827638e+000 73 31 37
4.828040e-001 -1.103811e+000 2.863291e+000 83 52 50
4.825312e-001 -1.121879e+000 2.872832e+000 162 118 85
3.386423e-001 -1.110620e+000 2.940530e+000 168 134 109
3.753142e-001 -1.122685e+000 2.907847e+000 180 129 102
3.921747e-001 -1.163864e+000 2.929451e+000 184 113 59
1.697815e-001 -1.133455e+000 3.044991e+000 50 38 48
4.747691e-001 -1.199932e+000 2.934223e+000 192 130 96
4.198101e-001 -8.249531e-001 2.628560e+000 174 43 39
3.235299e-001 -8.588201e-001 2.682205e+000 110 125 47
4.779403e-001 -8.865512e-001 2.709756e+000 41 57 31
3.871043e-001 -1.006116e+000 2.772962e+000 12 71 105
4.616184e-001 -1.027224e+000 2.792624e+000 131 157 154
4.928085e-001 -1.024450e+000 2.814621e+000 80 54 64
4.462834e-001 -1.082539e+000 2.831863e+000 168 124 87
2.648565e-001 -1.226719e+000 2.996473e+000 50 39 49
4.031624e-001 -2.285276e-001 2.993180e+000 62 45 53
4.773349e-001 -2.282277e-001 2.972266e+000 160 109 84
4.713821e-001 -2.405108e-001 2.980808e+000 108 60 53
6.432342e-001 -4.056740e-001 3.014173e+000 64 60 75
4.214955e-001 -8.634945e-001 2.654707e+000 103 122 53
4.730735e-001 -9.642095e-001 2.759697e+000 170 154 121
3.723498e-001 -1.113852e+000 2.902268e+000 182 122 93
1.788628e-001 -1.143604e+000 3.037969e+000 50 40 49
2.731446e-001 -1.233674e+000 2.994675e+000 47 35 46
5.571280e-001 -2.846937e-001 2.983923e+000 46 36 44
4.789924e-001 -1.079225e+000 2.844321e+000 139 111 99
4.087150e-001 -1.099744e+000 2.853120e+000 144 23 34
4.908895e-001 -1.148514e+000 2.899866e+000 155 117 80
2.017140e-001 -1.174498e+000 3.024903e+000 135 120 123
2.438874e-001 -1.204187e+000 3.016040e+000 43 33 42
4.158978e-001 -8.521391e-001 2.638994e+000 117 125 109
3.482453e-001 -1.110212e+000 2.930121e+000 179 125 105
4.134256e-001 -1.127144e+000 2.876890e+000 147 23 41
2.319044e-001 -1.203272e+000 3.019247e+000 133 115 120
2.159747e-001 -1.189863e+000 3.025411e+000 132 113 117
5.945239e-001 -2.402153e-001 2.937694e+000 103 80 66
3.427721e-001 -1.101338e+000 2.955280e+000 123 95 81
3.351998e-001 -1.015495e+000 2.867394e+000 181 118 103
3.163897e-001 -9.225971e-001 2.753870e+000 85 48 40
3.242410e-001 -9.322234e-001 2.755403e+000 92 33 34
2.874299e-001 -9.222975e-001 2.814082e+000 213 122 114
3.702444e-001 -1.010317e+000 2.788724e+000 51 20 15
4.615360e-001 -1.025312e+000 2.786958e+000 82 129 148
3.149334e-001 -9.950932e-001 2.855516e+000 179 118 105
4.674044e-001 -1.058876e+000 2.813982e+000 128 83 86
3.829978e-001 -1.079314e+000 2.853456e+000 91 54 34
4.014599e-001 -1.100383e+000 2.857968e+000 195 63 72
3.848724e-001 -1.107457e+000 2.886654e+000 143 26 34
2.900092e-001 -8.652801e-001 2.730393e+000 26 51 27
4.796834e-001 -9.872948e-001 2.769966e+000 137 44 39
4.848253e-001 -9.825658e-001 2.770860e+000 134 47 37
3.194777e-001 -1.001032e+000 2.849471e+000 182 116 97
3.150629e-001 -1.004356e+000 2.861730e+000 112 68 53
4.602340e-001 -1.048948e+000 2.802975e+000 93 44 40
4.744612e-001 -1.057729e+000 2.819356e+000 61 39 41
3.421495e-001 -1.066620e+000 2.891724e+000 137 32 37
3.628394e-001 -1.085658e+000 2.877528e+000 135 35 41
3.618789e-001 -1.086379e+000 2.886274e+000 134 33 41
3.928741e-001 -7.471976e-001 2.580333e+000 199 172 135
2.939936e-001 -9.624019e-001 2.859542e+000 166 69 71
3.207614e-001 -1.004056e+000 2.850579e+000 122 79 67
3.326932e-001 -1.023719e+000 2.850750e+000 180 115 93
3.745731e-001 -1.039531e+000 2.814217e+000 84 54 39
3.767708e-001 -1.049366e+000 2.824568e+000 180 122 96
4.590682e-001 -1.057290e+000 2.809635e+000 158 83 78
4.583942e-001 -1.058176e+000 2.809284e+000 158 83 78
3.874484e-001 -1.064128e+000 2.838152e+000 179 124 90
3.817660e-001 -1.108255e+000 2.888518e+000 199 62 70
3.054667e-001 -8.354180e-001 2.670405e+000 30 51 31
2.725997e-001 -8.615310e-001 2.761820e+000 29 54 24
3.522704e-001 -9.646570e-001 2.762969e+000 143 23 35
4.570152e-001 -1.023821e+000 2.785069e+000 23 67 97
3.171788e-001 -1.021934e+000 2.886495e+000 177 121 106
3.807157e-001 -1.062852e+000 2.836551e+000 179 124 94
3.825535e-001 -1.062352e+000 2.839143e+000 179 124 94
3.199693e-001 -1.055135e+000 2.924214e+000 141 33 49
4.661482e-001 -1.097494e+000 2.843376e+000 65 36 31
2.989901e-001 -8.163990e-001 2.662613e+000 154 87 80
2.686473e-001 -8.374481e-001 2.736191e+000 121 136 99
3.037637e-001 -8.844937e-001 2.731586e+000 22 51 23
2.885231e-001 -9.258280e-001 2.814129e+000 192 119 109
3.297443e-001 -9.601247e-001 2.781010e+000 188 120 96
3.641687e-001 -9.687322e-001 2.758881e+000 146 22 38
4.530874e-001 -9.738704e-001 2.744351e+000 172 149 118
4.348389e-001 -9.881103e-001 2.741833e+000 144 100 75
4.062523e-001 -1.100933e+000 2.849720e+000 144 23 30
2.713639e-001 -8.446047e-001 2.736859e+000 26 55 35
2.763036e-001 -8.423451e-001 2.718645e+000 22 55 26
2.971670e-001 -8.731901e-001 2.724169e+000 23 56 25
3.397552e-001 -1.058455e+000 2.884027e+000 177 120 98
4.009967e-001 -1.113792e+000 2.871397e+000 152 22 34
3.223390e-001 -9.317784e-001 2.755887e+000 154 114 104
3.441660e-001 -1.011818e+000 2.789034e+000 178 113 91
3.334090e-001 -1.047844e+000 2.883689e+000 181 121 102
3.340023e-001 -1.015222e+000 2.864472e+000 181 119 96
3.744037e-001 -1.002316e+000 2.778015e+000 10 50 85
2.674533e-001 -8.026037e-001 2.696618e+000 218 139 120
2.674533e-001 -8.026037e-001 2.696618e+000 218 139 120
2.913489e-001 -8.146897e-001 2.684114e+000 208 127 111
3.005839e-001 -8.457582e-001 2.699537e+000 50 82 40
3.114905e-001 -9.220640e-001 2.758053e+000 169 138 121
3.188320e-001 -1.057857e+000 2.900597e+000 185 62 72
3.837942e-001 -1.079143e+000 2.849516e+000 178 126 95
3.418895e-001 -1.073219e+000 2.892825e+000 193 61 66
3.715888e-001 -1.087155e+000 2.873703e+000 213 68 79
4.031390e-001 -1.102485e+000 2.853724e+000 204 54 66
3.775337e-001 -1.094022e+000 2.874929e+000 196 55 67
3.775337e-001 -1.094022e+000 2.874929e+000 196 55 67
3.389032e-001 -1.090322e+000 2.924714e+000 180 117 104
3.610627e-001 -1.097813e+000 2.899492e+000 204 58 66
3.610627e-001 -1.097813e+000 2.899492e+000 204 58 66
3.798906e-001 -1.107925e+000 2.889017e+000 203 62 72
3.934750e-001 -1.114909e+000 2.880875e+000 198 63 69
3.934750e-001 -1.114909e+000 2.880875e+000 198 63 69
4.569744e-001 -1.126823e+000 2.867144e+000 75 50 53
3.640640e-001 -1.118114e+000 2.921285e+000 175 111 93
3.820592e-001 -1.127567e+000 2.910507e+000 113 78 56
3.820592e-001 -1.127567e+000 2.910507e+000 113 78 56
3.686813e-001 -1.133212e+000 2.932811e+000 175 65 50
4.004286e-001 -1.160323e+000 2.927235e+000 152 97 44
3.564203e-001 -1.140432e+000 2.964079e+000 36 26 22
4.151025e-001 -1.205276e+000 2.963693e+000 35 10 0
4.151025e-001 -1.205276e+000 2.963693e+000 35 10 0
4.223904e-001 -1.209882e+000 2.961442e+000 44 17 0
2.929124e-001 -8.702695e-001 2.727679e+000 152 149 38
3.761342e-001 -1.014234e+000 2.784143e+000 56 31 26
3.355278e-001 -1.082216e+000 2.910952e+000 144 36 47
3.804143e-001 -1.095379e+000 2.873365e+000 205 66 75
3.384252e-001 -1.087202e+000 2.927069e+000 116 69 56
3.620649e-001 -1.101570e+000 2.903252e+000 191 53 56
3.755221e-001 -1.109417e+000 2.895629e+000 191 63 68
3.689380e-001 -1.131765e+000 2.928548e+000 132 43 31
4.287464e-001 -1.213325e+000 2.959741e+000 59 23 6
2.633426e-001 -7.941408e-001 2.694450e+000 168 38 49
2.677066e-001 -7.959930e-001 2.691925e+000 175 36 51
3.275844e-001 -1.014851e+000 2.839923e+000 93 50 35
3.743805e-001 -1.039383e+000 2.814286e+000 84 54 39
3.033932e-001 -1.025022e+000 2.878956e+000 176 123 113
3.136375e-001 -1.023133e+000 2.865900e+000 112 66 51
3.430835e-001 -1.047646e+000 2.860868e+000 117 71 58
3.430835e-001 -1.047646e+000 2.860868e+000 117 71 58
3.830202e-001 -1.056657e+000 2.823298e+000 71 43 26
3.845769e-001 -1.063585e+000 2.829924e+000 65 33 18
3.884112e-001 -1.077692e+000 2.842346e+000 61 35 16
3.724109e-001 -1.107525e+000 2.896863e+000 195 69 72
3.985092e-001 -1.117592e+000 2.877750e+000 218 64 78
3.985092e-001 -1.117592e+000 2.877750e+000 218 64 78
3.499581e-001 -1.102191e+000 2.917969e+000 118 68 61
4.815889e-001 -1.170376e+000 2.911135e+000 188 80 42
4.765036e-001 -1.102875e+000 2.855935e+000 83 48 46
3.040751e-001 -8.124285e-001 2.670081e+000 154 87 80
4.792125e-001 -1.207277e+000 2.943866e+000 171 127 99
3.245688e-001 -1.092024e+000 2.966553e+000 38 28 36
4.709981e-001 -1.161847e+000 2.900255e+000 161 124 82
4.717933e-001 -1.207886e+000 2.939065e+000 159 115 90
2.992848e-001 -7.765027e-001 2.649239e+000 15 82 124
3.679266e-001 -1.147265e+000 2.956670e+000 154 127 103
4.330830e-001 -1.193109e+000 2.928477e+000 170 77 42
4.599776e-001 -4.264558e-001 3.065103e+000 78 56 43
4.857454e-001 -4.326171e-001 3.068275e+000 101 69 60
-2.749305e-001 -1.644579e+000 1.227410e+000 0 255 0
-2.918914e-001 -1.665149e+000 1.185111e+000 255 255 0
2.197341e-001 -1.689479e+000 9.904034e-001 255 0 0
2.158892e-001 -1.709906e+000 9.449284e-001 255 255 0
2.589000e+001 1.521138e+001 3.770470e+001 0 255 0
2.586238e+001 1.519392e+001 3.766686e+001 255 255 0
1.805591e+001 1.633074e+001 3.923008e+001 255 0 0
1.803581e+001 1.631119e+001 3.918868e+001 255 255 0
-2.183973e+000 1.427763e+001 4.235864e+001 0 255 0
-2.180936e+000 1.425975e+001 4.231204e+001 255 255 0
8.159554e-001 5.719049e-001 3.187594e+000 255 0 0
8.009059e-001 5.261119e-001 3.174308e+000 255 255 0
-3.029823e+000 -2.040110e+000 -6.590472e-001 0 255 0
-3.064105e+000 -2.051411e+000 -6.936455e-001 255 255 0
6.191480e-001 -1.423074e+000 1.310257e+000 255 0 0
6.262960e-001 -1.439775e+000 1.263674e+000 255 255 0
