ply
format ascii 1.0
element face 0
property list uchar int vertex_indices
element vertex 895
property float x
property float y
property float z
property uchar diffuse_red
property uchar diffuse_green
property uchar diffuse_blue
end_header
3.976847e-001 -1.141943e+000 2.894826e+000 227 79 80
3.976847e-001 -1.141943e+000 2.894826e+000 227 79 80
4.190312e-001 -1.156625e+000 2.872232e+000 233 69 78
3.438839e-001 -1.133774e+000 2.951333e+000 140 90 77
3.438839e-001 -1.133774e+000 2.951333e+000 140 90 77
3.604374e-001 -1.138778e+000 2.941900e+000 123 66 55
3.435188e-001 -1.136383e+000 2.956573e+000 199 133 108
3.649440e-001 -1.147236e+000 2.946906e+000 100 60 45
3.738635e-001 -1.143623e+000 2.933268e+000 106 63 43
3.739462e-001 -1.143352e+000 2.933185e+000 106 63 43
3.912079e-001 -1.162441e+000 2.936767e+000 189 89 50
3.497581e-001 -1.171014e+000 2.990952e+000 148 118 97
2.788307e-001 -8.682052e-001 2.678008e+000 181 39 45
3.155669e-001 -9.029926e-001 2.678747e+000 158 152 22
2.787636e-001 -9.076466e-001 2.737559e+000 146 148 55
2.787636e-001 -9.076466e-001 2.737559e+000 146 148 55
3.189109e-001 -9.243995e-001 2.706850e+000 160 159 23
3.189109e-001 -9.243995e-001 2.706850e+000 160 159 23
3.082290e-001 -9.625430e-001 2.773426e+000 157 133 123
3.189527e-001 -9.874338e-001 2.797661e+000 165 25 38
3.315659e-001 -9.920843e-001 2.789776e+000 160 29 34
3.326176e-001 -9.991547e-001 2.794994e+000 5 54 83
3.411250e-001 -9.966676e-001 2.781885e+000 169 26 40
3.485951e-001 -1.027223e+000 2.817590e+000 201 130 105
3.512411e-001 -1.032812e+000 2.817729e+000 190 129 100
2.914951e-001 -1.026921e+000 2.864586e+000 200 136 118
2.914951e-001 -1.026921e+000 2.864586e+000 200 136 118
2.959265e-001 -1.033530e+000 2.870976e+000 199 134 116
2.962948e-001 -1.027453e+000 2.862564e+000 198 134 116
2.962948e-001 -1.027453e+000 2.862564e+000 198 134 116
3.011239e-001 -1.026876e+000 2.860201e+000 201 134 118
3.020988e-001 -1.025229e+000 2.860361e+000 201 134 118
3.389141e-001 -1.032290e+000 2.830476e+000 199 134 106
3.786653e-001 -1.056075e+000 2.798118e+000 176 114 90
3.819771e-001 -1.058847e+000 2.789045e+000 203 127 99
3.841450e-001 -1.066295e+000 2.796231e+000 200 131 101
3.424089e-001 -1.047671e+000 2.848886e+000 141 98 77
3.096996e-001 -1.057828e+000 2.887929e+000 199 134 109
3.445170e-001 -1.055551e+000 2.855627e+000 117 68 55
3.472572e-001 -1.062131e+000 2.862349e+000 89 51 37
3.059664e-001 -1.068572e+000 2.909461e+000 140 92 85
3.094923e-001 -1.077573e+000 2.911018e+000 198 136 115
3.103087e-001 -1.076226e+000 2.910860e+000 198 136 115
3.516881e-001 -1.073895e+000 2.871438e+000 197 133 108
3.515479e-001 -1.074074e+000 2.871537e+000 197 133 108
3.515440e-001 -1.078301e+000 2.875632e+000 160 106 87
3.515440e-001 -1.078301e+000 2.875632e+000 160 106 87
3.542636e-001 -1.082654e+000 2.877945e+000 197 133 107
3.972679e-001 -1.105963e+000 2.838534e+000 201 143 106
3.656808e-001 -1.106643e+000 2.895484e+000 162 25 38
3.944760e-001 -1.122930e+000 2.875427e+000 157 32 38
3.473740e-001 -1.135718e+000 2.953086e+000 202 132 107
3.472992e-001 -1.136039e+000 2.953255e+000 202 132 107
3.924710e-001 -1.151984e+000 2.918542e+000 76 36 9
3.271016e-001 -9.069471e-001 2.662553e+000 99 113 36
2.899061e-001 -9.078127e-001 2.718303e+000 137 141 30
3.189253e-001 -9.605633e-001 2.760641e+000 170 160 145
2.958462e-001 -9.755167e-001 2.800040e+000 171 27 42
3.129611e-001 -9.782619e-001 2.791079e+000 172 26 37
3.323179e-001 -9.860803e-001 2.778171e+000 171 30 39
3.561851e-001 -1.002176e+000 2.754139e+000 167 24 38
2.931851e-001 -1.053850e+000 2.895691e+000 207 138 123
3.044875e-001 -1.090387e+000 2.930367e+000 164 28 43
3.525949e-001 -1.102062e+000 2.903857e+000 166 23 35
2.705655e-001 -9.007642e-001 2.728708e+000 118 144 118
2.834074e-001 -9.213467e-001 2.743951e+000 29 59 32
3.391540e-001 -9.685391e-001 2.739556e+000 162 153 137
3.524394e-001 -1.119257e+000 2.923550e+000 174 21 39
3.524394e-001 -1.119257e+000 2.923550e+000 174 21 39
3.989004e-001 -1.139410e+000 2.887043e+000 176 23 37
3.989004e-001 -1.139410e+000 2.887043e+000 176 23 37
2.603657e-001 -8.717350e-001 2.710491e+000 127 141 143
2.639969e-001 -8.862295e-001 2.723181e+000 131 145 134
2.639969e-001 -8.862295e-001 2.723181e+000 131 145 134
3.451641e-001 -9.516382e-001 2.694223e+000 98 123 115
3.451641e-001 -9.516382e-001 2.694223e+000 98 123 115
2.639174e-001 -1.053390e+000 2.897955e+000 192 104 102
3.516970e-001 -1.095903e+000 2.897968e+000 199 132 106
3.737217e-001 -1.131057e+000 2.909506e+000 172 27 34
4.232805e-001 -1.161275e+000 2.874197e+000 177 27 39
3.970112e-001 -1.166702e+000 2.930250e+000 193 144 101
3.153466e-001 -9.204705e-001 2.702336e+000 62 106 117
2.766530e-001 -9.202625e-001 2.747960e+000 25 62 31
2.812290e-001 -9.146250e-001 2.736887e+000 126 146 137
2.853798e-001 -9.286159e-001 2.750962e+000 154 154 144
3.571098e-001 -9.496440e-001 2.664397e+000 52 97 120
3.315823e-001 -1.073212e+000 2.893328e+000 201 131 110
3.338073e-001 -1.055744e+000 2.866543e+000 194 133 105
3.567930e-001 -1.080167e+000 2.870826e+000 125 82 67
2.726692e-001 -1.060023e+000 2.891177e+000 184 102 90
4.270484e-001 -1.185376e+000 2.856545e+000 184 136 64
3.994904e-001 -1.150134e+000 2.877645e+000 163 35 35
2.107512e-001 -8.614750e-001 2.704364e+000 167 166 164
4.168379e-001 -1.108892e+000 2.810910e+000 179 140 97
2.441044e-001 -8.495891e-001 2.684526e+000 159 27 32
2.441044e-001 -8.495891e-001 2.684526e+000 159 27 32
3.028638e-001 -8.672278e-001 2.643155e+000 17 71 97
2.647254e-001 -8.613349e-001 2.681053e+000 203 130 94
2.749633e-001 -8.635686e-001 2.675515e+000 205 131 94
2.748402e-001 -8.638217e-001 2.675429e+000 205 131 94
2.973137e-001 -8.683408e-001 2.655249e+000 137 44 34
3.054349e-001 -8.726034e-001 2.649590e+000 20 72 96
3.055494e-001 -8.781399e-001 2.660700e+000 159 35 34
2.824319e-001 -8.877767e-001 2.697156e+000 64 72 21
3.040076e-001 -8.936637e-001 2.684977e+000 50 75 46
2.743849e-001 -9.106613e-001 2.736675e+000 130 134 32
3.179300e-001 -9.210259e-001 2.704155e+000 80 89 42
3.070266e-001 -9.544839e-001 2.764484e+000 191 106 87
3.355206e-001 -9.645706e-001 2.737913e+000 70 35 22
3.355206e-001 -9.645706e-001 2.737913e+000 70 35 22
3.146951e-001 -9.599321e-001 2.763325e+000 77 21 14
3.229039e-001 -9.622223e-001 2.758481e+000 76 12 7
3.229039e-001 -9.622223e-001 2.758481e+000 76 12 7
2.861788e-001 -9.758260e-001 2.809446e+000 198 130 98
3.090428e-001 -9.817708e-001 2.796921e+000 205 133 98
3.359000e-001 -9.912592e-001 2.781179e+000 116 27 21
3.359000e-001 -9.912592e-001 2.781179e+000 116 27 21
3.416161e-001 -9.941927e-001 2.775870e+000 92 24 18
3.451147e-001 -9.958158e-001 2.770913e+000 196 136 88
3.529103e-001 -1.000773e+000 2.762494e+000 222 128 100
3.564994e-001 -1.004299e+000 2.762498e+000 214 128 96
3.623063e-001 -1.007471e+000 2.754838e+000 115 25 23
3.728917e-001 -1.013845e+000 2.741920e+000 210 141 97
3.728917e-001 -1.013845e+000 2.741920e+000 210 141 97
2.911146e-001 -9.776782e-001 2.810130e+000 193 147 102
2.906798e-001 -9.784467e-001 2.809955e+000 193 147 102
2.984253e-001 -9.804586e-001 2.805936e+000 219 133 103
3.023833e-001 -9.820578e-001 2.803174e+000 198 133 97
3.073929e-001 -9.822725e-001 2.799083e+000 107 16 23
3.074380e-001 -9.820526e-001 2.799000e+000 107 16 23
3.194625e-001 -9.867009e-001 2.793144e+000 197 134 96
3.284067e-001 -9.888477e-001 2.787760e+000 199 139 113
3.316141e-001 -9.901548e-001 2.785811e+000 202 135 102
3.315610e-001 -9.903833e-001 2.785832e+000 202 135 102
3.348315e-001 -9.913806e-001 2.783435e+000 191 135 88
3.348320e-001 -9.914447e-001 2.783478e+000 191 135 88
3.378421e-001 -9.929420e-001 2.781196e+000 197 131 90
2.669962e-001 -9.855090e-001 2.831831e+000 26 73 108
3.356427e-001 -1.027627e+000 2.828421e+000 167 103 83
3.473575e-001 -1.030352e+000 2.821287e+000 50 15 3
3.403440e-001 -1.034075e+000 2.832954e+000 177 104 76
2.800841e-001 -1.037583e+000 2.882872e+000 140 42 36
3.104556e-001 -1.046351e+000 2.875194e+000 186 113 85
3.208606e-001 -1.041726e+000 2.861441e+000 184 106 79
2.967845e-001 -1.051158e+000 2.889584e+000 181 108 88
3.960267e-001 -1.106588e+000 2.844189e+000 178 115 74
4.037458e-001 -1.130172e+000 2.863457e+000 201 51 57
3.332308e-001 -1.103032e+000 2.924262e+000 223 66 74
3.331457e-001 -1.103376e+000 2.924302e+000 223 66 74
3.515619e-001 -1.102853e+000 2.907756e+000 198 55 66
3.458648e-001 -1.103362e+000 2.914126e+000 128 22 23
3.568505e-001 -1.109644e+000 2.910434e+000 220 70 76
3.140910e-001 -1.106571e+000 2.940738e+000 131 28 31
3.999216e-001 -1.144822e+000 2.892496e+000 218 51 56
3.590176e-001 -1.126422e+000 2.928175e+000 119 26 30
3.610069e-001 -1.128403e+000 2.926856e+000 125 22 29
3.696581e-001 -1.127145e+000 2.918912e+000 128 26 29
3.837145e-001 -1.132686e+000 2.908696e+000 222 70 81
2.604005e-001 -8.597261e-001 2.682540e+000 206 131 88
2.670431e-001 -8.596494e-001 2.676744e+000 192 132 95
2.696794e-001 -8.584017e-001 2.672291e+000 202 133 97
2.982844e-001 -8.707931e-001 2.657779e+000 142 39 30
2.839204e-001 -8.953985e-001 2.709145e+000 77 98 91
3.132983e-001 -9.216606e-001 2.714727e+000 141 139 32
3.596933e-001 -9.699415e-001 2.690092e+000 155 144 104
3.210696e-001 -9.556702e-001 2.752162e+000 92 16 19
3.116623e-001 -9.574360e-001 2.762449e+000 157 136 110
3.116623e-001 -9.574360e-001 2.762449e+000 157 136 110
3.146358e-001 -9.605956e-001 2.766198e+000 157 129 107
2.746156e-001 -9.819872e-001 2.824482e+000 24 68 104
3.086726e-001 -1.032303e+000 2.860965e+000 81 45 37
2.972471e-001 -1.037507e+000 2.874549e+000 67 43 32
3.018084e-001 -1.045344e+000 2.880326e+000 70 36 27
3.166602e-001 -1.048054e+000 2.872711e+000 70 43 36
3.166602e-001 -1.048054e+000 2.872711e+000 70 43 36
3.268026e-001 -1.043704e+000 2.858777e+000 70 41 30
2.760909e-001 -1.051881e+000 2.897474e+000 184 96 86
2.841392e-001 -1.048607e+000 2.892902e+000 179 90 81
3.091514e-001 -1.053629e+000 2.884437e+000 82 43 31
3.292772e-001 -1.064436e+000 2.881709e+000 62 28 13
3.302824e-001 -1.070771e+000 2.889071e+000 42 18 11
3.302824e-001 -1.070771e+000 2.889071e+000 42 18 11
3.344757e-001 -1.065829e+000 2.878356e+000 103 58 39
3.544745e-001 -1.070296e+000 2.865499e+000 176 108 77
3.542068e-001 -1.071186e+000 2.865468e+000 176 108 77
3.161775e-001 -1.072720e+000 2.904915e+000 64 26 25
3.277434e-001 -1.088119e+000 2.915760e+000 186 106 81
3.220900e-001 -1.097373e+000 2.927383e+000 131 22 27
3.248824e-001 -1.097732e+000 2.926014e+000 125 25 30
3.585962e-001 -1.106581e+000 2.906770e+000 131 28 30
3.944531e-001 -1.132082e+000 2.881508e+000 139 23 30
4.039318e-001 -1.134932e+000 2.872180e+000 130 20 29
4.044254e-001 -1.132837e+000 2.872341e+000 130 20 29
4.085019e-001 -1.134004e+000 2.868774e+000 133 23 25
4.157322e-001 -1.145999e+000 2.862039e+000 231 71 76
3.179702e-001 -1.102094e+000 2.934376e+000 127 28 34
3.165009e-001 -1.102270e+000 2.937579e+000 214 73 75
3.165009e-001 -1.102270e+000 2.937579e+000 214 73 75
3.643559e-001 -1.112852e+000 2.908382e+000 126 23 28
3.670785e-001 -1.117866e+000 2.908832e+000 184 38 38
3.941293e-001 -1.139718e+000 2.900205e+000 136 20 29
4.041585e-001 -1.144110e+000 2.888925e+000 212 45 51
4.038240e-001 -1.145369e+000 2.889103e+000 212 45 51
3.315151e-001 -1.118843e+000 2.944507e+000 137 24 33
3.663935e-001 -1.129325e+000 2.923628e+000 136 21 24
3.662825e-001 -1.130472e+000 2.926581e+000 237 77 91
3.698027e-001 -1.132140e+000 2.923863e+000 192 51 56
3.764778e-001 -1.131670e+000 2.916727e+000 126 23 31
3.908053e-001 -1.135797e+000 2.907940e+000 220 83 91
3.321531e-001 -1.132570e+000 2.958103e+000 56 30 16
2.700758e-001 -8.572445e-001 2.669493e+000 164 26 36
2.702833e-001 -8.569425e-001 2.669663e+000 164 26 36
2.628889e-001 -8.614653e-001 2.683564e+000 157 33 33
2.836313e-001 -8.683280e-001 2.673100e+000 188 138 98
2.856137e-001 -8.871124e-001 2.697242e+000 139 143 32
2.856137e-001 -8.871124e-001 2.697242e+000 139 143 32
3.027436e-001 -8.940137e-001 2.688278e+000 146 137 27
3.027436e-001 -8.940137e-001 2.688278e+000 146 137 27
3.081646e-001 -9.029247e-001 2.694481e+000 47 87 85
3.204939e-001 -9.168352e-001 2.694642e+000 57 83 89
2.987713e-001 -9.158803e-001 2.721807e+000 144 136 26
3.081191e-001 -9.578085e-001 2.767785e+000 149 128 106
3.228034e-001 -9.643973e-001 2.761464e+000 159 131 108
3.251738e-001 -9.870369e-001 2.787861e+000 146 19 28
2.924421e-001 -9.869811e-001 2.815089e+000 20 70 96
3.331158e-001 -1.019311e+000 2.822366e+000 72 35 16
3.369387e-001 -1.021527e+000 2.824460e+000 177 106 78
3.852952e-001 -1.061650e+000 2.791403e+000 74 32 19
3.052833e-001 -1.037168e+000 2.871097e+000 144 89 67
3.052833e-001 -1.037168e+000 2.871097e+000 144 89 67
3.940105e-001 -1.104643e+000 2.846721e+000 166 110 74
4.005617e-001 -1.109914e+000 2.840382e+000 70 35 12
3.084776e-001 -1.080229e+000 2.918777e+000 180 110 94
3.120112e-001 -1.081655e+000 2.917162e+000 189 107 86
3.114714e-001 -1.083232e+000 2.917120e+000 189 107 86
3.241657e-001 -1.081474e+000 2.907919e+000 153 92 73
3.550553e-001 -1.090562e+000 2.889240e+000 70 41 21
3.644123e-001 -1.094722e+000 2.884386e+000 68 29 22
4.138814e-001 -1.143000e+000 2.857242e+000 222 74 78
3.686118e-001 -1.108804e+000 2.899565e+000 123 21 28
3.788214e-001 -1.117860e+000 2.897057e+000 138 22 27
3.169808e-001 -1.111610e+000 2.945233e+000 133 24 33
3.166732e-001 -1.112451e+000 2.945265e+000 133 24 33
3.216273e-001 -1.111423e+000 2.943617e+000 131 21 33
3.219616e-001 -1.109826e+000 2.943666e+000 131 21 33
3.239608e-001 -1.110134e+000 2.936531e+000 132 23 32
3.332553e-001 -1.106423e+000 2.927181e+000 129 27 31
3.346469e-001 -1.111671e+000 2.933618e+000 155 23 18
3.494782e-001 -1.135447e+000 2.948595e+000 111 56 43
3.922526e-001 -1.151693e+000 2.918807e+000 70 38 24
2.574983e-001 -8.542065e-001 2.677616e+000 162 28 31
2.631542e-001 -8.551234e-001 2.674553e+000 157 27 25
2.631236e-001 -8.551734e-001 2.674522e+000 157 27 25
2.795935e-001 -8.865919e-001 2.702690e+000 139 129 25
2.975760e-001 -9.827856e-001 2.809711e+000 133 20 26
2.652201e-001 -9.860422e-001 2.835403e+000 153 144 142
3.142828e-001 -9.924794e-001 2.806637e+000 1 30 48
3.201780e-001 -9.939713e-001 2.803010e+000 2 27 45
3.880144e-001 -1.059590e+000 2.777226e+000 176 106 74
3.470808e-001 -1.028990e+000 2.817346e+000 177 110 73
3.470808e-001 -1.028990e+000 2.817346e+000 177 110 73
3.434535e-001 -1.033491e+000 2.827210e+000 180 107 74
3.854558e-001 -1.073817e+000 2.809929e+000 151 78 52
3.867891e-001 -1.073159e+000 2.814584e+000 182 109 81
3.865659e-001 -1.074133e+000 2.814477e+000 182 109 81
2.852912e-001 -1.043444e+000 2.889396e+000 144 35 38
3.445965e-001 -1.054969e+000 2.855643e+000 130 74 59
3.887354e-001 -1.079783e+000 2.821671e+000 181 114 77
3.921842e-001 -1.093817e+000 2.824449e+000 181 119 75
3.468966e-001 -1.060418e+000 2.858441e+000 178 103 82
3.493644e-001 -1.067384e+000 2.864461e+000 175 109 70
3.529398e-001 -1.068815e+000 2.862568e+000 175 108 77
3.979547e-001 -1.103906e+000 2.833604e+000 109 61 32
3.051631e-001 -1.065028e+000 2.897412e+000 177 110 88
3.102649e-001 -1.064816e+000 2.895389e+000 175 110 85
3.102649e-001 -1.064816e+000 2.895389e+000 175 110 85
3.169333e-001 -1.062133e+000 2.892200e+000 177 110 82
3.244385e-001 -1.062018e+000 2.884148e+000 115 58 39
3.600668e-001 -1.075904e+000 2.866890e+000 181 109 77
3.939675e-001 -1.104722e+000 2.841480e+000 183 120 73
3.091357e-001 -1.069244e+000 2.903882e+000 182 104 89
3.091357e-001 -1.069244e+000 2.903882e+000 182 104 89
3.243684e-001 -1.077540e+000 2.904095e+000 178 108 87
3.243684e-001 -1.077540e+000 2.904095e+000 178 108 87
3.308152e-001 -1.075061e+000 2.892386e+000 177 109 83
3.308152e-001 -1.075061e+000 2.892386e+000 177 109 83
3.594092e-001 -1.091025e+000 2.882765e+000 175 109 77
3.594092e-001 -1.091025e+000 2.882765e+000 175 109 77
3.200746e-001 -1.093122e+000 2.922187e+000 146 17 37
3.391675e-001 -1.101190e+000 2.917955e+000 137 23 37
3.391675e-001 -1.101190e+000 2.917955e+000 137 23 37
3.376445e-001 -1.110188e+000 2.930095e+000 140 22 28
2.953306e-001 -9.117060e-001 2.720087e+000 22 51 9
3.039755e-001 -9.771663e-001 2.794946e+000 141 18 19
3.354308e-001 -9.919528e-001 2.787200e+000 127 22 26
2.706639e-001 -1.019167e+000 2.867160e+000 159 47 45
3.423500e-001 -1.036753e+000 2.836779e+000 175 107 81
3.553593e-001 -1.077157e+000 2.868785e+000 178 109 78
3.030815e-001 -1.086335e+000 2.925406e+000 180 113 96
3.745061e-001 -1.142356e+000 2.927763e+000 182 107 77
2.838985e-001 -8.866727e-001 2.697305e+000 92 89 18
2.898856e-001 -8.902761e-001 2.696817e+000 24 46 21
2.638469e-001 -9.010773e-001 2.734454e+000 129 124 42
2.706334e-001 -9.004642e-001 2.728807e+000 118 121 43
3.261268e-001 -9.301233e-001 2.707565e+000 29 46 24
3.050141e-001 -8.860845e-001 2.666862e+000 16 70 98
2.775049e-001 -8.896759e-001 2.708365e+000 22 47 25
2.708695e-001 -9.077140e-001 2.734435e+000 23 48 18
2.858113e-001 -1.032986e+000 2.875240e+000 179 111 92
2.979754e-001 -1.066653e+000 2.906940e+000 178 111 92
3.822788e-001 -1.130948e+000 2.902364e+000 154 15 31
2.926696e-001 -1.016315e+000 2.853048e+000 176 108 87
3.373242e-001 -1.047041e+000 2.855735e+000 175 106 73
2.368603e-001 -8.428407e-001 2.682880e+000 127 126 111
4.163477e-001 -1.158497e+000 2.873119e+000 169 26 31
4.163477e-001 -1.158497e+000 2.873119e+000 169 26 31
3.423185e-001 -1.090826e+000 2.898127e+000 177 109 74
3.509450e-001 -9.865713e-001 2.747298e+000 159 141 105
3.364061e-001 -9.490207e-001 2.694083e+000 24 47 19
2.861493e-001 -9.908415e-001 2.823099e+000 23 66 93
3.685067e-001 -1.032887e+000 2.759160e+000 71 117 139
3.147039e-001 -9.627346e-001 2.756270e+000 114 30 32
3.079590e-001 -8.799360e-001 2.656788e+000 37 68 44
3.115181e-001 -8.932553e-001 2.670828e+000 34 72 45
2.817033e-001 -8.983421e-001 2.708287e+000 83 106 78
3.188888e-001 -9.844456e-001 2.790809e+000 200 139 107
3.226958e-001 -9.883474e-001 2.791056e+000 218 125 98
3.863391e-001 -1.038468e+000 2.745353e+000 45 74 82
3.523740e-001 -1.023501e+000 2.793098e+000 8 49 71
3.399993e-001 -1.035023e+000 2.833058e+000 177 112 84
3.338786e-001 -1.067254e+000 2.881040e+000 182 110 82
3.167619e-001 -1.111164e+000 2.948624e+000 216 59 71
3.004334e-001 -8.671802e-001 2.648102e+000 160 34 32
3.273461e-001 -9.141291e-001 2.677678e+000 139 139 42
3.150609e-001 -9.561305e-001 2.757550e+000 169 139 112
3.234023e-001 -9.580313e-001 2.752427e+000 180 137 111
3.162944e-001 -1.072520e+000 2.904923e+000 87 49 45
3.300115e-001 -1.097500e+000 2.920397e+000 181 80 68
3.299342e-001 -1.097630e+000 2.920401e+000 181 80 68
3.905774e-001 -1.126049e+000 2.879565e+000 128 30 31
3.698958e-001 -1.111231e+000 2.899363e+000 133 24 29
3.215796e-001 -1.115140e+000 2.946783e+000 199 60 71
3.230453e-001 -1.111907e+000 2.946379e+000 199 60 71
3.034756e-001 -8.710399e-001 2.649332e+000 173 145 116
3.074938e-001 -8.960713e-001 2.681583e+000 145 141 33
2.811323e-001 -8.953812e-001 2.709380e+000 142 132 24
2.811323e-001 -8.953812e-001 2.709380e+000 142 132 24
3.657902e-001 -1.099306e+000 2.887037e+000 187 111 91
4.024323e-001 -1.118605e+000 2.846962e+000 87 49 30
3.194424e-001 -1.098765e+000 2.934140e+000 134 28 36
3.926528e-001 -1.131373e+000 2.883700e+000 140 26 30
3.305681e-001 -1.109514e+000 2.939841e+000 138 24 32
2.821991e-001 -8.775508e-001 2.521510e+000 207 174 131
2.868648e-001 -9.794487e-001 2.815204e+000 145 20 36
3.056665e-001 -1.030473e+000 2.857583e+000 182 113 90
3.224131e-001 -9.331564e-001 2.727576e+000 27 50 23
3.224131e-001 -9.331564e-001 2.727576e+000 27 50 23
3.046527e-001 -9.808196e-001 2.800208e+000 192 117 90
3.125222e-001 -1.108771e+000 2.948506e+000 151 21 31
2.673664e-001 -8.782639e-001 2.688619e+000 40 88 107
2.921217e-001 -1.085648e+000 2.926901e+000 115 24 39
3.969264e-001 -1.104809e+000 2.863541e+000 187 125 84
2.762044e-001 -1.101512e+000 2.939625e+000 186 147 135
3.694705e-001 -1.105041e+000 2.894663e+000 154 25 27
4.204235e-001 -1.214240e+000 2.963510e+000 183 150 124
4.303614e-001 -1.222772e+000 2.954752e+000 23 14 7
4.497236e-001 -1.253976e+000 2.960400e+000 48 16 2
4.067060e-001 -1.190415e+000 2.955685e+000 169 75 39
3.933895e-001 -1.185144e+000 2.970539e+000 140 85 45
4.450265e-001 -4.831257e-001 3.058371e+000 73 53 44
4.296115e-001 -5.481919e-001 3.133030e+000 71 60 54
4.539276e-001 -3.946496e-001 2.986074e+000 159 108 85
4.638362e-001 -5.216082e-001 3.065488e+000 39 34 41
4.422078e-001 -4.932511e-001 3.073215e+000 23 12 18
4.301942e-001 -5.198295e-001 3.115734e+000 20 10 18
4.159406e-001 -1.214161e+000 2.976242e+000 164 92 47
3.531267e-001 -1.144010e+000 2.954794e+000 71 41 24
3.598387e-001 -1.144681e+000 2.950590e+000 113 72 56
3.543059e-001 -1.156092e+000 2.968368e+000 175 136 105
3.667831e-001 -1.161466e+000 2.961600e+000 135 102 74
3.469161e-001 -1.170035e+000 2.990003e+000 164 129 98
3.544921e-001 -1.172839e+000 2.985544e+000 168 129 99
3.586335e-001 -1.163596e+000 2.974021e+000 165 128 100
4.065116e-001 -1.179774e+000 2.933990e+000 189 109 52
4.048466e-001 -1.181089e+000 2.937095e+000 100 48 18
3.495632e-001 -1.175309e+000 2.993748e+000 170 130 105
3.601034e-001 -1.173149e+000 2.982114e+000 173 131 100
3.591234e-001 -1.175728e+000 2.987884e+000 172 132 102
3.830762e-001 -1.176698e+000 2.965595e+000 143 103 68
3.850353e-001 -1.182325e+000 2.966418e+000 184 126 88
3.880136e-001 -1.180654e+000 2.959154e+000 193 94 41
3.861492e-001 -1.184226e+000 2.968058e+000 188 130 87
3.880242e-001 -1.188434e+000 2.969641e+000 187 117 64
3.953216e-001 -1.182916e+000 2.953703e+000 192 78 42
3.954490e-001 -1.185323e+000 2.958448e+000 180 79 37
4.079802e-001 -1.187528e+000 2.943151e+000 185 74 37
3.731251e-001 -1.191256e+000 2.990363e+000 28 19 14
3.729007e-001 -1.191561e+000 2.990284e+000 28 19 14
4.258040e-001 -1.207866e+000 2.939912e+000 123 52 17
4.175521e-001 -1.217217e+000 2.966094e+000 32 22 17
4.172844e-001 -1.217806e+000 2.966201e+000 32 22 17
4.318798e-001 -1.222609e+000 2.952275e+000 191 149 122
4.420626e-001 -1.232775e+000 2.937288e+000 183 155 127
4.430170e-001 -1.236711e+000 2.943685e+000 178 141 114
3.498859e-001 -1.210426e+000 3.035462e+000 137 95 93
3.595950e-001 -1.210553e+000 3.022934e+000 33 23 16
3.595950e-001 -1.210553e+000 3.022934e+000 33 23 16
3.625434e-001 -1.215012e+000 3.024624e+000 153 124 113
3.708321e-001 -1.217831e+000 3.017741e+000 155 127 111
3.863566e-001 -1.220282e+000 3.004896e+000 32 22 13
4.009620e-001 -1.227514e+000 2.997160e+000 170 139 118
4.185614e-001 -1.221635e+000 2.970467e+000 38 23 15
4.192021e-001 -1.230716e+000 2.976527e+000 177 107 40
4.208428e-001 -1.223877e+000 2.969511e+000 190 156 131
4.208508e-001 -1.223986e+000 2.969516e+000 190 156 131
4.201789e-001 -1.233484e+000 2.978783e+000 174 104 38
4.309655e-001 -1.229609e+000 2.959533e+000 33 22 14
4.339491e-001 -1.232709e+000 2.964647e+000 175 93 34
4.200804e-001 -1.242980e+000 2.989218e+000 43 16 0
4.260180e-001 -1.243966e+000 2.982627e+000 157 84 30
4.348808e-001 -1.251473e+000 2.977692e+000 47 22 13
4.463735e-001 -1.256279e+000 2.969094e+000 43 22 10
3.620456e-001 -1.170273e+000 2.976524e+000 168 130 99
3.667686e-001 -1.164416e+000 2.964558e+000 168 130 93
3.730676e-001 -1.168596e+000 2.964871e+000 177 133 98
4.196510e-001 -1.190356e+000 2.923709e+000 187 54 39
3.592822e-001 -1.174893e+000 2.985234e+000 109 82 63
3.838988e-001 -1.183369e+000 2.969585e+000 97 66 41
3.840523e-001 -1.185725e+000 2.972424e+000 190 138 98
3.929634e-001 -1.179833e+000 2.953672e+000 138 50 28
3.983546e-001 -1.188731e+000 2.956068e+000 192 85 41
3.858925e-001 -1.225092e+000 3.009851e+000 171 138 119
4.405947e-001 -1.253957e+000 2.973391e+000 46 15 3
4.103407e-001 -1.169428e+000 2.911305e+000 88 57 39
3.421197e-001 -1.175007e+000 2.993803e+000 82 61 42
4.458872e-001 -1.217531e+000 2.897024e+000 151 60 52
3.837181e-001 -1.194128e+000 2.981146e+000 194 156 115
4.299524e-001 -1.236012e+000 2.970031e+000 164 91 30
4.377502e-001 -1.249694e+000 2.973798e+000 158 87 43
3.764883e-001 -1.152785e+000 2.943441e+000 201 132 103
4.369920e-001 -1.229624e+000 2.952084e+000 37 19 13
4.313951e-001 -1.245795e+000 2.978152e+000 171 96 29
4.393578e-001 -1.205153e+000 2.908112e+000 188 97 27
3.282707e-001 -1.204805e+000 3.038377e+000 190 166 156
4.103565e-001 -1.233025e+000 2.991043e+000 184 150 124
4.394820e-001 -1.224812e+000 2.886185e+000 175 134 88
4.390027e-001 -1.247892e+000 2.912699e+000 185 107 25
1.370198e-001 -9.016038e-001 2.582801e+000 216 197 173
4.575003e-001 -1.257821e+000 2.850934e+000 35 24 30
3.366055e-001 -1.211175e+000 2.923544e+000 160 32 40
2.713126e-001 -8.636219e-001 2.676797e+000 202 129 92
2.973412e-001 -8.681920e-001 2.655300e+000 137 44 34
2.751474e-001 -8.672417e-001 2.678200e+000 238 112 92
3.012158e-001 -8.767650e-001 2.660644e+000 231 116 93
3.012539e-001 -8.765703e-001 2.660506e+000 231 116 93
3.076516e-001 -8.857506e-001 2.660411e+000 37 66 36
3.043992e-001 -8.922542e-001 2.685676e+000 50 75 46
3.266850e-001 -9.153244e-001 2.677888e+000 133 132 32
3.267429e-001 -9.153218e-001 2.677999e+000 133 132 32
3.110037e-001 -9.596498e-001 2.765284e+000 78 36 27
3.110037e-001 -9.596498e-001 2.765284e+000 78 36 27
2.824535e-001 -9.737862e-001 2.809587e+000 211 131 108
2.898216e-001 -9.766962e-001 2.807583e+000 196 141 105
3.089940e-001 -9.820946e-001 2.796894e+000 205 133 98
3.310033e-001 -9.874752e-001 2.783716e+000 189 134 94
3.839764e-001 -1.028960e+000 2.736359e+000 70 44 39
2.786279e-001 -9.776689e-001 2.815797e+000 212 130 107
2.786279e-001 -9.776689e-001 2.815797e+000 212 130 107
3.400196e-001 -1.021739e+000 2.818559e+000 33 18 8
2.639968e-001 -1.054844e+000 2.894437e+000 183 85 83
2.784341e-001 -1.043201e+000 2.886858e+000 154 53 49
2.810010e-001 -1.036135e+000 2.882605e+000 140 42 36
2.791678e-001 -1.042822e+000 2.884570e+000 177 73 68
2.658372e-001 -1.064132e+000 2.904630e+000 160 42 49
2.675008e-001 -1.056927e+000 2.898893e+000 145 59 54
2.748370e-001 -1.057041e+000 2.899562e+000 146 46 45
2.669420e-001 -1.097210e+000 2.930147e+000 68 125 199
2.669420e-001 -1.097210e+000 2.930147e+000 68 125 199
3.250833e-001 -1.111483e+000 2.938636e+000 135 19 31
3.485930e-001 -1.106089e+000 2.918242e+000 129 26 30
3.542879e-001 -1.115639e+000 2.918899e+000 133 26 29
3.739017e-001 -1.132258e+000 2.921788e+000 229 67 71
3.851883e-001 -1.132987e+000 2.910322e+000 133 24 32
3.850937e-001 -1.136821e+000 2.912738e+000 219 76 77
3.562762e-001 -1.144517e+000 2.952860e+000 45 15 7
3.564155e-001 -1.144081e+000 2.952839e+000 45 15 7
3.690872e-001 -1.149011e+000 2.944698e+000 120 72 52
3.755988e-001 -1.149894e+000 2.940131e+000 184 104 81
2.936086e-001 -1.160200e+000 2.993921e+000 67 29 15
3.872523e-001 -1.169160e+000 2.950873e+000 167 46 30
3.893708e-001 -1.171314e+000 2.954230e+000 171 55 33
3.998716e-001 -1.172556e+000 2.937894e+000 120 56 25
3.929612e-001 -1.174007e+000 2.946000e+000 169 50 35
3.959195e-001 -1.170821e+000 2.944287e+000 179 44 34
4.127041e-001 -1.187446e+000 2.935440e+000 108 48 8
4.202109e-001 -1.195469e+000 2.933716e+000 125 43 21
3.586275e-001 -1.169858e+000 2.977979e+000 166 117 81
3.585042e-001 -1.168879e+000 2.980544e+000 88 55 36
3.641166e-001 -1.165422e+000 2.970815e+000 168 115 77
3.664018e-001 -1.168310e+000 2.969255e+000 161 113 80
3.701098e-001 -1.172382e+000 2.971145e+000 158 111 77
3.614572e-001 -1.168613e+000 2.979007e+000 76 45 21
3.655676e-001 -1.170968e+000 2.974580e+000 162 116 82
3.653173e-001 -1.171952e+000 2.974545e+000 162 116 82
3.760589e-001 -1.170242e+000 2.964999e+000 92 58 31
3.816369e-001 -1.171623e+000 2.959326e+000 159 89 54
3.815783e-001 -1.171807e+000 2.959250e+000 159 89 54
3.919673e-001 -1.179654e+000 2.956560e+000 170 60 33
3.888724e-001 -1.177977e+000 2.961408e+000 144 66 22
3.957770e-001 -1.179846e+000 2.951365e+000 123 44 24
3.957770e-001 -1.179846e+000 2.951365e+000 123 44 24
4.025507e-001 -1.183498e+000 2.947177e+000 167 62 25
3.996185e-001 -1.188433e+000 2.951847e+000 129 46 16
4.193857e-001 -1.204591e+000 2.947357e+000 168 78 29
4.258890e-001 -1.202670e+000 2.931593e+000 187 71 30
3.490350e-001 -1.178774e+000 2.993729e+000 168 121 86
3.638705e-001 -1.177664e+000 2.982421e+000 164 120 81
3.638705e-001 -1.177664e+000 2.982421e+000 164 120 81
3.669447e-001 -1.180921e+000 2.983657e+000 161 115 81
3.710498e-001 -1.183624e+000 2.984797e+000 161 119 84
3.786684e-001 -1.181744e+000 2.973484e+000 61 29 9
3.786684e-001 -1.181744e+000 2.973484e+000 61 29 9
4.258061e-001 -1.217269e+000 2.955511e+000 21 8 1
4.319276e-001 -1.221486e+000 2.952343e+000 202 148 109
3.357444e-001 -1.183088e+000 3.011440e+000 26 16 11
3.532479e-001 -1.186130e+000 3.002674e+000 30 21 14
3.814852e-001 -1.194844e+000 2.984946e+000 25 12 9
4.219890e-001 -1.218692e+000 2.960848e+000 184 143 108
4.306818e-001 -1.220656e+000 2.954830e+000 24 13 5
4.329349e-001 -1.226303e+000 2.953887e+000 188 127 96
3.990321e-001 -1.224451e+000 2.996260e+000 20 8 5
4.207597e-001 -1.231112e+000 2.978538e+000 161 83 36
4.180095e-001 -1.231729e+000 2.981482e+000 162 84 35
4.276439e-001 -1.242648e+000 2.979986e+000 35 11 6
4.490569e-001 -1.255578e+000 2.960702e+000 39 12 9
4.491074e-001 -1.255246e+000 2.960676e+000 39 12 9
4.536943e-001 -1.259508e+000 2.961595e+000 46 11 5
3.430373e-001 -1.208511e+000 3.033158e+000 22 12 4
3.451233e-001 -1.213414e+000 3.035463e+000 170 127 111
3.451233e-001 -1.213414e+000 3.035463e+000 170 127 111
3.464100e-001 -1.212860e+000 3.037551e+000 166 115 106
3.543437e-001 -1.209838e+000 3.026571e+000 17 9 6
3.515530e-001 -1.210111e+000 3.031736e+000 169 128 110
3.517390e-001 -1.209031e+000 3.031433e+000 169 128 110
3.593328e-001 -1.214341e+000 3.027157e+000 168 125 105
3.586546e-001 -1.217408e+000 3.027310e+000 168 125 105
3.667897e-001 -1.217153e+000 3.020384e+000 161 119 97
3.667535e-001 -1.217707e+000 3.020385e+000 161 119 97
3.782439e-001 -1.217279e+000 3.010512e+000 11 9 9
3.960321e-001 -1.226791e+000 3.001137e+000 163 120 96
4.068526e-001 -1.231766e+000 2.995709e+000 172 122 91
4.191914e-001 -1.244621e+000 2.989586e+000 34 6 2
4.192358e-001 -1.244005e+000 2.989640e+000 34 6 2
4.296808e-001 -1.246419e+000 2.980773e+000 152 78 37
4.409042e-001 -1.251258e+000 2.973633e+000 25 10 3
3.709104e-001 -1.215736e+000 3.028516e+000 117 46 42
3.719575e-001 -1.232081e+000 3.026296e+000 116 50 35
2.974712e-001 -8.705100e-001 2.660835e+000 204 133 99
3.052630e-001 -9.003709e-001 2.695484e+000 141 133 21
2.150259e-001 -9.526394e-001 2.796785e+000 96 110 121
3.232534e-001 -9.582366e-001 2.752444e+000 164 138 102
3.320579e-001 -9.691956e-001 2.753125e+000 165 126 90
2.931031e-001 -9.771024e-001 2.804949e+000 201 133 108
2.975178e-001 -9.789624e-001 2.803450e+000 186 133 94
2.767399e-001 -9.832166e-001 2.823097e+000 23 71 106
2.987027e-001 -1.031309e+000 2.865733e+000 49 22 17
2.971715e-001 -1.038149e+000 2.874421e+000 67 43 32
3.092515e-001 -1.040386e+000 2.868463e+000 58 38 22
3.024215e-001 -1.059975e+000 2.895428e+000 62 48 37
3.128691e-001 -1.066882e+000 2.898613e+000 62 32 19
3.157353e-001 -1.074194e+000 2.904815e+000 64 26 25
4.059474e-001 -1.120887e+000 2.854472e+000 199 116 86
4.114497e-001 -1.132934e+000 2.854965e+000 202 56 59
4.114567e-001 -1.132871e+000 2.854942e+000 202 56 59
3.259738e-001 -1.102174e+000 2.924582e+000 127 20 31
3.492176e-001 -1.106805e+000 2.911772e+000 130 27 25
3.651396e-001 -1.107512e+000 2.899412e+000 194 49 52
3.170542e-001 -1.109475e+000 2.939645e+000 121 28 30
3.217130e-001 -1.109143e+000 2.937335e+000 131 28 34
3.273548e-001 -1.111456e+000 2.936963e+000 220 47 64
3.453974e-001 -1.111014e+000 2.924723e+000 145 15 28
3.655628e-001 -1.114966e+000 2.912560e+000 137 23 29
3.205782e-001 -1.120511e+000 2.949165e+000 128 27 33
3.205782e-001 -1.120511e+000 2.949165e+000 128 27 33
3.349994e-001 -1.120205e+000 2.940938e+000 131 23 30
3.495937e-001 -1.120693e+000 2.930606e+000 169 27 25
3.557526e-001 -1.118504e+000 2.928815e+000 201 59 61
3.557526e-001 -1.118504e+000 2.928815e+000 201 59 61
3.578400e-001 -1.128341e+000 2.931809e+000 226 70 83
3.697849e-001 -1.132261e+000 2.923839e+000 192 51 56
3.940170e-001 -1.156925e+000 2.926178e+000 177 119 87
2.999579e-001 -1.165643e+000 2.996172e+000 149 84 54
3.521755e-001 -1.159543e+000 2.973057e+000 172 122 88
3.520835e-001 -1.160819e+000 2.972971e+000 172 122 88
3.643050e-001 -1.163704e+000 2.965641e+000 169 116 78
3.667812e-001 -1.164777e+000 2.964543e+000 171 118 76
3.734477e-001 -1.163553e+000 2.960363e+000 169 116 78
3.780978e-001 -1.167799e+000 2.956617e+000 181 108 71
3.885090e-001 -1.174284e+000 2.951430e+000 97 25 16
3.980185e-001 -1.178800e+000 2.946613e+000 177 58 27
4.076124e-001 -1.180709e+000 2.937919e+000 189 99 41
4.126493e-001 -1.183151e+000 2.933220e+000 179 93 34
4.174251e-001 -1.190698e+000 2.934071e+000 185 95 31
3.768408e-001 -1.174020e+000 2.961701e+000 168 112 75
3.852408e-001 -1.181554e+000 2.966364e+000 173 107 66
3.852408e-001 -1.181554e+000 2.966364e+000 173 107 66
4.016344e-001 -1.188032e+000 2.953163e+000 170 71 28
4.033749e-001 -1.190830e+000 2.957513e+000 178 76 30
3.539794e-001 -1.176092e+000 2.988126e+000 52 28 15
3.539794e-001 -1.176092e+000 2.988126e+000 52 28 15
3.568274e-001 -1.175852e+000 2.986632e+000 80 49 28
3.568274e-001 -1.175852e+000 2.986632e+000 80 49 28
3.811886e-001 -1.186357e+000 2.977894e+000 155 115 80
3.921244e-001 -1.188894e+000 2.966570e+000 176 92 45
4.481402e-001 -1.242648e+000 2.944670e+000 118 73 50
4.404085e-001 -1.245327e+000 2.969880e+000 44 21 13
4.462238e-001 -1.251021e+000 2.966778e+000 36 9 6
3.228767e-001 -1.213475e+000 3.051937e+000 198 134 119
3.701043e-001 -1.212875e+000 3.015975e+000 26 12 5
3.864322e-001 -1.229181e+000 3.012697e+000 106 50 31
3.964487e-001 -1.228836e+000 3.002072e+000 165 118 92
4.190509e-001 -1.239848e+000 2.986794e+000 25 6 4
4.275867e-001 -1.248134e+000 2.983101e+000 38 8 0
4.349010e-001 -1.251489e+000 2.977704e+000 29 7 4
2.699285e-001 -8.642154e-001 2.678986e+000 143 31 26
3.078888e-001 -8.957451e-001 2.681628e+000 134 137 42
3.082563e-001 -8.949102e-001 2.682086e+000 134 137 42
2.988800e-001 -9.154062e-001 2.721970e+000 144 136 26
2.521660e-001 -1.017307e+000 2.864913e+000 174 50 59
3.964416e-001 -1.094339e+000 2.827002e+000 75 46 27
3.919870e-001 -1.096032e+000 2.840155e+000 69 47 32
3.922217e-001 -1.094337e+000 2.840216e+000 69 47 32
3.618117e-001 -1.087460e+000 2.878046e+000 59 26 19
3.083944e-001 -1.080840e+000 2.918817e+000 180 110 94
3.643480e-001 -1.094929e+000 2.884295e+000 68 29 22
4.015032e-001 -1.124025e+000 2.867130e+000 219 78 77
3.735044e-001 -1.109048e+000 2.893735e+000 210 64 66
3.187889e-001 -1.122648e+000 2.955698e+000 126 26 31
3.428281e-001 -1.124969e+000 2.937871e+000 133 25 32
3.493216e-001 -1.136834e+000 2.948642e+000 111 56 43
3.603634e-001 -1.139526e+000 2.941916e+000 106 50 40
3.739858e-001 -1.142656e+000 2.933176e+000 110 62 48
4.109041e-001 -1.165774e+000 2.911116e+000 47 21 6
4.109088e-001 -1.167317e+000 2.910986e+000 47 21 6
3.779124e-001 -1.150435e+000 2.938488e+000 82 32 26
3.552456e-001 -1.158214e+000 2.970505e+000 168 123 86
3.137820e-001 -1.169777e+000 3.006629e+000 181 131 94
3.508948e-001 -1.174890e+000 2.987526e+000 171 117 79
3.517333e-001 -1.170528e+000 2.987312e+000 171 117 79
4.439668e-001 -1.231847e+000 2.932717e+000 53 32 17
4.470257e-001 -1.233124e+000 2.935930e+000 189 149 115
4.172046e-001 -1.224250e+000 2.977619e+000 164 90 37
4.299598e-001 -1.235402e+000 2.970126e+000 154 79 29
3.391604e-001 -1.211154e+000 3.041146e+000 179 143 131
3.607679e-001 -1.223152e+000 3.030584e+000 78 24 20
3.667183e-001 -1.220972e+000 3.023922e+000 151 102 88
3.921850e-001 -1.227517e+000 3.005410e+000 170 121 103
3.931996e-001 -1.227800e+000 3.008864e+000 108 47 29
3.996398e-001 -1.233843e+000 3.004080e+000 101 46 29
3.161995e-001 -9.096573e-001 2.690351e+000 24 49 17
3.078999e-001 -9.196634e-001 2.720273e+000 134 125 30
3.078999e-001 -9.196634e-001 2.720273e+000 134 125 30
2.774503e-001 -9.162151e-001 2.741899e+000 130 127 43
2.769293e-001 -9.180327e-001 2.741536e+000 130 127 43
2.648059e-001 -9.795757e-001 2.825381e+000 114 23 48
3.811504e-001 -1.028713e+000 2.747375e+000 12 48 65
2.999553e-001 -9.910500e-001 2.814174e+000 13 49 70
3.281617e-001 -1.000190e+000 2.806250e+000 12 49 73
3.884411e-001 -1.050693e+000 2.757251e+000 22 69 92
3.432937e-001 -1.045703e+000 2.844040e+000 177 108 74
3.464421e-001 -1.048859e+000 2.847580e+000 72 40 35
3.451834e-001 -1.051261e+000 2.851766e+000 178 107 72
3.451834e-001 -1.051261e+000 2.851766e+000 178 107 72
3.482167e-001 -1.057165e+000 2.854111e+000 74 45 26
3.474081e-001 -1.060366e+000 2.862568e+000 95 49 38
3.050825e-001 -1.066024e+000 2.897289e+000 177 110 88
3.524673e-001 -1.074733e+000 2.875601e+000 164 96 71
3.524673e-001 -1.074733e+000 2.875601e+000 164 96 71
3.571889e-001 -1.087203e+000 2.884582e+000 182 107 78
4.012355e-001 -1.117814e+000 2.851777e+000 184 121 79
3.332278e-001 -1.116839e+000 2.937669e+000 133 26 31
3.929446e-001 -1.148313e+000 2.918868e+000 67 36 23
4.021814e-001 -1.156015e+000 2.915391e+000 182 120 90
4.062132e-001 -1.163420e+000 2.910243e+000 190 118 79
4.460327e-001 -1.229739e+000 2.935942e+000 186 137 105
3.496406e-001 -1.187082e+000 3.002430e+000 183 135 95
3.200570e-001 -1.221375e+000 3.050743e+000 185 140 113
3.299037e-001 -1.212880e+000 3.053398e+000 132 27 41
3.671598e-001 -9.588660e-001 2.646550e+000 96 110 101
2.734126e-001 -1.001290e+000 2.844799e+000 20 72 119
3.428689e-001 -1.032996e+000 2.837563e+000 175 107 81
3.075901e-001 -1.044339e+000 2.872865e+000 176 109 84
3.095335e-001 -1.059153e+000 2.887705e+000 176 105 85
3.545678e-001 -1.094976e+000 2.898796e+000 179 105 77
4.173391e-001 -1.138878e+000 2.853322e+000 150 21 27
4.186262e-001 -1.145106e+000 2.857478e+000 144 23 27
3.134613e-001 -1.121096e+000 2.956237e+000 141 23 34
3.877895e-001 -1.148590e+000 2.917027e+000 182 117 74
4.231300e-001 -1.189797e+000 2.918019e+000 110 17 18
3.437980e-001 -1.153250e+000 2.972779e+000 75 48 33
3.437806e-001 -1.154496e+000 2.972754e+000 75 48 33
3.485839e-001 -1.164424e+000 2.981829e+000 167 121 89
3.767648e-001 -1.193324e+000 2.986644e+000 180 136 100
3.733920e-001 -1.224061e+000 3.018263e+000 159 115 92
3.279976e-001 -9.306121e-001 2.693143e+000 32 47 28
3.286437e-001 -9.290680e-001 2.693675e+000 32 47 28
3.143491e-001 -9.839073e-001 2.795038e+000 101 27 26
2.790067e-001 -1.057090e+000 2.896095e+000 171 78 71
4.228008e-001 -1.159586e+000 2.874544e+000 152 19 32
4.401105e-001 -1.209668e+000 2.899155e+000 117 23 24
3.393316e-001 -1.185749e+000 3.007996e+000 167 133 105
4.006362e-001 -1.222781e+000 2.992969e+000 26 13 8
3.580196e-001 -1.214874e+000 3.027885e+000 166 122 105
3.310263e-001 -9.417761e-001 2.696181e+000 82 97 86
4.195169e-001 -1.152061e+000 2.865349e+000 155 18 30
3.604731e-001 -1.118982e+000 2.918924e+000 147 17 29
3.604731e-001 -1.118982e+000 2.918924e+000 147 17 29
3.735411e-001 -1.132418e+000 2.909428e+000 148 18 28
3.544356e-001 -1.150899e+000 2.961011e+000 170 116 80
3.543959e-001 -1.150955e+000 2.961011e+000 170 116 80
4.203880e-001 -1.199522e+000 2.946027e+000 104 39 17
4.203880e-001 -1.199522e+000 2.946027e+000 104 39 17
4.068985e-001 -1.203979e+000 2.967148e+000 185 141 96
4.437077e-001 -1.238012e+000 2.959916e+000 173 82 27
2.972723e-001 -9.106843e-001 2.713422e+000 66 102 95
2.972723e-001 -9.106843e-001 2.713422e+000 66 102 95
2.860812e-001 -1.060840e+000 2.904668e+000 165 31 43
3.408877e-001 -1.140939e+000 2.964277e+000 182 110 86
3.434464e-001 -1.159773e+000 2.982675e+000 169 123 89
4.540709e-001 -1.259187e+000 2.946336e+000 188 87 31
3.688266e-001 -1.034513e+000 2.791627e+000 180 105 76
3.506480e-001 -1.057143e+000 2.860368e+000 154 92 63
3.506480e-001 -1.057143e+000 2.860368e+000 154 92 63
3.780999e-001 -1.024660e+000 2.740130e+000 151 25 31
2.714796e-001 -9.788973e-001 2.821815e+000 145 23 28
3.830177e-001 -1.213614e+000 3.011967e+000 154 121 98
3.408052e-001 -1.227673e+000 3.049419e+000 33 18 25
4.190280e-001 -1.178606e+000 2.896076e+000 187 120 78
3.945266e-001 -1.180189e+000 2.951166e+000 123 38 19
4.491593e-001 -1.267393e+000 2.951112e+000 180 90 37
3.278215e-001 -1.112666e+000 2.935281e+000 125 24 27
4.292453e-001 -1.269620e+000 2.950244e+000 67 41 31
4.206669e-001 -1.319263e+000 2.947515e+000 67 41 31
3.189580e-001 -1.198920e+000 2.995505e+000 170 126 91
2.995879e-001 -9.115029e-001 2.714872e+000 90 103 58
3.141896e-001 -9.795151e-001 2.753517e+000 152 141 111
2.645824e-001 -9.788259e-001 2.826045e+000 95 25 43
2.871883e-001 -9.786756e-001 2.811573e+000 207 134 108
3.062968e-001 -9.832733e-001 2.801125e+000 217 132 107
3.617625e-001 -1.008017e+000 2.757254e+000 218 135 104
2.783357e-001 -1.035685e+000 2.881757e+000 199 81 81
2.780889e-001 -1.036057e+000 2.881725e+000 199 81 81
3.208459e-001 -1.041665e+000 2.861441e+000 190 116 90
2.849009e-001 -1.053645e+000 2.897276e+000 154 50 47
3.189432e-001 -1.054149e+000 2.877184e+000 184 112 88
3.044337e-001 -1.083623e+000 2.881802e+000 180 109 86
3.164476e-001 -1.067847e+000 2.896180e+000 181 114 86
3.274137e-001 -1.110436e+000 2.937101e+000 228 63 71
3.443994e-001 -1.120594e+000 2.934693e+000 224 56 67
3.433829e-001 -1.118513e+000 2.938164e+000 133 31 33
3.779163e-001 -1.130915e+000 2.913511e+000 254 69 84
3.961666e-001 -1.139467e+000 2.896903e+000 215 56 63
3.471364e-001 -1.134401e+000 2.949798e+000 190 113 87
3.663124e-001 -1.130379e+000 2.926559e+000 218 69 70
3.558397e-001 -1.144569e+000 2.955447e+000 181 110 84
3.689969e-001 -1.149139e+000 2.944647e+000 97 56 36
3.820395e-001 -1.166329e+000 2.951981e+000 115 32 18
4.039736e-001 -1.187698e+000 2.931677e+000 136 77 33
3.725007e-001 -1.168479e+000 2.967678e+000 136 93 64
3.763598e-001 -1.169895e+000 2.964584e+000 103 69 40
3.855290e-001 -1.174217e+000 2.957982e+000 182 78 41
3.840697e-001 -1.173825e+000 2.959786e+000 110 40 13
3.840697e-001 -1.173825e+000 2.959786e+000 110 40 13
4.001022e-001 -1.177402e+000 2.942439e+000 114 41 20
3.489317e-001 -1.171681e+000 2.993642e+000 175 125 89
3.475650e-001 -1.177312e+000 2.998688e+000 178 129 89
3.477822e-001 -1.177775e+000 2.998667e+000 178 129 89
3.542364e-001 -1.177158e+000 2.993119e+000 93 65 50
3.541134e-001 -1.177750e+000 2.993294e+000 93 65 50
3.791295e-001 -1.177093e+000 2.967492e+000 121 77 48
3.828265e-001 -1.176447e+000 2.965748e+000 115 75 48
3.913098e-001 -1.193052e+000 2.973280e+000 126 54 12
3.974066e-001 -1.199791e+000 2.973735e+000 27 13 5
4.024809e-001 -1.198500e+000 2.967818e+000 193 142 108
4.412901e-001 -1.228511e+000 2.940043e+000 199 149 112
4.255074e-001 -1.227087e+000 2.967098e+000 188 144 109
3.625502e-001 -1.215056e+000 3.024790e+000 166 126 111
4.265495e-001 -1.241735e+000 2.977878e+000 165 89 28
4.544659e-001 -1.261053e+000 2.958764e+000 186 79 38
3.935241e-001 -1.244874e+000 3.010475e+000 123 55 43
4.602372e-001 -1.270863e+000 2.964229e+000 41 21 25
3.152635e-001 -9.554430e-001 2.757500e+000 169 139 112
3.576201e-001 -1.003789e+000 2.757958e+000 210 138 105
3.085316e-001 -1.032591e+000 2.860904e+000 93 51 38
3.567711e-001 -1.105170e+000 2.904473e+000 174 41 45
3.822143e-001 -1.113840e+000 2.885340e+000 178 39 42
4.041780e-001 -1.128576e+000 2.863498e+000 215 64 68
4.063566e-001 -1.141138e+000 2.868573e+000 140 27 34
3.177939e-001 -1.106560e+000 2.939638e+000 134 30 36
3.421426e-001 -1.110666e+000 2.926600e+000 142 21 30
3.730517e-001 -1.110735e+000 2.897044e+000 125 29 31
3.320070e-001 -1.117571e+000 2.941223e+000 225 57 72
3.390042e-001 -1.121503e+000 2.940281e+000 124 20 29
3.439182e-001 -1.118323e+000 2.940597e+000 205 59 66
3.834802e-001 -1.135134e+000 2.911592e+000 126 20 30
4.129512e-001 -1.151095e+000 2.882419e+000 153 23 33
4.145621e-001 -1.150277e+000 2.877474e+000 155 23 31
4.242706e-001 -1.184210e+000 2.921655e+000 190 49 39
3.485209e-001 -1.167957e+000 2.986572e+000 127 90 63
3.618006e-001 -1.164527e+000 2.972127e+000 173 121 84
4.074988e-001 -1.181346e+000 2.937947e+000 189 98 36
4.248574e-001 -1.197956e+000 2.929995e+000 136 35 20
3.965149e-001 -1.190886e+000 2.967217e+000 185 93 52
3.719965e-001 -1.193328e+000 2.987981e+000 181 136 104
3.814908e-001 -1.192909e+000 2.982203e+000 177 138 97
4.020582e-001 -1.231292e+000 2.999431e+000 184 124 112
4.020582e-001 -1.231292e+000 2.999431e+000 184 124 112
3.727546e-001 -1.225187e+000 3.022774e+000 104 47 34
2.611097e-001 -8.554325e-001 2.677606e+000 204 137 102
4.124093e-001 -1.147349e+000 2.880082e+000 231 71 77
3.609273e-001 -1.137611e+000 2.941771e+000 98 52 34
3.511937e-001 -1.172389e+000 2.987474e+000 176 123 89
4.308463e-001 -1.205380e+000 2.930517e+000 191 77 34
3.855185e-001 -1.233369e+000 3.013117e+000 112 51 33
2.906582e-001 -9.864827e-001 2.820675e+000 12 46 66
3.968675e-001 -1.116818e+000 2.863197e+000 188 126 85
3.762073e-001 -1.218413e+000 3.017234e+000 168 126 102
3.262873e-001 -9.705670e-001 2.760522e+000 116 82 63
3.512369e-001 -9.984934e-001 2.766439e+000 203 137 100
3.440826e-001 -1.045673e+000 2.843514e+000 185 113 89
3.440826e-001 -1.045673e+000 2.843514e+000 185 113 89
3.184946e-001 -1.065732e+000 2.900257e+000 185 114 94
3.096430e-001 -1.165138e+000 3.003878e+000 51 19 25
4.383827e-001 -1.215560e+000 2.898962e+000 127 21 26
3.667169e-001 -1.156178e+000 2.953266e+000 178 120 82
3.667169e-001 -1.156178e+000 2.953266e+000 178 120 82
3.137618e-001 -1.190470e+000 3.015909e+000 192 151 130
3.018913e-001 -1.044539e+000 2.880516e+000 94 59 45
3.293686e-001 -1.064473e+000 2.881765e+000 73 44 39
3.569470e-001 -1.109330e+000 2.910297e+000 225 80 85
3.664306e-001 -1.183062e+000 2.987513e+000 170 129 92
3.267711e-001 -1.043818e+000 2.858682e+000 74 43 31
3.391771e-001 -1.119556e+000 2.940397e+000 152 37 40
4.090182e-001 -1.131383e+000 2.858102e+000 246 73 92
4.027811e-001 -1.176977e+000 2.938203e+000 217 119 76
2.655325e-001 -9.781294e-001 2.824783e+000 126 30 52
3.067299e-001 -9.536112e-001 2.764001e+000 190 113 103
2.762163e-001 -8.986686e-001 2.723250e+000 111 120 116
2.564231e-001 -8.798605e-001 2.513686e+000 45 29 24
2.629615e-001 -8.620812e-001 2.686466e+000 235 127 95
2.629615e-001 -8.620812e-001 2.686466e+000 235 127 95
2.679379e-001 -8.612368e-001 2.679443e+000 219 137 106
2.883950e-001 -8.691619e-001 2.671383e+000 236 126 90
2.983467e-001 -8.707083e-001 2.658155e+000 156 53 41
2.999475e-001 -9.021709e-001 2.706314e+000 100 118 59
3.213894e-001 -9.171208e-001 2.691938e+000 144 139 19
3.306379e-001 -9.254168e-001 2.688086e+000 77 107 78
3.394887e-001 -9.257028e-001 2.679515e+000 70 100 89
3.342944e-001 -9.372268e-001 2.698927e+000 96 120 65
3.359321e-001 -9.616167e-001 2.741979e+000 181 154 119
3.359321e-001 -9.616167e-001 2.741979e+000 181 154 119
3.362831e-001 -9.652746e-001 2.748336e+000 91 42 35
3.381728e-001 -9.655782e-001 2.750138e+000 183 148 118
3.390822e-001 -9.720201e-001 2.751402e+000 116 83 64
3.209941e-001 -9.657041e-001 2.769402e+000 171 150 125
3.272390e-001 -9.836229e-001 2.784211e+000 220 154 112
3.424033e-001 -9.912543e-001 2.774090e+000 236 142 96
3.414500e-001 -9.894929e-001 2.779565e+000 232 142 97
3.455795e-001 -9.923050e-001 2.771691e+000 216 143 103
2.823693e-001 -9.741666e-001 2.809441e+000 239 140 111
2.903687e-001 -9.797573e-001 2.809492e+000 217 154 107
2.979708e-001 -9.814285e-001 2.805321e+000 229 137 109
3.073615e-001 -9.824906e-001 2.798770e+000 127 32 31
3.098599e-001 -9.829759e-001 2.799048e+000 224 146 108
3.470009e-001 -9.962388e-001 2.789094e+000 18 56 79
2.653005e-001 -9.959469e-001 2.828996e+000 24 83 124
3.856966e-001 -1.040593e+000 2.777292e+000 87 41 17
3.856966e-001 -1.040593e+000 2.777292e+000 87 41 17
3.814426e-001 -1.054216e+000 2.795832e+000 200 124 80
3.023335e-001 -1.031521e+000 2.862980e+000 204 125 96
2.590139e-001 -1.070666e+000 2.900954e+000 168 59 59
2.582019e-001 -1.074398e+000 2.900103e+000 168 59 59
2.625304e-001 -1.068843e+000 2.902235e+000 215 100 100
2.780775e-001 -1.061275e+000 2.900408e+000 167 43 38
3.163232e-001 -1.069501e+000 2.895854e+000 198 124 97
2.555005e-001 -1.100648e+000 2.920406e+000 32 86 149
4.136125e-001 -1.140500e+000 2.850329e+000 206 52 54
3.899493e-001 -1.113589e+000 2.882309e+000 136 26 30
3.936551e-001 -1.119159e+000 2.878678e+000 147 27 31
3.957639e-001 -1.123090e+000 2.882214e+000 140 27 29
4.090660e-001 -1.109864e+000 2.870592e+000 202 55 55
4.157402e-001 -1.127421e+000 2.869328e+000 153 24 29
3.896567e-001 -1.122703e+000 2.893981e+000 155 23 29
3.186758e-001 -1.108977e+000 2.936105e+000 242 88 94
3.186758e-001 -1.108977e+000 2.936105e+000 242 88 94
