ply
format ascii 1.0
element face 0
property list uchar int vertex_indices
element vertex 460
property float x
property float y
property float z
property uchar diffuse_red
property uchar diffuse_green
property uchar diffuse_blue
end_header
-6.941760e-001 5.207910e-002 1.792819e+000 172 39 52
-5.399836e-001 -5.795259e-001 2.315333e+000 37 55 32
-6.052633e-001 -6.210272e-001 2.473892e+000 38 52 27
-7.526055e-001 -2.244407e-001 2.256781e+000 28 55 40
-7.263404e-001 -2.766405e-001 2.270554e+000 135 139 46
-5.149755e-001 -9.284431e-001 2.751944e+000 151 32 42
-6.194021e-001 5.392856e-002 1.694835e+000 164 37 42
-8.894260e-001 1.932854e-001 1.933992e+000 173 37 49
-4.344701e-001 -5.915281e-001 2.184092e+000 146 150 114
-4.865525e-001 -5.357326e-001 2.199873e+000 28 58 35
-6.089615e-001 -3.763976e-001 2.172160e+000 35 54 33
-2.815668e-001 -8.986225e-001 2.328302e+000 155 144 131
-3.073285e-001 -3.342212e-001 1.794620e+000 30 53 25
-4.985312e-002 -7.577257e-001 1.994955e+000 28 51 29
-2.842653e-001 -6.560348e-001 2.092844e+000 113 124 81
-2.842653e-001 -6.560348e-001 2.092844e+000 113 124 81
-3.279373e-001 -3.847270e-001 1.846610e+000 143 155 38
-2.069677e-001 -5.562787e-001 1.935588e+000 29 54 40
5.562006e-001 -2.904289e+000 3.609963e+000 123 39 29
4.180452e-001 -2.986266e+000 3.846724e+000 146 70 35
7.068953e-001 -3.412382e+000 4.074032e+000 138 75 37
3.113700e-001 -2.281345e+000 3.229754e+000 140 25 37
3.985428e-001 -3.030333e+000 3.934207e+000 37 27 21
-5.436242e-001 -2.782374e-001 1.969909e+000 24 57 45
-5.495579e-001 -3.894500e-001 2.071979e+000 72 111 134
-5.312293e-001 -7.773014e-002 1.717563e+000 175 35 40
-1.653003e-001 -7.295215e-001 2.061999e+000 30 56 21
-7.246612e-001 1.028844e-001 1.781191e+000 178 41 55
-3.474280e-001 -4.691605e-001 1.949435e+000 131 139 34
4.003930e-001 -2.249807e+000 3.097353e+000 185 121 98
4.385936e-001 -2.650964e+000 3.457360e+000 116 75 60
2.852272e-001 -2.608734e+000 3.559677e+000 182 127 106
2.182689e-001 -2.568196e+000 3.620745e+000 187 114 101
8.301209e-001 -3.498438e+000 4.023803e+000 146 76 51
-3.091750e-001 -4.171372e-001 1.873585e+000 49 97 110
-3.091750e-001 -4.171372e-001 1.873585e+000 49 97 110
-5.573681e-001 3.190329e-002 1.654694e+000 173 39 40
-6.642032e-001 -2.603446e-002 1.819783e+000 165 44 55
9.265836e-001 -3.566662e+000 3.975405e+000 151 80 56
-6.754249e-001 -3.437027e-001 2.253403e+000 31 58 33
-6.016828e-001 2.961631e-002 1.688061e+000 222 135 101
-5.093690e-001 -1.073603e-001 1.712522e+000 146 162 155
9.488168e-004 -1.211845e+000 2.407727e+000 204 138 106
-2.398090e-001 -1.129583e+000 2.531170e+000 193 126 106
5.313899e-001 -2.448148e+000 3.166858e+000 128 32 36
5.088041e-001 -2.953621e+000 3.709263e+000 123 65 27
8.720497e-001 -3.498029e+000 3.969332e+000 164 91 57
-2.623843e-001 -4.294238e-001 1.836529e+000 27 52 33
-3.528161e-001 -4.279483e-001 1.925689e+000 34 59 38
-2.005139e-001 -5.191011e-001 1.883281e+000 148 153 33
-2.005139e-001 -5.191011e-001 1.883281e+000 148 153 33
-5.573681e-001 3.190329e-002 1.654694e+000 173 39 40
-3.247649e-002 -1.222839e+000 2.434713e+000 177 112 87
9.567622e-002 -1.391899e+000 2.512195e+000 13 50 79
-3.222153e-001 -5.417770e-001 2.019560e+000 92 109 53
-3.222153e-001 -5.417770e-001 2.019560e+000 92 109 53
-7.594375e-001 -1.929415e-001 2.190750e+000 124 137 92
-2.628055e-001 -8.730070e-001 2.291056e+000 108 28 39
8.439493e-001 -3.250983e+000 3.755288e+000 94 73 70
9.618516e-001 -3.539280e+000 3.935388e+000 171 91 54
3.726306e-001 -2.286011e+000 3.143477e+000 177 117 95
4.385936e-001 -2.650964e+000 3.457360e+000 116 75 60
6.807473e-001 -3.231601e+000 3.848803e+000 180 145 132
-3.001003e-001 -2.952572e-001 1.761567e+000 110 125 47
1.784536e-001 -2.542101e+000 3.640538e+000 183 115 104
7.597459e-001 -3.427021e+000 4.004792e+000 155 87 48
-4.295805e-001 -5.522944e-001 2.097439e+000 28 55 36
-3.518878e-001 -8.500997e-001 2.377379e+000 172 136 127
9.346627e-001 -3.460237e+000 3.876374e+000 171 90 43
-6.389083e-001 -4.746555e-001 2.349740e+000 29 55 35
2.798189e-001 -1.500460e+000 2.438423e+000 8 72 110
4.944188e-001 -2.318579e+000 3.092437e+000 177 122 101
6.150766e-001 -3.035827e+000 3.701951e+000 83 21 6
-2.554554e-001 -9.452883e-001 2.350893e+000 169 136 122
8.720497e-001 -3.498029e+000 3.969332e+000 164 91 57
2.416507e-001 -1.781328e+000 2.783890e+000 177 110 93
5.768452e-001 -2.371460e+000 3.091998e+000 144 23 34
-6.256111e-001 -3.384616e-001 2.177220e+000 116 133 63
-6.256111e-001 -3.384616e-001 2.177220e+000 116 133 63
3.921085e-001 -2.996634e+000 3.917106e+000 184 135 100
7.256130e-001 -3.289366e+000 3.871454e+000 27 21 17
2.053588e-001 -1.623949e+000 2.642325e+000 53 20 11
4.586597e-001 -2.421032e+000 3.223406e+000 129 31 40
8.854548e-001 -3.293832e+000 3.746531e+000 178 142 144
-5.413798e-001 -2.519526e-001 1.917995e+000 154 156 34
4.493842e-001 -2.375297e+000 3.179088e+000 137 26 39
3.472371e-001 -2.507667e+000 3.407181e+000 142 27 40
8.178140e-001 -3.290607e+000 3.805328e+000 176 147 142
3.050972e-001 -1.977562e+000 2.940816e+000 179 121 99
-2.244129e-001 -1.814896e+000 3.342278e+000 182 121 110
-2.786879e-001 -5.351524e-001 1.979094e+000 32 57 38
-2.786879e-001 -5.351524e-001 1.979094e+000 32 57 38
-1.419804e-001 -1.399855e+000 2.691856e+000 5 40 72
-6.533064e-001 -7.833950e-002 1.868704e+000 17 85 136
-6.650948e-001 -1.721637e-001 2.005186e+000 67 98 55
-5.807095e-001 -4.156708e-001 2.181699e+000 23 56 32
1.498637e-001 -1.279847e+000 2.349078e+000 227 134 117
5.452568e-001 -2.488887e+000 3.208389e+000 140 27 44
-1.555443e-001 -1.172807e+000 2.496781e+000 204 135 120
4.783391e-001 -2.391923e+000 3.161559e+000 130 32 37
5.507584e-001 -3.027197e+000 3.756264e+000 190 111 66
6.738615e-001 -3.062056e+000 3.674602e+000 66 14 4
9.869199e-001 -3.549571e+000 3.930998e+000 44 17 9
9.240554e-001 -3.073771e+000 3.542380e+000 177 96 31
7.462760e-001 -3.071872e+000 3.620981e+000 190 92 44
4.234606e-001 -2.960181e+000 3.803870e+000 167 81 41
2.035450e-001 -1.646183e+000 2.694609e+000 176 115 95
-5.399836e-001 -5.795259e-001 2.315333e+000 37 55 32
-8.404691e-001 1.281563e-001 1.937619e+000 202 139 122
-8.404691e-001 1.281563e-001 1.937619e+000 202 139 122
-6.876047e-001 -2.988570e-001 2.173948e+000 110 130 131
5.885018e-001 -2.987411e+000 3.671798e+000 132 50 28
5.692908e-001 -3.164613e+000 3.890731e+000 174 138 123
8.608680e-001 -2.597380e+000 3.166863e+000 126 82 36
-7.903025e-001 1.436110e-001 1.850024e+000 162 42 42
9.852410e-001 -2.799277e+000 3.324282e+000 28 26 42
6.353481e-001 -3.197733e+000 3.852232e+000 179 147 136
9.434312e-001 -3.307400e+000 3.731214e+000 22 11 14
-4.335397e-001 -9.932233e-001 2.658965e+000 137 30 40
4.116090e-001 -2.673306e+000 3.483898e+000 187 125 104
-6.279272e-001 -2.225099e-001 1.988147e+000 25 55 35
-4.759509e-001 -5.034485e-001 2.117281e+000 95 120 49
-4.759509e-001 -5.034485e-001 2.117281e+000 95 120 49
4.688550e-001 -3.021350e+000 3.807606e+000 148 74 39
8.328445e-001 -3.427253e+000 3.888752e+000 170 87 41
7.883180e-001 -3.043019e+000 3.585340e+000 177 86 40
8.033687e-001 -2.901763e+000 3.461769e+000 88 18 32
-2.005236e-001 -6.438244e-001 1.976821e+000 33 54 35
9.125164e-001 -1.994011e+000 2.739799e+000 168 85 86
6.561393e-001 -3.038920e+000 3.674227e+000 172 69 42
-3.130273e-001 -3.923533e-001 1.858099e+000 148 148 17
7.730772e-001 -1.738430e+000 2.526125e+000 162 147 118
7.867813e-001 -1.785387e+000 2.570960e+000 170 126 90
2.769388e-001 -2.006809e+000 2.952100e+000 86 53 40
5.218490e-001 -2.938415e+000 3.690676e+000 180 104 45
1.575059e-001 -2.824373e+000 4.035207e+000 159 137 113
3.638459e-001 -2.981503e+000 3.931617e+000 182 142 108
9.279502e-001 -3.330534e+000 3.757737e+000 176 141 140
4.236172e-001 -3.020699e+000 3.894436e+000 186 142 106
5.809173e-001 -3.106598e+000 3.834466e+000 194 104 52
2.460886e-001 -6.309581e-001 1.686239e+000 149 146 131
-6.671075e-001 -1.978048e-001 2.089678e+000 25 55 38
1.157052e-001 -1.252590e+000 2.348520e+000 201 142 110
8.855262e-001 -1.940955e+000 2.717841e+000 88 43 38
9.434193e-001 -1.956625e+000 2.728672e+000 80 30 32
9.319493e-001 -2.575917e+000 3.156549e+000 132 89 44
1.007262e+000 -2.574197e+000 3.164223e+000 63 25 40
1.087766e+000 -2.719457e+000 3.295321e+000 32 28 43
1.117558e+000 -2.702763e+000 3.300630e+000 29 26 36
7.256130e-001 -3.289366e+000 3.871454e+000 27 21 17
1.223168e+000 -3.399206e+000 3.774012e+000 132 75 61
-5.169521e-001 -3.137678e-001 1.971137e+000 141 151 58
9.488168e-004 -1.211845e+000 2.407727e+000 204 138 106
9.603925e-001 -1.699325e+000 2.568455e+000 131 157 154
5.369432e-001 -2.404198e+000 3.149303e+000 132 28 35
5.313899e-001 -2.448148e+000 3.166858e+000 128 32 36
5.707070e-001 -8.458018e-001 1.868216e+000 33 59 34
8.300527e-001 -1.250942e+000 2.237552e+000 152 104 89
5.719969e-001 -2.480301e+000 3.196602e+000 230 82 98
1.349996e-001 -2.511873e+000 3.664131e+000 183 120 101
1.089263e-001 -2.517611e+000 3.688518e+000 127 82 72
7.874962e-001 -3.310033e+000 3.834375e+000 29 22 20
1.631092e+000 5.598589e+000 4.703560e+000 51 35 46
8.866215e-001 -2.558179e+000 3.138327e+000 124 78 36
2.942022e-001 -2.695339e+000 3.646836e+000 165 81 51
1.246981e+000 5.543740e+000 4.835448e+000 71 59 59
1.447667e+000 5.256892e+000 4.924664e+000 80 71 66
-8.308806e-001 5.726300e-002 2.033741e+000 120 130 91
-3.528161e-001 -4.279483e-001 1.925689e+000 34 59 38
6.138758e-002 -1.203092e+000 2.358872e+000 141 23 37
9.039128e-001 -2.143456e+000 2.835807e+000 86 40 43
1.489948e+000 4.962922e+000 5.071377e+000 83 74 57
7.771119e-002 -1.256309e+000 2.371691e+000 131 71 53
9.739596e-001 -2.297389e+000 2.970836e+000 75 30 33
1.400761e+000 5.596506e+000 4.781300e+000 100 85 52
1.400761e+000 5.596506e+000 4.781300e+000 100 85 52
-6.305586e-001 -4.241772e-001 2.268003e+000 120 136 131
-5.950432e-001 -5.398688e-001 2.352334e+000 148 146 130
1.633316e+000 5.788303e+000 4.607047e+000 70 53 54
2.472940e-002 -6.198894e-001 1.799786e+000 55 102 128
8.142560e-002 -2.195588e+000 3.323252e+000 151 34 45
3.420483e-001 -4.829038e-001 1.583332e+000 161 153 130
2.191972e-001 -1.321063e+000 2.345120e+000 139 24 38
8.558019e-001 3.577373e-001 1.377155e+000 167 150 130
4.379197e-001 -8.138537e-003 1.266603e+000 197 151 106
8.611355e-001 2.220229e-001 1.474824e+000 162 43 46
7.228486e-001 -7.278411e-002 1.537553e+000 66 97 115
1.217699e+000 -1.305466e+000 2.509679e+000 207 73 77
1.946412e-001 -1.639360e+000 2.657463e+000 177 111 94
9.700299e-001 -1.867758e+000 2.679729e+000 169 93 74
9.160464e-001 -2.031504e+000 2.763519e+000 173 92 99
1.118006e+000 -1.995910e+000 2.831856e+000 121 86 90
9.287932e-001 -2.293482e+000 2.958773e+000 77 41 37
4.184681e-001 -2.514651e+000 3.346445e+000 206 54 69
1.056272e+000 -2.575998e+000 3.164004e+000 69 34 40
1.162980e+000 -3.465821e+000 3.807988e+000 159 63 43
9.142252e-001 -3.512880e+000 3.936113e+000 163 84 47
4.056880e-001 2.233442e-003 1.246007e+000 169 41 43
7.257133e-001 6.845133e-002 1.430138e+000 172 41 46
4.296429e-001 -1.821008e-001 1.371265e+000 155 163 143
4.296429e-001 -1.821008e-001 1.371265e+000 155 163 143
-4.487552e-001 -2.963162e-001 1.866757e+000 35 57 29
3.730208e-001 -3.801173e-001 1.505308e+000 81 105 112
-2.398090e-001 -1.129583e+000 2.531170e+000 193 126 106
9.245740e-001 -1.289436e+000 2.302543e+000 175 41 48
9.245740e-001 -1.289436e+000 2.302543e+000 175 41 48
8.891328e-001 -1.914293e+000 2.699719e+000 179 125 83
1.014736e+000 -1.990897e+000 2.769086e+000 71 37 36
1.348158e+000 -2.030592e+000 3.001883e+000 34 22 18
9.140103e-001 -2.229713e+000 2.909858e+000 70 35 41
9.713242e-001 -2.431761e+000 3.069368e+000 60 22 29
4.153289e-001 -2.370547e+000 3.200580e+000 131 32 41
4.783391e-001 -2.391923e+000 3.161559e+000 130 32 37
4.784578e-001 -2.513584e+000 3.304224e+000 142 28 44
4.017448e-001 -2.816078e+000 3.681616e+000 192 121 68
1.081296e+000 -3.084339e+000 3.535248e+000 138 65 41
8.049438e-001 -3.426964e+000 3.988658e+000 154 89 48
-4.540471e-001 -1.111187e-001 1.692654e+000 31 55 37
8.048044e-001 -1.180521e+000 2.183081e+000 138 97 79
8.048044e-001 -1.180521e+000 2.183081e+000 138 97 79
-3.437098e-001 -1.167362e+000 2.700269e+000 13 56 101
8.928098e-001 -1.847509e+000 2.632549e+000 177 123 73
3.458818e-001 -2.085347e+000 2.987108e+000 82 48 38
3.458818e-001 -2.085347e+000 2.987108e+000 82 48 38
1.198450e-001 -2.166841e+000 3.302968e+000 184 119 94
4.003930e-001 -2.249807e+000 3.097353e+000 185 121 98
8.438049e-001 -2.321923e+000 3.002415e+000 108 58 28
1.496074e-001 -2.267576e+000 3.339469e+000 131 26 40
3.436671e-001 -2.489206e+000 3.358848e+000 205 55 72
3.806818e-001 -2.914390e+000 3.826231e+000 99 38 14
5.226853e-001 -3.122895e+000 3.897894e+000 172 84 38
7.452101e-001 5.805541e+000 4.857246e+000 91 63 56
2.938724e-001 5.534879e+000 5.168449e+000 70 51 57
3.555776e-001 5.496132e+000 5.126933e+000 93 62 70
7.752443e-001 -8.072027e-002 1.577374e+000 158 158 111
8.050780e-001 -2.683595e-001 1.694566e+000 168 161 83
5.840047e-001 -6.391000e-001 1.726873e+000 166 156 56
6.915934e-001 -1.252451e+000 2.170326e+000 159 108 89
9.711949e-001 -1.235339e+000 2.294995e+000 176 43 48
4.450444e-001 -1.733634e+000 2.614368e+000 163 142 118
8.570099e-001 -1.990207e+000 2.726112e+000 103 48 48
8.717398e-001 -2.051396e+000 2.769996e+000 96 43 48
1.149147e+000 -2.629213e+000 3.256831e+000 161 124 90
1.149147e+000 -2.629213e+000 3.256831e+000 161 124 90
8.160608e-001 5.788213e+000 4.867770e+000 136 102 92
4.451763e-001 5.762177e+000 5.024423e+000 117 60 65
4.019545e-001 5.683723e+000 5.070345e+000 95 44 49
5.955395e-001 5.489470e+000 5.102117e+000 71 42 51
8.746172e-001 5.532794e+000 4.990530e+000 132 97 93
1.179764e+000 5.628730e+000 4.882794e+000 70 54 55
6.321166e-001 5.211202e+000 5.210179e+000 47 29 29
7.099352e-001 5.273805e+000 5.179031e+000 59 42 48
6.939762e-001 5.161430e+000 5.225062e+000 104 88 65
-2.707084e-001 -1.102515e+000 2.537926e+000 147 27 42
-9.973917e-002 -1.196709e+000 2.470118e+000 214 137 117
9.749444e-001 -1.818141e+000 2.635137e+000 174 100 76
1.280694e+000 -2.288686e+000 3.083801e+000 129 99 91
4.680550e-001 -2.689200e+000 3.471741e+000 181 125 99
9.810380e-001 5.520100e+000 4.933081e+000 148 66 45
6.329340e-001 5.101641e+000 5.262227e+000 67 40 36
9.961895e-001 5.118100e+000 5.166594e+000 130 105 101
1.090358e+000 5.109923e+000 5.137784e+000 52 30 19
1.123634e+000 4.948501e+000 5.203831e+000 110 54 39
4.322615e-001 4.797270e+000 5.515606e+000 83 60 70
4.322615e-001 4.797270e+000 5.515606e+000 83 60 70
6.155933e-001 4.721101e+000 5.484026e+000 164 94 62
-5.206339e-001 -1.414477e-001 1.757411e+000 13 80 122
-5.231425e-001 -2.445811e-001 1.890189e+000 47 82 51
-5.231425e-001 -2.445811e-001 1.890189e+000 47 82 51
7.036242e-001 -5.201031e-001 1.714607e+000 165 157 112
7.128584e-001 -8.059936e-001 1.889723e+000 34 59 28
1.311483e+000 5.368631e+000 4.927014e+000 131 116 111
1.038142e+000 5.211880e+000 5.090300e+000 21 10 16
4.750194e-001 4.989989e+000 5.386743e+000 33 19 32
5.021023e-001 -2.231471e-001 1.470910e+000 33 58 37
-6.876047e-001 -2.988570e-001 2.173948e+000 110 130 131
-2.596430e-001 -5.840515e-001 1.992804e+000 78 110 105
8.924693e-001 -1.874826e+000 2.664088e+000 171 127 80
1.051400e+000 -2.905173e+000 3.412957e+000 16 64 104
1.182499e+000 -2.958570e+000 3.490171e+000 156 120 85
1.060479e+000 5.806664e+000 4.796076e+000 39 55 44
1.060479e+000 5.806664e+000 4.796076e+000 39 55 44
7.695658e-001 5.724127e+000 4.924684e+000 134 106 89
1.151799e+000 5.689138e+000 4.820743e+000 169 115 68
1.151799e+000 5.689138e+000 4.820743e+000 169 115 68
1.227609e+000 5.771412e+000 4.709798e+000 34 33 32
5.183705e-001 -5.931499e-001 1.659238e+000 30 59 29
8.622967e-001 -1.768423e+000 2.570026e+000 15 74 108
9.031199e-001 -2.449021e+000 3.072363e+000 154 110 63
3.878683e-001 -2.721660e+000 3.636734e+000 176 127 95
8.281944e-001 -2.804467e+000 3.345608e+000 67 19 27
2.277456e-001 -2.765390e+000 3.851328e+000 156 120 96
5.685091e-001 -3.297087e+000 4.060822e+000 167 129 107
1.119550e+000 -3.626934e+000 3.959462e+000 176 80 40
1.152656e+000 5.441876e+000 4.906543e+000 25 16 21
8.470032e-001 5.098439e+000 5.216788e+000 30 19 27
7.721916e-001 -2.446358e+000 3.091374e+000 41 15 23
1.606963e-001 -2.899934e+000 4.091183e+000 79 63 56
2.708270e-001 -2.905393e+000 3.984875e+000 167 139 110
1.224194e+000 5.252348e+000 5.021023e+000 156 116 86
8.628524e-001 5.671100e+000 4.921147e+000 120 83 75
8.973028e-001 5.303668e+000 5.081184e+000 25 15 24
1.065398e+000 -3.324465e+000 3.698914e+000 174 92 36
7.880800e-001 -3.014321e-002 1.562741e+000 69 98 116
8.388101e-001 -4.700890e-001 1.804550e+000 50 56 22
8.942400e-001 -9.758951e-001 2.101027e+000 149 55 55
8.942400e-001 -9.758951e-001 2.101027e+000 149 55 55
1.062222e+000 -1.617009e+000 2.578198e+000 36 72 102
1.073618e+000 -1.861804e+000 2.725672e+000 73 31 28
9.625556e-001 -1.897268e+000 2.699626e+000 85 33 31
1.193988e+000 -1.976790e+000 2.868110e+000 110 77 84
1.197234e+000 -2.590648e+000 3.242571e+000 109 50 35
1.142616e+000 -2.854397e+000 3.389207e+000 25 58 90
-7.960627e-001 7.293818e-002 1.909089e+000 148 45 50
-6.355650e-001 -1.370973e-002 1.766985e+000 146 49 49
4.427802e-001 -1.498275e-001 1.349002e+000 179 37 39
5.251765e-001 -3.701692e-001 1.542962e+000 76 106 114
4.504494e-001 -2.396660e+000 3.217233e+000 197 59 74
5.308695e-001 -2.462164e+000 3.207485e+000 208 70 81
2.401495e-001 -2.472603e+000 3.481792e+000 184 61 71
3.051481e-001 -2.583942e+000 3.527294e+000 112 76 54
1.223168e+000 -3.399206e+000 3.774012e+000 132 75 61
9.058456e-001 -3.526311e+000 3.972796e+000 36 13 8
9.778973e-001 -3.519624e+000 3.911163e+000 48 16 7
-8.234451e-001 1.567699e-001 1.872014e+000 175 37 47
-7.049965e-001 -4.431184e-003 1.851584e+000 173 41 52
-5.413798e-001 -2.519526e-001 1.917995e+000 154 156 34
-3.832497e-001 -8.624770e-001 2.406207e+000 158 146 134
-3.832497e-001 -8.624770e-001 2.406207e+000 158 146 134
2.671642e-001 -1.619249e+000 2.586038e+000 178 112 91
1.014736e+000 -1.990897e+000 2.769086e+000 71 37 36
1.145449e+000 -1.967429e+000 2.836798e+000 59 39 38
3.305107e-001 -2.272752e+000 3.143437e+000 181 125 99
1.229863e+000 -2.183060e+000 3.008958e+000 25 16 16
4.381628e-001 -2.435643e+000 3.248289e+000 189 45 60
8.966035e-001 -2.596563e+000 3.166095e+000 162 116 66
1.173965e+000 -1.435258e+000 2.557397e+000 28 69 100
8.222276e-001 -2.036145e+000 2.757254e+000 168 126 90
6.321166e-001 5.211202e+000 5.210179e+000 47 29 29
-4.697292e-001 -2.879508e-001 1.861436e+000 29 56 36
8.668108e-001 -1.731530e-001 1.669699e+000 39 62 33
6.981352e-001 -3.174454e-001 1.614920e+000 42 59 35
1.033130e+000 -2.502305e-001 1.830395e+000 169 157 85
8.098908e-001 -5.296583e-001 1.807599e+000 36 61 35
7.444149e-001 -1.044664e+000 2.068217e+000 42 57 22
7.444149e-001 -1.044664e+000 2.068217e+000 42 57 22
1.304583e-001 -1.265235e+000 2.342367e+000 123 61 43
3.231501e-002 -2.489496e+000 3.796620e+000 179 124 108
6.874467e-002 5.705740e+000 5.132342e+000 110 86 74
1.003499e-001 5.559862e+000 5.177903e+000 104 85 71
3.798186e-001 4.990472e+000 5.422001e+000 78 71 87
7.643761e-001 -4.200992e-001 1.727211e+000 38 62 29
9.957620e-001 -3.163021e-001 1.848624e+000 169 160 92
-3.473168e-001 -5.042172e-001 1.996028e+000 29 55 34
1.142748e+000 -5.286570e-001 2.053237e+000 48 60 30
1.066100e+000 -1.206843e+000 2.335783e+000 167 154 122
9.887291e-001 -3.545711e+000 3.916566e+000 69 28 16
1.713469e-001 5.657295e+000 5.122926e+000 164 146 126
4.559393e-001 5.581699e+000 5.088232e+000 134 84 83
1.282199e+000 5.631853e+000 4.786613e+000 41 30 29
2.006397e-001 5.512537e+000 5.201395e+000 139 120 106
3.171978e-001 -2.238258e+000 3.176731e+000 177 124 101
3.044373e-001 -2.431521e+000 3.347540e+000 154 22 37
5.235326e-001 5.228627e+000 5.248798e+000 142 46 57
-5.495579e-001 -3.894500e-001 2.071979e+000 72 111 134
6.150364e-001 -3.048558e+000 3.718237e+000 165 73 45
1.152656e+000 5.441876e+000 4.906543e+000 25 16 21
2.986629e-001 5.320319e+000 5.284213e+000 19 14 21
6.140428e-001 -2.765285e+000 3.432770e+000 179 123 94
4.934389e-001 2.995125e-002 1.280675e+000 224 142 104
8.171195e-001 2.064063e-001 1.441016e+000 230 125 104
4.716860e-001 -3.012844e-001 1.468739e+000 136 141 21
-5.573628e-001 -4.378965e-001 2.140539e+000 29 54 25
1.303948e+000 -1.386419e+000 2.623122e+000 127 168 199
1.215666e+000 -1.478705e+000 2.605552e+000 131 161 176
1.030990e+000 -1.620920e+000 2.568407e+000 120 166 191
2.331271e-001 -1.800626e+000 2.781708e+000 178 110 91
9.899091e-001 -1.927676e+000 2.725751e+000 73 31 28
1.004133e+000 -1.899767e+000 2.716601e+000 163 82 78
1.028748e+000 -1.938305e+000 2.752005e+000 74 36 35
1.103123e+000 -1.852839e+000 2.739126e+000 154 85 83
1.113682e+000 -1.888144e+000 2.766038e+000 146 83 84
1.025357e+000 -1.960747e+000 2.769031e+000 149 81 83
1.044704e+000 -1.966813e+000 2.761803e+000 82 42 40
1.033909e+000 -2.013669e+000 2.794778e+000 149 103 108
9.389502e-001 -2.153544e+000 2.857122e+000 105 52 62
9.486205e-001 -2.372988e+000 3.007968e+000 58 17 26
4.184681e-001 -2.514651e+000 3.346445e+000 206 54 69
1.029436e+000 -2.790393e+000 3.326809e+000 147 143 157
1.016820e+000 -2.806849e+000 3.336114e+000 31 31 52
5.692908e-001 -3.164613e+000 3.890731e+000 174 138 123
8.427759e-001 -3.470917e+000 3.976351e+000 45 17 10
8.936985e-001 -3.493541e+000 3.950804e+000 39 6 5
7.360894e-001 2.579379e-001 1.379090e+000 169 43 42
7.604079e-001 1.429464e-001 1.422814e+000 158 44 48
6.115950e-001 2.397913e-002 1.377941e+000 155 50 47
9.252303e-001 -1.246806e+000 2.286564e+000 178 148 122
1.131907e+000 -1.396421e+000 2.495707e+000 200 76 76
1.004797e+000 -1.873902e+000 2.707473e+000 82 32 32
2.769388e-001 -2.006809e+000 2.952100e+000 86 53 40
8.824483e-001 -2.125104e+000 2.823963e+000 84 43 44
1.220304e+000 -2.235906e+000 3.037096e+000 26 22 19
1.446145e+000 -2.157646e+000 3.142440e+000 120 81 82
1.049910e-001 -2.273346e+000 3.402205e+000 139 37 43
1.049910e-001 -2.273346e+000 3.402205e+000 139 37 43
3.138983e-001 -2.485850e+000 3.409329e+000 135 28 38
-8.562662e-001 1.755981e-001 1.906111e+000 170 40 53
6.417939e-001 1.789126e-001 1.342841e+000 170 44 45
6.417939e-001 1.789126e-001 1.342841e+000 170 44 45
6.776539e-001 3.247247e-002 1.421465e+000 167 46 51
5.456273e-001 -8.415565e-002 1.357230e+000 173 42 43
-4.748649e-001 -3.274179e-001 1.972813e+000 49 91 115
-2.652970e-001 -4.256520e-001 1.831893e+000 28 54 29
-2.626907e-001 -4.254913e-001 1.838176e+000 28 54 29
-6.037861e-001 -5.017150e-001 2.321208e+000 38 53 26
1.332232e+000 -6.899454e-001 2.293421e+000 147 106 87
3.411065e-001 -1.999361e+000 2.919203e+000 176 121 90
9.403541e-001 -2.126616e+000 2.838575e+000 73 31 37
1.211227e+000 -2.393081e+000 3.131725e+000 83 52 50
1.225636e+000 -2.559286e+000 3.215656e+000 162 118 85
1.096682e-002 -2.558193e+000 3.866841e+000 168 134 109
3.190405e-001 -2.624580e+000 3.557063e+000 180 129 102
4.980651e-001 -3.003662e+000 3.756071e+000 184 113 59
-1.447234e+000 -2.950770e+000 4.846350e+000 50 38 48
1.236552e+000 -3.294628e+000 3.728245e+000 192 130 96
4.595155e-001 3.658836e-002 1.275502e+000 174 43 39
-3.001003e-001 -2.952572e-001 1.761567e+000 110 125 47
1.003533e+000 -4.781222e-001 1.919747e+000 41 57 31
3.199523e-001 -1.538385e+000 2.443110e+000 12 71 105
9.603925e-001 -1.699325e+000 2.568455e+000 131 157 154
1.217521e+000 -1.685178e+000 2.706157e+000 80 54 64
8.736372e-001 -2.198720e+000 2.885261e+000 168 124 87
-5.646472e-001 -3.706428e+000 4.410379e+000 50 39 49
2.491400e-001 5.727465e+000 5.076888e+000 62 45 53
9.532652e-001 5.777801e+000 4.845450e+000 160 109 84
9.029753e-001 5.634080e+000 4.919457e+000 108 60 53
2.590076e+000 4.028474e+000 5.074025e+000 64 60 75
4.990167e-001 -2.980188e-001 1.481488e+000 103 122 53
1.003709e+000 -1.162973e+000 2.282759e+000 170 154 121
2.876229e-001 -2.543813e+000 3.512298e+000 182 122 93
-1.363407e+000 -3.031021e+000 4.771168e+000 50 40 49
-4.860436e-001 -3.760888e+000 4.393623e+000 47 35 46
1.739385e+000 5.220673e+000 4.895470e+000 46 36 44
1.153001e+000 -2.173305e+000 2.972491e+000 139 111 99
5.768452e-001 -2.371460e+000 3.091998e+000 144 23 34
1.328803e+000 -2.809737e+000 3.442766e+000 155 117 80
-1.146533e+000 -3.282101e+000 4.657343e+000 135 120 123
-7.679987e-001 -3.524677e+000 4.526354e+000 43 33 42
4.477160e-001 -1.846096e-001 1.373705e+000 117 125 109
8.983157e-002 -2.542499e+000 3.770611e+000 179 125 105
6.361454e-001 -2.626650e+000 3.273762e+000 147 23 41
-8.749157e-001 -3.527334e+000 4.556615e+000 133 115 120
-1.020116e+000 -3.419755e+000 4.622561e+000 132 113 117
2.083775e+000 5.768228e+000 4.479654e+000 103 80 66
4.920728e-002 -2.484810e+000 4.009011e+000 123 95 81
-8.169289e-002 -1.687376e+000 3.262029e+000 181 118 103
-4.267876e+000 -5.251599e+000 -8.031333e+000 0 255 0
-4.284957e+000 -5.270551e+000 -8.074333e+000 255 255 0
-1.159683e+000 -5.417644e+000 -9.868975e+000 255 0 0
-1.164517e+000 -5.435830e+000 -9.915299e+000 255 255 0
