ply
format ascii 1.0
element face 0
property list uchar int vertex_indices
element vertex 896
property float x
property float y
property float z
property uchar diffuse_red
property uchar diffuse_green
property uchar diffuse_blue
end_header
3.548543e-001 -1.006492e+000 2.793218e+000 218 139 120
3.753622e-001 -1.022584e+000 2.775827e+000 208 127 111
3.830507e-001 -1.051850e+000 2.794249e+000 50 82 40
4.062103e-001 -1.241770e+000 3.033693e+000 185 62 72
4.570263e-001 -1.276873e+000 2.963001e+000 178 126 95
4.241088e-001 -1.261830e+000 3.020279e+000 193 61 66
4.475285e-001 -1.281474e+000 2.993039e+000 213 68 79
4.733364e-001 -1.301685e+000 2.965022e+000 204 54 66
4.525125e-001 -1.288876e+000 2.993582e+000 196 55 67
4.525125e-001 -1.288876e+000 2.993582e+000 196 55 67
4.167979e-001 -1.279194e+000 3.050747e+000 180 117 104
4.397067e-001 -1.288555e+000 3.024840e+000 204 58 66
4.396596e-001 -1.288536e+000 3.024864e+000 204 58 66
4.552887e-001 -1.301781e+000 3.009474e+000 203 62 72
4.674771e-001 -1.309538e+000 2.997081e+000 198 63 69
4.656978e-001 -1.311067e+000 2.998041e+000 198 63 69
5.263994e-001 -1.326227e+000 2.983753e+000 75 50 53
4.428682e-001 -1.307338e+000 3.049722e+000 175 111 93
4.571201e-001 -1.319962e+000 3.034120e+000 113 78 56
4.571822e-001 -1.319876e+000 3.034271e+000 113 78 56
4.470552e-001 -1.321643e+000 3.062600e+000 175 65 50
4.726308e-001 -1.352969e+000 3.050856e+000 152 97 44
4.324972e-001 -1.327182e+000 3.095119e+000 36 26 22
4.837561e-001 -1.396834e+000 3.089412e+000 35 10 0
4.837561e-001 -1.396834e+000 3.089412e+000 35 10 0
4.901408e-001 -1.402263e+000 3.086120e+000 44 17 0
3.742267e-001 -1.073216e+000 2.828193e+000 152 149 38
4.516409e-001 -1.214983e+000 2.887115e+000 56 31 26
4.548864e-001 -1.290695e+000 2.991308e+000 205 66 75
4.169640e-001 -1.275505e+000 3.054373e+000 116 69 56
4.396843e-001 -1.292879e+000 3.029190e+000 191 53 56
4.485975e-001 -1.303738e+000 3.013784e+000 191 63 68
4.427948e-001 -1.322780e+000 3.052265e+000 132 43 31
4.955884e-001 -1.406531e+000 3.083285e+000 59 23 6
3.495257e-001 -9.980957e-001 2.791520e+000 168 38 49
3.550525e-001 -1.000606e+000 2.787850e+000 175 36 51
4.080761e-001 -1.207741e+000 2.959967e+000 93 50 35
4.499208e-001 -1.237990e+000 2.922528e+000 84 54 39
3.927441e-001 -1.208696e+000 3.010726e+000 176 123 113
3.999474e-001 -1.210344e+000 2.993093e+000 112 66 51
4.230671e-001 -1.240027e+000 2.982115e+000 117 71 58
4.230671e-001 -1.240027e+000 2.982115e+000 117 71 58
4.558943e-001 -1.256395e+000 2.932577e+000 71 43 26
4.573580e-001 -1.262884e+000 2.940145e+000 65 33 18
4.608054e-001 -1.276405e+000 2.954046e+000 61 35 16
4.459766e-001 -1.301391e+000 3.015692e+000 195 69 72
4.710993e-001 -1.313609e+000 2.992853e+000 218 64 78
4.697923e-001 -1.314460e+000 2.993707e+000 218 64 78
5.491268e-001 -1.367812e+000 3.033439e+000 188 80 42
5.481617e-001 -1.302083e+000 2.976152e+000 83 48 46
5.459501e-001 -1.402315e+000 3.069862e+000 171 127 99
4.059094e-001 -1.275474e+000 3.102383e+000 38 28 36
5.389740e-001 -1.359657e+000 3.020792e+000 161 124 82
5.374811e-001 -1.403952e+000 3.061896e+000 159 115 90
4.422264e-001 -1.335827e+000 3.084971e+000 154 127 103
5.001910e-001 -1.388208e+000 3.048102e+000 170 77 42
5.933315e-001 -5.982713e-001 3.286897e+000 78 56 43
6.182109e-001 -6.054076e-001 3.291086e+000 101 69 60
4.349338e-001 -1.311295e+000 3.078787e+000 130 99 78
4.595721e-001 -1.347082e+000 3.073726e+000 113 50 19
4.755329e-001 -1.363468e+000 3.059419e+000 170 79 35
4.262271e-001 -1.328637e+000 3.135743e+000 105 90 81
4.293348e-001 -1.332588e+000 3.133457e+000 99 87 76
4.293348e-001 -1.332588e+000 3.133457e+000 99 87 76
4.400511e-001 -1.347438e+000 3.130877e+000 81 31 35
5.465218e-001 -1.009880e+000 2.736399e+000 222 129 91
5.122224e-001 -1.042285e+000 2.723843e+000 136 41 27
5.122224e-001 -1.042285e+000 2.723843e+000 136 41 27
5.663093e-001 -1.183559e+000 2.890075e+000 227 134 107
5.494162e-001 -1.221115e+000 2.904740e+000 133 177 189
5.405174e-001 -1.250602e+000 2.922938e+000 174 89 79
5.546172e-001 -1.245154e+000 2.929780e+000 125 71 79
5.625614e-001 -1.250055e+000 2.941453e+000 85 61 64
5.325979e-001 -1.271245e+000 2.935521e+000 125 65 70
5.530492e-001 -1.261814e+000 2.943433e+000 61 36 38
4.633876e-001 -1.288506e+000 2.960676e+000 127 82 58
5.761450e-001 -1.266627e+000 2.969326e+000 28 15 15
5.221448e-001 -1.291998e+000 2.949940e+000 138 71 75
6.093185e-001 -1.261908e+000 3.004560e+000 152 87 60
5.301252e-001 -1.305540e+000 2.966771e+000 107 57 59
5.315434e-001 -1.317338e+000 2.977807e+000 98 49 59
5.586323e-001 -1.309380e+000 2.990186e+000 119 89 88
5.000311e-001 -1.404143e+000 3.063876e+000 183 103 51
5.159715e-001 -1.429152e+000 3.085749e+000 202 95 48
5.561514e-001 -1.004914e+000 2.741451e+000 168 142 118
5.561514e-001 -1.004914e+000 2.741451e+000 168 142 118
5.415800e-001 -1.253859e+000 2.925219e+000 176 89 82
5.700873e-001 -1.242501e+000 2.944801e+000 88 66 71
5.378501e-001 -1.262912e+000 2.932135e+000 81 39 41
5.195951e-001 -1.282011e+000 2.941090e+000 75 32 38
6.053418e-001 -1.256408e+000 2.995795e+000 148 61 44
5.407205e-001 -1.326279e+000 2.989177e+000 85 55 51
5.214814e-001 -1.182440e+000 2.850666e+000 199 149 122
5.973200e-001 -1.195300e+000 2.937028e+000 100 23 28
6.015154e-001 -1.246839e+000 2.983585e+000 87 15 22
6.100716e-001 -1.265730e+000 3.009471e+000 116 68 37
4.490551e-001 -1.317177e+000 3.007498e+000 119 78 53
5.122028e-001 -1.242000e+000 2.899864e+000 189 138 91
5.627966e-001 -1.108462e+000 2.828943e+000 38 60 19
5.158264e-001 -1.108337e+000 2.779700e+000 164 158 108
5.929918e-001 -1.120421e+000 2.871953e+000 168 107 89
5.483392e-001 -1.398455e+000 3.060360e+000 158 52 48
5.461185e-001 -1.084991e+000 2.791641e+000 172 159 115
5.461185e-001 -1.084991e+000 2.791641e+000 172 159 115
6.023059e-001 -1.390647e+000 3.082997e+000 40 29 37
3.628749e-001 -1.002664e+000 2.743806e+000 105 161 190
3.628749e-001 -1.002664e+000 2.743806e+000 105 161 190
3.382158e-001 -1.018300e+000 2.792368e+000 235 148 120
3.504480e-001 -1.018791e+000 2.779762e+000 229 137 110
3.494688e-001 -1.021696e+000 2.784297e+000 138 48 42
3.494688e-001 -1.021696e+000 2.784297e+000 138 48 42
3.273642e-001 -1.019750e+000 2.801486e+000 245 131 114
3.273642e-001 -1.019750e+000 2.801486e+000 245 131 114
3.455324e-001 -1.021461e+000 2.789400e+000 231 137 112
3.603187e-001 -1.026507e+000 2.780712e+000 217 148 112
4.034938e-001 -1.069049e+000 2.775858e+000 143 158 62
4.052733e-001 -1.070659e+000 2.774890e+000 35 48 13
4.121595e-001 -1.092826e+000 2.788847e+000 57 94 75
4.121595e-001 -1.092826e+000 2.788847e+000 57 94 75
4.019012e-001 -1.090856e+000 2.812051e+000 67 103 73
4.055240e-001 -1.087706e+000 2.799008e+000 80 101 59
4.095658e-001 -1.135622e+000 2.862212e+000 97 67 56
3.515496e-001 -1.138259e+000 2.923205e+000 234 156 136
3.642182e-001 -1.140184e+000 2.915718e+000 121 33 29
3.642182e-001 -1.140184e+000 2.915718e+000 121 33 29
3.912314e-001 -1.146589e+000 2.899984e+000 233 159 127
3.965880e-001 -1.146324e+000 2.895095e+000 232 148 118
3.964190e-001 -1.146574e+000 2.895069e+000 232 148 118
4.204131e-001 -1.160526e+000 2.877318e+000 212 159 120
4.320575e-001 -1.168818e+000 2.867471e+000 132 36 35
4.340848e-001 -1.169120e+000 2.862642e+000 144 36 34
4.366801e-001 -1.173128e+000 2.862330e+000 118 44 34
4.370674e-001 -1.172591e+000 2.862355e+000 118 44 34
4.404524e-001 -1.173874e+000 2.857259e+000 217 152 120
3.354228e-001 -1.149285e+000 2.943937e+000 30 91 139
3.919514e-001 -1.148887e+000 2.901989e+000 221 152 119
3.771940e-001 -1.167292e+000 2.913281e+000 1 36 70
4.048018e-001 -1.152020e+000 2.895071e+000 218 154 123
4.152682e-001 -1.159159e+000 2.885228e+000 233 148 112
4.210932e-001 -1.162942e+000 2.879554e+000 211 148 110
4.310177e-001 -1.169775e+000 2.869919e+000 237 147 122
4.550286e-001 -1.195902e+000 2.856130e+000 25 76 103
3.550954e-001 -1.169726e+000 2.956909e+000 104 63 52
3.984670e-001 -1.172042e+000 2.922440e+000 9 88 131
4.500915e-001 -1.209197e+000 2.887236e+000 195 121 102
4.476076e-001 -1.218312e+000 2.908348e+000 204 129 94
3.469334e-001 -1.200581e+000 2.997233e+000 211 102 99
3.565488e-001 -1.195477e+000 2.987176e+000 191 132 116
3.835573e-001 -1.212712e+000 2.989726e+000 115 80 62
3.835573e-001 -1.212712e+000 2.989726e+000 115 80 62
3.660929e-001 -1.217803e+000 3.004792e+000 106 60 47
4.187458e-001 -1.245148e+000 2.991926e+000 192 129 101
4.186541e-001 -1.245245e+000 2.991902e+000 192 129 101
3.800300e-001 -1.255774e+000 3.035301e+000 226 97 101
4.007821e-001 -1.257931e+000 3.025089e+000 159 30 37
3.957020e-001 -1.263435e+000 3.030084e+000 154 32 37
4.021499e-001 -1.259611e+000 3.023870e+000 236 74 82
3.876931e-001 -1.269076e+000 3.046280e+000 230 67 78
4.228653e-001 -1.267306e+000 3.012811e+000 227 66 74
4.228653e-001 -1.267306e+000 3.012811e+000 227 66 74
4.211800e-001 -1.273551e+000 3.021152e+000 143 32 34
4.211402e-001 -1.273617e+000 3.021160e+000 143 32 34
4.560340e-001 -1.284814e+000 2.989988e+000 152 34 40
4.628580e-001 -1.293571e+000 2.984466e+000 231 76 75
4.353620e-001 -1.291246e+000 3.026304e+000 159 28 35
4.485337e-001 -1.299241e+000 3.014912e+000 221 73 75
4.684444e-001 -1.299778e+000 2.987529e+000 165 30 36
4.324361e-001 -1.292596e+000 3.030374e+000 157 32 36
4.326995e-001 -1.292152e+000 3.030331e+000 157 32 36
4.444043e-001 -1.297392e+000 3.021570e+000 148 34 36
4.174266e-001 -1.305979e+000 3.060915e+000 113 72 56
4.334612e-001 -1.311421e+000 3.050933e+000 193 130 111
4.188164e-001 -1.325751e+000 3.078928e+000 101 74 47
4.594150e-001 -1.336214e+000 3.047461e+000 137 79 33
4.604341e-001 -1.340752e+000 3.050450e+000 235 140 74
4.604341e-001 -1.340752e+000 3.050450e+000 235 140 74
3.295796e-001 -1.014521e+000 2.793252e+000 155 47 39
3.303242e-001 -1.013737e+000 2.793596e+000 155 47 39
3.324716e-001 -1.011314e+000 2.788423e+000 185 37 40
3.642265e-001 -1.024105e+000 2.773919e+000 167 39 45
3.642265e-001 -1.024105e+000 2.773919e+000 167 39 45
3.732401e-001 -1.026574e+000 2.766018e+000 201 142 109
3.629480e-001 -1.028792e+000 2.780402e+000 165 41 37
3.852657e-001 -1.044341e+000 2.772859e+000 21 75 88
3.846298e-001 -1.122550e+000 2.876783e+000 181 151 140
3.938713e-001 -1.125807e+000 2.872521e+000 176 158 138
3.742849e-001 -1.148968e+000 2.920210e+000 10 54 89
4.294652e-001 -1.176366e+000 2.883450e+000 15 70 98
3.521097e-001 -1.179555e+000 2.971764e+000 127 82 76
3.521097e-001 -1.179555e+000 2.971764e+000 127 82 76
4.078508e-001 -1.182499e+000 2.927205e+000 196 124 102
3.731896e-001 -1.201553e+000 2.978388e+000 98 59 42
3.663729e-001 -1.204335e+000 2.989838e+000 108 67 52
3.436646e-001 -1.216593e+000 3.007674e+000 205 92 90
4.168710e-001 -1.252246e+000 3.000284e+000 82 41 25
4.171028e-001 -1.251924e+000 3.000301e+000 82 41 25
3.733016e-001 -1.261387e+000 3.047421e+000 217 67 79
3.729803e-001 -1.257094e+000 3.040582e+000 152 45 51
3.874780e-001 -1.266499e+000 3.039015e+000 151 34 41
3.934001e-001 -1.266315e+000 3.037086e+000 148 37 43
4.191329e-001 -1.268374e+000 3.017601e+000 150 31 40
4.435632e-001 -1.276125e+000 3.001135e+000 146 32 39
4.457295e-001 -1.284683e+000 2.999524e+000 221 70 73
4.565942e-001 -1.289908e+000 2.993734e+000 152 31 34
4.629040e-001 -1.289332e+000 2.982463e+000 150 36 36
4.613688e-001 -1.292831e+000 2.988527e+000 147 35 37
4.653661e-001 -1.290867e+000 2.976170e+000 239 71 74
4.672618e-001 -1.295118e+000 2.980698e+000 201 65 57
4.734876e-001 -1.304674e+000 2.978398e+000 214 74 67
4.740260e-001 -1.304024e+000 2.974766e+000 147 37 42
3.927748e-001 -1.279953e+000 3.055392e+000 219 64 76
4.033457e-001 -1.282278e+000 3.047709e+000 153 38 44
4.410814e-001 -1.283938e+000 3.010074e+000 224 65 70
4.572883e-001 -1.299455e+000 2.993267e+000 213 64 63
4.661863e-001 -1.297950e+000 2.987209e+000 210 75 65
4.738798e-001 -1.303880e+000 2.981681e+000 167 29 39
4.545377e-001 -1.303940e+000 3.015284e+000 239 85 88
4.446864e-001 -1.316243e+000 3.043965e+000 128 82 61
3.659915e-001 -1.022196e+000 2.768785e+000 177 27 39
3.823886e-001 -1.080557e+000 2.831358e+000 154 152 43
3.823886e-001 -1.080557e+000 2.831358e+000 154 152 43
4.075016e-001 -1.096823e+000 2.809536e+000 74 109 97
4.074235e-001 -1.097314e+000 2.809870e+000 74 109 97
4.339641e-001 -1.127128e+000 2.801486e+000 88 87 66
4.342455e-001 -1.126724e+000 2.801633e+000 88 87 66
3.998066e-001 -1.181112e+000 2.933403e+000 78 42 30
3.997585e-001 -1.181184e+000 2.933454e+000 78 42 30
4.118668e-001 -1.202611e+000 2.946172e+000 204 129 110
4.050116e-001 -1.202045e+000 2.953299e+000 173 118 93
4.541791e-001 -1.228831e+000 2.911890e+000 101 55 41
4.537173e-001 -1.229652e+000 2.911895e+000 101 55 41
3.721255e-001 -1.208758e+000 2.995430e+000 137 90 77
3.721255e-001 -1.208758e+000 2.995430e+000 137 90 77
3.798657e-001 -1.211982e+000 2.991275e+000 103 57 39
4.109764e-001 -1.214794e+000 2.962967e+000 200 131 106
4.134315e-001 -1.221323e+000 2.969668e+000 199 132 105
4.591961e-001 -1.250382e+000 2.932644e+000 113 70 47
4.598127e-001 -1.258599e+000 2.940069e+000 106 76 56
3.907075e-001 -1.230153e+000 3.001318e+000 96 59 45
3.907075e-001 -1.230153e+000 3.001318e+000 96 59 45
4.258041e-001 -1.243410e+000 2.980828e+000 92 49 36
4.257913e-001 -1.243424e+000 2.980823e+000 92 49 36
3.613383e-001 -1.250797e+000 3.042487e+000 187 152 125
3.750696e-001 -1.241398e+000 3.022221e+000 119 71 57
3.856510e-001 -1.242434e+000 3.017725e+000 141 92 78
4.162860e-001 -1.243725e+000 2.993772e+000 167 114 96
4.565669e-001 -1.266795e+000 2.959582e+000 163 119 86
4.633207e-001 -1.272010e+000 2.953579e+000 90 59 41
4.654698e-001 -1.278165e+000 2.959891e+000 82 54 38
4.589060e-001 -1.280788e+000 2.975894e+000 198 142 100
3.788902e-001 -1.273834e+000 3.052808e+000 159 34 48
4.151742e-001 -1.266747e+000 3.018701e+000 153 32 36
4.344853e-001 -1.277027e+000 3.010605e+000 216 75 73
3.852142e-001 -1.283182e+000 3.061490e+000 151 36 43
4.576138e-001 -1.302741e+000 3.007037e+000 227 79 80
4.576138e-001 -1.302741e+000 3.007037e+000 227 79 80
4.789739e-001 -1.317605e+000 2.985451e+000 233 69 78
4.019757e-001 -1.294833e+000 3.061060e+000 140 90 77
4.019757e-001 -1.294833e+000 3.061060e+000 140 90 77
4.187113e-001 -1.299838e+000 3.052294e+000 123 66 55
4.013256e-001 -1.297454e+000 3.066215e+000 199 133 108
4.229008e-001 -1.307784e+000 3.057328e+000 100 60 45
4.325261e-001 -1.304212e+000 3.044154e+000 106 63 43
4.325975e-001 -1.303818e+000 3.044089e+000 106 63 43
4.490150e-001 -1.322620e+000 3.048058e+000 189 89 50
4.051069e-001 -1.331727e+000 3.100187e+000 148 118 97
3.557622e-001 -1.028504e+000 2.787837e+000 181 39 45
3.917482e-001 -1.063433e+000 2.790150e+000 158 152 22
3.528840e-001 -1.067692e+000 2.847326e+000 146 148 55
3.528840e-001 -1.067692e+000 2.847326e+000 146 148 55
3.932272e-001 -1.085119e+000 2.818206e+000 160 159 23
3.932272e-001 -1.085119e+000 2.818206e+000 160 159 23
3.783935e-001 -1.124064e+000 2.883832e+000 157 133 123
3.879893e-001 -1.148162e+000 2.908381e+000 165 25 38
4.006455e-001 -1.153037e+000 2.901010e+000 160 29 34
4.010617e-001 -1.160496e+000 2.906304e+000 5 54 83
4.105327e-001 -1.157387e+000 2.893512e+000 169 26 40
4.158492e-001 -1.187747e+000 2.929086e+000 201 130 105
4.179584e-001 -1.193817e+000 2.929405e+000 190 129 100
3.562033e-001 -1.188248e+000 2.973707e+000 200 136 118
3.562033e-001 -1.188248e+000 2.973707e+000 200 136 118
3.601709e-001 -1.194927e+000 2.980190e+000 199 134 116
3.605639e-001 -1.189795e+000 2.971747e+000 198 134 116
3.605639e-001 -1.189795e+000 2.971747e+000 198 134 116
3.659802e-001 -1.188358e+000 2.969720e+000 201 134 118
3.677729e-001 -1.185700e+000 2.969885e+000 201 134 118
4.049362e-001 -1.193670e+000 2.941625e+000 199 134 106
4.453231e-001 -1.216919e+000 2.910970e+000 176 114 90
4.488710e-001 -1.219592e+000 2.902128e+000 203 127 99
4.505364e-001 -1.226972e+000 2.909314e+000 200 131 101
4.072224e-001 -1.209089e+000 2.959970e+000 141 98 77
3.720904e-001 -1.220351e+000 2.997328e+000 199 134 109
4.088384e-001 -1.216891e+000 2.966731e+000 117 68 55
4.110750e-001 -1.223580e+000 2.973460e+000 89 51 37
3.683272e-001 -1.229067e+000 3.018511e+000 140 92 85
3.708925e-001 -1.238834e+000 3.020200e+000 198 136 115
3.720663e-001 -1.237059e+000 3.020059e+000 198 136 115
4.147803e-001 -1.235305e+000 2.982576e+000 197 133 108
4.148049e-001 -1.235126e+000 2.982619e+000 197 133 108
4.148770e-001 -1.238776e+000 2.986589e+000 160 106 87
4.148770e-001 -1.238776e+000 2.986589e+000 160 106 87
4.168353e-001 -1.243980e+000 2.989076e+000 197 133 107
4.606149e-001 -1.266720e+000 2.951522e+000 201 143 106
4.268130e-001 -1.267743e+000 3.006748e+000 162 25 38
4.558265e-001 -1.283815e+000 2.987845e+000 157 32 38
4.053167e-001 -1.296836e+000 3.062901e+000 202 132 107
4.052180e-001 -1.297183e+000 3.063077e+000 202 132 107
4.511742e-001 -1.312756e+000 3.030256e+000 76 36 9
4.046506e-001 -1.065993e+000 2.775268e+000 99 113 36
3.640090e-001 -1.068629e+000 2.828473e+000 137 141 30
3.897993e-001 -1.122008e+000 2.871691e+000 170 160 145
3.641500e-001 -1.137510e+000 2.909666e+000 171 27 42
3.828869e-001 -1.138555e+000 2.901637e+000 172 26 37
4.014809e-001 -1.148194e+000 2.889678e+000 171 30 39
4.262551e-001 -1.163081e+000 2.866598e+000 167 24 38
3.558496e-001 -1.215170e+000 3.004515e+000 207 138 123
3.646902e-001 -1.251664e+000 3.039112e+000 164 28 43
4.135414e-001 -1.263252e+000 3.014567e+000 166 23 35
3.442830e-001 -1.061586e+000 2.838000e+000 118 144 118
3.555571e-001 -1.082954e+000 2.853016e+000 29 59 32
4.110364e-001 -1.129189e+000 2.851490e+000 162 153 137
4.120736e-001 -1.280334e+000 3.033971e+000 174 21 39
4.120736e-001 -1.280334e+000 3.033971e+000 174 21 39
4.592153e-001 -1.300194e+000 2.999399e+000 176 23 37
4.592153e-001 -1.300194e+000 2.999399e+000 176 23 37
3.364292e-001 -1.031719e+000 2.819738e+000 127 141 143
3.393538e-001 -1.046094e+000 2.832553e+000 131 145 134
3.393538e-001 -1.046094e+000 2.832553e+000 131 145 134
4.191596e-001 -1.112368e+000 2.806753e+000 98 123 115
4.191596e-001 -1.112368e+000 2.806753e+000 98 123 115
3.267568e-001 -1.214237e+000 3.005832e+000 192 104 102
4.130971e-001 -1.257013e+000 3.008764e+000 199 132 106
4.335049e-001 -1.291915e+000 3.020752e+000 172 27 34
4.829169e-001 -1.322321e+000 2.987525e+000 177 27 39
4.548610e-001 -1.327143e+000 3.041880e+000 193 144 101
3.900402e-001 -1.081011e+000 2.813620e+000 62 106 117
3.490820e-001 -1.081248e+000 2.857431e+000 25 62 31
3.539724e-001 -1.075932e+000 2.845991e+000 126 146 137
3.570536e-001 -1.090129e+000 2.860109e+000 154 154 144
4.325653e-001 -1.109930e+000 2.777729e+000 52 97 120
3.944959e-001 -1.233613e+000 3.003408e+000 201 131 110
3.976163e-001 -1.217236e+000 2.977113e+000 194 133 105
4.202520e-001 -1.240612e+000 2.982015e+000 125 82 67
3.355338e-001 -1.220830e+000 2.999432e+000 184 102 90
4.860874e-001 -1.346178e+000 2.970258e+000 184 136 64
4.596907e-001 -1.310685e+000 2.990096e+000 163 35 35
2.868132e-001 -1.021839e+000 2.812298e+000 167 166 164
4.805725e-001 -1.270387e+000 2.924862e+000 179 140 97
3.209076e-001 -1.009780e+000 2.792747e+000 159 27 32
3.209076e-001 -1.009780e+000 2.792747e+000 159 27 32
3.814829e-001 -1.027321e+000 2.754094e+000 17 71 97
3.414459e-001 -1.021770e+000 2.790055e+000 203 130 94
3.521080e-001 -1.023868e+000 2.785126e+000 205 131 94
3.519897e-001 -1.024160e+000 2.785079e+000 205 131 94
3.753130e-001 -1.028619e+000 2.765856e+000 137 44 34
3.835907e-001 -1.032892e+000 2.760547e+000 20 72 96
3.831047e-001 -1.038583e+000 2.771708e+000 159 35 34
3.579425e-001 -1.048453e+000 2.806957e+000 64 72 21
3.800438e-001 -1.054346e+000 2.795774e+000 50 75 46
3.475869e-001 -1.071486e+000 2.846005e+000 130 134 32
3.924110e-001 -1.082013e+000 2.815460e+000 80 89 42
3.780041e-001 -1.115704e+000 2.874957e+000 191 106 87
4.074732e-001 -1.125508e+000 2.849755e+000 70 35 22
4.074732e-001 -1.125508e+000 2.849755e+000 70 35 22
3.855309e-001 -1.121307e+000 2.874150e+000 77 21 14
3.938872e-001 -1.123722e+000 2.869636e+000 76 12 7
3.938872e-001 -1.123722e+000 2.869636e+000 76 12 7
3.544603e-001 -1.137423e+000 2.918817e+000 198 130 98
3.777765e-001 -1.143408e+000 2.907225e+000 205 133 98
4.052681e-001 -1.152476e+000 2.892674e+000 116 27 21
4.052681e-001 -1.152476e+000 2.892674e+000 116 27 21
4.111044e-001 -1.155407e+000 2.887619e+000 92 24 18
4.147017e-001 -1.157048e+000 2.882836e+000 196 136 88
4.227957e-001 -1.161723e+000 2.874825e+000 222 128 100
4.262639e-001 -1.165273e+000 2.874960e+000 214 128 96
4.322237e-001 -1.168490e+000 2.867581e+000 115 25 23
4.431583e-001 -1.174574e+000 2.855227e+000 210 141 97
4.431583e-001 -1.174574e+000 2.855227e+000 210 141 97
3.593824e-001 -1.139175e+000 2.919653e+000 193 147 102
3.589128e-001 -1.139970e+000 2.919487e+000 193 147 102
3.668617e-001 -1.141880e+000 2.915777e+000 219 133 103
3.708262e-001 -1.143718e+000 2.913213e+000 198 133 97
3.761057e-001 -1.143683e+000 2.909313e+000 107 16 23
3.760725e-001 -1.143740e+000 2.909263e+000 107 16 23
3.882637e-001 -1.148350e+000 2.903902e+000 197 134 96
3.973936e-001 -1.150561e+000 2.898921e+000 199 139 113
4.006549e-001 -1.151827e+000 2.897092e+000 202 135 102
4.006005e-001 -1.152005e+000 2.897092e+000 202 135 102
4.039569e-001 -1.152977e+000 2.894844e+000 191 135 88
4.040723e-001 -1.152738e+000 2.894902e+000 191 135 88
4.071403e-001 -1.154214e+000 2.892755e+000 197 131 90
3.338638e-001 -1.147195e+000 2.940274e+000 26 73 108
4.019031e-001 -1.189124e+000 2.939438e+000 167 103 83
4.137619e-001 -1.192121e+000 2.932825e+000 50 15 3
4.062380e-001 -1.195581e+000 2.944099e+000 177 104 76
3.436507e-001 -1.198967e+000 2.991316e+000 140 42 36
3.741252e-001 -1.208042e+000 2.984838e+000 186 113 85
3.852373e-001 -1.203493e+000 2.971604e+000 184 106 79
3.592983e-001 -1.214007e+000 2.998360e+000 181 108 88
4.591884e-001 -1.267252e+000 2.957089e+000 178 115 74
4.653277e-001 -1.290726e+000 2.976312e+000 201 51 57
3.932555e-001 -1.264606e+000 3.034046e+000 223 66 74
3.931774e-001 -1.264900e+000 3.034081e+000 223 66 74
4.122779e-001 -1.264341e+000 3.018395e+000 198 55 66
4.062887e-001 -1.264958e+000 3.024476e+000 128 22 23
4.172880e-001 -1.270974e+000 3.021179e+000 220 70 76
3.733976e-001 -1.267876e+000 3.049624e+000 131 28 31
4.598654e-001 -1.305513e+000 3.004801e+000 218 51 56
4.181867e-001 -1.287762e+000 3.038735e+000 119 26 30
4.201694e-001 -1.289698e+000 3.037484e+000 125 22 29
4.291544e-001 -1.288519e+000 3.029949e+000 128 26 29
4.434245e-001 -1.293885e+000 3.020324e+000 222 70 81
3.371526e-001 -1.020100e+000 2.791490e+000 206 131 88
3.441083e-001 -1.020003e+000 2.785992e+000 192 132 95
3.468997e-001 -1.018801e+000 2.781512e+000 202 133 97
3.762112e-001 -1.031002e+000 2.768546e+000 142 39 30
3.587310e-001 -1.056211e+000 2.818985e+000 77 98 91
3.873744e-001 -1.082550e+000 2.825776e+000 141 139 32
4.336137e-001 -1.130007e+000 2.803532e+000 155 144 104
3.924856e-001 -1.117209e+000 2.863289e+000 92 16 19
3.825648e-001 -1.118925e+000 2.873146e+000 157 136 110
3.824888e-001 -1.119116e+000 2.873039e+000 157 136 110
3.854064e-001 -1.121817e+000 2.876950e+000 157 129 107
3.420446e-001 -1.143507e+000 2.933302e+000 24 68 104
3.733195e-001 -1.194039e+000 2.970706e+000 81 45 37
3.611790e-001 -1.199099e+000 2.983735e+000 67 43 32
3.649608e-001 -1.207997e+000 2.989437e+000 70 36 27
3.804021e-001 -1.209713e+000 2.982613e+000 70 43 36
3.804021e-001 -1.209713e+000 2.982613e+000 70 43 36
3.912561e-001 -1.205394e+000 2.969196e+000 70 41 30
3.379463e-001 -1.215246e+000 3.005229e+000 184 96 86
3.463269e-001 -1.211665e+000 3.001177e+000 179 90 81
3.722388e-001 -1.215264e+000 2.993918e+000 82 43 31
3.921951e-001 -1.226130e+000 2.991942e+000 62 28 13
3.927110e-001 -1.232383e+000 2.999235e+000 42 18 11
3.927110e-001 -1.232383e+000 2.999235e+000 42 18 11
3.972804e-001 -1.228089e+000 2.988801e+000 103 58 39
4.178856e-001 -1.232017e+000 2.976811e+000 176 108 77
4.176495e-001 -1.232672e+000 2.976728e+000 176 108 77
3.779056e-001 -1.234297e+000 3.014405e+000 64 26 25
3.885871e-001 -1.249686e+000 3.025513e+000 186 106 81
3.821855e-001 -1.258856e+000 3.036767e+000 131 22 27
3.849575e-001 -1.259406e+000 3.035504e+000 125 25 30
4.192281e-001 -1.268077e+000 3.017654e+000 131 28 30
4.552861e-001 -1.292767e+000 2.993812e+000 139 23 30
4.650094e-001 -1.295422e+000 2.984934e+000 130 20 29
4.655878e-001 -1.293311e+000 2.985146e+000 130 20 29
4.697185e-001 -1.294578e+000 2.981754e+000 133 23 25
4.769388e-001 -1.305622e+000 2.975360e+000 231 71 76
3.774019e-001 -1.264456e+000 3.043498e+000 127 28 34
3.760009e-001 -1.263759e+000 3.046638e+000 214 73 75
3.760009e-001 -1.263759e+000 3.046638e+000 214 73 75
4.247621e-001 -1.274210e+000 3.019405e+000 126 23 28
4.272787e-001 -1.279202e+000 3.019936e+000 184 38 38
4.539476e-001 -1.300634e+000 3.012246e+000 136 20 29
4.642936e-001 -1.304655e+000 3.001445e+000 212 45 51
4.639285e-001 -1.305791e+000 3.001612e+000 212 45 51
3.902709e-001 -1.280242e+000 3.053944e+000 137 24 33
4.256647e-001 -1.290552e+000 3.034477e+000 136 21 24
4.255149e-001 -1.291300e+000 3.037401e+000 237 77 91
4.289462e-001 -1.293453e+000 3.034826e+000 192 51 56
4.359704e-001 -1.292672e+000 3.027989e+000 126 23 31
4.504703e-001 -1.296873e+000 3.019864e+000 220 83 91
3.901083e-001 -1.293515e+000 3.067398e+000 56 30 16
3.474552e-001 -1.017605e+000 2.778737e+000 164 26 36
3.478415e-001 -1.017113e+000 2.779110e+000 164 26 36
3.395499e-001 -1.021839e+000 2.792552e+000 157 33 33
3.606750e-001 -1.028864e+000 2.782957e+000 188 138 98
3.612611e-001 -1.047673e+000 2.807227e+000 139 143 32
3.612611e-001 -1.047673e+000 2.807227e+000 139 143 32
3.786638e-001 -1.054666e+000 2.799019e+000 146 137 27
3.786638e-001 -1.054666e+000 2.799019e+000 146 137 27
3.835138e-001 -1.063845e+000 2.805378e+000 47 87 85
3.956081e-001 -1.077515e+000 2.806130e+000 57 83 89
3.724575e-001 -1.076865e+000 2.831692e+000 144 136 26
3.787802e-001 -1.119228e+000 2.878292e+000 149 128 106
3.935878e-001 -1.125967e+000 2.872606e+000 159 131 108
3.940379e-001 -1.149078e+000 2.898945e+000 146 19 28
3.602072e-001 -1.148517e+000 2.924599e+000 20 70 96
3.995970e-001 -1.181919e+000 2.933384e+000 72 35 16
4.035369e-001 -1.183128e+000 2.935571e+000 177 106 78
4.521830e-001 -1.221938e+000 2.904709e+000 74 32 19
3.693772e-001 -1.198841e+000 2.980612e+000 144 89 67
3.693772e-001 -1.198841e+000 2.980612e+000 144 89 67
4.570946e-001 -1.265505e+000 2.959507e+000 166 110 74
4.637300e-001 -1.270478e+000 2.953496e+000 70 35 12
3.693809e-001 -1.241826e+000 3.027826e+000 180 110 94
3.729506e-001 -1.243223e+000 3.026348e+000 189 107 86
3.723072e-001 -1.244914e+000 3.026264e+000 189 107 86
3.854921e-001 -1.243161e+000 3.017644e+000 153 92 73
4.168724e-001 -1.252217e+000 3.000240e+000 70 41 21
4.262917e-001 -1.256318e+000 2.995752e+000 68 29 22
4.753638e-001 -1.302659e+000 2.970562e+000 222 74 78
4.294709e-001 -1.270272e+000 3.010889e+000 123 21 28
4.394722e-001 -1.279219e+000 3.008727e+000 138 22 27
3.759572e-001 -1.272899e+000 3.054158e+000 133 24 33
3.754715e-001 -1.274266e+000 3.054182e+000 133 24 33
3.806268e-001 -1.272901e+000 3.052738e+000 131 21 33
3.810045e-001 -1.271334e+000 3.052823e+000 131 21 33
3.833028e-001 -1.271564e+000 3.045814e+000 132 23 32
3.931037e-001 -1.267805e+000 3.036924e+000 129 27 31
3.940645e-001 -1.273097e+000 3.043317e+000 155 23 18
4.075396e-001 -1.296837e+000 3.058535e+000 111 56 43
4.509375e-001 -1.312632e+000 3.030504e+000 70 38 24
3.345295e-001 -1.014484e+000 2.786336e+000 162 28 31
3.403486e-001 -1.015426e+000 2.783529e+000 157 27 25
3.402637e-001 -1.015552e+000 2.783436e+000 157 27 25
3.549570e-001 -1.047193e+000 2.812382e+000 139 129 25
3.657135e-001 -1.144420e+000 2.919511e+000 133 20 26
3.320515e-001 -1.147469e+000 2.943757e+000 153 144 142
3.823285e-001 -1.154197e+000 2.917087e+000 1 30 48
3.883567e-001 -1.155626e+000 2.913731e+000 2 27 45
4.555504e-001 -1.219625e+000 2.890831e+000 176 106 74
4.137926e-001 -1.190397e+000 2.928896e+000 177 110 73
4.137926e-001 -1.190397e+000 2.928896e+000 177 110 73
4.095278e-001 -1.195181e+000 2.938543e+000 180 107 74
4.510384e-001 -1.234579e+000 2.922896e+000 151 78 52
4.518884e-001 -1.236079e+000 2.927652e+000 182 109 81
4.519386e-001 -1.235078e+000 2.927464e+000 182 109 81
3.476570e-001 -1.206769e+000 2.997710e+000 144 35 38
4.088494e-001 -1.216746e+000 2.966708e+000 130 74 59
4.536360e-001 -1.240759e+000 2.934645e+000 181 114 77
4.565974e-001 -1.254263e+000 2.937494e+000 181 119 75
4.109547e-001 -1.221906e+000 2.969530e+000 178 103 82
4.129179e-001 -1.228946e+000 2.975578e+000 175 109 70
4.164240e-001 -1.230783e+000 2.973867e+000 175 108 77
4.617174e-001 -1.264139e+000 2.946771e+000 109 61 32
3.672546e-001 -1.227070e+000 3.006527e+000 177 110 88
3.725992e-001 -1.226335e+000 3.004772e+000 175 110 85
3.725992e-001 -1.226335e+000 3.004772e+000 175 110 85
3.794448e-001 -1.223895e+000 3.001884e+000 177 110 82
3.869486e-001 -1.224721e+000 2.994097e+000 115 58 39
4.232226e-001 -1.237644e+000 2.978342e+000 181 109 77
4.573813e-001 -1.265096e+000 2.954388e+000 183 120 73
3.709387e-001 -1.230926e+000 3.013127e+000 182 104 89
3.709387e-001 -1.230926e+000 3.013127e+000 182 104 89
3.859455e-001 -1.239279e+000 3.013869e+000 178 108 87
3.859455e-001 -1.239279e+000 3.013869e+000 178 108 87
3.928651e-001 -1.237073e+000 3.002538e+000 177 109 83
3.928651e-001 -1.237073e+000 3.002538e+000 177 109 83
4.215318e-001 -1.252427e+000 2.993967e+000 175 109 77
4.215318e-001 -1.252427e+000 2.993967e+000 175 109 77
3.804956e-001 -1.254576e+000 3.031562e+000 146 17 37
3.995138e-001 -1.262787e+000 3.028033e+000 137 23 37
3.995138e-001 -1.262787e+000 3.028033e+000 137 23 37
3.972594e-001 -1.271645e+000 3.039952e+000 140 22 28
3.693516e-001 -1.072557e+000 2.830354e+000 22 51 9
3.725158e-001 -1.139885e+000 2.904752e+000 141 18 19
4.043624e-001 -1.153715e+000 2.898618e+000 127 22 26
3.353586e-001 -1.180545e+000 2.975444e+000 159 47 45
4.079229e-001 -1.198562e+000 2.947990e+000 175 107 81
4.184415e-001 -1.238634e+000 2.980042e+000 178 109 78
3.633328e-001 -1.248435e+000 3.034114e+000 180 113 96
4.331809e-001 -1.303440e+000 3.038772e+000 182 107 77
3.595353e-001 -1.047229e+000 2.807215e+000 92 89 18
3.654442e-001 -1.050943e+000 2.806983e+000 24 46 21
3.372224e-001 -1.062002e+000 2.843329e+000 129 124 42
3.442743e-001 -1.061508e+000 2.837961e+000 118 121 43
4.002222e-001 -1.091156e+000 2.819167e+000 29 46 24
3.824531e-001 -1.045629e+000 2.777463e+000 16 70 98
3.523890e-001 -1.050538e+000 2.817887e+000 22 47 25
3.492935e-001 -1.195610e+000 2.983719e+000 179 111 92
3.591396e-001 -1.229797e+000 3.015463e+000 178 111 92
4.423657e-001 -1.291813e+000 3.014018e+000 154 15 31
3.575715e-001 -1.179147e+000 2.961986e+000 176 108 87
4.018307e-001 -1.208712e+000 2.966541e+000 175 106 73
3.137319e-001 -1.003081e+000 2.790735e+000 127 126 111
4.766875e-001 -1.317951e+000 2.986247e+000 169 26 31
4.766875e-001 -1.317951e+000 2.986247e+000 169 26 31
4.030099e-001 -1.254488e+000 3.008609e+000 177 109 74
4.217716e-001 -1.147772e+000 2.859653e+000 159 141 105
4.106168e-001 -1.109511e+000 2.806299e+000 24 47 19
3.531815e-001 -1.153131e+000 2.932123e+000 23 66 93
4.375182e-001 -1.193210e+000 2.872148e+000 71 117 139
3.857931e-001 -1.123871e+000 2.867096e+000 114 30 32
3.856259e-001 -1.040270e+000 2.767878e+000 37 68 44
3.882269e-001 -1.053775e+000 2.782044e+000 34 72 45
3.564834e-001 -1.059083e+000 2.818132e+000 83 106 78
3.880595e-001 -1.145558e+000 2.901528e+000 200 139 107
3.917593e-001 -1.149440e+000 2.901916e+000 218 125 98
4.556680e-001 -1.198800e+000 2.859228e+000 45 74 82
4.203771e-001 -1.184339e+000 2.905070e+000 8 49 71
4.060236e-001 -1.196122e+000 2.944154e+000 177 112 84
3.967356e-001 -1.228869e+000 2.991418e+000 182 110 82
3.757326e-001 -1.272340e+000 3.057523e+000 216 59 71
3.787853e-001 -1.027442e+000 2.758912e+000 160 34 32
4.032958e-001 -1.074628e+000 2.789598e+000 139 139 42
3.863818e-001 -1.117163e+000 2.868369e+000 169 139 112
3.947560e-001 -1.119435e+000 2.863670e+000 180 137 111
3.781695e-001 -1.233855e+000 3.014407e+000 87 49 45
3.904018e-001 -1.258964e+000 3.030140e+000 181 80 68
3.903221e-001 -1.259081e+000 3.030136e+000 181 80 68
4.516025e-001 -1.287011e+000 2.991772e+000 128 30 31
4.307376e-001 -1.272490e+000 3.010664e+000 133 24 29
3.804210e-001 -1.276402e+000 3.055837e+000 199 60 71
3.820899e-001 -1.273106e+000 3.055524e+000 199 60 71
3.816715e-001 -1.031305e+000 2.760215e+000 173 145 116
3.837365e-001 -1.056550e+000 2.792616e+000 145 141 33
3.559430e-001 -1.056142e+000 2.819160e+000 142 132 24
3.559430e-001 -1.056142e+000 2.819160e+000 142 132 24
4.275317e-001 -1.260522e+000 2.998365e+000 187 111 91
4.649408e-001 -1.279347e+000 2.960021e+000 87 49 30
3.793690e-001 -1.260027e+000 3.043346e+000 134 28 36
4.533408e-001 -1.292284e+000 2.995914e+000 140 26 30
3.899452e-001 -1.270776e+000 3.049337e+000 138 24 32
3.654939e-001 -1.036543e+000 2.634887e+000 207 174 131
3.543836e-001 -1.141718e+000 2.924225e+000 145 20 36
3.702675e-001 -1.192625e+000 2.967122e+000 182 113 90
3.958478e-001 -1.093853e+000 2.838878e+000 27 50 23
3.958478e-001 -1.093853e+000 2.838878e+000 27 50 23
3.728534e-001 -1.143292e+000 2.910101e+000 192 117 90
3.715363e-001 -1.270001e+000 3.057268e+000 151 21 31
3.433818e-001 -1.038791e+000 2.797912e+000 40 88 107
3.526976e-001 -1.246749e+000 3.035246e+000 115 24 39
4.591807e-001 -1.266414e+000 2.976197e+000 187 125 84
3.355802e-001 -1.262656e+000 3.047181e+000 186 147 135
4.306865e-001 -1.266394e+000 3.006022e+000 154 25 27
4.753545e-001 -1.374076e+000 3.075189e+000 183 150 124
4.851215e-001 -1.382870e+000 3.066899e+000 23 14 7
5.024230e-001 -1.414685e+000 3.073034e+000 48 16 2
4.631709e-001 -1.349927e+000 3.067125e+000 169 75 39
5.365811e-001 -6.546270e-001 3.156025e+000 73 53 44
5.168980e-001 -7.175208e-001 3.230208e+000 71 60 54
5.510033e-001 -5.682722e-001 3.083736e+000 159 108 85
5.530483e-001 -6.936325e-001 3.163730e+000 39 34 41
5.330582e-001 -6.643697e-001 3.170729e+000 23 12 18
5.191990e-001 -6.896647e-001 3.212787e+000 20 10 18
4.706547e-001 -1.373671e+000 3.087548e+000 164 92 47
4.110414e-001 -1.304493e+000 3.064682e+000 71 41 24
4.178877e-001 -1.305175e+000 3.060762e+000 113 72 56
4.110022e-001 -1.317020e+000 3.078128e+000 175 136 105
4.235740e-001 -1.322264e+000 3.071835e+000 135 102 74
4.023763e-001 -1.330701e+000 3.099131e+000 164 129 98
4.100321e-001 -1.333483e+000 3.094962e+000 168 129 99
4.148582e-001 -1.324490e+000 3.083820e+000 165 128 100
4.636509e-001 -1.340233e+000 3.045824e+000 189 109 52
4.617973e-001 -1.341606e+000 3.048832e+000 100 48 18
4.046857e-001 -1.335962e+000 3.102889e+000 170 130 105
4.157202e-001 -1.333878e+000 3.091788e+000 173 131 100
4.146304e-001 -1.336095e+000 3.097489e+000 172 132 102
4.396183e-001 -1.336661e+000 3.076154e+000 143 103 68
4.412062e-001 -1.342406e+000 3.077026e+000 184 126 88
4.442960e-001 -1.341030e+000 3.070004e+000 193 94 41
4.419294e-001 -1.344723e+000 3.078731e+000 188 130 87
4.435876e-001 -1.348881e+000 3.080329e+000 187 117 64
4.516493e-001 -1.343414e+000 3.064889e+000 192 78 42
4.515418e-001 -1.345718e+000 3.069566e+000 180 79 37
4.644301e-001 -1.348076e+000 3.054893e+000 185 74 37
4.278631e-001 -1.351662e+000 3.100239e+000 28 19 14
4.279324e-001 -1.351448e+000 3.100058e+000 28 19 14
4.814100e-001 -1.368452e+000 3.052233e+000 123 52 17
4.720826e-001 -1.377358e+000 3.077661e+000 32 22 17
4.717100e-001 -1.378088e+000 3.077780e+000 32 22 17
4.868277e-001 -1.382181e+000 3.064438e+000 191 149 122
4.962413e-001 -1.393849e+000 3.050200e+000 183 155 127
4.971494e-001 -1.397216e+000 3.056421e+000 178 141 114
4.022528e-001 -1.370609e+000 3.143763e+000 137 95 93
4.124566e-001 -1.370751e+000 3.131750e+000 33 23 16
4.124566e-001 -1.370751e+000 3.131750e+000 33 23 16
4.154051e-001 -1.374716e+000 3.133389e+000 153 124 113
4.237042e-001 -1.377704e+000 3.126915e+000 155 127 111
4.395221e-001 -1.380222e+000 3.114788e+000 32 22 13
4.540650e-001 -1.387455e+000 3.107622e+000 170 139 118
4.729171e-001 -1.381338e+000 3.081932e+000 38 23 15
4.727239e-001 -1.390869e+000 3.087938e+000 177 107 40
4.750717e-001 -1.383730e+000 3.081068e+000 190 156 131
4.750709e-001 -1.383849e+000 3.081063e+000 190 156 131
4.735154e-001 -1.393593e+000 3.090174e+000 174 104 38
4.848814e-001 -1.390182e+000 3.071679e+000 33 22 14
4.876581e-001 -1.393129e+000 3.076779e+000 175 93 34
4.724527e-001 -1.403335e+000 3.100443e+000 43 16 0
4.787650e-001 -1.404010e+000 3.094100e+000 157 84 30
4.876069e-001 -1.411070e+000 3.089430e+000 47 22 13
4.993233e-001 -1.415404e+000 3.081266e+000 43 22 10
4.181940e-001 -1.330390e+000 3.086365e+000 168 130 99
4.233775e-001 -1.325132e+000 3.074731e+000 168 130 93
4.296782e-001 -1.328781e+000 3.075213e+000 177 133 98
4.765269e-001 -1.351067e+000 3.036126e+000 187 54 39
4.149223e-001 -1.335213e+000 3.094866e+000 109 82 63
4.397683e-001 -1.343678e+000 3.080140e+000 97 66 41
4.396445e-001 -1.346151e+000 3.082964e+000 190 138 98
4.494458e-001 -1.340246e+000 3.064790e+000 138 50 28
4.543920e-001 -1.349138e+000 3.067291e+000 192 85 41
4.394086e-001 -1.382813e+000 3.119456e+000 171 138 119
4.930664e-001 -1.414113e+000 3.085463e+000 46 15 3
4.685620e-001 -1.330165e+000 3.023653e+000 88 57 39
3.975951e-001 -1.335028e+000 3.102567e+000 82 61 42
5.017430e-001 -1.379180e+000 3.010770e+000 151 60 52
4.389495e-001 -1.354030e+000 3.091420e+000 194 156 115
4.833949e-001 -1.396254e+000 3.081890e+000 164 91 30
4.907792e-001 -1.409091e+000 3.085670e+000 158 87 43
4.344418e-001 -1.313349e+000 3.054249e+000 201 132 103
4.916846e-001 -1.388989e+000 3.064366e+000 37 19 13
4.845783e-001 -1.404903e+000 3.089720e+000 171 96 29
4.959802e-001 -1.365975e+000 3.021392e+000 188 97 27
3.807687e-001 -1.365014e+000 3.145910e+000 190 166 156
4.635816e-001 -1.392542e+000 3.101819e+000 184 150 124
4.957155e-001 -1.385523e+000 2.999781e+000 175 134 88
4.933968e-001 -1.408268e+000 3.025771e+000 185 107 25
2.176321e-001 -1.061665e+000 2.692693e+000 216 197 173
5.115819e-001 -1.421057e+000 2.965935e+000 35 24 30
3.933664e-001 -1.369688e+000 3.033052e+000 160 32 40
3.482278e-001 -1.024069e+000 2.786076e+000 202 129 92
3.753041e-001 -1.028569e+000 2.765823e+000 137 44 34
3.519329e-001 -1.027765e+000 2.787642e+000 238 112 92
3.787114e-001 -1.037273e+000 2.771295e+000 231 116 93
3.787841e-001 -1.037035e+000 2.771220e+000 231 116 93
3.849682e-001 -1.046214e+000 2.771422e+000 37 66 36
3.804135e-001 -1.053122e+000 2.796431e+000 50 75 46
4.025324e-001 -1.075965e+000 2.789720e+000 133 132 32
4.025685e-001 -1.076015e+000 2.789806e+000 133 132 32
3.817053e-001 -1.121267e+000 2.875895e+000 78 36 27
3.817053e-001 -1.121267e+000 2.875895e+000 78 36 27
3.507872e-001 -1.135319e+000 2.918814e+000 211 131 108
3.581799e-001 -1.138331e+000 2.917097e+000 196 141 105
3.777016e-001 -1.143866e+000 2.907184e+000 205 133 98
4.001566e-001 -1.149425e+000 2.894929e+000 189 134 94
4.539629e-001 -1.189538e+000 2.850058e+000 70 44 39
3.465657e-001 -1.139220e+000 2.924822e+000 212 130 107
3.465657e-001 -1.139220e+000 2.924822e+000 212 130 107
4.067620e-001 -1.183714e+000 2.929843e+000 33 18 8
3.264197e-001 -1.216323e+000 3.001778e+000 183 85 83
3.417534e-001 -1.204188e+000 2.995197e+000 154 53 49
3.446459e-001 -1.197387e+000 2.991122e+000 140 42 36
3.421800e-001 -1.205382e+000 2.992585e+000 177 73 68
3.279289e-001 -1.224333e+000 3.012151e+000 160 42 49
3.299924e-001 -1.217349e+000 3.006580e+000 145 59 54
3.368571e-001 -1.219511e+000 3.007264e+000 146 46 45
3.272046e-001 -1.256631e+000 3.037220e+000 68 125 199
3.272046e-001 -1.256631e+000 3.037220e+000 68 125 199
3.843610e-001 -1.272637e+000 3.047945e+000 135 19 31
4.087683e-001 -1.267798e+000 3.028668e+000 129 26 30
4.141592e-001 -1.277098e+000 3.029443e+000 133 26 29
4.330969e-001 -1.293703e+000 3.032931e+000 229 67 71
4.448104e-001 -1.294338e+000 3.022006e+000 133 24 32
4.445143e-001 -1.298009e+000 3.024356e+000 219 76 77
4.138862e-001 -1.305813e+000 3.062942e+000 45 15 7
4.140153e-001 -1.305449e+000 3.062928e+000 45 15 7
4.268820e-001 -1.310144e+000 3.055296e+000 120 72 52
4.335223e-001 -1.311085e+000 3.051023e+000 184 104 81
3.494732e-001 -1.319558e+000 3.100981e+000 67 29 15
4.441067e-001 -1.330117e+000 3.061920e+000 167 46 30
4.460364e-001 -1.332273e+000 3.065323e+000 171 55 33
4.571153e-001 -1.333225e+000 3.049525e+000 120 56 25
4.498450e-001 -1.334760e+000 3.057264e+000 169 50 35
4.529591e-001 -1.331716e+000 3.055721e+000 179 44 34
4.695204e-001 -1.347661e+000 3.047437e+000 108 48 8
4.768805e-001 -1.355072e+000 3.045944e+000 125 43 21
4.145047e-001 -1.330629e+000 3.087686e+000 166 117 81
4.142695e-001 -1.329911e+000 3.090233e+000 88 55 36
4.204279e-001 -1.326316e+000 3.080840e+000 168 115 77
4.225819e-001 -1.329385e+000 3.079343e+000 161 113 80
4.261488e-001 -1.333152e+000 3.081333e+000 158 111 77
4.172805e-001 -1.329690e+000 3.088826e+000 76 45 21
4.214395e-001 -1.332095e+000 3.084564e+000 162 116 82
4.212719e-001 -1.332606e+000 3.084525e+000 162 116 82
4.323631e-001 -1.331219e+000 3.075493e+000 92 58 31
4.381984e-001 -1.332097e+000 3.070095e+000 159 89 54
4.380430e-001 -1.332721e+000 3.069985e+000 159 89 54
4.482795e-001 -1.340357e+000 3.067627e+000 170 60 33
4.450564e-001 -1.338757e+000 3.072357e+000 144 66 22
4.522614e-001 -1.340500e+000 3.062622e+000 123 44 24
4.522614e-001 -1.340500e+000 3.062622e+000 123 44 24
4.590641e-001 -1.344012e+000 3.058699e+000 167 62 25
4.557941e-001 -1.348821e+000 3.063146e+000 129 46 16
4.751444e-001 -1.364482e+000 3.059314e+000 168 78 29
4.822854e-001 -1.362355e+000 3.043976e+000 187 71 30
4.045803e-001 -1.336603e+000 3.103115e+000 168 121 86
4.193085e-001 -1.338397e+000 3.092203e+000 164 120 81
4.193085e-001 -1.338397e+000 3.092203e+000 164 120 81
4.222802e-001 -1.341522e+000 3.093495e+000 161 115 81
4.261588e-001 -1.344486e+000 3.094765e+000 161 119 84
4.343462e-001 -1.342269e+000 3.083866e+000 61 29 9
4.343462e-001 -1.342269e+000 3.083866e+000 61 29 9
4.808023e-001 -1.376855e+000 3.067488e+000 21 8 1
4.869380e-001 -1.380582e+000 3.064556e+000 202 148 109
3.902608e-001 -1.343223e+000 3.119983e+000 26 16 11
4.077052e-001 -1.346708e+000 3.111752e+000 30 21 14
4.363227e-001 -1.354856e+000 3.095212e+000 25 12 9
4.767297e-001 -1.378394e+000 3.072606e+000 184 143 108
4.855621e-001 -1.380142e+000 3.066965e+000 24 13 5
4.875601e-001 -1.386000e+000 3.066078e+000 188 127 96
4.523388e-001 -1.384230e+000 3.106694e+000 20 8 5
4.744523e-001 -1.390413e+000 3.089908e+000 161 83 36
4.715297e-001 -1.391330e+000 3.092711e+000 162 84 35
4.808419e-001 -1.401793e+000 3.091450e+000 35 11 6
5.024467e-001 -1.413755e+000 3.073103e+000 39 12 9
5.023947e-001 -1.413980e+000 3.073093e+000 39 12 9
5.068607e-001 -1.417585e+000 3.074092e+000 46 11 5
3.956888e-001 -1.368540e+000 3.141279e+000 22 12 4
3.975552e-001 -1.373052e+000 3.143605e+000 170 127 111
3.975552e-001 -1.373052e+000 3.143605e+000 170 127 111
3.986191e-001 -1.373284e+000 3.145742e+000 166 115 106
4.070653e-001 -1.370245e+000 3.135197e+000 17 9 6
4.039233e-001 -1.370978e+000 3.140247e+000 169 128 110
4.042443e-001 -1.369615e+000 3.139931e+000 169 128 110
4.117584e-001 -1.375018e+000 3.135937e+000 168 125 105
4.111661e-001 -1.377259e+000 3.135986e+000 168 125 105
4.195373e-001 -1.377204e+000 3.129422e+000 161 119 97
4.195262e-001 -1.377414e+000 3.129428e+000 161 119 97
4.313140e-001 -1.377368e+000 3.120082e+000 11 9 9
4.490474e-001 -1.386715e+000 3.111377e+000 163 120 96
4.599186e-001 -1.391360e+000 3.106344e+000 172 122 91
4.720205e-001 -1.403605e+000 3.100580e+000 34 6 2
4.720889e-001 -1.402879e+000 3.100651e+000 34 6 2
4.827012e-001 -1.405421e+000 3.092281e+000 152 78 37
4.939869e-001 -1.409763e+000 3.085597e+000 25 10 3
4.233189e-001 -1.376223e+000 3.137747e+000 117 46 42
4.241322e-001 -1.390933e+000 3.135267e+000 116 50 35
3.750922e-001 -1.031069e+000 2.771289e+000 204 133 99
3.805843e-001 -1.061480e+000 2.806195e+000 141 133 21
2.822006e-001 -1.118329e+000 2.900621e+000 96 110 121
3.945738e-001 -1.119898e+000 2.863600e+000 164 138 102
4.030629e-001 -1.130824e+000 2.864616e+000 165 126 90
3.615642e-001 -1.138809e+000 2.914609e+000 201 133 108
3.660066e-001 -1.140707e+000 2.913287e+000 186 133 94
3.442497e-001 -1.144608e+000 2.931998e+000 23 71 106
3.631797e-001 -1.192904e+000 2.975067e+000 49 22 17
3.610999e-001 -1.199702e+000 2.983606e+000 67 43 32
3.730339e-001 -1.203623e+000 2.977815e+000 58 38 22
3.645825e-001 -1.222839e+000 3.004282e+000 62 48 37
3.749951e-001 -1.228510e+000 3.008071e+000 62 32 19
3.774277e-001 -1.235738e+000 3.014299e+000 64 26 25
4.676031e-001 -1.285983e+000 2.966881e+000 199 116 86
4.732171e-001 -1.293377e+000 2.968162e+000 202 56 59
4.732380e-001 -1.293283e+000 2.968150e+000 202 56 59
3.860603e-001 -1.263594e+000 3.034090e+000 127 20 31
4.096916e-001 -1.268103e+000 3.022271e+000 130 27 25
4.260288e-001 -1.269079e+000 3.010599e+000 194 49 52
3.763751e-001 -1.270423e+000 3.048641e+000 121 28 30
3.809972e-001 -1.271061e+000 3.046483e+000 131 28 34
3.866976e-001 -1.272616e+000 3.046373e+000 220 47 64
4.054114e-001 -1.271702e+000 3.035135e+000 145 15 28
4.257249e-001 -1.276435e+000 3.023653e+000 137 23 29
3.792021e-001 -1.281334e+000 3.058122e+000 128 27 33
3.794388e-001 -1.280499e+000 3.058343e+000 128 27 33
3.939329e-001 -1.281293e+000 3.050538e+000 131 23 30
4.088349e-001 -1.282153e+000 3.040834e+000 169 27 25
4.150938e-001 -1.280272e+000 3.039329e+000 201 59 61
4.150938e-001 -1.280272e+000 3.039329e+000 201 59 61
4.167787e-001 -1.289804e+000 3.042272e+000 226 70 83
4.289305e-001 -1.293562e+000 3.034808e+000 192 51 56
4.522397e-001 -1.317840e+000 3.037843e+000 177 119 87
3.560725e-001 -1.323507e+000 3.103723e+000 149 84 54
4.088336e-001 -1.319789e+000 3.082701e+000 172 122 88
4.085215e-001 -1.321403e+000 3.082569e+000 172 122 88
4.208476e-001 -1.324626e+000 3.075723e+000 169 116 78
4.237209e-001 -1.324473e+000 3.074727e+000 171 118 76
4.301477e-001 -1.324626e+000 3.070853e+000 169 116 78
4.348997e-001 -1.328293e+000 3.067299e+000 181 108 71
4.452155e-001 -1.334898e+000 3.062473e+000 97 25 16
4.547252e-001 -1.339395e+000 3.058013e+000 177 58 27
4.647649e-001 -1.339946e+000 3.049606e+000 189 99 41
4.697736e-001 -1.342656e+000 3.045090e+000 179 93 34
4.743076e-001 -1.348920e+000 3.046088e+000 185 95 31
4.339020e-001 -1.332293e+000 3.072143e+000 168 112 75
4.410763e-001 -1.342407e+000 3.077058e+000 173 107 66
4.410763e-001 -1.342407e+000 3.077058e+000 173 107 66
4.578676e-001 -1.347935e+000 3.064590e+000 170 71 28
4.595664e-001 -1.349317e+000 3.068787e+000 178 76 30
4.098542e-001 -1.333657e+000 3.097835e+000 52 28 15
4.098542e-001 -1.333657e+000 3.097835e+000 52 28 15
4.121918e-001 -1.336618e+000 3.096112e+000 80 49 28
4.121918e-001 -1.336618e+000 3.096112e+000 80 49 28
4.364332e-001 -1.347201e+000 3.088278e+000 155 115 80
4.477085e-001 -1.349566e+000 3.077455e+000 176 92 45
5.025568e-001 -1.401275e+000 3.057345e+000 118 73 50
4.939025e-001 -1.403511e+000 3.081984e+000 44 21 13
4.995379e-001 -1.409500e+000 3.079027e+000 36 9 6
3.744343e-001 -1.373997e+000 3.159089e+000 198 134 119
4.230166e-001 -1.373453e+000 3.125277e+000 26 12 5
4.396894e-001 -1.384094e+000 3.122628e+000 106 50 31
4.494140e-001 -1.388439e+000 3.112287e+000 165 118 92
4.722053e-001 -1.398862e+000 3.097868e+000 25 6 4
4.804246e-001 -1.407283e+000 3.094486e+000 38 8 0
4.878408e-001 -1.410235e+000 3.089388e+000 29 7 4
3.467205e-001 -1.024704e+000 2.788207e+000 143 31 26
3.839970e-001 -1.056545e+000 2.792548e+000 134 137 42
3.843443e-001 -1.055818e+000 2.792992e+000 134 137 42
3.723950e-001 -1.077144e+000 2.831409e+000 144 136 26
3.170737e-001 -1.177821e+000 2.972471e+000 174 50 59
4.606169e-001 -1.255292e+000 2.940113e+000 75 46 27
4.555584e-001 -1.257304e+000 2.952933e+000 69 47 32
4.559367e-001 -1.255274e+000 2.953112e+000 69 47 32
4.241680e-001 -1.249209e+000 2.989408e+000 59 26 19
3.693037e-001 -1.242329e+000 3.027868e+000 180 110 94
4.262035e-001 -1.256670e+000 2.995650e+000 68 29 22
4.631643e-001 -1.284608e+000 2.979959e+000 219 78 77
4.343998e-001 -1.271426e+000 3.005141e+000 210 64 66
3.771007e-001 -1.283870e+000 3.064607e+000 126 26 31
4.017350e-001 -1.285966e+000 3.047754e+000 133 25 32
4.074270e-001 -1.297813e+000 3.058589e+000 111 56 43
4.185903e-001 -1.300738e+000 3.052296e+000 106 50 40
4.325618e-001 -1.302882e+000 3.044233e+000 110 62 48
4.694477e-001 -1.325845e+000 3.023547e+000 47 21 6
4.693997e-001 -1.327612e+000 3.023351e+000 47 21 6
