ply
format ascii 1.0
element face 0
property list uchar int vertex_indices
element vertex 894
property float x
property float y
property float z
property uchar diffuse_red
property uchar diffuse_green
property uchar diffuse_blue
end_header
5.746015e-001 -1.609063e+000 3.040036e+000 114 41 20
5.205958e-001 -1.605074e+000 3.086707e+000 175 125 89
5.188202e-001 -1.610162e+000 3.091487e+000 178 129 89
5.189868e-001 -1.610729e+000 3.091518e+000 178 129 89
5.255793e-001 -1.610537e+000 3.086561e+000 93 65 50
5.256085e-001 -1.610636e+000 3.086663e+000 93 65 50
5.522048e-001 -1.609347e+000 3.063088e+000 121 77 48
5.558457e-001 -1.608934e+000 3.061571e+000 115 75 48
5.632082e-001 -1.624853e+000 3.069722e+000 126 54 12
5.689424e-001 -1.631346e+000 3.070651e+000 27 13 5
5.743486e-001 -1.630006e+000 3.065166e+000 193 142 108
6.134734e-001 -1.658165e+000 3.041228e+000 199 149 112
5.961996e-001 -1.657395e+000 3.066531e+000 188 144 109
5.305495e-001 -1.647259e+000 3.118679e+000 166 126 111
5.961050e-001 -1.671322e+000 3.077211e+000 165 89 28
6.241474e-001 -1.689321e+000 3.060726e+000 186 79 38
5.609757e-001 -1.676442e+000 3.107260e+000 123 55 43
6.291148e-001 -1.698650e+000 3.066507e+000 41 21 25
5.116246e-001 -1.392878e+000 2.851717e+000 169 139 112
5.517627e-001 -1.439005e+000 2.855964e+000 210 138 105
4.951137e-001 -1.468442e+000 2.952760e+000 93 51 38
5.370544e-001 -1.539064e+000 2.999280e+000 174 41 45
5.631877e-001 -1.547028e+000 2.982527e+000 178 39 42
5.861253e-001 -1.559896e+000 2.963092e+000 215 64 68
5.874785e-001 -1.572298e+000 2.968376e+000 140 27 34
4.960447e-001 -1.541053e+000 3.031059e+000 134 30 36
5.208398e-001 -1.544839e+000 3.019931e+000 142 21 30
5.534002e-001 -1.544312e+000 2.993208e+000 125 29 31
5.096790e-001 -1.551464e+000 3.033646e+000 225 57 72
5.164954e-001 -1.555289e+000 3.033229e+000 124 20 29
5.212520e-001 -1.552418e+000 3.033709e+000 205 59 66
5.618750e-001 -1.567814e+000 3.008358e+000 126 20 30
5.926238e-001 -1.581979e+000 2.982308e+000 153 23 33
5.944554e-001 -1.581487e+000 2.977646e+000 155 23 31
5.993720e-001 -1.615414e+000 3.021468e+000 190 49 39
5.207133e-001 -1.601600e+000 3.079702e+000 127 90 63
5.350350e-001 -1.597763e+000 3.066353e+000 173 121 84
5.820892e-001 -1.612673e+000 3.036227e+000 189 98 36
5.991893e-001 -1.628446e+000 3.029962e+000 136 35 20
5.687556e-001 -1.622711e+000 3.064080e+000 185 93 52
5.432327e-001 -1.625518e+000 3.082975e+000 181 136 104
5.527877e-001 -1.625320e+000 3.077834e+000 177 138 97
5.708149e-001 -1.661978e+000 3.096513e+000 184 124 112
5.708149e-001 -1.661978e+000 3.096513e+000 184 124 112
5.404108e-001 -1.657068e+000 3.117528e+000 104 47 34
4.672253e-001 -1.297197e+000 2.769581e+000 204 137 102
5.922302e-001 -1.578782e+000 2.979971e+000 231 71 77
5.374035e-001 -1.570879e+000 3.036267e+000 98 52 34
5.233313e-001 -1.605415e+000 3.080758e+000 176 123 89
6.048358e-001 -1.635526e+000 3.031005e+000 191 77 34
5.535880e-001 -1.664412e+000 3.109008e+000 112 51 33
4.807175e-001 -1.425897e+000 2.911003e+000 12 46 66
5.792754e-001 -1.548806e+000 2.962094e+000 188 126 85
5.444064e-001 -1.650275e+000 3.112119e+000 168 126 102
5.217455e-001 -1.407547e+000 2.855663e+000 116 82 63
5.451912e-001 -1.433620e+000 2.864296e+000 203 137 100
5.309378e-001 -1.480766e+000 2.938390e+000 185 113 89
5.309378e-001 -1.480766e+000 2.938390e+000 185 113 89
5.008549e-001 -1.501106e+000 2.992071e+000 185 114 94
4.807340e-001 -1.600565e+000 3.094699e+000 51 19 25
6.143817e-001 -1.644471e+000 3.001333e+000 127 21 26
5.422964e-001 -1.586651e+000 3.048222e+000 178 120 82
5.416732e-001 -1.589070e+000 3.048168e+000 178 120 82
4.836405e-001 -1.624617e+000 3.107230e+000 192 151 130
4.863505e-001 -1.481599e+000 2.971444e+000 94 59 45
5.130205e-001 -1.499541e+000 2.974804e+000 73 44 39
5.366595e-001 -1.543127e+000 3.005007e+000 225 80 85
5.380111e-001 -1.615546e+000 3.081875e+000 170 129 92
5.128518e-001 -1.479275e+000 2.951958e+000 74 43 31
5.165257e-001 -1.553822e+000 3.033335e+000 152 37 40
5.911307e-001 -1.562700e+000 2.958203e+000 246 73 92
5.775597e-001 -1.607449e+000 3.035935e+000 217 119 76
4.571910e-001 -1.415505e+000 2.913970e+000 126 30 52
5.029061e-001 -1.391198e+000 2.857825e+000 190 113 103
4.773554e-001 -1.338877e+000 2.815148e+000 111 120 116
4.735021e-001 -1.312565e+000 2.610571e+000 45 29 24
4.682824e-001 -1.303522e+000 2.778299e+000 235 127 95
4.682824e-001 -1.303522e+000 2.778299e+000 235 127 95
4.736894e-001 -1.302637e+000 2.771889e+000 219 137 106
4.939360e-001 -1.310635e+000 2.765436e+000 236 126 90
5.047500e-001 -1.310958e+000 2.753961e+000 156 53 41
5.017465e-001 -1.342675e+000 2.800225e+000 100 118 59
5.233659e-001 -1.356246e+000 2.788097e+000 144 139 19
5.323260e-001 -1.364569e+000 2.784734e+000 77 107 78
5.415808e-001 -1.364629e+000 2.777150e+000 70 100 89
5.348332e-001 -1.375965e+000 2.795678e+000 96 120 65
5.326011e-001 -1.400485e+000 2.837654e+000 181 154 119
5.326011e-001 -1.400485e+000 2.837654e+000 181 154 119
5.324592e-001 -1.403513e+000 2.844098e+000 91 42 35
5.341218e-001 -1.404298e+000 2.845865e+000 183 148 118
5.347112e-001 -1.410550e+000 2.847139e+000 116 83 64
5.160022e-001 -1.403891e+000 2.863655e+000 171 150 125
5.205116e-001 -1.421279e+000 2.878656e+000 220 154 112
5.357657e-001 -1.429328e+000 2.869634e+000 236 142 96
5.344516e-001 -1.428053e+000 2.874809e+000 232 142 97
5.390139e-001 -1.430390e+000 2.867503e+000 216 143 103
4.749437e-001 -1.411608e+000 2.900168e+000 239 140 111
4.827155e-001 -1.416756e+000 2.900962e+000 217 154 107
4.904030e-001 -1.418579e+000 2.897373e+000 229 137 109
5.000336e-001 -1.419832e+000 2.891573e+000 127 32 31
5.023275e-001 -1.421003e+000 2.891787e+000 224 146 108
5.390492e-001 -1.434434e+000 2.884654e+000 18 56 79
4.560360e-001 -1.431619e+000 2.918503e+000 24 83 124
5.765511e-001 -1.476918e+000 2.876163e+000 87 41 17
5.765511e-001 -1.476918e+000 2.876163e+000 87 41 17
5.706276e-001 -1.490553e+000 2.893996e+000 200 124 80
4.889720e-001 -1.466813e+000 2.954526e+000 204 125 96
4.425182e-001 -1.501834e+000 2.989876e+000 168 59 59
4.424346e-001 -1.501780e+000 2.989796e+000 168 59 59
4.458066e-001 -1.501099e+000 2.990816e+000 215 100 100
4.616794e-001 -1.493450e+000 2.990243e+000 167 43 38
4.991607e-001 -1.503549e+000 2.988019e+000 198 124 97
4.365106e-001 -1.533725e+000 3.008997e+000 32 86 149
5.957714e-001 -1.574985e+000 2.950301e+000 206 52 54
5.709694e-001 -1.547690e+000 2.979912e+000 136 26 30
5.746772e-001 -1.553414e+000 2.976596e+000 147 27 31
5.764058e-001 -1.556896e+000 2.980328e+000 140 27 29
5.905276e-001 -1.545425e+000 2.969345e+000 202 55 55
5.967285e-001 -1.561978e+000 2.968876e+000 153 24 29
5.695215e-001 -1.556737e+000 2.991320e+000 155 23 29
4.974701e-001 -1.540427e+000 3.028129e+000 242 88 94
4.974701e-001 -1.540427e+000 3.028129e+000 242 88 94
5.166849e-001 -1.542545e+000 3.017104e+000 143 27 36
5.421665e-001 -1.550521e+000 3.006547e+000 217 59 53
5.633360e-001 -1.568894e+000 3.009696e+000 216 65 61
5.752607e-001 -1.569869e+000 2.995286e+000 226 57 66
4.936736e-001 -1.554706e+000 3.044502e+000 235 71 75
5.520497e-001 -1.559303e+000 3.015567e+000 146 28 32
6.170996e-001 -1.631295e+000 3.005645e+000 139 30 25
5.154231e-001 -1.570887e+000 3.050315e+000 199 126 97
5.379705e-001 -1.578300e+000 3.043518e+000 207 133 96
4.680384e-001 -1.599116e+000 3.082971e+000 143 72 50
5.989721e-001 -1.628659e+000 3.030116e+000 134 46 17
5.329150e-001 -1.597592e+000 3.070119e+000 125 86 56
5.391117e-001 -1.600185e+000 3.066371e+000 133 92 60
5.380774e-001 -1.604757e+000 3.068944e+000 179 130 93
5.452692e-001 -1.600108e+000 3.063390e+000 150 108 70
5.663012e-001 -1.603733e+000 3.056510e+000 139 52 17
5.637839e-001 -1.617181e+000 3.070613e+000 138 73 21
5.177098e-001 -1.619769e+000 3.098302e+000 17 7 4
5.237870e-001 -1.619271e+000 3.095925e+000 28 18 16
5.440933e-001 -1.622159e+000 3.085526e+000 32 16 26
5.969317e-001 -1.674393e+000 3.082960e+000 30 6 1
6.044828e-001 -1.674247e+000 3.078474e+000 41 12 5
6.103380e-001 -1.675529e+000 3.074557e+000 40 13 3
5.384313e-001 -1.641357e+000 3.111031e+000 28 18 9
4.734687e-001 -1.312031e+000 2.606974e+000 185 59 53
4.737327e-001 -1.312309e+000 2.614207e+000 244 183 134
3.297494e-001 -1.354821e+000 2.738218e+000 174 41 49
3.297494e-001 -1.354821e+000 2.738218e+000 174 41 49
3.368210e-001 -1.345471e+000 2.744756e+000 160 47 58
3.361769e-001 -1.346877e+000 2.743862e+000 160 47 58
3.350792e-001 -1.392473e+000 2.773729e+000 161 178 92
5.082087e-001 -1.338934e+000 2.791091e+000 146 143 27
5.112963e-001 -1.341953e+000 2.789353e+000 51 101 93
3.417992e-001 -1.410540e+000 2.794922e+000 43 57 38
3.557778e-001 -1.411680e+000 2.818213e+000 142 162 93
3.623157e-001 -1.415112e+000 2.830196e+000 50 66 33
3.647336e-001 -1.424055e+000 2.840397e+000 50 62 35
3.586538e-001 -1.455244e+000 2.853398e+000 150 58 64
3.591053e-001 -1.453573e+000 2.853737e+000 150 58 64
5.159555e-001 -1.402228e+000 2.859446e+000 131 103 84
5.318456e-001 -1.410133e+000 2.852404e+000 180 152 122
3.942804e-001 -1.434170e+000 2.894576e+000 140 112 123
5.754870e-001 -1.491691e+000 2.891815e+000 91 42 17
4.846051e-001 -1.469884e+000 2.956232e+000 70 38 24
5.301036e-001 -1.475582e+000 2.934844e+000 186 123 96
5.753212e-001 -1.523914e+000 2.931477e+000 87 47 19
4.680267e-001 -1.501423e+000 2.979542e+000 173 86 69
5.384854e-001 -1.506717e+000 2.960428e+000 191 120 89
4.855242e-001 -1.497007e+000 2.986126e+000 74 43 29
4.239309e-001 -1.551608e+000 3.006419e+000 87 138 208
4.314173e-001 -1.534483e+000 3.007629e+000 104 157 233
5.962762e-001 -1.570260e+000 2.958216e+000 208 53 50
5.964053e-001 -1.567589e+000 2.958672e+000 208 53 50
4.294189e-001 -1.552185e+000 3.012872e+000 39 91 148
5.474116e-001 -1.535364e+000 2.982202e+000 198 118 85
5.672638e-001 -1.554013e+000 2.981230e+000 132 28 32
5.120649e-001 -1.537744e+000 3.014102e+000 143 29 34
5.406020e-001 -1.546819e+000 3.004966e+000 137 29 31
5.411532e-001 -1.542095e+000 3.005679e+000 137 29 31
5.439267e-001 -1.553542e+000 2.999460e+000 218 67 66
5.439267e-001 -1.553542e+000 2.999460e+000 218 67 66
5.539206e-001 -1.552912e+000 3.000307e+000 223 71 68
5.878262e-001 -1.575183e+000 2.984033e+000 221 61 61
4.934942e-001 -1.536355e+000 3.024532e+000 187 51 48
5.015223e-001 -1.538052e+000 3.024061e+000 149 35 41
6.134444e-001 -1.609639e+000 2.974838e+000 74 27 19
4.946241e-001 -1.558545e+000 3.040998e+000 146 34 36
4.946241e-001 -1.558545e+000 3.040998e+000 146 34 36
5.861254e-001 -1.597347e+000 3.013439e+000 193 128 86
5.326755e-001 -1.606374e+000 3.073702e+000 124 93 64
5.465097e-001 -1.602755e+000 3.065084e+000 180 133 86
5.462667e-001 -1.607104e+000 3.064709e+000 180 133 86
5.518930e-001 -1.610051e+000 3.066293e+000 187 133 88
5.578888e-001 -1.613853e+000 3.062355e+000 183 125 81
5.858508e-001 -1.623422e+000 3.047903e+000 197 111 37
5.858508e-001 -1.623422e+000 3.047903e+000 197 111 37
5.182136e-001 -1.607304e+000 3.088556e+000 177 127 92
5.667605e-001 -1.628268e+000 3.070272e+000 214 152 89
5.726673e-001 -1.626726e+000 3.063668e+000 150 66 23
5.941255e-001 -1.638839e+000 3.060246e+000 193 154 109
4.781980e-001 -1.621978e+000 3.109718e+000 125 80 59
5.347990e-001 -1.621440e+000 3.090470e+000 23 21 17
5.895267e-001 -1.657349e+000 3.075265e+000 178 94 27
5.894253e-001 -1.659705e+000 3.075184e+000 178 94 27
6.100906e-001 -1.673916e+000 3.070603e+000 47 9 0
5.766290e-001 -1.657852e+000 3.089889e+000 84 59 40
5.488482e-001 -1.653359e+000 3.107120e+000 154 124 103
4.889974e-001 -1.325382e+000 2.791305e+000 152 156 36
4.889974e-001 -1.325382e+000 2.791305e+000 152 156 36
5.063209e-001 -1.333656e+000 2.783543e+000 158 148 33
5.062833e-001 -1.333564e+000 2.783437e+000 158 148 33
5.223635e-001 -1.354750e+000 2.791586e+000 61 100 93
5.252646e-001 -1.404031e+000 2.859389e+000 174 151 119
3.688637e-001 -1.500982e+000 2.897028e+000 192 119 118
3.750064e-001 -1.494037e+000 2.903755e+000 195 115 114
4.007615e-001 -1.496887e+000 2.945554e+000 95 145 210
5.765827e-001 -1.503211e+000 2.897391e+000 122 66 38
5.131806e-001 -1.465950e+000 2.952387e+000 198 124 87
5.358924e-001 -1.484228e+000 2.931696e+000 53 20 8
5.337901e-001 -1.492498e+000 2.949010e+000 87 48 38
5.821054e-001 -1.526888e+000 2.926526e+000 124 86 58
5.407098e-001 -1.501374e+000 2.952986e+000 117 70 50
5.094461e-001 -1.505527e+000 2.984069e+000 61 30 21
5.094461e-001 -1.505527e+000 2.984069e+000 61 30 21
5.865360e-001 -1.545758e+000 2.946990e+000 101 63 42
5.355859e-001 -1.517583e+000 2.977622e+000 169 101 82
5.370374e-001 -1.523994e+000 2.984283e+000 85 50 36
5.763643e-001 -1.547375e+000 2.974904e+000 140 26 31
5.970728e-001 -1.576275e+000 2.962409e+000 208 55 51
5.073273e-001 -1.545694e+000 3.026074e+000 152 31 40
5.072141e-001 -1.545370e+000 3.026178e+000 152 31 40
5.608014e-001 -1.562910e+000 3.006359e+000 206 58 54
5.778794e-001 -1.573131e+000 2.992020e+000 233 73 78
5.778794e-001 -1.573131e+000 2.992020e+000 233 73 78
4.963580e-001 -1.554872e+000 3.037940e+000 223 71 70
5.488468e-001 -1.563920e+000 3.016163e+000 146 28 31
5.792836e-001 -1.585938e+000 3.013953e+000 189 125 86
5.486803e-001 -1.582501e+000 3.037209e+000 169 92 64
5.487831e-001 -1.580465e+000 3.037425e+000 169 92 64
5.883359e-001 -1.618653e+000 3.041204e+000 208 125 50
5.484176e-001 -1.613491e+000 3.068054e+000 182 134 84
5.484176e-001 -1.613491e+000 3.068054e+000 182 134 84
6.211813e-001 -1.659660e+000 3.034010e+000 34 15 8
6.211813e-001 -1.659660e+000 3.034010e+000 34 15 8
5.118430e-001 -1.605327e+000 3.087840e+000 171 125 90
5.707269e-001 -1.626208e+000 3.068024e+000 195 148 103
5.317371e-001 -1.619451e+000 3.089873e+000 185 144 105
5.901830e-001 -1.683033e+000 3.088768e+000 138 74 19
4.980178e-001 -1.643899e+000 3.133540e+000 96 78 70
4.930106e-001 -1.651111e+000 3.145793e+000 134 29 40
4.727015e-001 -1.316851e+000 2.616651e+000 45 28 21
4.865662e-001 -1.305572e+000 2.762051e+000 179 38 29
5.179441e-001 -1.325005e+000 2.752766e+000 29 54 21
4.832666e-001 -1.323697e+000 2.796576e+000 147 140 19
4.832666e-001 -1.323697e+000 2.796576e+000 147 140 19
5.343294e-001 -1.366505e+000 2.787659e+000 160 152 30
5.172698e-001 -1.359728e+000 2.796620e+000 64 106 112
5.286631e-001 -1.401483e+000 2.843477e+000 179 152 123
4.003859e-001 -1.448640e+000 2.910875e+000 145 114 120
4.001847e-001 -1.449434e+000 2.910681e+000 145 114 120
5.458313e-001 -1.446204e+000 2.873400e+000 12 55 73
4.091159e-001 -1.478850e+000 2.947634e+000 65 58 106
5.358489e-001 -1.467692e+000 2.912326e+000 195 127 84
5.355735e-001 -1.468772e+000 2.911588e+000 195 127 84
4.056632e-001 -1.493216e+000 2.949373e+000 90 140 206
5.251707e-001 -1.470564e+000 2.929014e+000 169 109 73
5.332315e-001 -1.476167e+000 2.929547e+000 197 121 88
5.333713e-001 -1.474705e+000 2.929723e+000 197 121 88
5.747595e-001 -1.510014e+000 2.916755e+000 126 78 43
5.745721e-001 -1.512675e+000 2.916181e+000 126 78 43
5.328596e-001 -1.494262e+000 2.953496e+000 202 122 88
5.793887e-001 -1.521664e+000 2.924221e+000 197 136 90
5.802709e-001 -1.533633e+000 2.930047e+000 195 129 83
4.863198e-001 -1.493337e+000 2.981866e+000 195 132 99
4.863198e-001 -1.493337e+000 2.981866e+000 195 132 99
5.826687e-001 -1.537972e+000 2.946356e+000 188 131 86
4.333731e-001 -1.531956e+000 3.004679e+000 26 87 154
6.077429e-001 -1.583119e+000 2.947952e+000 49 18 16
4.452994e-001 -1.530142e+000 3.014482e+000 21 88 159
4.857078e-001 -1.534433e+000 2.999344e+000 195 130 106
4.857078e-001 -1.534433e+000 2.999344e+000 195 130 106
4.375433e-001 -1.552283e+000 3.026969e+000 189 155 126
4.371799e-001 -1.552662e+000 3.026149e+000 189 155 126
5.275284e-001 -1.572473e+000 3.046109e+000 205 127 100
5.886444e-001 -1.632274e+000 3.055520e+000 202 114 37
3.598577e-001 -1.388982e+000 2.808548e+000 49 64 36
3.521805e-001 -1.403499e+000 2.807552e+000 163 170 130
3.521805e-001 -1.403499e+000 2.807552e+000 163 170 130
3.549131e-001 -1.408772e+000 2.814474e+000 99 117 75
3.683734e-001 -1.389520e+000 2.823181e+000 159 172 115
3.864322e-001 -1.376286e+000 2.846234e+000 40 65 44
4.318827e-001 -1.462400e+000 2.950280e+000 178 51 55
5.156916e-001 -1.610718e+000 3.090620e+000 167 124 93
5.096820e-001 -1.331784e+000 2.779389e+000 59 88 44
3.551110e-001 -1.379910e+000 2.793885e+000 46 66 40
3.479937e-001 -1.402767e+000 2.803167e+000 166 165 155
4.862861e-001 -1.336137e+000 2.802248e+000 93 117 105
5.470817e-001 -1.372444e+000 2.780065e+000 28 57 22
5.297526e-001 -1.365647e+000 2.791553e+000 27 55 25
5.449736e-001 -1.376758e+000 2.784656e+000 101 129 96
5.449736e-001 -1.376758e+000 2.784656e+000 101 129 96
3.560126e-001 -1.423809e+000 2.824276e+000 104 132 91
5.109212e-001 -1.356818e+000 2.812186e+000 105 128 50
3.725011e-001 -1.433522e+000 2.858760e+000 172 169 178
4.622110e-001 -1.458165e+000 2.956795e+000 181 49 47
4.202039e-001 -1.531206e+000 2.993787e+000 139 31 44
4.448963e-001 -1.542827e+000 3.022681e+000 22 93 171
5.913632e-001 -1.582678e+000 2.973015e+000 157 23 30
4.962437e-001 -1.283342e+000 2.717207e+000 26 93 122
4.802213e-001 -1.328937e+000 2.800991e+000 25 59 25
4.236037e-001 -1.559394e+000 3.016187e+000 79 24 29
4.782753e-001 -1.608885e+000 3.092315e+000 44 15 18
3.811647e-001 -1.425967e+000 2.867160e+000 168 167 177
6.170858e-001 -1.646020e+000 3.009989e+000 197 106 25
4.161570e-001 -1.498740e+000 2.967680e+000 124 31 39
3.956493e-001 -1.489326e+000 2.927799e+000 170 34 48
6.172693e-001 -1.668526e+000 2.911404e+000 39 31 29
6.001557e-001 -1.571502e+000 2.999571e+000 195 128 83
5.721967e-001 -1.417523e+000 2.766879e+000 179 162 118
4.424595e-001 -1.437575e+000 2.938027e+000 173 168 165
4.601140e-001 -1.277024e+000 2.749695e+000 15 88 120
4.500283e-001 -1.580032e+000 3.046873e+000 186 151 132
5.767469e-001 -1.431570e+000 2.947453e+000 194 130 82
5.282141e-001 -1.213457e+000 2.824899e+000 23 81 111
8.030566e-001 -8.443443e-001 3.149407e+000 97 75 60
8.017554e-001 -8.842838e-001 3.168056e+000 92 75 59
4.922834e-001 -1.308236e+000 2.762457e+000 208 127 95
4.970226e-001 -1.338724e+000 2.796963e+000 148 142 29
5.002950e-001 -1.394667e+000 2.862516e+000 66 32 22
5.002950e-001 -1.394667e+000 2.862516e+000 66 32 22
4.937149e-001 -1.553448e+000 3.044673e+000 210 63 70
4.861843e-001 -1.326284e+000 2.790848e+000 58 78 45
5.423179e-001 -1.543645e+000 2.999196e+000 125 22 26
4.954241e-001 -1.543457e+000 3.031254e+000 121 28 30
5.442705e-001 -1.545327e+000 3.003619e+000 126 23 28
5.125426e-001 -1.553639e+000 3.033637e+000 131 23 30
5.642833e-001 -1.601491e+000 3.045206e+000 177 45 33
5.956883e-001 -1.632599e+000 3.040520e+000 181 75 34
4.987294e-001 -1.495422e+000 2.980745e+000 78 49 37
5.453717e-001 -1.508138e+000 2.958219e+000 39 12 8
5.049080e-001 -1.523705e+000 3.006645e+000 148 73 60
5.843205e-001 -1.588701e+000 3.004649e+000 102 61 44
5.344849e-001 -1.423224e+000 2.868585e+000 143 19 29
5.890455e-001 -1.629773e+000 3.050725e+000 163 77 28
4.525182e-001 -1.427009e+000 2.924015e+000 151 146 143
5.601579e-001 -1.469914e+000 2.886606e+000 178 104 77
3.100802e-001 -1.377059e+000 2.719659e+000 165 38 45
3.395057e-001 -1.355222e+000 2.755375e+000 128 60 54
4.941851e-001 -1.305104e+000 2.755562e+000 224 135 101
4.888377e-001 -1.305504e+000 2.762394e+000 161 49 31
4.734131e-001 -1.319164e+000 2.793646e+000 90 113 59
4.734131e-001 -1.319164e+000 2.793646e+000 90 113 59
3.867157e-001 -1.380491e+000 2.849385e+000 130 165 98
3.867157e-001 -1.380491e+000 2.849385e+000 130 165 98
3.642858e-001 -1.431584e+000 2.843917e+000 48 61 35
5.206574e-001 -1.397780e+000 2.851704e+000 172 148 120
4.867885e-001 -1.417549e+000 2.899473e+000 230 148 110
4.048693e-001 -1.519480e+000 2.959713e+000 206 117 111
4.103834e-001 -1.562081e+000 3.000653e+000 98 56 50
4.381606e-001 -1.525045e+000 3.007540e+000 118 191 251
4.382697e-001 -1.524431e+000 3.007682e+000 118 191 251
4.377475e-001 -1.535959e+000 3.015503e+000 78 134 208
4.362314e-001 -1.539889e+000 3.018896e+000 68 136 198
4.396211e-001 -1.541885e+000 3.020147e+000 67 142 217
5.815162e-001 -1.559292e+000 2.975173e+000 137 29 36
5.604911e-001 -1.553246e+000 2.995482e+000 205 54 54
5.752414e-001 -1.569659e+000 2.992668e+000 162 24 31
5.612956e-001 -1.567758e+000 3.008695e+000 136 28 32
5.657215e-001 -1.570126e+000 3.007517e+000 214 68 63
5.656138e-001 -1.570612e+000 3.007314e+000 214 68 63
5.925633e-001 -1.589594e+000 2.998331e+000 192 128 84
5.222608e-001 -1.593051e+000 3.067992e+000 191 136 95
5.355100e-001 -1.592374e+000 3.062307e+000 179 130 88
5.538048e-001 -1.594697e+000 3.050075e+000 134 41 22
5.700047e-001 -1.615475e+000 3.052639e+000 142 50 13
6.020453e-001 -1.629640e+000 3.032635e+000 98 28 2
5.550830e-001 -1.613472e+000 3.058913e+000 178 126 78
5.705105e-001 -1.620113e+000 3.059324e+000 186 80 29
5.258051e-001 -1.609153e+000 3.086843e+000 86 60 39
5.340608e-001 -1.607311e+000 3.080556e+000 182 128 83
3.308731e-001 -1.366676e+000 2.751573e+000 171 45 57
4.799666e-001 -1.303644e+000 2.771836e+000 166 46 44
3.513460e-001 -1.367680e+000 2.779771e+000 47 63 43
3.513460e-001 -1.367680e+000 2.779771e+000 47 63 43
5.053926e-001 -1.326210e+000 2.774690e+000 24 58 18
5.303534e-001 -1.348368e+000 2.770362e+000 29 50 13
4.751643e-001 -1.347845e+000 2.829070e+000 150 145 27
5.793860e-001 -1.465666e+000 2.843425e+000 38 76 92
4.257674e-001 -1.462278e+000 2.947953e+000 179 56 63
5.574351e-001 -1.542947e+000 2.987586e+000 217 52 53
5.907580e-001 -1.579273e+000 2.967173e+000 205 55 61
5.480405e-001 -1.544097e+000 3.001928e+000 138 27 33
5.480405e-001 -1.544097e+000 3.001928e+000 138 27 33
5.763049e-001 -1.560814e+000 2.982700e+000 214 56 63
4.990782e-001 -1.550228e+000 3.038331e+000 217 65 63
5.234097e-001 -1.559364e+000 3.032439e+000 195 49 46
5.235648e-001 -1.557968e+000 3.032686e+000 195 49 46
4.534946e-001 -1.610934e+000 3.081476e+000 68 27 23
5.424012e-001 -1.598165e+000 3.062516e+000 184 133 88
5.810959e-001 -1.607844e+000 3.039730e+000 135 52 19
-2.007543e-001 -2.518400e+000 2.283959e+000 101 74 59
5.117467e-001 -1.344182e+000 2.787947e+000 50 101 98
5.315150e-001 -1.355221e+000 2.787974e+000 62 104 102
5.314411e-001 -1.405984e+000 2.846863e+000 187 141 117
3.929261e-001 -1.449314e+000 2.900956e+000 182 162 170
5.365232e-001 -1.461954e+000 2.909553e+000 93 45 23
5.686119e-001 -1.484048e+000 2.898154e+000 157 101 78
5.461897e-001 -1.528919e+000 2.979806e+000 95 51 42
5.990755e-001 -1.582534e+000 2.973265e+000 220 58 60
5.990755e-001 -1.582534e+000 2.973265e+000 220 58 60
4.973345e-001 -1.555968e+000 3.043771e+000 232 87 87
6.200230e-001 -1.641833e+000 3.003917e+000 201 115 30
4.749095e-001 -1.303839e+000 2.613031e+000 200 42 42
-1.309683e-001 -2.513019e+000 2.262419e+000 104 85 70
5.540545e-001 -1.437589e+000 2.849076e+000 165 24 31
4.209399e-001 -1.466374e+000 2.943004e+000 176 165 173
6.576859e-001 -1.916523e+000 2.730122e+000 19 15 16
5.733853e-001 -1.504082e+000 2.910285e+000 136 78 53
4.977372e-001 -1.472772e+000 2.955268e+000 195 127 87
5.267699e-001 -1.479357e+000 2.936063e+000 182 114 83
5.268451e-001 -1.475278e+000 2.936916e+000 182 114 83
4.855242e-001 -1.487245e+000 2.974810e+000 203 126 101
4.853501e-001 -1.488878e+000 2.974453e+000 203 126 101
4.705837e-001 -1.491662e+000 2.986672e+000 166 44 36
4.910692e-001 -1.494715e+000 2.983944e+000 181 113 94
4.436931e-001 -1.524976e+000 3.009592e+000 14 91 170
4.536723e-001 -1.532872e+000 3.021766e+000 192 153 122
-2.222725e-001 -2.483693e+000 2.163796e+000 101 84 66
-1.598659e-001 -2.334644e+000 2.568444e+000 58 46 31
3.908116e-001 -1.461911e+000 2.909715e+000 176 163 173
5.713536e-001 -1.482166e+000 2.872058e+000 193 120 91
5.328085e-001 -1.534367e+000 2.998534e+000 160 18 30
4.784164e-001 -1.531241e+000 3.024379e+000 189 146 112
5.542347e-001 -1.598954e+000 3.047763e+000 166 54 35
4.479107e-001 -1.282528e+000 2.762784e+000 54 103 120
-2.067205e-001 -2.517905e+000 2.303642e+000 146 122 94
5.469033e-001 -1.371717e+000 2.780695e+000 28 57 22
6.035261e-001 -1.533191e+000 2.873713e+000 37 27 26
3.577290e-001 -1.596933e+000 2.932797e+000 26 18 15
3.577290e-001 -1.596933e+000 2.932797e+000 26 18 15
3.436295e-001 -1.345050e+000 2.755347e+000 176 110 101
-2.075337e-001 -2.466861e+000 2.210904e+000 102 87 68
-1.589130e-001 -2.532612e+000 2.251224e+000 33 29 52
-1.626213e-001 -2.550524e+000 2.267482e+000 136 119 93
4.910350e-001 -1.349545e+000 2.817956e+000 24 57 23
5.237462e-001 -1.370367e+000 2.811272e+000 132 139 112
5.207263e-001 -1.551532e+000 3.023018e+000 169 21 33
5.207604e-001 -1.550982e+000 3.023074e+000 169 21 33
5.431917e-001 -1.462712e+000 2.901472e+000 195 120 88
5.370821e-001 -1.371885e+000 2.810205e+000 30 55 22
-2.833225e-001 -2.298470e+000 2.304479e+000 29 19 20
4.122368e-001 -1.316947e+000 2.791071e+000 161 159 154
5.169419e-001 -1.512743e+000 2.985353e+000 189 123 89
4.396844e-001 -1.584159e+000 3.050349e+000 134 95 78
5.604332e-001 -1.567096e+000 3.011210e+000 217 65 71
5.604332e-001 -1.567096e+000 3.011210e+000 217 65 71
5.893957e-001 -1.627489e+000 3.045256e+000 197 111 50
5.299794e-001 -1.345989e+000 2.764985e+000 38 52 6
5.328685e-001 -1.351204e+000 2.762051e+000 42 52 8
4.719649e-001 -1.447376e+000 2.942535e+000 186 115 93
5.911798e-001 -1.560061e+000 2.958413e+000 220 61 69
5.786921e-001 -1.566906e+000 2.982012e+000 159 23 29
5.228515e-001 -1.539487e+000 3.017413e+000 198 46 47
5.228515e-001 -1.539487e+000 3.017413e+000 198 46 47
5.830595e-001 -1.571547e+000 2.991733e+000 164 24 34
5.539892e-001 -1.581643e+000 3.034671e+000 113 62 45
5.236848e-001 -1.608285e+000 3.085939e+000 173 118 85
5.176612e-001 -1.354446e+000 2.798500e+000 69 104 101
5.362315e-001 -1.479598e+000 2.932515e+000 65 36 23
5.154320e-001 -1.548547e+000 3.028711e+000 152 25 37
5.077533e-001 -1.511118e+000 2.987399e+000 196 121 93
5.047648e-001 -1.549489e+000 3.032702e+000 148 19 30
5.235758e-001 -1.569594e+000 3.047072e+000 185 110 88
5.324400e-001 -1.576324e+000 3.043043e+000 189 112 85
5.728219e-001 -1.595905e+000 3.031072e+000 195 131 87
5.531127e-001 -1.581206e+000 3.039531e+000 197 118 79
5.329843e-001 -1.424518e+000 2.874952e+000 191 117 77
5.615452e-001 -1.553100e+000 3.001376e+000 167 25 32
4.836729e-001 -1.279195e+000 2.724484e+000 25 91 123
5.386511e-001 -1.653881e+000 3.118833e+000 91 39 30
6.195023e-001 -1.677785e+000 3.062341e+000 43 14 10
5.704615e-001 -1.660880e+000 3.096145e+000 170 125 93
5.515277e-001 -1.663944e+000 3.113224e+000 136 75 45
4.936408e-001 -1.649873e+000 3.148288e+000 41 14 26
-1.739156e-001 -2.350958e+000 1.988997e+000 97 80 60
-1.972520e-001 -2.309082e+000 1.995830e+000 120 99 76
-1.923217e-001 -2.335547e+000 2.014164e+000 68 56 56
-1.488607e-001 -2.362454e+000 1.974355e+000 93 80 63
7.053126e-001 -9.009678e-001 3.274174e+000 43 27 27
4.462249e-001 -1.500536e+000 2.993768e+000 178 42 48
5.360720e-001 -1.464723e+000 2.919822e+000 194 124 87
4.974762e-001 -1.510418e+000 2.996337e+000 66 32 26
5.311189e-001 -1.577325e+000 3.049891e+000 196 125 90
5.031766e-001 -1.395877e+000 2.763670e+000 50 101 98
5.548519e-001 -1.605655e+000 3.060086e+000 174 120 75
5.181732e-001 -1.325157e+000 2.752146e+000 38 50 14
5.303096e-001 -1.348260e+000 2.770250e+000 37 49 15
5.318081e-001 -1.557182e+000 3.028443e+000 190 39 36
5.355038e-001 -1.516115e+000 2.977889e+000 160 97 66
5.369120e-001 -1.569683e+000 3.036704e+000 107 50 31
5.369120e-001 -1.569683e+000 3.036704e+000 107 50 31
4.932939e-001 -1.369186e+000 2.836476e+000 34 56 22
4.593158e-001 -1.297758e+000 2.778873e+000 190 130 87
4.595529e-001 -1.299388e+000 2.777227e+000 190 130 87
4.970434e-001 -1.338782e+000 2.794313e+000 63 95 73
4.434122e-001 -1.511230e+000 2.998146e+000 180 35 42
7.289343e-001 -9.322021e-001 3.286359e+000 39 34 41
4.363739e-001 -1.501079e+000 2.982631e+000 165 52 56
4.078206e-001 -1.396472e+000 2.883341e+000 154 165 170
5.320996e-001 -1.642436e+000 3.113880e+000 128 99 76
5.388012e-001 -1.621893e+000 3.086431e+000 192 145 97
5.249416e-001 -1.429970e+000 2.886628e+000 26 72 98
3.186515e-001 -1.432879e+000 2.769786e+000 36 56 28
5.173438e-001 -1.344497e+000 2.789351e+000 27 42 0
3.554770e-001 -1.406353e+000 2.813181e+000 39 55 23
3.700202e-001 -1.500870e+000 2.901150e+000 102 26 33
3.824117e-001 -1.485491e+000 2.909711e+000 234 130 129
3.824117e-001 -1.485491e+000 2.909711e+000 234 130 129
3.821140e-001 -1.498312e+000 2.907978e+000 118 28 34
3.841935e-001 -1.495149e+000 2.910036e+000 215 121 117
3.606520e-001 -1.531483e+000 2.910013e+000 44 78 128
3.807636e-001 -1.532440e+000 2.923411e+000 98 129 173
4.860987e-001 -1.491097e+000 2.975313e+000 173 108 80
4.973161e-001 -1.534324e+000 3.023347e+000 183 57 54
5.522508e-001 -1.563939e+000 3.017043e+000 192 59 54
3.321961e-001 -1.435951e+000 2.795946e+000 34 57 36
3.326847e-001 -1.456850e+000 2.813129e+000 140 163 79
3.409782e-001 -1.499080e+000 2.849661e+000 127 112 115
5.139433e-001 -1.533083e+000 3.010508e+000 217 83 76
4.434038e-001 -1.545138e+000 3.018463e+000 26 77 130
5.484269e-001 -1.558006e+000 3.016958e+000 130 26 29
4.512278e-001 -1.609142e+000 3.072857e+000 148 94 59
8.243029e-001 -2.069190e+000 1.945591e+000 108 86 63
8.039528e-001 -2.099613e+000 1.946377e+000 46 35 21
3.061740e-001 -1.379838e+000 2.714868e+000 148 145 166
3.119002e-001 -1.387451e+000 2.736011e+000 157 37 46
3.486101e-001 -1.338803e+000 2.752776e+000 158 31 45
3.290231e-001 -1.439729e+000 2.797148e+000 144 166 91
3.478341e-001 -1.424597e+000 2.802706e+000 150 161 54
3.466789e-001 -1.415181e+000 2.807578e+000 150 161 54
3.368024e-001 -1.487175e+000 2.842471e+000 135 115 110
3.368024e-001 -1.487175e+000 2.842471e+000 135 115 110
3.605099e-001 -1.468509e+000 2.855660e+000 160 151 157
3.839911e-001 -1.464593e+000 2.898336e+000 155 151 160
3.637935e-001 -1.514653e+000 2.901464e+000 174 58 66
5.256988e-001 -1.470112e+000 2.937881e+000 125 70 44
4.951045e-001 -1.465693e+000 2.952533e+000 122 79 57
4.652770e-001 -1.472778e+000 2.968629e+000 150 49 44
5.369956e-001 -1.521577e+000 2.984280e+000 98 59 37
5.346625e-001 -1.525365e+000 2.994373e+000 176 112 73
5.910851e-001 -1.579800e+000 2.999148e+000 133 86 44
5.429110e-001 -1.572846e+000 3.045229e+000 177 113 74
9.453372e-001 -2.156120e+000 2.117482e+000 62 50 25
3.450998e-001 -1.462763e+000 2.818872e+000 43 54 32
3.450998e-001 -1.462763e+000 2.818872e+000 43 54 32
5.197299e-001 -1.389910e+000 2.862535e+000 124 100 74
3.455174e-001 -1.526405e+000 2.863900e+000 134 30 27
3.549057e-001 -1.486323e+000 2.870886e+000 156 151 159
5.102118e-001 -1.417826e+000 2.892898e+000 128 20 24
4.844244e-001 -1.445515e+000 2.934977e+000 124 64 39
3.811263e-001 -1.515127e+000 2.928455e+000 92 130 180
3.991888e-001 -1.518969e+000 2.951661e+000 177 121 104
4.738102e-001 -1.485553e+000 2.979507e+000 176 108 86
4.162613e-001 -1.563956e+000 3.000819e+000 183 125 111
3.870713e-001 -1.637245e+000 3.003187e+000 148 129 116
5.548656e-001 -1.595647e+000 3.047671e+000 132 43 21
4.851149e-001 -1.324767e+000 2.793013e+000 61 80 29
5.579826e-001 -1.376740e+000 2.772417e+000 60 94 95
3.715939e-001 -1.360904e+000 2.812923e+000 33 56 21
5.089721e-001 -1.353010e+000 2.814737e+000 95 102 35
4.708588e-001 -1.408392e+000 2.904295e+000 198 128 93
4.854024e-001 -1.412588e+000 2.898233e+000 166 94 75
3.691398e-001 -1.480352e+000 2.885874e+000 149 47 45
3.816342e-001 -1.493177e+000 2.901729e+000 140 23 31
4.009584e-001 -1.501519e+000 2.945544e+000 66 105 151
4.555550e-001 -1.536115e+000 3.021972e+000 161 128 105
8.546202e-001 -2.015953e+000 1.984249e+000 45 36 29
3.423152e-001 -1.388133e+000 2.769773e+000 151 159 146
5.033055e-001 -1.332537e+000 2.790972e+000 23 50 17
4.969323e-001 -1.338677e+000 2.795885e+000 61 86 54
3.582056e-001 -1.390842e+000 2.810207e+000 26 55 33
5.153899e-001 -1.353741e+000 2.800407e+000 68 93 75
3.725014e-001 -1.383620e+000 2.827945e+000 152 154 151
3.727929e-001 -1.381833e+000 2.828424e+000 152 154 151
3.696220e-001 -1.397168e+000 2.827360e+000 24 57 28
4.651899e-001 -1.416587e+000 2.900192e+000 142 18 24
3.980039e-001 -1.435780e+000 2.902196e+000 186 141 146
3.823328e-001 -1.516594e+000 2.918436e+000 92 32 62
4.888857e-001 -1.549253e+000 3.037112e+000 139 20 28
5.204765e-001 -1.547669e+000 3.023059e+000 141 20 25
3.275734e-001 -1.424737e+000 2.785644e+000 155 157 154
3.401320e-001 -1.414810e+000 2.789393e+000 27 61 34
3.581377e-001 -1.394177e+000 2.797875e+000 152 154 151
3.585044e-001 -1.394710e+000 2.808520e+000 25 54 32
3.640155e-001 -1.403831e+000 2.816654e+000 155 157 152
3.631404e-001 -1.540908e+000 2.915311e+000 98 58 73
8.242880e-001 -2.040690e+000 1.945513e+000 201 171 111
9.593717e-001 -2.202949e+000 2.258852e+000 192 166 107
4.096144e-001 -1.458177e+000 2.934229e+000 146 23 28
4.772885e-001 -1.600036e+000 3.075537e+000 162 128 101
5.530344e-001 -1.474947e+000 2.895556e+000 180 111 72
5.818315e-001 -1.582708e+000 2.988674e+000 196 52 49
5.972426e-001 -1.597797e+000 2.996938e+000 178 123 74
4.700230e-001 -1.545232e+000 3.027742e+000 160 128 103
3.183970e-001 -1.397267e+000 2.717972e+000 192 125 121
3.861157e-001 -1.343959e+000 2.791572e+000 113 134 164
4.838127e-001 -1.666323e+000 3.058835e+000 164 130 104
6.316405e-001 -1.362319e+000 2.742316e+000 82 108 112
6.710221e-001 -1.603280e+000 2.997468e+000 169 124 85
6.386034e-001 -1.584840e+000 2.958333e+000 174 118 62
6.335996e-001 -1.227439e+000 2.685175e+000 207 183 147
6.371518e-001 -1.236294e+000 2.683749e+000 212 182 140
6.442888e-001 -1.311959e+000 2.727042e+000 213 134 109
5.656948e-001 -1.410351e+000 2.788071e+000 100 96 70
7.128562e-001 -1.399257e+000 2.901358e+000 183 136 106
7.128562e-001 -1.399257e+000 2.901358e+000 183 136 106
5.879199e-001 -1.480109e+000 2.848112e+000 33 73 104
6.782723e-001 -1.458795e+000 2.884022e+000 215 140 115
5.726995e-001 -1.496877e+000 2.878973e+000 138 82 63
5.726995e-001 -1.496877e+000 2.878973e+000 138 82 63
6.743860e-001 -1.463713e+000 2.880114e+000 219 139 108
6.773021e-001 -1.464326e+000 2.886007e+000 130 24 28
6.773021e-001 -1.464326e+000 2.886007e+000 130 24 28
7.003540e-001 -1.463676e+000 2.920727e+000 38 62 71
7.050101e-001 -1.458398e+000 2.924163e+000 37 55 64
6.748025e-001 -1.490997e+000 2.904094e+000 36 65 82
6.707173e-001 -1.494693e+000 2.902176e+000 128 153 159
5.744088e-001 -1.525516e+000 2.906153e+000 192 131 100
5.764821e-001 -1.524318e+000 2.906489e+000 134 88 62
5.800372e-001 -1.528736e+000 2.910630e+000 195 136 101
6.993880e-001 -1.490295e+000 2.939026e+000 135 81 94
6.993880e-001 -1.490295e+000 2.939026e+000 135 81 94
6.665323e-001 -1.519732e+000 2.917466e+000 177 92 96
6.700842e-001 -1.520456e+000 2.920847e+000 151 80 81
6.374319e-001 -1.543996e+000 2.915638e+000 84 36 39
6.482695e-001 -1.536085e+000 2.912201e+000 172 85 80
6.482951e-001 -1.536113e+000 2.911933e+000 172 85 80
6.744833e-001 -1.530744e+000 2.934718e+000 91 55 62
6.810381e-001 -1.524469e+000 2.938114e+000 80 56 60
7.222885e-001 -1.497521e+000 2.991042e+000 40 67 82
7.228372e-001 -1.497494e+000 2.989042e+000 40 67 82
7.253347e-001 -1.494730e+000 2.994255e+000 62 96 123
7.147828e-001 -1.532783e+000 2.998330e+000 175 110 93
7.141226e-001 -1.548453e+000 2.989281e+000 109 75 76
6.469610e-001 -1.582451e+000 2.956952e+000 115 53 58
7.291818e-001 -1.544801e+000 3.034626e+000 131 79 40
6.541987e-001 -1.596229e+000 2.972040e+000 121 75 81
6.112528e-001 -1.235161e+000 2.677354e+000 221 186 151
6.325728e-001 -1.238820e+000 2.683380e+000 216 184 143
5.122525e-001 -1.323333e+000 2.735319e+000 179 49 47
6.515364e-001 -1.295041e+000 2.729205e+000 205 149 106
6.569671e-001 -1.292668e+000 2.735281e+000 157 35 44
6.460111e-001 -1.312695e+000 2.730622e+000 168 38 50
6.564918e-001 -1.296126e+000 2.739628e+000 160 37 37
6.564918e-001 -1.296126e+000 2.739628e+000 160 37 37
7.147515e-001 -1.346493e+000 2.875881e+000 88 88 64
5.764893e-001 -1.526432e+000 2.912270e+000 197 134 101
6.688257e-001 -1.509230e+000 2.909276e+000 157 67 50
6.561194e-001 -1.525467e+000 2.908639e+000 88 37 36
6.553207e-001 -1.532745e+000 2.915311e+000 171 88 85
6.999962e-001 -1.507250e+000 2.952113e+000 84 62 70
7.030623e-001 -1.555456e+000 2.995040e+000 101 71 73
6.329173e-001 -1.594028e+000 2.961915e+000 135 83 34
6.732172e-001 -1.584004e+000 2.978629e+000 117 78 81
7.329320e-001 -1.549157e+000 3.066411e+000 140 103 70
5.230447e-001 -1.212544e+000 2.690899e+000 212 107 104
6.294655e-001 -1.235824e+000 2.680614e+000 214 183 145
6.494089e-001 -1.449774e+000 2.839781e+000 170 143 116
6.369671e-001 -1.463127e+000 2.835765e+000 185 143 115
6.460096e-001 -1.463544e+000 2.847844e+000 175 145 116
6.590407e-001 -1.458160e+000 2.856260e+000 169 147 116
6.612619e-001 -1.516862e+000 2.913314e+000 164 71 58
6.770901e-001 -1.526058e+000 2.935247e+000 84 59 65
7.051373e-001 -1.519939e+000 2.971937e+000 95 70 73
6.541717e-001 -1.563793e+000 2.943027e+000 168 110 106
7.158831e-001 -1.542860e+000 3.003445e+000 79 52 47
5.949446e-001 -1.639800e+000 3.023239e+000 170 78 41
5.286891e-001 -1.223890e+000 2.696456e+000 156 134 113
6.480191e-001 -1.297758e+000 2.722466e+000 174 35 35
7.262163e-001 -1.491188e+000 2.999256e+000 34 59 80
5.941823e-001 -1.566168e+000 2.944949e+000 197 137 103
5.891700e-001 -1.568481e+000 2.948974e+000 161 33 41
6.622352e-001 -1.629200e+000 3.005828e+000 162 124 83
6.406803e-001 -1.700337e+000 3.063134e+000 215 103 42
6.136279e-001 -1.240342e+000 2.676571e+000 151 124 93
6.136279e-001 -1.240342e+000 2.676571e+000 151 124 93
5.155040e-001 -1.357749e+000 2.771482e+000 32 60 42
6.562289e-001 -1.371796e+000 2.787864e+000 169 151 47
6.611995e-001 -1.372525e+000 2.793278e+000 30 56 28
6.465521e-001 -1.416711e+000 2.805833e+000 162 149 92
6.465300e-001 -1.416682e+000 2.805486e+000 162 149 92
6.951356e-001 -1.400301e+000 2.863695e+000 162 148 114
6.951356e-001 -1.400301e+000 2.863695e+000 162 148 114
6.776890e-001 -1.418107e+000 2.847910e+000 158 146 118
7.097840e-001 -1.402029e+000 2.899948e+000 169 114 88
7.097840e-001 -1.402029e+000 2.899948e+000 169 114 88
6.953692e-001 -1.420829e+000 2.883877e+000 160 147 115
6.941523e-001 -1.427581e+000 2.881790e+000 175 36 36
5.866074e-001 -1.488062e+000 2.859220e+000 17 78 123
6.713128e-001 -1.572288e+000 2.967498e+000 147 108 96
4.724964e-001 -1.686485e+000 3.076263e+000 51 39 49
6.606229e-001 -1.356590e+000 2.781831e+000 31 57 29
6.606229e-001 -1.356590e+000 2.781831e+000 31 57 29
7.040132e-001 -1.336537e+000 2.845602e+000 109 124 111
6.949197e-001 -1.401012e+000 2.865137e+000 167 146 113
7.110298e-001 -1.449493e+000 2.935234e+000 38 65 78
7.117470e-001 -1.449588e+000 2.932715e+000 38 65 78
6.908392e-001 -1.539673e+000 2.963472e+000 28 12 18
6.532638e-001 -1.357322e+000 2.773840e+000 169 148 103
6.532638e-001 -1.357322e+000 2.773840e+000 169 148 103
6.844117e-001 -1.343788e+000 2.809065e+000 168 151 96
6.875830e-001 -1.343166e+000 2.829593e+000 31 54 34
6.875830e-001 -1.343166e+000 2.829593e+000 31 54 34
6.820425e-001 -1.519271e+000 2.941498e+000 79 57 59
7.106752e-001 -1.518202e+000 2.981099e+000 158 123 101
5.591979e-001 -1.568682e+000 2.973531e+000 164 37 46
6.655857e-001 -1.572288e+000 2.963304e+000 134 96 86
7.321629e-001 -1.553783e+000 3.063688e+000 146 103 60
6.741530e-001 -1.617828e+000 3.011221e+000 159 113 80
6.305056e-001 -1.374946e+000 2.753872e+000 161 145 105
6.305056e-001 -1.374946e+000 2.753872e+000 161 145 105
6.497342e-001 -1.430420e+000 2.825827e+000 159 145 117
7.288215e-001 -1.566681e+000 3.053766e+000 46 16 19
6.459255e-001 -1.377731e+000 2.772019e+000 165 147 112
5.922468e-001 -1.651941e+000 3.047749e+000 165 128 101
6.124215e-001 -1.669168e+000 3.048411e+000 147 83 50
5.133765e-001 -1.402870e+000 2.839663e+000 160 157 138
5.400924e-001 -1.230300e+000 2.695447e+000 227 204 173
5.895709e-001 -1.671596e+000 3.058433e+000 38 26 36
5.796679e-001 -1.604748e+000 3.019335e+000 196 142 99
7.080150e-001 -1.595188e+000 3.049629e+000 155 113 73
7.080150e-001 -1.595188e+000 3.049629e+000 155 113 73
4.784379e-001 -1.622919e+000 3.109713e+000 135 83 59
3.588753e-001 -1.346094e+000 2.774779e+000 26 49 20
3.812627e-001 -1.376910e+000 2.840690e+000 126 148 49
3.812627e-001 -1.376910e+000 2.840690e+000 126 148 49
4.536302e-001 -1.616495e+000 3.084504e+000 86 31 29
4.956457e-001 -1.648710e+000 3.132346e+000 185 155 127
4.958537e-001 -1.648279e+000 3.137371e+000 200 141 119
4.777966e-001 -1.361689e+000 2.842341e+000 133 140 35
5.088281e-001 -1.399165e+000 2.867179e+000 150 132 104
4.287837e-001 -1.456516e+000 2.947603e+000 149 153 157
5.376192e-001 -1.524495e+000 2.990901e+000 130 83 65
5.372393e-001 -1.534359e+000 2.999859e+000 186 54 49
5.234936e-001 -1.557124e+000 3.032625e+000 184 59 51
5.319526e-001 -1.557893e+000 3.028037e+000 186 61 51
5.483036e-001 -1.577623e+000 3.038160e+000 105 61 36
5.483036e-001 -1.577623e+000 3.038160e+000 105 61 36
5.567570e-001 -1.608076e+000 3.064219e+000 157 107 58
5.242020e-001 -1.609239e+000 3.080523e+000 158 122 74
5.204883e-001 -1.572289e+000 3.048983e+000 179 114 84
3.979248e-001 -1.727582e+000 3.047399e+000 169 121 111
5.173710e-001 -1.605744e+000 3.086157e+000 61 37 10
8.433948e-001 -1.982832e+000 1.939811e+000 32 22 21
8.578576e-001 -2.022913e+000 1.961014e+000 29 20 13
3.915899e-001 -1.456710e+000 2.904220e+000 161 153 161
4.843622e-001 -1.505307e+000 3.001084e+000 152 101 72
6.159964e-001 -1.667457e+000 3.069204e+000 54 17 1
5.214323e-001 -1.643326e+000 3.118818e+000 49 33 19
3.867476e-001 -1.384234e+000 2.850543e+000 104 131 123
4.009919e-001 -1.501556e+000 2.945569e+000 66 105 151
4.833409e-001 -1.530472e+000 3.019834e+000 128 19 30
5.840002e-001 -1.595357e+000 3.197751e+000 41 30 28
4.019019e-001 -1.718237e+000 3.050036e+000 131 94 84
4.489563e-001 -1.641743e+000 3.086871e+000 163 130 110
8.177917e-001 -2.020599e+000 1.933195e+000 207 171 113
8.177917e-001 -2.020599e+000 1.933195e+000 207 171 113
5.016143e-001 -1.648173e+000 3.130766e+000 176 150 123
8.373588e-001 -1.982394e+000 1.888864e+000 215 179 119
6.245318e-001 -1.590446e+000 3.183272e+000 131 109 88
6.496865e-001 -2.123072e+000 1.730224e+000 132 105 76
8.579547e-001 -1.985741e+000 1.917481e+000 31 21 20
6.018654e-001 -1.664054e+000 3.095265e+000 33 21 21
5.926367e-001 -1.621317e+000 3.138700e+000 36 26 27
4.857267e-001 -1.494636e+000 2.985670e+000 101 53 33
5.491465e-001 -1.528931e+000 2.989949e+000 137 26 17
5.145790e-001 -1.534189e+000 3.015928e+000 175 51 48
4.959166e-001 -1.544204e+000 3.030378e+000 134 36 31
4.947180e-001 -1.556728e+000 3.044134e+000 185 53 57
5.278258e-001 -1.608499e+000 3.081551e+000 72 49 20
4.949491e-001 -1.305457e+000 2.754847e+000 157 34 28
4.880711e-001 -1.301354e+000 2.759874e+000 157 34 30
4.880711e-001 -1.301354e+000 2.759874e+000 157 34 30
4.700812e-001 -1.306271e+000 2.775155e+000 136 41 30
5.671330e-001 -1.465052e+000 2.884459e+000 132 77 50
5.237633e-001 -1.461907e+000 2.930959e+000 123 74 44
5.698585e-001 -1.489485e+000 2.914206e+000 127 74 38
3.872504e-001 -1.522702e+000 2.928577e+000 29 75 134
5.081832e-001 -1.487946e+000 2.969203e+000 110 61 36
5.369357e-001 -1.490030e+000 2.956048e+000 110 62 35
5.152917e-001 -1.494471e+000 2.973514e+000 106 65 37
5.152917e-001 -1.494471e+000 2.973514e+000 106 65 37
4.496789e-001 -1.497488e+000 2.988718e+000 171 77 70
4.912348e-001 -1.520469e+000 3.011242e+000 113 66 46
5.256992e-001 -1.609563e+000 3.084640e+000 148 113 67
4.584425e-001 -1.297086e+000 2.771742e+000 153 32 31
4.573940e-001 -1.294601e+000 2.773795e+000 153 32 31
3.599574e-001 -1.348688e+000 2.774739e+000 33 50 24
3.599574e-001 -1.348688e+000 2.774739e+000 33 50 24
3.613579e-001 -1.469883e+000 2.854057e+000 159 151 162
3.436253e-001 -1.515714e+000 2.842460e+000 128 109 115
3.580672e-001 -1.507779e+000 2.868715e+000 150 37 47
4.102206e-001 -1.439360e+000 2.918377e+000 160 153 162
5.271794e-001 -1.451292e+000 2.914545e+000 84 43 21
5.271794e-001 -1.451292e+000 2.914545e+000 84 43 21
5.292579e-001 -1.455452e+000 2.916797e+000 174 110 74
5.306630e-001 -1.467380e+000 2.931121e+000 173 109 69
4.999103e-001 -1.487093e+000 2.972668e+000 103 59 36
5.412273e-001 -1.521625e+000 2.985516e+000 182 114 79
5.619394e-001 -1.658463e+000 3.103068e+000 135 102 73
3.741830e-001 -1.416689e+000 2.847531e+000 145 165 103
3.672027e-001 -1.487974e+000 2.875926e+000 161 148 163
5.307088e-001 -1.473486e+000 2.939435e+000 180 112 73
4.631114e-001 -1.491732e+000 2.987110e+000 163 73 64
5.147376e-001 -1.564327e+000 3.047871e+000 114 66 44
5.147376e-001 -1.564327e+000 3.047871e+000 114 66 44
5.549376e-001 -1.583938e+000 3.038602e+000 180 107 67
3.526582e-001 -1.381359e+000 2.785667e+000 142 163 96
3.541246e-001 -1.410790e+000 2.804784e+000 153 158 90
3.865625e-001 -1.465663e+000 2.902589e+000 157 38 36
4.204216e-001 -1.460423e+000 2.943806e+000 160 153 159
4.321094e-001 -1.461114e+000 2.950249e+000 153 43 42
4.846054e-001 -1.336553e+000 2.811373e+000 25 50 20
5.105281e-001 -1.369304e+000 2.829437e+000 30 46 16
3.603613e-001 -1.436131e+000 2.829167e+000 156 152 151
3.603613e-001 -1.436131e+000 2.829167e+000 156 152 151
4.769019e-001 -1.529895e+000 3.023714e+000 162 126 99
5.698620e-001 -1.460141e+000 2.868989e+000 28 68 86
5.125766e-001 -1.451427e+000 2.920349e+000 175 109 81
6.270610e-001 -1.354144e+000 2.736547e+000 96 105 83
6.343324e-001 -1.469053e+000 2.840175e+000 117 71 56
6.288940e-001 -1.228221e+000 2.684271e+000 213 183 144
6.288940e-001 -1.228221e+000 2.684271e+000 213 183 144
6.406173e-001 -1.346272e+000 2.745601e+000 64 101 103
5.849034e-001 -1.554966e+000 2.936170e+000 195 141 107
6.593731e-001 -1.554603e+000 2.936607e+000 109 61 67
6.006473e-001 -1.592870e+000 2.966851e+000 218 61 71
6.614342e-001 -1.627200e+000 3.007347e+000 167 121 84
6.019659e-001 -1.573069e+000 2.943829e+000 160 29 41
3.867274e-001 -1.572755e+000 3.081617e+000 60 48 52
6.958132e-001 -1.393363e+000 2.866925e+000 170 35 41
6.984682e-001 -1.456049e+000 2.921202e+000 19 65 92
3.152194e-001 -1.061942e+000 3.128329e+000 152 124 102
2.927678e-001 -1.086931e+000 3.106097e+000 130 103 86
6.094728e-001 -1.239561e+000 2.674630e+000 94 67 50
2.835009e-001 -1.060177e+000 3.090098e+000 148 119 103
6.420509e-001 -1.490662e+000 2.868027e+000 156 26 36
4.676112e-001 -2.326653e+000 1.587363e+000 144 110 64
4.687731e-001 -1.293642e+000 2.639862e+000 162 67 45
4.301977e-001 -1.466839e+000 2.954824e+000 181 54 61
5.000103e-001 -1.545862e+000 3.031373e+000 184 58 52
4.760847e-001 -1.445452e+000 2.937944e+000 95 57 38
5.591510e-001 -1.572412e+000 3.023620e+000 139 90 55
4.651165e-001 -1.487567e+000 2.982235e+000 163 76 59
5.604105e-001 -1.321934e+000 2.671328e+000 31 24 13
5.053728e-001 -1.413675e+000 2.883956e+000 136 20 21
6.081389e-001 -1.599287e+000 3.188010e+000 134 108 93
3.101261e-001 -1.393986e+000 2.713179e+000 229 158 155
3.101826e-001 -1.394034e+000 2.713075e+000 229 158 155
3.173841e-001 -1.381385e+000 2.722926e+000 233 155 149
3.184802e-001 -1.384332e+000 2.721554e+000 233 155 149
3.213604e-001 -1.376305e+000 2.726954e+000 217 148 143
3.317590e-001 -1.362065e+000 2.738154e+000 240 156 153
3.485687e-001 -1.333015e+000 2.755343e+000 167 169 201
3.242965e-001 -1.377218e+000 2.732899e+000 202 151 141
3.258259e-001 -1.375547e+000 2.735017e+000 134 55 56
3.258215e-001 -1.375597e+000 2.735068e+000 134 55 56
3.463688e-001 -1.348703e+000 2.749530e+000 217 154 140
3.459818e-001 -1.363966e+000 2.752707e+000 155 39 46
3.519184e-001 -1.339268e+000 2.758682e+000 164 150 169
4.781965e-001 -1.302708e+000 2.775811e+000 146 49 29
3.190859e-001 -1.429566e+000 2.745443e+000 86 122 139
3.251177e-001 -1.410865e+000 2.751546e+000 67 115 155
3.692425e-001 -1.357018e+000 2.808437e+000 38 66 31
3.398449e-001 -1.429230e+000 2.796585e+000 145 159 53
3.398449e-001 -1.429230e+000 2.796585e+000 145 159 53
3.557345e-001 -1.431898e+000 2.823930e+000 29 64 31
3.507500e-001 -1.510598e+000 2.859550e+000 199 139 142
3.507500e-001 -1.510598e+000 2.859550e+000 199 139 142
4.539018e-001 -1.413002e+000 2.915327e+000 70 37 60
3.703473e-001 -1.514513e+000 2.894244e+000 215 154 139
3.736873e-001 -1.513429e+000 2.908085e+000 122 31 34
3.756533e-001 -1.517738e+000 2.906607e+000 122 31 34
3.823147e-001 -1.489807e+000 2.908298e+000 224 150 139
3.831147e-001 -1.491518e+000 2.907576e+000 224 150 139
3.628205e-001 -1.548532e+000 2.902002e+000 35 75 127
3.994607e-001 -1.507448e+000 2.942708e+000 43 75 119
3.987304e-001 -1.506067e+000 2.943467e+000 43 75 119
4.064969e-001 -1.496079e+000 2.947679e+000 97 163 235
4.048443e-001 -1.500148e+000 2.949280e+000 33 79 131
4.075214e-001 -1.495176e+000 2.951153e+000 27 78 127
4.075214e-001 -1.495176e+000 2.951153e+000 27 78 127
