ply
format ascii 1.0
element face 0
property list uchar int vertex_indices
element vertex 518
property float x
property float y
property float z
property uchar diffuse_red
property uchar diffuse_green
property uchar diffuse_blue
end_header
1.338261e-001 -6.943534e-001 2.655960e+000 172 39 52
1.671601e-001 -8.193205e-001 2.753724e+000 37 55 32
1.561582e-001 -8.280037e-001 2.786666e+000 38 52 27
1.249921e-001 -7.506454e-001 2.747180e+000 28 55 40
1.300384e-001 -7.604354e-001 2.747668e+000 135 139 46
1.745973e-001 -8.883588e-001 2.835171e+000 151 32 42
1.481177e-001 -6.936411e-001 2.635621e+000 164 37 42
9.617760e-002 -6.671980e-001 2.685696e+000 173 37 49
1.868811e-001 -8.230367e-001 2.726058e+000 146 150 114
1.769845e-001 -8.113553e-001 2.730628e+000 28 58 35
1.526304e-001 -7.797543e-001 2.727190e+000 35 54 33
2.185733e-001 -8.822904e-001 2.753351e+000 155 144 131
2.084140e-001 -7.728663e-001 2.645215e+000 30 53 25
2.614648e-001 -8.559718e-001 2.683407e+000 28 51 29
2.155808e-001 -8.357590e-001 2.705535e+000 113 124 81
2.155808e-001 -8.357590e-001 2.705535e+000 113 124 81
2.051638e-001 -7.828952e-001 2.656333e+000 143 155 38
2.297715e-001 -8.161324e-001 2.673415e+000 29 54 40
3.872661e-001 -1.249794e+000 2.989066e+000 123 39 29
3.623299e-001 -1.263086e+000 3.033365e+000 146 70 35
4.164185e-001 -1.334352e+000 3.069717e+000 138 75 37
3.386824e-001 -1.140644e+000 2.918397e+000 140 25 37
3.590234e-001 -1.270559e+000 3.048491e+000 37 27 21
1.635860e-001 -7.612426e-001 2.685106e+000 24 57 45
1.627590e-001 -7.842120e-001 2.704132e+000 72 111 134
1.654785e-001 -7.192980e-001 2.637264e+000 175 35 40
2.390214e-001 -8.504540e-001 2.697961e+000 30 56 21
1.278806e-001 -6.838828e-001 2.654825e+000 178 41 55
2.022450e-001 -7.992751e-001 2.677531e+000 131 139 34
3.564255e-001 -1.134776e+000 2.895805e+000 185 121 98
3.655645e-001 -1.205981e+000 2.963400e+000 116 75 60
3.357708e-001 -1.197773e+000 2.981053e+000 182 127 106
3.233736e-001 -1.190588e+000 2.993222e+000 187 114 101
4.398769e-001 -1.349279e+000 3.061547e+000 146 76 51
2.088843e-001 -7.890855e-001 2.661727e+000 49 97 110
2.088743e-001 -7.890052e-001 2.661705e+000 49 97 110
1.595098e-001 -7.008667e-001 2.624543e+000 173 39 40
1.400167e-001 -7.091890e-001 2.661556e+000 165 44 55
4.587957e-001 -1.360858e+000 3.055128e+000 151 80 56
1.403920e-001 -7.717836e-001 2.746910e+000 31 58 33
1.516392e-001 -6.982585e-001 2.634279e+000 222 135 101
1.679986e-001 -7.268099e-001 2.633686e+000 146 162 155
2.750098e-001 -9.423353e-001 2.766439e+000 204 138 106
2.282658e-001 -9.272056e-001 2.792137e+000 193 126 106
3.833203e-001 -1.169558e+000 2.912142e+000 128 32 36
3.793864e-001 -1.257782e+000 3.008988e+000 123 65 27
4.477920e-001 -1.349777e+000 3.052420e+000 164 91 57
2.188647e-001 -7.908779e-001 2.655496e+000 27 52 33
2.005000e-001 -7.913835e-001 2.672385e+000 34 59 38
2.305319e-001 -8.092036e-001 2.662235e+000 148 153 33
2.305319e-001 -8.092036e-001 2.662235e+000 148 153 33
1.595098e-001 -7.008667e-001 2.624543e+000 173 39 40
2.686580e-001 -9.447198e-001 2.772416e+000 177 112 87
2.935718e-001 -9.770677e-001 2.784388e+000 13 50 79
2.070728e-001 -8.144565e-001 2.689486e+000 92 109 53
2.070728e-001 -8.144565e-001 2.689486e+000 92 109 53
1.232729e-001 -7.443766e-001 2.733790e+000 124 137 92
2.219824e-001 -8.775164e-001 2.745605e+000 108 28 39
4.424497e-001 -1.306704e+000 3.019884e+000 94 73 70
4.649418e-001 -1.356884e+000 3.047266e+000 171 91 54
3.509108e-001 -1.141498e+000 2.904041e+000 177 117 95
3.650874e-001 -1.205661e+000 2.962321e+000 116 75 60
4.121772e-001 -1.305218e+000 3.032399e+000 180 145 132
2.092833e-001 -7.662593e-001 2.637289e+000 110 125 47
3.154631e-001 -1.185983e+000 2.996046e+000 183 115 104
4.271503e-001 -1.336998e+000 3.060398e+000 155 87 48
1.867292e-001 -8.157233e-001 2.707784e+000 28 55 36
2.046930e-001 -8.727696e-001 2.763084e+000 172 136 127
4.599450e-001 -1.343218e+000 3.036686e+000 171 90 43
1.483259e-001 -7.996523e-001 2.762917e+000 29 55 35
3.295660e-001 -9.972842e-001 2.770783e+000 8 72 110
3.743713e-001 -1.146771e+000 2.895722e+000 177 122 101
3.987106e-001 -1.272848e+000 3.003518e+000 83 21 6
2.238237e-001 -8.917377e-001 2.757156e+000 169 136 122
4.477920e-001 -1.349777e+000 3.052420e+000 164 91 57
3.236840e-001 -1.049388e+000 2.836621e+000 177 110 93
3.901337e-001 -1.156424e+000 2.893373e+000 144 23 34
1.488754e-001 -7.732836e-001 2.726141e+000 116 133 63
1.488754e-001 -7.732836e-001 2.726141e+000 116 133 63
3.572484e-001 -1.264595e+000 3.044388e+000 184 135 100
4.205774e-001 -1.314956e+000 3.035898e+000 27 21 17
3.160111e-001 -1.020661e+000 2.809608e+000 53 20 11
3.682541e-001 -1.164694e+000 2.919455e+000 129 31 40
4.503518e-001 -1.315390e+000 3.013673e+000 178 142 144
1.645609e-001 -7.544290e-001 2.676418e+000 154 156 34
3.659259e-001 -1.157165e+000 2.909895e+000 137 26 39
3.470558e-001 -1.179746e+000 2.953347e+000 142 27 40
4.376360e-001 -1.315309e+000 3.024144e+000 176 147 142
3.364306e-001 -1.086011e+000 2.863993e+000 179 121 99
2.362894e-001 -1.054459e+000 2.945218e+000 182 121 110
2.156612e-001 -8.127460e-001 2.681827e+000 32 57 38
2.156612e-001 -8.127460e-001 2.681827e+000 32 57 38
2.491509e-001 -9.772897e-001 2.825234e+000 5 40 72
1.428135e-001 -7.188822e-001 2.670774e+000 17 85 136
1.408295e-001 -7.380043e-001 2.696803e+000 67 98 55
1.579916e-001 -7.885373e-001 2.728181e+000 23 56 32
3.040291e-001 -9.556669e-001 2.753850e+000 227 134 117
3.845217e-001 -1.177654e+000 2.915733e+000 140 27 44
2.447288e-001 -9.352906e-001 2.785099e+000 204 135 120
3.715650e-001 -1.160389e+000 2.907298e+000 130 32 37
3.874819e-001 -1.270526e+000 3.016637e+000 190 111 66
4.099879e-001 -1.276950e+000 3.000359e+000 66 14 4
4.689148e-001 -1.358085e+000 3.044895e+000 44 17 9
4.572603e-001 -1.278533e+000 2.975744e+000 177 96 31
4.242397e-001 -1.278251e+000 2.992013e+000 190 92 44
3.635850e-001 -1.258924e+000 3.025788e+000 167 81 41
3.151442e-001 -1.025047e+000 2.817839e+000 176 115 95
1.671882e-001 -8.194919e-001 2.753720e+000 37 55 32
1.057929e-001 -6.796346e-001 2.685981e+000 202 139 122
1.057929e-001 -6.796346e-001 2.685981e+000 202 139 122
1.373604e-001 -7.633727e-001 2.729788e+000 110 130 131
3.939854e-001 -1.263957e+000 3.000214e+000 132 50 28
3.915109e-001 -1.293494e+000 3.041759e+000 174 138 123
4.455960e-001 -1.193976e+000 2.910506e+000 126 82 36
1.151474e-001 -6.766609e-001 2.668075e+000 162 42 42
4.684344e-001 -1.229280e+000 2.936786e+000 28 26 42
4.037231e-001 -1.299788e+000 3.032977e+000 179 147 136
4.609744e-001 -1.317848e+000 3.009607e+000 22 11 14
1.913662e-001 -8.998057e-001 2.820110e+000 137 30 40
3.600384e-001 -1.209173e+000 2.968076e+000 187 125 104
1.479454e-001 -7.483647e-001 2.691371e+000 25 55 35
1.786579e-001 -8.044965e-001 2.714554e+000 95 120 49
1.786570e-001 -8.045921e-001 2.714639e+000 95 120 49
3.709810e-001 -1.269439e+000 3.020770e+000 148 74 39
4.413000e-001 -1.338321e+000 3.041107e+000 170 87 41
4.316389e-001 -1.274217e+000 2.982385e+000 177 86 40
4.337719e-001 -1.249477e+000 2.961023e+000 88 18 32
2.329371e-001 -8.303533e-001 2.687143e+000 33 54 35
4.539242e-001 -1.083571e+000 2.829618e+000 168 85 86
4.071623e-001 -1.273150e+000 3.000435e+000 172 69 42
2.088374e-001 -7.833486e-001 2.659878e+000 148 148 17
4.275071e-001 -1.037209e+000 2.791461e+000 162 147 118
4.295522e-001 -1.046279e+000 2.797745e+000 170 126 90
3.318986e-001 -1.090650e+000 2.869440e+000 86 53 40
3.808772e-001 -1.255220e+000 3.003347e+000 180 104 45
3.128790e-001 -1.233358e+000 3.067262e+000 159 137 113
3.521398e-001 -1.261977e+000 3.048035e+000 182 142 108
4.585145e-001 -1.322157e+000 3.015603e+000 176 141 140
3.635352e-001 -1.268742e+000 3.041402e+000 186 142 106
3.920248e-001 -1.284074e+000 3.026830e+000 194 104 52
3.191656e-001 -8.294334e-001 2.622322e+000 149 146 131
1.405975e-001 -7.441601e-001 2.712171e+000 25 55 38
2.973980e-001 -9.504947e-001 2.754392e+000 201 142 110
4.481006e-001 -1.074821e+000 2.823647e+000 88 43 38
4.599084e-001 -1.075937e+000 2.828841e+000 80 30 32
4.581627e-001 -1.190040e+000 2.906750e+000 132 89 44
4.727633e-001 -1.188704e+000 2.908631e+000 63 25 40
4.873728e-001 -1.212953e+000 2.932196e+000 32 28 43
4.927374e-001 -1.210429e+000 2.932700e+000 29 26 36
4.205774e-001 -1.314956e+000 3.035898e+000 27 21 17
1.695431e-001 -7.673614e-001 2.685672e+000 141 151 58
2.746692e-001 -9.428145e-001 2.765447e+000 204 138 106
4.622320e-001 -1.027282e+000 2.798900e+000 131 157 154
3.838051e-001 -1.161421e+000 2.908011e+000 132 28 35
3.827819e-001 -1.169276e+000 2.911761e+000 128 32 36
3.843630e-001 -8.698516e-001 2.660342e+000 33 59 34
4.366172e-001 -9.442669e-001 2.735904e+000 152 104 89
3.891907e-001 -1.175880e+000 2.912804e+000 230 82 98
3.079776e-001 -1.180121e+000 3.003832e+000 183 120 101
3.027612e-001 -1.181122e+000 3.006698e+000 127 82 72
4.317438e-001 -1.318769e+000 3.028780e+000 29 22 20
5.089124e-001 2.021746e-001 3.103108e+000 51 35 46
4.502847e-001 -1.187122e+000 2.904136e+000 124 78 36
3.382213e-001 -1.213310e+000 2.997913e+000 165 81 51
4.459846e-001 1.936759e-001 3.125631e+000 71 59 59
4.815890e-001 1.519953e-001 3.141681e+000 80 71 66
1.062902e-001 -7.025225e-001 2.692757e+000 120 130 91
2.005407e-001 -7.914604e-001 2.672478e+000 34 59 38
2.864704e-001 -9.410667e-001 2.756256e+000 141 23 37
4.517536e-001 -1.111499e+000 2.846053e+000 86 40 43
4.910670e-001 1.080284e-001 3.167485e+000 83 74 57
2.900416e-001 -9.511433e-001 2.759360e+000 131 71 53
4.657857e-001 -1.138666e+000 2.872517e+000 75 30 33
4.709533e-001 2.015321e-001 3.116138e+000 100 85 52
4.709533e-001 2.015321e-001 3.116138e+000 100 85 52
1.490755e-001 -7.890881e-001 2.746389e+000 120 136 131
1.568592e-001 -8.128828e-001 2.762435e+000 148 146 130
5.075450e-001 2.294564e-001 3.086376e+000 70 53 54
2.752328e-001 -8.282999e-001 2.644762e+000 55 102 128
2.964860e-001 -1.124189e+000 2.942242e+000 151 34 45
3.370939e-001 -8.002838e-001 2.601744e+000 161 153 130
3.168591e-001 -9.635221e-001 2.751012e+000 139 24 38
4.310417e-001 -6.344339e-001 2.568110e+000 167 150 130
3.539581e-001 -7.037192e-001 2.547528e+000 197 151 106
4.328479e-001 -6.608669e-001 2.587133e+000 162 43 46
5.098261e-001 -9.481457e-001 2.793172e+000 207 73 77
3.146679e-001 -1.023456e+000 2.813820e+000 177 111 94
4.641332e-001 -1.059011e+000 2.819121e+000 169 93 74
4.548111e-001 -1.090343e+000 2.835000e+000 173 92 99
4.928707e-001 -1.079785e+000 2.849325e+000 121 86 90
4.565594e-001 -1.139071e+000 2.868317e+000 77 41 37
3.609555e-001 -1.182086e+000 2.942234e+000 206 54 69
4.809526e-001 -1.187444e+000 2.908571e+000 69 34 40
5.023436e-001 -1.342442e+000 3.024648e+000 159 63 43
4.551194e-001 -1.351891e+000 3.045300e+000 163 84 47
3.476326e-001 -7.018028e-001 2.543567e+000 169 41 43
3.509418e-001 -7.440791e-001 2.555130e+000 155 163 143
3.506602e-001 -7.445726e-001 2.555613e+000 155 163 143
1.811887e-001 -7.655723e-001 2.661696e+000 35 57 29
3.424052e-001 -7.796792e-001 2.585821e+000 81 105 112
2.282658e-001 -9.272056e-001 2.792137e+000 193 126 106
4.549334e-001 -9.501934e-001 2.749330e+000 175 41 48
4.549334e-001 -9.501934e-001 2.749330e+000 175 41 48
4.488665e-001 -1.069450e+000 2.821042e+000 179 125 83
4.723270e-001 -1.081391e+000 2.834394e+000 71 37 36
5.365706e-001 -1.084518e+000 2.882180e+000 34 22 18
4.544122e-001 -1.127616e+000 2.861037e+000 70 35 41
4.651748e-001 -1.163643e+000 2.889271e+000 60 22 29
3.590066e-001 -1.156668e+000 2.912940e+000 131 32 41
3.720690e-001 -1.160439e+000 2.908338e+000 130 32 37
3.724371e-001 -1.181396e+000 2.935137e+000 142 28 44
3.587798e-001 -1.234711e+000 3.002941e+000 192 121 68
4.865377e-001 -1.277914e+000 2.975292e+000 138 65 41
4.345006e-001 -1.337195e+000 3.054304e+000 154 89 48
1.803973e-001 -7.262312e-001 2.630642e+000 31 55 37
4.316592e-001 -9.307919e-001 2.725680e+000 138 97 79
4.305060e-001 -9.320357e-001 2.723534e+000 138 97 79
2.087546e-001 -9.340123e-001 2.825845e+000 13 56 101
4.508719e-001 -1.055986e+000 2.811736e+000 177 123 73
3.457119e-001 -1.104994e+000 2.876230e+000 82 48 38
3.457119e-001 -1.104994e+000 2.876230e+000 82 48 38
3.029120e-001 -1.118657e+000 2.935353e+000 184 119 94
3.564255e-001 -1.134776e+000 2.895805e+000 185 121 98
4.404431e-001 -1.145645e+000 2.875214e+000 108 58 28
3.095989e-001 -1.137386e+000 2.944660e+000 131 26 40
3.473300e-001 -1.176490e+000 2.946986e+000 205 55 72
3.549293e-001 -1.251111e+000 3.028153e+000 99 38 14
3.818883e-001 -1.285919e+000 3.040367e+000 172 84 38
3.611271e-001 2.293595e-001 3.127675e+000 91 63 56
2.875654e-001 1.863291e-001 3.178778e+000 70 51 57
2.980688e-001 1.816920e-001 3.172926e+000 93 62 70
4.289870e-001 -7.503088e-001 2.637325e+000 168 161 83
3.841888e-001 -8.312247e-001 2.628775e+000 166 156 56
4.096118e-001 -9.467929e-001 2.719993e+000 159 108 89
4.640540e-001 -9.388814e-001 2.749945e+000 176 43 48
3.625731e-001 -1.040968e+000 2.802186e+000 163 142 118
4.435772e-001 -1.083761e+000 2.827594e+000 103 48 48
4.465493e-001 -1.094959e+000 2.836285e+000 96 43 48
4.994763e-001 -1.195730e+000 2.927162e+000 161 124 90
4.994763e-001 -1.195730e+000 2.927162e+000 161 124 90
3.729169e-001 2.270710e-001 3.129366e+000 136 102 92
3.116430e-001 2.205726e-001 3.154225e+000 117 60 65
3.048624e-001 2.089510e-001 3.162163e+000 95 44 49
3.380017e-001 1.820820e-001 3.168919e+000 71 42 51
3.841895e-001 1.901970e-001 3.150752e+000 132 97 93
4.340607e-001 2.051350e-001 3.132239e+000 70 54 55
3.456476e-001 1.413267e-001 3.188642e+000 47 29 29
3.582781e-001 1.509233e-001 3.182976e+000 59 42 48
3.562677e-001 1.341708e-001 3.191352e+000 104 88 65
2.222729e-001 -9.212274e-001 2.794669e+000 147 27 42
2.549752e-001 -9.398908e-001 2.778481e+000 214 137 117
4.662575e-001 -1.048855e+000 2.813375e+000 174 100 76
5.229635e-001 -1.133912e+000 2.893307e+000 129 99 91
3.704592e-001 -1.212903e+000 2.963110e+000 181 125 99
4.020219e-001 1.892026e-001 3.141807e+000 148 66 45
3.463761e-001 1.248766e-001 3.197851e+000 67 40 36
4.071738e-001 1.293391e-001 3.182185e+000 130 105 101
4.230140e-001 1.286147e-001 3.177574e+000 52 30 19
4.297487e-001 1.044741e-001 3.189533e+000 110 54 39
3.140776e-001 7.650143e-002 3.240595e+000 83 60 70
3.140776e-001 7.650143e-002 3.240595e+000 83 60 70
3.454718e-001 6.646779e-002 3.236560e+000 164 94 62
1.679557e-001 -7.316465e-001 2.645673e+000 13 80 122
1.678988e-001 -7.529325e-001 2.670549e+000 47 82 51
1.666709e-001 -7.548142e-001 2.668148e+000 47 82 51
4.124160e-001 -8.598713e-001 2.667255e+000 34 59 28
4.580015e-001 1.679954e-001 3.141376e+000 131 116 111
4.135933e-001 1.437344e-001 3.169222e+000 21 10 16
3.203828e-001 1.065507e-001 3.218494e+000 33 19 32
1.372483e-001 -7.649061e-001 2.729393e+000 110 130 131
2.193188e-001 -8.224234e-001 2.684177e+000 78 110 105
4.501471e-001 -1.061280e+000 2.816589e+000 171 127 80
4.810667e-001 -1.246647e+000 2.953924e+000 16 64 104
5.028124e-001 -1.255273e+000 2.961768e+000 156 120 85
4.131342e-001 2.306908e-001 3.117472e+000 39 55 44
4.131342e-001 2.306908e-001 3.117472e+000 39 55 44
3.655917e-001 2.174631e-001 3.138854e+000 134 106 89
4.290740e-001 2.141762e-001 3.122181e+000 169 115 68
4.290740e-001 2.141762e-001 3.122181e+000 169 115 68
4.410645e-001 2.266840e-001 3.104028e+000 34 33 32
3.732139e-001 -8.200778e-001 2.619184e+000 30 59 29
4.442861e-001 -1.042073e+000 2.799267e+000 15 74 108
4.525647e-001 -1.167593e+000 2.891000e+000 154 110 63
3.546762e-001 -1.219237e+000 2.987937e+000 176 127 95
4.388485e-001 -1.232146e+000 2.940050e+000 67 19 27
3.258972e-001 -1.225114e+000 3.033073e+000 156 120 96
3.907007e-001 -1.314574e+000 3.068999e+000 167 129 107
4.928209e-001 -1.369625e+000 3.047978e+000 176 80 40
4.311203e-001 1.785670e-001 3.138004e+000 25 16 21
3.822969e-001 1.256211e-001 3.190522e+000 30 19 27
4.280251e-001 -1.168519e+000 2.895814e+000 41 15 23
3.154377e-001 -1.246312e+000 3.082715e+000 79 63 56
3.332729e-001 -1.248962e+000 3.052498e+000 167 139 110
4.443491e-001 1.504420e-001 3.157488e+000 156 116 86
3.813651e-001 2.102808e-001 3.138609e+000 120 83 75
3.894603e-001 1.567460e-001 3.167171e+000 25 15 24
4.854935e-001 -1.315868e+000 3.013179e+000 174 92 36
4.207340e-001 -7.095998e-001 2.602455e+000 69 98 116
4.362230e-001 -7.897854e-001 2.657667e+000 50 56 22
4.473962e-001 -8.893110e-001 2.710836e+000 149 55 55
4.473962e-001 -8.893110e-001 2.710836e+000 149 55 55
4.822835e-001 -1.009161e+000 2.804632e+000 36 72 102
4.848009e-001 -1.055199e+000 2.832402e+000 73 31 28
4.637389e-001 -1.063821e+000 2.826651e+000 85 33 31
5.075338e-001 -1.074374e+000 2.858912e+000 110 77 84
5.082470e-001 -1.188146e+000 2.925825e+000 109 50 35
4.982413e-001 -1.236615e+000 2.951039e+000 25 58 90
1.144478e-001 -6.902151e-001 2.680608e+000 148 45 50
1.453932e-001 -7.067563e-001 2.650673e+000 146 49 49
3.549065e-001 -7.344599e-001 2.557169e+000 179 37 39
3.720898e-001 -7.773095e-001 2.594930e+000 76 106 114
3.669650e-001 -1.160676e+000 2.919600e+000 197 59 74
3.818261e-001 -1.172998e+000 2.914774e+000 208 70 81
3.262851e-001 -1.173874e+000 2.964110e+000 184 61 71
3.397461e-001 -1.194032e+000 2.975599e+000 112 76 54
5.137815e-001 -1.330081e+000 3.021880e+000 132 75 61
4.553072e-001 -1.353417e+000 3.056466e+000 36 13 8
4.683214e-001 -1.353177e+000 3.045456e+000 48 16 7
1.087963e-001 -6.741120e-001 2.672906e+000 175 37 47
1.321456e-001 -7.049828e-001 2.668433e+000 173 41 52
1.632763e-001 -7.575136e-001 2.672977e+000 154 156 34
1.986652e-001 -8.757923e-001 2.767971e+000 158 146 134
1.986652e-001 -8.757923e-001 2.767971e+000 158 146 134
3.276469e-001 -1.019228e+000 2.798523e+000 178 112 91
4.738062e-001 -1.081017e+000 2.838126e+000 71 37 36
4.978994e-001 -1.073985e+000 2.851723e+000 59 39 38
3.435061e-001 -1.138472e+000 2.905884e+000 181 125 99
5.142697e-001 -1.112290e+000 2.885388e+000 25 16 16
3.643617e-001 -1.167603e+000 2.924338e+000 189 45 60
4.520817e-001 -1.194489e+000 2.909191e+000 162 116 66
5.035383e-001 -9.713797e-001 2.804380e+000 28 69 100
4.367061e-001 -1.092972e+000 2.832322e+000 168 126 90
3.456476e-001 1.413267e-001 3.188642e+000 47 29 29
1.767554e-001 -7.646374e-001 2.660233e+000 29 56 36
4.405778e-001 -7.308945e-001 2.633812e+000 39 62 33
4.082204e-001 -7.608826e-001 2.618246e+000 42 59 35
4.729976e-001 -7.446925e-001 2.667642e+000 169 157 85
4.306701e-001 -8.021944e-001 2.656667e+000 36 61 35
4.193822e-001 -9.040669e-001 2.703308e+000 42 57 22
4.193822e-001 -9.040669e-001 2.703308e+000 42 57 22
2.992956e-001 -9.531190e-001 2.750759e+000 123 61 43
2.863540e-001 -1.176366e+000 3.019843e+000 179 124 108
2.495916e-001 2.094639e-001 3.171524e+000 110 86 74
2.553663e-001 1.887053e-001 3.180146e+000 104 85 71
3.043503e-001 1.057092e-001 3.223917e+000 78 71 87
4.189545e-001 -7.845481e-001 2.634716e+000 38 62 29
4.664843e-001 -7.569822e-001 2.672298e+000 169 160 92
2.028701e-001 -8.055364e-001 2.689100e+000 29 55 34
4.947665e-001 -7.977027e-001 2.711745e+000 48 60 30
4.823815e-001 -9.300965e-001 2.760922e+000 167 154 122
4.708058e-001 -1.356479e+000 3.047041e+000 69 28 16
2.667735e-001 2.034555e-001 3.170654e+000 164 146 126
3.143458e-001 1.947608e-001 3.166075e+000 134 84 83
4.511109e-001 2.065040e-001 3.117059e+000 41 30 29
2.721722e-001 1.823273e-001 3.184176e+000 139 120 106
3.400781e-001 -1.132335e+000 2.909472e+000 177 124 101
3.394682e-001 -1.166472e+000 2.945703e+000 154 22 37
3.273438e-001 1.429566e-001 3.194493e+000 142 46 57
1.625507e-001 -7.853495e-001 2.702200e+000 72 111 134
3.997721e-001 -1.274484e+000 3.009668e+000 165 73 45
4.311203e-001 1.785670e-001 3.138004e+000 25 16 21
2.892795e-001 1.545809e-001 3.198980e+000 19 14 21
3.971903e-001 -1.227709e+000 2.952313e+000 179 123 94
3.644882e-001 -6.961418e-001 2.550288e+000 224 142 104
4.254818e-001 -6.613356e-001 2.581208e+000 230 125 104
3.629338e-001 -7.576445e-001 2.589351e+000 136 141 21
1.623396e-001 -7.929167e-001 2.717763e+000 29 54 25
5.273497e-001 -9.636762e-001 2.811420e+000 127 168 199
5.110372e-001 -9.822232e-001 2.807926e+000 131 161 176
4.751085e-001 -1.012616e+000 2.796804e+000 120 166 191
3.229327e-001 -1.052083e+000 2.838581e+000 178 110 91
4.690262e-001 -1.070414e+000 2.829198e+000 73 31 28
4.708984e-001 -1.065367e+000 2.825307e+000 163 82 78
4.764380e-001 -1.071844e+000 2.834309e+000 74 36 35
4.903638e-001 -1.054845e+000 2.832123e+000 154 85 83
4.923810e-001 -1.061385e+000 2.837119e+000 146 83 84
4.758999e-001 -1.076021e+000 2.837708e+000 149 81 83
4.787516e-001 -1.077476e+000 2.833909e+000 82 42 40
4.767938e-001 -1.086281e+000 2.840128e+000 149 103 108
4.592922e-001 -1.113167e+000 2.852299e+000 105 52 62
4.615193e-001 -1.153289e+000 2.880568e+000 58 17 26
3.612049e-001 -1.181657e+000 2.943547e+000 206 54 69
4.770529e-001 -1.227104e+000 2.939291e+000 147 143 157
4.747188e-001 -1.230163e+000 2.941002e+000 31 31 52
3.911456e-001 -1.293511e+000 3.040643e+000 174 138 123
4.423547e-001 -1.344230e+000 3.054992e+000 45 17 10
4.518718e-001 -1.347974e+000 3.050570e+000 39 6 5
4.096137e-001 -6.516400e-001 2.569375e+000 169 43 42
4.150893e-001 -6.736652e-001 2.577651e+000 158 44 48
3.872824e-001 -6.970704e-001 2.568879e+000 155 50 47
4.552632e-001 -9.409687e-001 2.746739e+000 178 148 122
4.953864e-001 -9.672087e-001 2.787833e+000 200 76 76
4.715541e-001 -1.060134e+000 2.825291e+000 82 32 32
3.322750e-001 -1.090170e+000 2.870642e+000 86 53 40
4.490806e-001 -1.108425e+000 2.847781e+000 84 43 44
5.128640e-001 -1.124352e+000 2.888113e+000 26 22 19
5.548956e-001 -1.106104e+000 2.908590e+000 120 81 82
3.005782e-001 -1.138574e+000 2.953897e+000 139 37 43
3.005782e-001 -1.138574e+000 2.953897e+000 139 37 43
3.404204e-001 -1.176275e+000 2.951392e+000 135 28 38
1.016925e-001 -6.747135e-001 2.674561e+000 170 40 53
3.920775e-001 -6.670332e-001 2.562335e+000 170 44 45
3.920775e-001 -6.670332e-001 2.562335e+000 170 44 45
3.999184e-001 -6.952695e-001 2.577209e+000 167 46 51
3.752958e-001 -7.181854e-001 2.564893e+000 173 42 43
1.759334e-001 -7.741800e-001 2.679515e+000 49 91 115
2.174857e-001 -7.905359e-001 2.653810e+000 28 54 29
2.177229e-001 -7.906929e-001 2.654281e+000 28 54 29
1.539714e-001 -8.056904e-001 2.752224e+000 38 53 26
5.274911e-001 -8.324543e-001 2.742355e+000 147 106 87
3.445097e-001 -1.088548e+000 2.864226e+000 176 121 90
4.594825e-001 -1.108205e+000 2.848741e+000 73 31 37
5.110588e-001 -1.153444e+000 2.905144e+000 83 52 50
5.131503e-001 -1.183631e+000 2.918156e+000 162 118 85
2.842073e-001 -1.188235e+000 3.037168e+000 168 134 109
3.426625e-001 -1.200939e+000 2.981770e+000 180 129 102
3.764273e-001 -1.266714e+000 3.012005e+000 184 113 59
2.279085e-002 -1.252878e+000 3.215997e+000 50 38 48
5.157442e-001 -1.312795e+000 3.016294e+000 192 130 96
3.578357e-001 -6.950151e-001 2.549240e+000 174 43 39
2.093275e-001 -7.662907e-001 2.638266e+000 110 125 47
4.649909e-001 -7.932550e-001 2.672048e+000 41 57 31
3.380762e-001 -1.002757e+000 2.772683e+000 12 71 105
4.621320e-001 -1.028164e+000 2.797229e+000 131 157 154
5.121862e-001 -1.021498e+000 2.827773e+000 80 54 64
4.470415e-001 -1.122098e+000 2.857712e+000 168 124 87
1.842999e-001 -1.389293e+000 3.125301e+000 50 39 49
2.793633e-001 2.141757e-001 3.162758e+000 62 45 53
3.956317e-001 2.260994e-001 3.125685e+000 160 109 84
3.882607e-001 2.051657e-001 3.138601e+000 108 60 53
6.843752e-001 -3.493144e-002 3.172069e+000 64 60 75
3.682827e-001 -7.570969e-001 2.591804e+000 103 122 53
4.698767e-001 -9.237085e-001 2.745974e+000 170 154 121
3.363798e-001 -1.186704e+000 2.973608e+000 182 122 93
3.812910e-002 -1.267670e+000 3.203584e+000 50 40 49
1.986805e-001 -1.399069e+000 3.122585e+000 47 35 46
5.301952e-001 1.466079e-001 3.136185e+000 46 36 44
5.004817e-001 -1.113051e+000 2.876417e+000 139 111 99
3.899948e-001 -1.156137e+000 2.893284e+000 144 23 34
5.318028e-001 -1.227057e+000 2.959497e+000 155 117 80
7.881502e-002 -1.312696e+000 3.184246e+000 135 120 123
1.487599e-001 -1.355947e+000 3.160043e+000 43 33 42
3.568665e-001 -7.382066e-001 2.567913e+000 117 125 109
2.989233e-001 -1.185686e+000 3.019930e+000 179 125 105
4.027045e-001 -1.201278e+000 2.929398e+000 147 23 41
1.295837e-001 -1.356172e+000 3.166283e+000 133 115 120
1.027019e-001 -1.336884e+000 3.178148e+000 132 113 117
5.812243e-001 2.261301e-001 3.064590e+000 103 80 66
2.906437e-001 -1.173707e+000 3.060671e+000 123 95 81
2.616076e-001 -1.030452e+000 2.926609e+000 181 118 103
2.129549e-001 -8.740185e-001 2.755488e+000 85 48 40
2.254523e-001 -8.894953e-001 2.753272e+000 92 33 34
1.713699e-001 -8.805470e-001 2.854162e+000 213 122 114
3.151468e-001 -1.011152e+000 2.802797e+000 51 20 15
4.621588e-001 -1.024073e+000 2.789883e+000 82 129 148
2.259181e-001 -9.991237e-001 2.910918e+000 179 118 105
4.778794e-001 -1.079225e+000 2.830855e+000 128 83 86
3.457214e-001 -1.126390e+000 2.896734e+000 91 54 34
3.785777e-001 -1.158318e+000 2.901420e+000 195 63 72
3.547561e-001 -1.173786e+000 2.948137e+000 143 26 34
1.606741e-001 -7.834737e-001 2.721007e+000 26 51 27
4.860081e-001 -9.590678e-001 2.764635e+000 137 44 39
4.939421e-001 -9.507829e-001 2.766275e+000 134 47 37
2.334060e-001 -1.007770e+000 2.900312e+000 182 116 97
2.265878e-001 -1.015175e+000 2.917914e+000 112 68 53
4.640058e-001 -1.063542e+000 2.813907e+000 93 44 40
4.896271e-001 -1.076817e+000 2.839235e+000 61 39 41
2.808303e-001 -1.113941e+000 2.961503e+000 137 32 37
3.154169e-001 -1.141077e+000 2.935860e+000 135 35 41
3.128673e-001 -1.144687e+000 2.947511e+000 134 33 41
3.016519e-001 -5.691198e-001 2.480812e+000 199 172 135
1.887346e-001 -9.491330e-001 2.921549e+000 166 69 71
2.347557e-001 -1.013482e+000 2.899739e+000 122 79 67
2.573689e-001 -1.042953e+000 2.899515e+000 180 115 93
3.283298e-001 -1.057615e+000 2.843120e+000 84 54 39
3.305087e-001 -1.077518e+000 2.853939e+000 180 122 96
4.636671e-001 -1.077572e+000 2.824175e+000 158 83 78
4.636671e-001 -1.077572e+000 2.824175e+000 158 83 78
3.476634e-001 -1.102651e+000 2.870057e+000 179 124 90
3.498405e-001 -1.175693e+000 2.951079e+000 199 62 70
1.786384e-001 -7.270857e-001 2.626661e+000 30 51 31
1.377257e-001 -7.792608e-001 2.778369e+000 29 54 24
2.753212e-001 -9.388613e-001 2.761310e+000 143 23 35
4.543881e-001 -1.022205e+000 2.787021e+000 23 67 97
2.351441e-001 -1.044340e+000 2.958636e+000 177 121 106
3.418887e-001 -1.098079e+000 2.874964e+000 179 124 94
3.418887e-001 -1.098079e+000 2.874964e+000 179 124 94
2.477892e-001 -1.098308e+000 3.016688e+000 141 33 49
4.844340e-001 -1.141741e+000 2.877429e+000 65 36 31
1.639135e-001 -6.985619e-001 2.614359e+000 154 87 80
1.268423e-001 -7.388619e-001 2.739965e+000 121 136 99
1.866242e-001 -8.117581e-001 2.722806e+000 22 51 23
1.731116e-001 -8.864226e-001 2.853103e+000 192 119 109
2.397203e-001 -9.356529e-001 2.792212e+000 188 120 96
2.947964e-001 -9.436294e-001 2.753706e+000 146 22 38
4.389607e-001 -9.392567e-001 2.725291e+000 172 149 118
4.106347e-001 -9.645302e-001 2.720893e+000 144 100 75
3.913304e-001 -1.156066e+000 2.895099e+000 144 23 30
1.317635e-001 -7.500916e-001 2.739369e+000 26 55 35
1.421710e-001 -7.422986e-001 2.714819e+000 22 55 26
1.725288e-001 -7.950222e-001 2.709625e+000 23 56 25
2.756392e-001 -1.100183e+000 2.949951e+000 177 120 98
3.824734e-001 -1.180760e+000 2.924943e+000 152 22 34
2.223850e-001 -8.890263e-001 2.754257e+000 154 114 104
2.694838e-001 -1.018077e+000 2.799893e+000 178 113 91
2.639233e-001 -1.084194e+000 2.950784e+000 181 121 102
2.597937e-001 -1.029893e+000 2.922483e+000 181 119 96
3.179079e-001 -9.990638e-001 2.781993e+000 10 50 85
-8.437460e-001 -2.099564e+000 9.550091e-002 0 255 0
-8.610751e-001 -2.119663e+000 5.312507e-002 255 255 0
1.518626e-002 -2.072132e+000 -3.274508e-001 255 0 0
1.101456e-002 -2.090811e+000 -3.736428e-001 255 255 0
2.465570e+001 1.446258e+001 3.529505e+001 0 255 0
2.462768e+001 1.444494e+001 3.525759e+001 255 255 0
1.698570e+001 1.462597e+001 3.579481e+001 255 0 0
1.696487e+001 1.460672e+001 3.575364e+001 255 255 0
-2.207675e+000 1.446196e+001 4.730710e+001 0 255 0
-2.204973e+000 1.444574e+001 4.725988e+001 255 255 0
