ply
format ascii 1.0
element face 0
property list uchar int vertex_indices
element vertex 894
property float x
property float y
property float z
property uchar diffuse_red
property uchar diffuse_green
property uchar diffuse_blue
end_header
5.087171e-001 -1.303569e+000 2.773861e+000 77 107 78
5.180367e-001 -1.303746e+000 2.766298e+000 70 100 89
5.110667e-001 -1.315336e+000 2.784711e+000 96 120 65
5.085138e-001 -1.340012e+000 2.826755e+000 181 154 119
5.085138e-001 -1.340012e+000 2.826755e+000 181 154 119
5.083376e-001 -1.343077e+000 2.833230e+000 91 42 35
5.099677e-001 -1.343946e+000 2.834945e+000 183 148 118
5.105342e-001 -1.350190e+000 2.836264e+000 116 83 64
4.917118e-001 -1.343498e+000 2.852638e+000 171 150 125
4.960925e-001 -1.361060e+000 2.867680e+000 220 154 112
5.113929e-001 -1.369134e+000 2.858769e+000 236 142 96
5.100607e-001 -1.367820e+000 2.863940e+000 232 142 97
5.146529e-001 -1.370203e+000 2.856663e+000 216 143 103
4.502788e-001 -1.351509e+000 2.888796e+000 239 140 111
4.580550e-001 -1.356684e+000 2.889637e+000 217 154 107
4.657917e-001 -1.358459e+000 2.886125e+000 229 137 109
4.754881e-001 -1.359657e+000 2.880419e+000 127 32 31
4.777896e-001 -1.360794e+000 2.880662e+000 224 146 108
5.145716e-001 -1.374406e+000 2.873768e+000 18 56 79
4.312529e-001 -1.371759e+000 2.906920e+000 24 83 124
5.518852e-001 -1.417155e+000 2.865526e+000 87 41 17
5.518852e-001 -1.417155e+000 2.865526e+000 87 41 17
5.458145e-001 -1.430609e+000 2.883313e+000 200 124 80
4.638880e-001 -1.407386e+000 2.943078e+000 204 125 96
4.171299e-001 -1.443996e+000 2.977405e+000 168 59 59
4.170211e-001 -1.443962e+000 2.977365e+000 168 59 59
4.203784e-001 -1.443177e+000 2.978762e+000 215 100 100
4.363001e-001 -1.434587e+000 2.978283e+000 167 43 38
4.738343e-001 -1.444216e+000 2.976476e+000 198 124 97
4.110908e-001 -1.474374e+000 2.996547e+000 32 86 149
5.700593e-001 -1.514474e+000 2.939349e+000 206 52 54
5.454467e-001 -1.488069e+000 2.968766e+000 136 26 30
5.491245e-001 -1.493634e+000 2.965457e+000 147 27 31
5.508057e-001 -1.497188e+000 2.969158e+000 140 27 29
5.650506e-001 -1.485816e+000 2.958436e+000 202 55 55
5.710926e-001 -1.502181e+000 2.957903e+000 153 24 29
5.439025e-001 -1.497081e+000 2.980082e+000 155 23 29
4.717722e-001 -1.481636e+000 3.016188e+000 242 88 94
4.717722e-001 -1.481636e+000 3.016188e+000 242 88 94
4.910952e-001 -1.482966e+000 3.005429e+000 143 27 36
5.165554e-001 -1.491047e+000 2.995056e+000 217 59 53
5.375819e-001 -1.509236e+000 2.998267e+000 216 65 61
5.495208e-001 -1.510092e+000 2.983976e+000 226 57 66
4.679094e-001 -1.495709e+000 3.032416e+000 235 71 75
5.263422e-001 -1.499850e+000 3.004115e+000 146 28 32
5.906386e-001 -1.570557e+000 2.994179e+000 139 30 25
4.895144e-001 -1.511958e+000 3.038271e+000 199 126 97
5.120579e-001 -1.518978e+000 3.031680e+000 207 133 96
4.420041e-001 -1.540621e+000 3.069827e+000 143 72 50
5.725965e-001 -1.568052e+000 3.018419e+000 134 46 17
5.067790e-001 -1.538533e+000 3.057971e+000 125 86 56
5.130129e-001 -1.540676e+000 3.054296e+000 133 92 60
5.119533e-001 -1.545175e+000 3.056786e+000 179 130 93
5.191492e-001 -1.540716e+000 3.051377e+000 150 108 70
5.401505e-001 -1.544132e+000 3.044732e+000 139 52 17
5.374919e-001 -1.557630e+000 3.058605e+000 138 73 21
4.913656e-001 -1.560963e+000 3.085617e+000 17 7 4
4.975101e-001 -1.559947e+000 3.083388e+000 28 18 16
5.177535e-001 -1.562853e+000 3.073169e+000 32 16 26
5.700216e-001 -1.613506e+000 3.070426e+000 30 6 1
5.775614e-001 -1.613256e+000 3.066100e+000 41 12 5
5.833774e-001 -1.614468e+000 3.062249e+000 40 13 3
5.119225e-001 -1.582523e+000 3.098318e+000 28 18 9
4.512889e-001 -1.250452e+000 2.597321e+000 185 59 53
4.514638e-001 -1.250826e+000 2.604351e+000 244 183 134
3.072877e-001 -1.294464e+000 2.726698e+000 174 41 49
3.072877e-001 -1.294464e+000 2.726698e+000 174 41 49
3.145457e-001 -1.283904e+000 2.733819e+000 160 47 58
3.134146e-001 -1.286485e+000 2.732143e+000 160 47 58
3.131182e-001 -1.331006e+000 2.762944e+000 161 178 92
4.844728e-001 -1.277809e+000 2.779699e+000 146 143 27
4.876794e-001 -1.279522e+000 2.778869e+000 51 101 93
3.196370e-001 -1.349200e+000 2.783940e+000 43 57 38
3.330031e-001 -1.350640e+000 2.806863e+000 142 162 93
3.389832e-001 -1.355013e+000 2.818291e+000 50 66 33
3.413465e-001 -1.363967e+000 2.828453e+000 50 62 35
3.355915e-001 -1.394962e+000 2.841439e+000 150 58 64
3.362356e-001 -1.392727e+000 2.842053e+000 150 58 64
4.916993e-001 -1.341795e+000 2.848437e+000 131 103 84
5.076495e-001 -1.349760e+000 2.841538e+000 180 152 122
3.700362e-001 -1.374292e+000 2.882520e+000 140 112 123
5.506698e-001 -1.431921e+000 2.881161e+000 91 42 17
4.595154e-001 -1.410444e+000 2.944727e+000 70 38 24
5.051871e-001 -1.415805e+000 2.923792e+000 186 123 96
5.501375e-001 -1.463957e+000 2.920639e+000 87 47 19
4.428534e-001 -1.441918e+000 2.967662e+000 173 86 69
5.133095e-001 -1.447061e+000 2.949277e+000 191 120 89
4.602011e-001 -1.437746e+000 2.974449e+000 74 43 29
3.987141e-001 -1.490774e+000 2.993767e+000 87 138 208
4.062205e-001 -1.475339e+000 2.994907e+000 104 157 233
5.705822e-001 -1.510129e+000 2.947221e+000 208 53 50
5.707191e-001 -1.507753e+000 2.947642e+000 208 53 50
4.041267e-001 -1.491432e+000 3.000116e+000 39 91 148
5.220191e-001 -1.475053e+000 2.971013e+000 198 118 85
5.417476e-001 -1.493175e+000 2.970172e+000 132 28 32
4.865093e-001 -1.478216e+000 3.002413e+000 143 29 34
5.150307e-001 -1.487260e+000 2.993515e+000 137 29 31
5.155834e-001 -1.482720e+000 2.994269e+000 137 29 31
5.183499e-001 -1.493797e+000 2.987976e+000 218 67 66
5.183499e-001 -1.493797e+000 2.987976e+000 218 67 66
5.283452e-001 -1.492609e+000 2.989028e+000 223 71 68
5.620857e-001 -1.514159e+000 2.972992e+000 221 61 61
4.678707e-001 -1.477275e+000 3.012635e+000 187 51 48
4.759060e-001 -1.478903e+000 3.012249e+000 149 35 41
5.872621e-001 -1.549022e+000 2.963661e+000 74 27 19
4.688310e-001 -1.499738e+000 3.028802e+000 146 34 36
4.688310e-001 -1.499738e+000 3.028802e+000 146 34 36
5.601491e-001 -1.536462e+000 3.002083e+000 193 128 86
5.065849e-001 -1.545130e+000 3.061424e+000 124 93 64
5.203874e-001 -1.543221e+000 3.053061e+000 180 133 86
5.201266e-001 -1.547398e+000 3.052616e+000 180 133 86
5.257100e-001 -1.550347e+000 3.054233e+000 187 133 88
5.316819e-001 -1.554001e+000 3.050307e+000 183 125 81
5.595133e-001 -1.563346e+000 3.036052e+000 197 111 37
5.595133e-001 -1.563346e+000 3.036052e+000 197 111 37
4.920040e-001 -1.548385e+000 3.076106e+000 177 127 92
5.403974e-001 -1.568360e+000 3.058123e+000 214 152 89
5.463182e-001 -1.566734e+000 3.051622e+000 150 66 23
5.676762e-001 -1.578781e+000 3.048269e+000 193 154 109
4.519824e-001 -1.563478e+000 3.096485e+000 125 80 59
5.085094e-001 -1.561917e+000 3.078037e+000 23 21 17
5.628260e-001 -1.596772e+000 3.062933e+000 178 94 27
5.627200e-001 -1.599029e+000 3.062839e+000 178 94 27
5.831208e-001 -1.613038e+000 3.058255e+000 47 9 0
5.499581e-001 -1.597425e+000 3.077385e+000 84 59 40
5.222884e-001 -1.593301e+000 3.094332e+000 154 124 103
4.652185e-001 -1.263863e+000 2.779804e+000 152 156 36
4.652185e-001 -1.263863e+000 2.779804e+000 152 156 36
4.827865e-001 -1.271583e+000 2.772549e+000 158 148 33
4.826703e-001 -1.272021e+000 2.772180e+000 158 148 33
4.987088e-001 -1.293603e+000 2.780548e+000 61 100 93
5.010758e-001 -1.343422e+000 2.848669e+000 174 151 119
3.455973e-001 -1.440576e+000 2.884662e+000 192 119 118
3.515572e-001 -1.433568e+000 2.891480e+000 195 115 114
3.763131e-001 -1.437300e+000 2.933000e+000 95 145 210
5.516521e-001 -1.443305e+000 2.886708e+000 122 66 38
4.881361e-001 -1.406478e+000 2.941198e+000 198 124 87
5.109821e-001 -1.424135e+000 2.920684e+000 53 20 8
5.087364e-001 -1.432800e+000 2.937912e+000 87 48 38
5.568946e-001 -1.467016e+000 2.915722e+000 124 86 58
5.156263e-001 -1.441212e+000 2.941996e+000 117 70 50
4.841305e-001 -1.445831e+000 2.972735e+000 61 30 21
4.841305e-001 -1.445831e+000 2.972735e+000 61 30 21
5.610985e-001 -1.486008e+000 2.936052e+000 101 63 42
5.102732e-001 -1.458045e+000 2.966359e+000 169 101 82
5.116684e-001 -1.464453e+000 2.972994e+000 85 50 36
5.508582e-001 -1.487711e+000 2.963827e+000 140 26 31
5.713552e-001 -1.514699e+000 2.951607e+000 208 55 51
4.816739e-001 -1.486337e+000 3.014258e+000 152 31 40
4.815582e-001 -1.486084e+000 3.014367e+000 152 31 40
5.351322e-001 -1.502663e+000 2.995019e+000 206 58 54
5.521719e-001 -1.512094e+000 2.980906e+000 233 73 78
5.521719e-001 -1.512094e+000 2.980906e+000 233 73 78
4.705905e-001 -1.496024e+000 3.025818e+000 223 71 70
5.231476e-001 -1.503799e+000 3.004687e+000 146 28 31
5.533555e-001 -1.526161e+000 3.002506e+000 189 125 86
5.227750e-001 -1.522857e+000 3.025463e+000 169 92 64
5.228990e-001 -1.520574e+000 3.025737e+000 169 92 64
5.620973e-001 -1.558226e+000 3.029454e+000 208 125 50
5.222245e-001 -1.553710e+000 3.055892e+000 182 134 84
5.222245e-001 -1.553710e+000 3.055892e+000 182 134 84
5.943273e-001 -1.598882e+000 3.022069e+000 34 15 8
5.943273e-001 -1.598882e+000 3.022069e+000 34 15 8
4.856063e-001 -1.546661e+000 3.075289e+000 171 125 90
5.443950e-001 -1.565134e+000 3.055811e+000 195 148 103
5.054814e-001 -1.560126e+000 3.077388e+000 185 144 105
5.632437e-001 -1.621839e+000 3.076011e+000 138 74 19
4.715375e-001 -1.585567e+000 3.120294e+000 96 78 70
4.662642e-001 -1.593485e+000 3.132263e+000 134 29 40
4.504566e-001 -1.255277e+000 2.606977e+000 45 28 21
4.630007e-001 -1.243733e+000 2.750382e+000 179 38 29
4.945066e-001 -1.263877e+000 2.741252e+000 29 54 21
4.594219e-001 -1.262136e+000 2.785037e+000 147 140 19
4.594219e-001 -1.262136e+000 2.785037e+000 147 140 19
5.107941e-001 -1.304842e+000 2.777183e+000 160 152 30
4.935098e-001 -1.298803e+000 2.785488e+000 64 106 112
5.045473e-001 -1.340981e+000 2.832597e+000 179 152 123
3.758217e-001 -1.389505e+000 2.898526e+000 145 114 120
3.755741e-001 -1.390363e+000 2.898211e+000 145 114 120
5.213801e-001 -1.386054e+000 2.862629e+000 12 55 73
3.843660e-001 -1.419658e+000 2.935227e+000 65 58 106
5.111050e-001 -1.407675e+000 2.901354e+000 195 127 84
5.108160e-001 -1.408828e+000 2.900634e+000 195 127 84
3.810987e-001 -1.433715e+000 2.936893e+000 90 140 206
5.003086e-001 -1.410697e+000 2.917951e+000 169 109 73
5.083725e-001 -1.416122e+000 2.918567e+000 197 121 88
5.084896e-001 -1.414927e+000 2.918711e+000 197 121 88
5.497198e-001 -1.450262e+000 2.905976e+000 126 78 43
5.495165e-001 -1.452766e+000 2.905406e+000 126 78 43
5.077906e-001 -1.434310e+000 2.942412e+000 202 122 88
5.542285e-001 -1.461907e+000 2.913414e+000 197 136 90
5.549976e-001 -1.473687e+000 2.919192e+000 195 129 83
4.610125e-001 -1.434373e+000 2.970202e+000 195 132 99
4.610125e-001 -1.434373e+000 2.970202e+000 195 132 99
5.573054e-001 -1.478280e+000 2.935429e+000 188 131 86
4.081698e-001 -1.473982e+000 2.991846e+000 26 87 154
5.818794e-001 -1.523050e+000 2.936964e+000 49 18 16
4.198462e-001 -1.471455e+000 3.001931e+000 21 88 159
4.602828e-001 -1.475263e+000 2.987276e+000 195 130 106
4.602828e-001 -1.475263e+000 2.987276e+000 195 130 106
4.120489e-001 -1.494212e+000 3.013942e+000 189 155 126
4.118387e-001 -1.493554e+000 3.013271e+000 189 155 126
5.016533e-001 -1.513032e+000 3.034243e+000 205 127 100
5.622745e-001 -1.572182e+000 3.043578e+000 202 114 37
3.368965e-001 -1.327848e+000 2.797199e+000 49 64 36
3.294810e-001 -1.342496e+000 2.796246e+000 163 170 130
3.294810e-001 -1.342496e+000 2.796246e+000 163 170 130
3.321121e-001 -1.347888e+000 2.803084e+000 99 117 75
3.450209e-001 -1.328712e+000 2.811593e+000 159 172 115
3.623262e-001 -1.315897e+000 2.834317e+000 40 65 44
4.068255e-001 -1.403298e+000 2.938141e+000 178 51 55
4.895027e-001 -1.550538e+000 3.078131e+000 167 124 93
4.861127e-001 -1.270240e+000 2.768124e+000 59 88 44
3.323078e-001 -1.318702e+000 2.782633e+000 46 66 40
3.254905e-001 -1.341503e+000 2.792002e+000 166 165 155
4.626960e-001 -1.274846e+000 2.789920e+000 93 117 105
4.624340e-001 -1.274682e+000 2.790857e+000 93 117 105
5.236067e-001 -1.311155e+000 2.769712e+000 28 57 22
5.061507e-001 -1.304075e+000 2.781075e+000 27 55 25
5.213386e-001 -1.316038e+000 2.773897e+000 101 129 96
5.213386e-001 -1.316038e+000 2.773897e+000 101 129 96
3.332919e-001 -1.362804e+000 2.812905e+000 104 132 91
4.870704e-001 -1.295731e+000 2.801034e+000 105 128 50
3.490952e-001 -1.372953e+000 2.846995e+000 172 169 178
4.370611e-001 -1.398967e+000 2.945082e+000 181 49 47
3.951574e-001 -1.472248e+000 2.980921e+000 139 31 44
4.193378e-001 -1.483855e+000 3.010409e+000 22 93 171
5.655421e-001 -1.522376e+000 2.961841e+000 157 23 30
4.731670e-001 -1.220736e+000 2.705605e+000 26 93 122
4.563393e-001 -1.267408e+000 2.789487e+000 25 59 25
3.985548e-001 -1.499932e+000 3.003071e+000 79 24 29
4.522165e-001 -1.548913e+000 3.079511e+000 44 15 18
3.573460e-001 -1.365850e+000 2.855220e+000 168 167 177
5.904231e-001 -1.585188e+000 2.998263e+000 197 106 25
3.912590e-001 -1.439640e+000 2.955151e+000 124 31 39
3.714750e-001 -1.429471e+000 2.915410e+000 170 34 48
5.904635e-001 -1.604157e+000 2.900913e+000 39 31 29
5.743634e-001 -1.512160e+000 2.988505e+000 195 128 83
5.482987e-001 -1.358016e+000 2.756277e+000 179 162 118
4.174315e-001 -1.378237e+000 2.926202e+000 173 168 165
4.365472e-001 -1.213965e+000 2.737758e+000 15 88 120
4.244627e-001 -1.520966e+000 3.033744e+000 186 151 132
5.521458e-001 -1.373019e+000 2.936822e+000 194 130 82
5.045772e-001 -1.149514e+000 2.812073e+000 23 81 111
7.858807e-001 -7.865799e-001 3.125298e+000 97 75 60
7.841266e-001 -8.266098e-001 3.144131e+000 92 75 59
4.688126e-001 -1.246246e+000 2.750979e+000 208 127 95
4.732746e-001 -1.277317e+000 2.785693e+000 148 142 29
4.759960e-001 -1.334156e+000 2.851399e+000 66 32 22
4.759960e-001 -1.334156e+000 2.851399e+000 66 32 22
4.679501e-001 -1.494207e+000 3.032649e+000 210 63 70
4.624447e-001 -1.264681e+000 2.779449e+000 58 78 45
5.168198e-001 -1.483781e+000 2.987761e+000 125 22 26
4.697123e-001 -1.484266e+000 3.019329e+000 121 28 30
5.187041e-001 -1.485875e+000 2.992203e+000 126 23 28
4.868269e-001 -1.494259e+000 3.021818e+000 131 23 30
5.382545e-001 -1.541642e+000 3.033381e+000 177 45 33
5.692889e-001 -1.572772e+000 3.028583e+000 181 75 34
4.734347e-001 -1.436050e+000 2.969278e+000 78 49 37
5.201943e-001 -1.448595e+000 2.947093e+000 39 12 8
4.794294e-001 -1.464294e+000 2.995034e+000 148 73 60
5.584077e-001 -1.529174e+000 2.993155e+000 102 61 44
5.102050e-001 -1.362916e+000 2.857779e+000 143 19 29
5.626685e-001 -1.570005e+000 3.038762e+000 163 77 28
4.276352e-001 -1.367179e+000 2.912438e+000 151 146 143
5.355034e-001 -1.410251e+000 2.875767e+000 178 104 77
2.884402e-001 -1.317146e+000 2.708381e+000 165 38 45
3.165288e-001 -1.295189e+000 2.743306e+000 128 60 54
4.707755e-001 -1.242867e+000 2.744135e+000 224 135 101
4.653388e-001 -1.243288e+000 2.750909e+000 161 49 31
4.495372e-001 -1.257476e+000 2.781997e+000 90 113 59
4.495372e-001 -1.257476e+000 2.781997e+000 90 113 59
3.623677e-001 -1.320663e+000 2.837065e+000 130 165 98
3.623677e-001 -1.320663e+000 2.837065e+000 130 165 98
3.408793e-001 -1.371671e+000 2.831812e+000 48 61 35
4.964830e-001 -1.337272e+000 2.840747e+000 172 148 120
4.621454e-001 -1.357454e+000 2.888179e+000 230 148 110
3.800355e-001 -1.459603e+000 2.947112e+000 206 117 111
3.857270e-001 -1.502148e+000 2.987440e+000 98 56 50
4.128668e-001 -1.465963e+000 2.995027e+000 118 191 251
4.128895e-001 -1.465883e+000 2.995063e+000 118 191 251
4.124344e-001 -1.476846e+000 3.002866e+000 78 134 208
4.107923e-001 -1.481603e+000 3.006033e+000 68 136 198
4.142844e-001 -1.482736e+000 3.007470e+000 67 142 217
5.559010e-001 -1.499594e+000 2.964023e+000 137 29 36
5.348927e-001 -1.493610e+000 2.984178e+000 205 54 54
5.495098e-001 -1.509869e+000 2.981352e+000 162 24 31
5.355563e-001 -1.508054e+000 2.997252e+000 136 28 32
5.399600e-001 -1.510417e+000 2.996092e+000 214 68 63
5.398626e-001 -1.509942e+000 2.996037e+000 214 68 63
5.665992e-001 -1.529780e+000 2.986965e+000 192 128 84
4.962366e-001 -1.533588e+000 3.055827e+000 191 136 95
5.094648e-001 -1.532880e+000 3.050306e+000 179 130 88
5.277561e-001 -1.534847e+000 3.038242e+000 134 41 22
5.437712e-001 -1.555498e+000 3.040702e+000 142 50 13
5.756022e-001 -1.569500e+000 3.020845e+000 98 28 2
5.289047e-001 -1.553494e+000 3.046830e+000 178 126 78
5.442205e-001 -1.560153e+000 3.047330e+000 186 80 29
4.996125e-001 -1.549727e+000 3.074522e+000 86 60 39
5.078680e-001 -1.548050e+000 3.068337e+000 182 128 83
3.082386e-001 -1.306703e+000 2.739692e+000 171 45 57
4.563200e-001 -1.241474e+000 2.760199e+000 166 46 44
3.281069e-001 -1.307611e+000 2.767695e+000 47 63 43
3.281069e-001 -1.307611e+000 2.767695e+000 47 63 43
4.818650e-001 -1.264424e+000 2.763459e+000 24 58 18
5.069083e-001 -1.287053e+000 2.759478e+000 29 50 13
4.510161e-001 -1.286719e+000 2.817575e+000 150 145 27
5.549574e-001 -1.405796e+000 2.833054e+000 38 76 92
4.006713e-001 -1.404773e+000 2.935318e+000 179 56 63
5.319349e-001 -1.483340e+000 2.976347e+000 217 52 53
5.649877e-001 -1.516877e+000 2.956480e+000 205 55 61
5.224815e-001 -1.484583e+000 2.990589e+000 138 27 33
5.224815e-001 -1.484583e+000 2.990589e+000 138 27 33
5.506677e-001 -1.501092e+000 2.971483e+000 214 56 63
4.733644e-001 -1.491046e+000 3.026397e+000 217 65 63
4.976787e-001 -1.499915e+000 3.020688e+000 195 49 46
4.978067e-001 -1.498456e+000 3.020947e+000 195 49 46
4.277988e-001 -1.552532e+000 3.067852e+000 68 27 23
5.163225e-001 -1.538555e+000 3.050523e+000 184 133 88
5.549540e-001 -1.547544e+000 3.028036e+000 135 52 19
-1.124745e-001 -2.280592e+000 2.365749e+000 101 74 59
4.880602e-001 -1.281388e+000 2.777762e+000 50 101 98
5.078881e-001 -1.293789e+000 2.777395e+000 62 104 102
5.073038e-001 -1.345548e+000 2.836025e+000 187 141 117
3.683809e-001 -1.390585e+000 2.888148e+000 182 162 170
5.118195e-001 -1.402078e+000 2.898550e+000 93 45 23
5.438419e-001 -1.424297e+000 2.887458e+000 157 101 78
5.208066e-001 -1.468608e+000 2.968697e+000 95 51 42
5.732090e-001 -1.522684e+000 2.962076e+000 220 58 60
5.732090e-001 -1.522684e+000 2.962076e+000 220 58 60
4.715835e-001 -1.496797e+000 3.031750e+000 232 87 87
5.933891e-001 -1.581319e+000 2.992222e+000 201 115 30
4.529689e-001 -1.240927e+000 2.604081e+000 200 42 42
-5.356210e-002 -2.276823e+000 2.347640e+000 104 85 70
5.297962e-001 -1.377442e+000 2.838476e+000 165 24 31
3.960929e-001 -1.407015e+000 2.930789e+000 176 165 173
6.265771e-001 -1.834936e+000 2.727919e+000 19 15 16
5.484855e-001 -1.443417e+000 2.899706e+000 136 78 53
4.726733e-001 -1.413176e+000 2.943915e+000 195 127 87
5.018399e-001 -1.419419e+000 2.924945e+000 182 114 83
5.019367e-001 -1.415243e+000 2.925919e+000 182 114 83
4.602865e-001 -1.427882e+000 2.963199e+000 203 126 101
4.601327e-001 -1.429394e+000 2.962841e+000 203 126 101
4.452803e-001 -1.434506e+000 2.975097e+000 166 44 36
4.657449e-001 -1.435614e+000 2.972422e+000 181 113 94
4.182593e-001 -1.466530e+000 2.997010e+000 14 91 170
4.281208e-001 -1.474517e+000 3.009280e+000 192 153 122
-1.283511e-001 -2.249244e+000 2.265352e+000 101 84 66
-1.010740e-001 -2.159035e+000 2.594536e+000 58 46 31
3.665523e-001 -1.402311e+000 2.897335e+000 176 163 173
5.467019e-001 -1.422244e+000 2.861524e+000 193 120 91
5.072873e-001 -1.473795e+000 2.987315e+000 160 18 30
4.528385e-001 -1.472166e+000 3.012368e+000 189 146 112
5.281819e-001 -1.539134e+000 3.035874e+000 166 54 35
4.240883e-001 -1.220106e+000 2.750662e+000 54 103 120
-1.185066e-001 -2.281920e+000 2.381528e+000 146 122 94
5.234313e-001 -1.310392e+000 2.770427e+000 28 57 22
5.783412e-001 -1.473367e+000 2.863337e+000 37 27 26
3.354990e-001 -1.534319e+000 2.919671e+000 26 18 15
3.354990e-001 -1.534319e+000 2.919671e+000 26 18 15
3.204350e-001 -1.284994e+000 2.743111e+000 176 110 101
-1.189903e-001 -2.239591e+000 2.302383e+000 102 87 68
-7.558449e-002 -2.290774e+000 2.339529e+000 33 29 52
-7.834910e-002 -2.305215e+000 2.353674e+000 136 119 93
4.670912e-001 -1.289076e+000 2.806463e+000 24 57 23
4.999972e-001 -1.308809e+000 2.800668e+000 132 139 112
4.950610e-001 -1.491878e+000 3.011306e+000 169 21 33
4.950885e-001 -1.491419e+000 3.011366e+000 169 21 33
5.185741e-001 -1.402092e+000 2.890902e+000 195 120 88
5.132852e-001 -1.311308e+000 2.799375e+000 30 55 22
-1.950902e-001 -2.108508e+000 2.372769e+000 29 19 20
3.881093e-001 -1.255787e+000 2.778841e+000 161 159 154
4.916184e-001 -1.453275e+000 2.973938e+000 189 123 89
4.142423e-001 -1.524886e+000 3.037059e+000 134 95 78
5.346910e-001 -1.507437e+000 2.999767e+000 217 65 71
5.346910e-001 -1.507437e+000 2.999767e+000 217 65 71
5.630128e-001 -1.567272e+000 3.033383e+000 197 111 50
5.065614e-001 -1.284737e+000 2.754009e+000 38 52 6
5.094609e-001 -1.290023e+000 2.751173e+000 42 52 8
4.469556e-001 -1.387846e+000 2.930997e+000 186 115 93
5.655760e-001 -1.500257e+000 2.947397e+000 220 61 69
5.530501e-001 -1.505702e+000 2.970999e+000 159 23 29
4.972534e-001 -1.480222e+000 3.005841e+000 198 46 47
4.972534e-001 -1.480222e+000 3.005841e+000 198 46 47
5.572956e-001 -1.511810e+000 2.980485e+000 164 24 34
5.280841e-001 -1.522028e+000 3.022995e+000 113 62 45
4.974819e-001 -1.549262e+000 3.073552e+000 173 118 85
4.939484e-001 -1.292459e+000 2.788023e+000 69 104 101
5.113174e-001 -1.419835e+000 2.921512e+000 65 36 23
4.897545e-001 -1.489321e+000 3.016961e+000 152 25 37
4.824145e-001 -1.451571e+000 2.975884e+000 196 121 93
4.790617e-001 -1.490215e+000 3.020827e+000 148 19 30
4.976741e-001 -1.509247e+000 3.035378e+000 185 110 88
5.065685e-001 -1.516723e+000 3.031179e+000 189 112 85
5.467915e-001 -1.535653e+000 3.019449e+000 195 131 87
5.271911e-001 -1.521512e+000 3.027861e+000 197 118 79
5.086624e-001 -1.364129e+000 2.864212e+000 191 117 77
5.359216e-001 -1.493588e+000 2.990085e+000 167 25 32
4.604708e-001 -1.216161e+000 2.712755e+000 25 91 123
5.120554e-001 -1.594063e+000 3.105889e+000 91 39 30
5.924254e-001 -1.617030e+000 3.049985e+000 43 14 10
5.437814e-001 -1.600362e+000 3.083507e+000 170 125 93
5.248825e-001 -1.603587e+000 3.100296e+000 136 75 45
4.670964e-001 -1.591042e+000 3.134975e+000 41 14 26
-8.698368e-002 -2.134170e+000 2.118051e+000 97 80 60
-1.108493e-001 -2.106552e+000 2.117680e+000 120 99 76
-1.045691e-001 -2.124269e+000 2.136695e+000 68 56 56
-6.577153e-002 -2.145531e+000 2.105343e+000 93 80 63
6.873840e-001 -8.418932e-001 3.250423e+000 43 27 27
4.207781e-001 -1.442123e+000 2.981443e+000 178 42 48
5.113412e-001 -1.404558e+000 2.909022e+000 194 124 87
4.720600e-001 -1.451317e+000 2.984703e+000 66 32 26
5.051950e-001 -1.517994e+000 3.038000e+000 196 125 90
4.798667e-001 -1.333730e+000 2.753953e+000 50 101 98
5.286714e-001 -1.545663e+000 3.048100e+000 174 120 75
4.949058e-001 -1.262319e+000 2.741785e+000 38 50 14
5.069017e-001 -1.285876e+000 2.760118e+000 37 49 15
5.059912e-001 -1.497049e+000 3.016811e+000 190 39 36
5.102061e-001 -1.456305e+000 2.966740e+000 160 97 66
5.110849e-001 -1.510189e+000 3.024976e+000 107 50 31
5.110849e-001 -1.510189e+000 3.024976e+000 107 50 31
4.691892e-001 -1.307785e+000 2.825437e+000 34 56 22
4.356145e-001 -1.237150e+000 2.765040e+000 190 130 87
4.355791e-001 -1.236875e+000 2.764882e+000 190 130 87
4.733162e-001 -1.276870e+000 2.783192e+000 63 95 73
4.180408e-001 -1.453117e+000 2.985577e+000 180 35 42
7.107481e-001 -8.735306e-001 3.262569e+000 39 34 41
4.111336e-001 -1.443152e+000 2.970009e+000 165 52 56
3.828987e-001 -1.338059e+000 2.870330e+000 154 165 170
5.056222e-001 -1.583053e+000 3.101037e+000 128 99 76
5.125032e-001 -1.561544e+000 3.074049e+000 192 145 97
5.004777e-001 -1.369377e+000 2.876187e+000 26 72 98
2.969811e-001 -1.377916e+000 2.753505e+000 36 56 28
4.941927e-001 -1.283736e+000 2.777939e+000 27 42 0
3.323283e-001 -1.350803e+000 2.797335e+000 39 55 23
3.465641e-001 -1.444175e+000 2.886556e+000 102 26 33
3.584898e-001 -1.428736e+000 2.895428e+000 234 130 129
3.584898e-001 -1.428736e+000 2.895428e+000 234 130 129
3.579084e-001 -1.440166e+000 2.894569e+000 118 28 34
3.603345e-001 -1.437896e+000 2.896001e+000 215 121 117
3.374978e-001 -1.474012e+000 2.895402e+000 44 78 128
3.559172e-001 -1.470932e+000 2.910171e+000 98 129 173
4.607757e-001 -1.431633e+000 2.963824e+000 173 108 80
4.716405e-001 -1.475296e+000 3.011630e+000 183 57 54
5.260139e-001 -1.502190e+000 3.006070e+000 192 59 54
3.099526e-001 -1.380610e+000 2.780014e+000 34 57 36
3.104641e-001 -1.401265e+000 2.797474e+000 140 163 79
3.187025e-001 -1.442403e+000 2.834673e+000 127 112 115
4.876242e-001 -1.471470e+000 2.999746e+000 217 83 76
4.179718e-001 -1.486716e+000 3.005688e+000 26 77 130
5.222584e-001 -1.496511e+000 3.006000e+000 130 26 29
4.258889e-001 -1.550058e+000 3.058952e+000 148 94 59
7.616838e-001 -1.895312e+000 2.081518e+000 108 86 63
7.427619e-001 -1.917815e+000 2.085841e+000 46 35 21
2.846526e-001 -1.325986e+000 2.696904e+000 148 145 166
2.900436e-001 -1.333387e+000 2.718367e+000 157 37 46
3.255783e-001 -1.283500e+000 2.735136e+000 158 31 45
3.068368e-001 -1.384521e+000 2.781134e+000 144 166 91
3.250896e-001 -1.368087e+000 2.787210e+000 150 161 54
3.237798e-001 -1.359755e+000 2.791644e+000 150 161 54
3.145013e-001 -1.431097e+000 2.827164e+000 135 115 110
3.145013e-001 -1.431097e+000 2.827164e+000 135 115 110
3.372307e-001 -1.410571e+000 2.840695e+000 160 151 157
3.599919e-001 -1.408015e+000 2.884016e+000 155 151 160
3.405399e-001 -1.457555e+000 2.886869e+000 174 58 66
5.008452e-001 -1.410310e+000 2.926997e+000 125 70 44
4.701958e-001 -1.406868e+000 2.941105e+000 122 79 57
4.402606e-001 -1.415078e+000 2.956550e+000 150 49 44
5.113222e-001 -1.460621e+000 2.973518e+000 98 59 37
5.090331e-001 -1.465056e+000 2.983260e+000 176 112 73
5.646159e-001 -1.517280e+000 2.988402e+000 133 86 44
5.164511e-001 -1.511390e+000 3.034092e+000 177 113 74
8.690152e-001 -1.983041e+000 2.221900e+000 62 50 25
3.216793e-001 -1.403864e+000 2.805176e+000 43 54 32
3.216793e-001 -1.403864e+000 2.805176e+000 43 54 32
4.955962e-001 -1.329273e+000 2.851682e+000 124 100 74
3.233606e-001 -1.468503e+000 2.849387e+000 134 30 27
3.318701e-001 -1.429901e+000 2.855970e+000 156 151 159
4.857467e-001 -1.357631e+000 2.881908e+000 128 20 24
4.601012e-001 -1.387956e+000 2.923357e+000 124 64 39
3.572633e-001 -1.457991e+000 2.914179e+000 92 130 180
3.749678e-001 -1.461679e+000 2.937415e+000 177 121 104
4.485566e-001 -1.427097e+000 2.967754e+000 176 108 86
3.911086e-001 -1.504583e+000 2.987489e+000 183 125 111
3.633188e-001 -1.576075e+000 2.988446e+000 148 129 116
5.281135e-001 -1.533091e+000 3.036382e+000 132 43 21
4.618147e-001 -1.264386e+000 2.780406e+000 61 80 29
5.346381e-001 -1.315018e+000 2.762922e+000 60 94 95
3.493192e-001 -1.307259e+000 2.794272e+000 33 56 21
4.854248e-001 -1.292268e+000 2.803298e+000 95 102 35
4.472305e-001 -1.352136e+000 2.891710e+000 198 128 93
4.612500e-001 -1.354299e+000 2.886556e+000 166 94 75
3.456711e-001 -1.423913e+000 2.871199e+000 149 47 45
3.574809e-001 -1.435356e+000 2.887473e+000 140 23 31
3.763642e-001 -1.443969e+000 2.931870e+000 66 105 151
4.300365e-001 -1.478289e+000 3.009675e+000 161 128 105
7.913780e-001 -1.858089e+000 2.105506e+000 45 36 29
3.199310e-001 -1.332871e+000 2.752374e+000 151 159 146
4.798197e-001 -1.270913e+000 2.779676e+000 23 50 17
4.734027e-001 -1.277376e+000 2.784425e+000 61 86 54
3.348801e-001 -1.335397e+000 2.794110e+000 26 55 33
4.920507e-001 -1.292960e+000 2.789123e+000 68 93 75
3.496261e-001 -1.329241e+000 2.810718e+000 152 154 151
3.490018e-001 -1.325978e+000 2.812702e+000 152 154 151
3.461853e-001 -1.341785e+000 2.811434e+000 24 57 28
4.407932e-001 -1.358130e+000 2.887835e+000 142 18 24
3.735923e-001 -1.379327e+000 2.888064e+000 186 141 146
3.584467e-001 -1.458065e+000 2.904402e+000 92 32 62
4.629347e-001 -1.489580e+000 3.025361e+000 139 20 28
4.942729e-001 -1.486681e+000 3.012059e+000 141 20 25
3.053452e-001 -1.369741e+000 2.769340e+000 155 157 154
3.167662e-001 -1.358989e+000 2.774357e+000 27 61 34
3.364361e-001 -1.340202e+000 2.779482e+000 152 154 151
3.356188e-001 -1.340173e+000 2.791590e+000 25 54 32
3.404763e-001 -1.346267e+000 2.800123e+000 155 157 152
3.399759e-001 -1.482859e+000 2.900871e+000 98 58 73
7.627644e-001 -1.873164e+000 2.078400e+000 201 171 111
8.828642e-001 -2.030833e+000 2.339421e+000 192 166 107
3.849962e-001 -1.402721e+000 2.921295e+000 146 23 28
4.509743e-001 -1.539469e+000 3.063096e+000 162 128 101
5.283446e-001 -1.413907e+000 2.885354e+000 180 111 72
5.553972e-001 -1.519627e+000 2.977925e+000 196 52 49
5.706891e-001 -1.534983e+000 2.985922e+000 178 123 74
4.443848e-001 -1.486420e+000 3.015493e+000 160 128 103
2.972114e-001 -1.342419e+000 2.701298e+000 192 125 121
3.624192e-001 -1.286387e+000 2.775958e+000 113 134 164
4.575667e-001 -1.600874e+000 3.045560e+000 164 130 104
6.082666e-001 -1.302657e+000 2.730653e+000 82 108 112
6.452565e-001 -1.544782e+000 2.986289e+000 169 124 85
6.129094e-001 -1.526019e+000 2.946305e+000 174 118 62
6.125558e-001 -1.167328e+000 2.672677e+000 207 183 147
6.161578e-001 -1.176452e+000 2.671176e+000 212 182 140
6.223552e-001 -1.252569e+000 2.715041e+000 213 134 109
6.708134e-001 -1.244799e+000 2.792213e+000 162 173 95
5.422798e-001 -1.350290e+000 2.774636e+000 100 96 70
6.893019e-001 -1.340097e+000 2.891103e+000 183 136 106
6.893019e-001 -1.340097e+000 2.891103e+000 183 136 106
5.632627e-001 -1.420301e+000 2.836231e+000 33 73 104
6.542348e-001 -1.399866e+000 2.872589e+000 215 140 115
5.483719e-001 -1.437235e+000 2.865152e+000 138 82 63
5.483719e-001 -1.437235e+000 2.865152e+000 138 82 63
6.505249e-001 -1.404908e+000 2.868034e+000 219 139 108
6.533568e-001 -1.405505e+000 2.874115e+000 130 24 28
6.533568e-001 -1.405505e+000 2.874115e+000 130 24 28
6.759853e-001 -1.404719e+000 2.910348e+000 38 62 71
6.805905e-001 -1.399373e+000 2.914165e+000 37 55 64
6.504109e-001 -1.432189e+000 2.892373e+000 36 65 82
6.462286e-001 -1.435849e+000 2.890637e+000 128 153 159
5.497530e-001 -1.466000e+000 2.892273e+000 192 131 100
5.519488e-001 -1.464880e+000 2.892354e+000 134 88 62
5.554208e-001 -1.469332e+000 2.896636e+000 195 136 101
6.750578e-001 -1.431679e+000 2.927486e+000 135 81 94
6.750578e-001 -1.431679e+000 2.927486e+000 135 81 94
6.415307e-001 -1.460878e+000 2.906365e+000 177 92 96
6.450657e-001 -1.461609e+000 2.909619e+000 151 80 81
6.126765e-001 -1.485290e+000 2.902602e+000 84 36 39
6.229783e-001 -1.477069e+000 2.900856e+000 172 85 80
6.230772e-001 -1.477117e+000 2.900534e+000 172 85 80
6.495141e-001 -1.472039e+000 2.923209e+000 91 55 62
6.562122e-001 -1.465802e+000 2.926494e+000 80 56 60
6.983887e-001 -1.439015e+000 2.977754e+000 40 67 82
6.983887e-001 -1.439015e+000 2.977754e+000 40 67 82
7.009087e-001 -1.436244e+000 2.983004e+000 62 96 123
6.902207e-001 -1.474338e+000 2.985677e+000 175 110 93
6.883897e-001 -1.489755e+000 2.979977e+000 109 75 76
6.213740e-001 -1.523704e+000 2.945041e+000 115 53 58
7.038599e-001 -1.486351e+000 3.024041e+000 131 79 40
6.282768e-001 -1.537493e+000 2.960593e+000 121 75 81
5.904927e-001 -1.175048e+000 2.663585e+000 221 186 151
6.126969e-001 -1.179638e+000 2.669136e+000 216 184 143
4.891657e-001 -1.261890e+000 2.722891e+000 179 49 47
6.299388e-001 -1.235768e+000 2.717370e+000 205 149 106
6.356992e-001 -1.233536e+000 2.722881e+000 157 35 44
6.241765e-001 -1.253293e+000 2.718152e+000 168 38 50
6.352995e-001 -1.237102e+000 2.727226e+000 160 37 37
6.352995e-001 -1.237102e+000 2.727226e+000 160 37 37
6.918771e-001 -1.287121e+000 2.865563e+000 88 88 64
5.518357e-001 -1.466931e+000 2.898378e+000 197 134 101
6.442054e-001 -1.450447e+000 2.897523e+000 157 67 50
6.311420e-001 -1.466575e+000 2.897065e+000 88 37 36
6.301935e-001 -1.473862e+000 2.903915e+000 171 88 85
6.750527e-001 -1.448440e+000 2.941818e+000 84 62 70
6.780450e-001 -1.497138e+000 2.983230e+000 101 71 73
6.075967e-001 -1.535474e+000 2.948616e+000 135 83 34
6.473083e-001 -1.525411e+000 2.968077e+000 117 78 81
7.064057e-001 -1.489923e+000 3.059366e+000 140 103 70
5.011286e-001 -1.150540e+000 2.679141e+000 212 107 104
6.082756e-001 -1.175712e+000 2.668180e+000 214 183 145
6.254714e-001 -1.390625e+000 2.827973e+000 170 143 116
6.127835e-001 -1.403805e+000 2.823520e+000 185 143 115
6.222032e-001 -1.404610e+000 2.835131e+000 175 145 116
6.349430e-001 -1.399083e+000 2.844533e+000 169 147 116
6.364963e-001 -1.458014e+000 2.901600e+000 164 71 58
6.523742e-001 -1.467415e+000 2.923319e+000 84 59 65
6.806287e-001 -1.461544e+000 2.959993e+000 95 70 73
6.286430e-001 -1.504996e+000 2.931713e+000 168 110 106
6.912226e-001 -1.484440e+000 2.990629e+000 79 52 47
7.078043e-001 -1.482989e+000 3.031445e+000 103 58 29
5.692000e-001 -1.581038e+000 3.008764e+000 170 78 41
7.142063e-001 -1.542598e+000 3.091627e+000 154 106 83
5.066960e-001 -1.162036e+000 2.684638e+000 156 134 113
6.266164e-001 -1.238514e+000 2.709920e+000 174 35 35
5.864151e-001 -1.305732e+000 2.722402e+000 72 104 117
7.024379e-001 -1.432602e+000 2.985577e+000 34 59 80
5.691835e-001 -1.507083e+000 2.930979e+000 197 137 103
5.639839e-001 -1.509250e+000 2.935331e+000 161 33 41
6.362441e-001 -1.570882e+000 2.993661e+000 162 124 83
6.132991e-001 -1.641727e+000 3.051813e+000 215 103 42
6.182333e-001 -1.160543e+000 2.678937e+000 209 179 143
5.930974e-001 -1.180505e+000 2.662528e+000 151 124 93
5.930974e-001 -1.180505e+000 2.662528e+000 151 124 93
4.921943e-001 -1.296562e+000 2.758528e+000 32 60 42
6.335458e-001 -1.312628e+000 2.775666e+000 169 151 47
6.383996e-001 -1.313322e+000 2.781295e+000 30 56 28
6.226836e-001 -1.357311e+000 2.794558e+000 162 149 92
6.228575e-001 -1.357332e+000 2.793733e+000 162 149 92
6.717386e-001 -1.341193e+000 2.852752e+000 162 148 114
6.717386e-001 -1.341193e+000 2.852752e+000 162 148 114
6.541690e-001 -1.359042e+000 2.836452e+000 158 146 118
6.876122e-001 -1.343585e+000 2.886384e+000 169 114 88
6.876122e-001 -1.343585e+000 2.886384e+000 169 114 88
6.718139e-001 -1.361844e+000 2.872665e+000 160 147 115
6.704458e-001 -1.368592e+000 2.870755e+000 175 36 36
5.625751e-001 -1.428685e+000 2.845197e+000 17 78 123
6.459089e-001 -1.513729e+000 2.955867e+000 147 108 96
7.087767e-001 -1.488923e+000 3.045566e+000 32 18 24
4.456023e-001 -1.626230e+000 3.061179e+000 51 39 49
6.522133e-001 -1.212703e+000 2.738052e+000 166 89 72
6.522133e-001 -1.212703e+000 2.738052e+000 166 89 72
6.382693e-001 -1.297459e+000 2.769499e+000 31 57 29
6.382693e-001 -1.297459e+000 2.769499e+000 31 57 29
6.829803e-001 -1.278078e+000 2.831790e+000 109 124 111
6.720134e-001 -1.342155e+000 2.852730e+000 167 146 113
6.879380e-001 -1.390969e+000 2.921814e+000 38 65 78
6.880743e-001 -1.390951e+000 2.920942e+000 38 65 78
6.658349e-001 -1.481118e+000 2.951910e+000 28 12 18
6.307264e-001 -1.298064e+000 2.761755e+000 169 148 103
6.307264e-001 -1.298064e+000 2.761755e+000 169 148 103
6.620797e-001 -1.284624e+000 2.796947e+000 168 151 96
6.657391e-001 -1.284333e+000 2.817105e+000 31 54 34
6.657391e-001 -1.284333e+000 2.817105e+000 31 54 34
6.572039e-001 -1.460542e+000 2.930235e+000 79 57 59
6.853409e-001 -1.459320e+000 2.971633e+000 158 123 101
5.340333e-001 -1.509081e+000 2.959194e+000 164 37 46
6.400841e-001 -1.513582e+000 2.951601e+000 134 96 86
7.055163e-001 -1.494541e+000 3.056813e+000 146 103 60
6.483748e-001 -1.559818e+000 3.000474e+000 159 113 80
6.070663e-001 -1.315161e+000 2.742245e+000 161 145 105
6.070663e-001 -1.315161e+000 2.742245e+000 161 145 105
6.261166e-001 -1.371240e+000 2.813835e+000 159 145 117
7.034457e-001 -1.508394e+000 3.042690e+000 46 16 19
6.227811e-001 -1.318347e+000 2.760487e+000 165 147 112
5.661427e-001 -1.593021e+000 3.033744e+000 165 128 101
5.863981e-001 -1.610742e+000 3.034025e+000 147 83 50
4.893641e-001 -1.341634e+000 2.826954e+000 160 157 138
5.181301e-001 -1.168673e+000 2.683559e+000 227 204 173
5.635452e-001 -1.612937e+000 3.043519e+000 38 26 36
5.528915e-001 -1.544751e+000 3.007755e+000 196 142 99
6.815875e-001 -1.536455e+000 3.040450e+000 155 113 73
6.815875e-001 -1.536455e+000 3.040450e+000 155 113 73
4.523167e-001 -1.564574e+000 3.096523e+000 135 83 59
3.354187e-001 -1.289712e+000 2.757807e+000 26 49 20
3.585345e-001 -1.323023e+000 2.823467e+000 126 148 49
3.585345e-001 -1.323023e+000 2.823467e+000 126 148 49
4.275377e-001 -1.556496e+000 3.071323e+000 86 31 29
4.689232e-001 -1.588236e+000 3.118954e+000 185 155 127
4.688889e-001 -1.587532e+000 3.124541e+000 200 141 119
4.537853e-001 -1.301483e+000 2.830503e+000 133 140 35
4.846670e-001 -1.338922e+000 2.856381e+000 150 132 104
4.039802e-001 -1.400049e+000 2.934539e+000 149 153 157
5.119934e-001 -1.464118e+000 2.979771e+000 130 83 65
5.115326e-001 -1.473954e+000 2.988569e+000 186 54 49
4.974993e-001 -1.496878e+000 3.020933e+000 184 59 51
5.055351e-001 -1.496050e+000 3.016779e+000 186 61 51
5.219593e-001 -1.516235e+000 3.026402e+000 105 61 36
5.219593e-001 -1.516235e+000 3.026402e+000 105 61 36
5.299998e-001 -1.545959e+000 3.051960e+000 157 107 58
4.976139e-001 -1.548078e+000 3.068485e+000 158 122 74
4.940249e-001 -1.510835e+000 3.037321e+000 179 114 84
3.740354e-001 -1.660017e+000 3.031892e+000 169 121 111
4.907171e-001 -1.544709e+000 3.074204e+000 61 37 10
7.819061e-001 -1.828388e+000 2.067051e+000 32 22 21
7.935302e-001 -1.862262e+000 2.087674e+000 29 20 13
3.674449e-001 -1.400581e+000 2.889978e+000 161 153 161
4.589509e-001 -1.446947e+000 2.989370e+000 152 101 72
5.878752e-001 -1.602266e+000 3.057170e+000 54 17 1
4.941690e-001 -1.580754e+000 3.106487e+000 49 33 19
3.626451e-001 -1.328128e+000 2.835403e+000 104 131 123
3.763155e-001 -1.443898e+000 2.932007e+000 66 105 151
4.577212e-001 -1.471794e+000 3.007902e+000 128 19 30
5.560287e-001 -1.535177e+000 3.189177e+000 41 30 28
3.777100e-001 -1.651019e+000 3.034779e+000 131 94 84
4.229009e-001 -1.580175e+000 3.073275e+000 163 130 110
7.575703e-001 -1.856252e+000 2.066741e+000 207 171 113
7.575703e-001 -1.856252e+000 2.066741e+000 207 171 113
4.746698e-001 -1.586519e+000 3.117582e+000 176 150 123
7.755337e-001 -1.824238e+000 2.027172e+000 215 179 119
5.969976e-001 -1.530585e+000 3.174792e+000 131 109 88
6.079666e-001 -1.916821e+000 1.923192e+000 132 105 76
7.943087e-001 -1.830064e+000 2.049274e+000 31 21 20
5.743413e-001 -1.601148e+000 3.082789e+000 33 21 21
5.649224e-001 -1.559706e+000 3.127969e+000 36 26 27
4.603698e-001 -1.435827e+000 2.974236e+000 101 53 33
5.234876e-001 -1.468304e+000 2.978851e+000 137 26 17
4.888958e-001 -1.474588e+000 3.004415e+000 175 51 48
4.699024e-001 -1.484269e+000 3.018775e+000 134 36 31
4.689367e-001 -1.497769e+000 3.032078e+000 185 53 57
5.012837e-001 -1.547406e+000 3.069035e+000 72 49 20
4.705886e-001 -1.240566e+000 2.744618e+000 157 34 28
4.647015e-001 -1.238972e+000 2.747693e+000 157 34 30
4.647015e-001 -1.238972e+000 2.747693e+000 157 34 30
4.457145e-001 -1.242727e+000 2.763544e+000 136 41 30
5.427439e-001 -1.404479e+000 2.874303e+000 132 77 50
4.990967e-001 -1.402369e+000 2.920050e+000 123 74 44
5.450785e-001 -1.428852e+000 2.903759e+000 127 74 38
3.627867e-001 -1.463359e+000 2.914760e+000 29 75 134
4.831580e-001 -1.428956e+000 2.957890e+000 110 61 36
5.119191e-001 -1.430208e+000 2.945141e+000 110 62 35
4.901670e-001 -1.435216e+000 2.962288e+000 106 65 37
4.901670e-001 -1.435216e+000 2.962288e+000 106 65 37
4.240947e-001 -1.439600e+000 2.976972e+000 171 77 70
4.660609e-001 -1.462657e+000 2.999654e+000 113 66 46
4.992189e-001 -1.548724e+000 3.072066e+000 148 113 67
4.339340e-001 -1.233409e+000 2.759619e+000 153 32 31
4.338843e-001 -1.233393e+000 2.759887e+000 153 32 31
3.364696e-001 -1.292009e+000 2.757906e+000 33 50 24
3.364696e-001 -1.292009e+000 2.757906e+000 33 50 24
3.383390e-001 -1.413007e+000 2.839356e+000 159 151 162
3.214524e-001 -1.456187e+000 2.828573e+000 128 109 115
3.337508e-001 -1.446512e+000 2.855151e+000 150 37 47
3.870401e-001 -1.385736e+000 2.903610e+000 160 153 162
5.022145e-001 -1.390525e+000 2.904304e+000 84 43 21
5.022145e-001 -1.390525e+000 2.904304e+000 84 43 21
5.042428e-001 -1.394593e+000 2.906583e+000 174 110 74
5.054411e-001 -1.406448e+000 2.920876e+000 173 109 69
4.745658e-001 -1.427610e+000 2.961585e+000 103 59 36
5.150376e-001 -1.459650e+000 2.975015e+000 182 114 79
5.335853e-001 -1.591842e+000 3.089899e+000 135 102 73
3.513675e-001 -1.362123e+000 2.831678e+000 145 165 103
3.439576e-001 -1.430651e+000 2.861501e+000 161 148 163
5.053657e-001 -1.412521e+000 2.929162e+000 180 112 73
4.384401e-001 -1.435508e+000 2.974897e+000 163 73 64
4.887355e-001 -1.504543e+000 3.035997e+000 114 66 44
4.887355e-001 -1.504543e+000 3.035997e+000 114 66 44
5.286236e-001 -1.522428e+000 3.026600e+000 180 107 67
3.309603e-001 -1.327928e+000 2.767254e+000 142 163 96
3.311643e-001 -1.354722e+000 2.789058e+000 153 158 90
3.618745e-001 -1.407950e+000 2.889119e+000 157 38 36
3.976210e-001 -1.407580e+000 2.929630e+000 160 153 159
4.073741e-001 -1.404744e+000 2.937479e+000 153 43 42
4.612405e-001 -1.276385e+000 2.799001e+000 25 50 20
4.865520e-001 -1.308030e+000 2.818809e+000 30 46 16
3.377632e-001 -1.380180e+000 2.812910e+000 156 152 151
3.377632e-001 -1.380180e+000 2.812910e+000 156 152 151
4.505357e-001 -1.470514e+000 3.013157e+000 162 126 99
5.456251e-001 -1.399486e+000 2.858991e+000 28 68 86
4.880758e-001 -1.392111e+000 2.909252e+000 175 109 81
6.043055e-001 -1.294418e+000 2.724493e+000 96 105 83
6.098717e-001 -1.409555e+000 2.828078e+000 117 71 56
6.079048e-001 -1.168122e+000 2.671497e+000 213 183 144
6.079048e-001 -1.168122e+000 2.671497e+000 213 183 144
6.180176e-001 -1.286662e+000 2.733543e+000 64 101 103
5.595928e-001 -1.495498e+000 2.923530e+000 195 141 107
6.341231e-001 -1.495862e+000 2.924956e+000 109 61 67
5.748936e-001 -1.533697e+000 2.954398e+000 218 61 71
6.353007e-001 -1.568735e+000 2.995658e+000 167 121 84
5.764552e-001 -1.513842e+000 2.931426e+000 160 29 41
2.862870e-001 -1.368037e+000 3.216581e+000 30 21 23
3.607781e-001 -1.510619e+000 3.065721e+000 60 48 52
6.726711e-001 -1.334425e+000 2.855501e+000 170 35 41
2.812689e-001 -1.344396e+000 3.208756e+000 22 19 28
6.745985e-001 -1.397352e+000 2.909446e+000 19 65 92
2.941809e-001 -9.948152e-001 3.113866e+000 152 124 102
2.712264e-001 -1.019688e+000 3.091835e+000 130 103 86
5.884413e-001 -1.179463e+000 2.661795e+000 94 67 50
2.986384e-001 -1.354536e+000 3.209006e+000 25 15 23
2.623600e-001 -9.927639e-001 3.075470e+000 148 119 103
6.175954e-001 -1.431544e+000 2.856166e+000 156 26 36
4.602073e-001 -2.074377e+000 1.821207e+000 144 110 64
4.466350e-001 -1.230869e+000 2.628668e+000 162 67 45
4.054468e-001 -1.410475e+000 2.941790e+000 181 54 61
4.739073e-001 -1.485447e+000 3.019939e+000 184 58 52
4.513036e-001 -1.387070e+000 2.926270e+000 95 57 38
5.319842e-001 -1.508099e+000 3.012914e+000 139 90 55
4.396516e-001 -1.429207e+000 2.970950e+000 163 76 59
5.362072e-001 -1.255297e+000 2.665461e+000 31 24 13
4.809333e-001 -1.353550e+000 2.873313e+000 136 20 21
5.799389e-001 -1.538232e+000 3.179694e+000 134 108 93
2.896638e-001 -1.340762e+000 2.694330e+000 229 158 155
2.896638e-001 -1.340762e+000 2.694330e+000 229 158 155
2.973727e-001 -1.329813e+000 2.702891e+000 233 155 149
2.973727e-001 -1.329813e+000 2.702891e+000 233 155 149
3.014255e-001 -1.324947e+000 2.706592e+000 217 148 143
3.123783e-001 -1.312114e+000 2.716258e+000 240 156 153
3.272864e-001 -1.279643e+000 2.733917e+000 167 169 201
3.041196e-001 -1.325450e+000 2.712619e+000 202 151 141
3.057782e-001 -1.324191e+000 2.714514e+000 134 55 56
3.057782e-001 -1.324191e+000 2.714514e+000 134 55 56
3.246786e-001 -1.294827e+000 2.729842e+000 217 154 140
3.244548e-001 -1.310044e+000 2.733695e+000 155 39 46
3.301139e-001 -1.285606e+000 2.738670e+000 164 150 169
4.583285e-001 -1.245568e+000 2.759825e+000 146 49 29
2.976792e-001 -1.374662e+000 2.729875e+000 86 122 139
3.028696e-001 -1.355036e+000 2.734852e+000 67 115 155
3.472049e-001 -1.304097e+000 2.789756e+000 38 66 31
3.186142e-001 -1.375616e+000 2.779173e+000 145 159 53
3.186142e-001 -1.375616e+000 2.779173e+000 145 159 53
3.338743e-001 -1.377899e+000 2.807075e+000 29 64 31
3.272339e-001 -1.450260e+000 2.845991e+000 199 139 142
3.272339e-001 -1.450260e+000 2.845991e+000 199 139 142
4.302261e-001 -1.356920e+000 2.902468e+000 70 37 60
3.457485e-001 -1.454081e+000 2.880811e+000 215 154 139
3.506479e-001 -1.456784e+000 2.893213e+000 122 31 34
3.506479e-001 -1.456784e+000 2.893213e+000 122 31 34
3.590010e-001 -1.434052e+000 2.893511e+000 224 150 139
3.590010e-001 -1.434052e+000 2.893511e+000 224 150 139
3.404266e-001 -1.489898e+000 2.887149e+000 35 75 127
3.745515e-001 -1.449372e+000 2.929459e+000 43 75 119
3.745515e-001 -1.449372e+000 2.929459e+000 43 75 119
3.821491e-001 -1.439655e+000 2.933920e+000 97 163 235
3.790047e-001 -1.440768e+000 2.937031e+000 33 79 131
3.844420e-001 -1.441254e+000 2.937794e+000 27 78 127
3.844420e-001 -1.441254e+000 2.937794e+000 27 78 127
4.694709e-001 -1.414584e+000 2.948515e+000 85 45 21
4.694709e-001 -1.414584e+000 2.948515e+000 85 45 21
4.442507e-001 -1.423616e+000 2.964123e+000 132 50 36
4.719844e-001 -1.449794e+000 2.984381e+000 115 66 37
4.719844e-001 -1.449794e+000 2.984381e+000 115 66 37
4.920041e-001 -1.453019e+000 2.977763e+000 191 123 85
4.036238e-001 -1.491615e+000 2.992281e+000 29 80 136
4.089145e-001 -1.481862e+000 2.999424e+000 33 81 127
4.089145e-001 -1.481862e+000 2.999424e+000 33 81 127
4.941511e-001 -1.474578e+000 2.997976e+000 147 29 25
4.963070e-001 -1.475493e+000 2.999959e+000 198 56 48
3.576370e-001 -1.591047e+000 2.968051e+000 171 127 120
3.617591e-001 -1.597446e+000 2.974763e+000 116 115 148
4.743289e-001 -1.473132e+000 3.010322e+000 195 52 51
4.743289e-001 -1.473132e+000 3.010322e+000 195 52 51
4.799895e-001 -1.484801e+000 3.017389e+000 208 63 60
4.954482e-001 -1.491604e+000 3.016512e+000 207 60 53
5.182306e-001 -1.492962e+000 3.005145e+000 217 67 61
5.005573e-001 -1.489664e+000 3.013761e+000 205 59 46
4.936037e-001 -1.493559e+000 3.020165e+000 144 35 29
4.883139e-001 -1.495142e+000 3.024474e+000 194 58 51
4.129117e-001 -1.530137e+000 3.029923e+000 168 96 74
4.129117e-001 -1.530137e+000 3.029923e+000 168 96 74
4.634464e-001 -1.499873e+000 3.036608e+000 138 22 15
4.634464e-001 -1.499873e+000 3.036608e+000 138 22 15
5.128115e-001 -1.513141e+000 3.030950e+000 97 53 27
4.223581e-001 -1.546449e+000 3.055681e+000 150 100 57
3.802027e-001 -1.661981e+000 3.034525e+000 96 50 49
3.802027e-001 -1.661981e+000 3.034525e+000 96 50 49
2.934397e-001 -1.335406e+000 2.698970e+000 221 161 157
3.217523e-001 -1.298669e+000 2.722541e+000 166 29 44
4.521998e-001 -1.236985e+000 2.752775e+000 176 39 28
4.521998e-001 -1.236985e+000 2.752775e+000 176 39 28
3.069096e-001 -1.327957e+000 2.719174e+000 164 42 47
3.128989e-001 -1.318128e+000 2.729268e+000 200 163 153
3.195651e-001 -1.310593e+000 2.732122e+000 156 34 41
3.238899e-001 -1.302428e+000 2.732737e+000 163 31 37
4.448699e-001 -1.241689e+000 2.764964e+000 151 46 33
4.596491e-001 -1.245642e+000 2.763408e+000 164 40 25
3.192213e-001 -1.313126e+000 2.737462e+000 174 38 44
3.259375e-001 -1.313913e+000 2.737569e+000 173 35 48
4.414531e-001 -1.249013e+000 2.773576e+000 64 98 107
4.924771e-001 -1.307465e+000 2.815113e+000 48 55 17
3.183826e-001 -1.451456e+000 2.824623e+000 177 148 153
3.183826e-001 -1.451456e+000 2.824623e+000 177 148 153
3.812693e-001 -1.390532e+000 2.899817e+000 195 155 159
4.952357e-001 -1.387303e+000 2.907979e+000 86 47 25
3.488530e-001 -1.452067e+000 2.890483e+000 130 26 35
4.866451e-001 -1.413823e+000 2.941148e+000 125 78 49
4.866451e-001 -1.413823e+000 2.941148e+000 125 78 49
4.767550e-001 -1.430808e+000 2.960116e+000 107 64 39
5.057683e-001 -1.430244e+000 2.946492e+000 106 60 33
5.057683e-001 -1.430244e+000 2.946492e+000 106 60 33
4.458622e-001 -1.428048e+000 2.965102e+000 129 42 30
5.175919e-001 -1.445298e+000 2.955857e+000 127 78 48
5.102574e-001 -1.457796e+000 2.973710e+000 113 68 42
5.187503e-001 -1.460042e+000 2.970129e+000 106 58 30
4.703844e-001 -1.457375e+000 2.991717e+000 123 79 55
4.703844e-001 -1.457375e+000 2.991717e+000 123 79 55
4.015506e-001 -1.494424e+000 2.993051e+000 55 120 187
4.050991e-001 -1.493860e+000 2.995708e+000 65 126 198
4.115368e-001 -1.492353e+000 3.004624e+000 67 131 195
4.759123e-001 -1.483014e+000 3.016949e+000 135 31 31
3.624546e-001 -1.593315e+000 2.980640e+000 41 39 58
5.208597e-001 -1.510727e+000 3.023592e+000 191 118 85
5.611427e-001 -1.536923e+000 3.017460e+000 142 45 17
4.908225e-001 -1.510777e+000 3.038631e+000 192 124 88
5.040527e-001 -1.511087e+000 3.032441e+000 200 121 83
3.680391e-001 -1.627389e+000 3.001070e+000 185 107 94
3.774595e-001 -1.655135e+000 3.029521e+000 179 143 142
3.797041e-001 -1.656262e+000 3.033180e+000 169 148 143
