ply
format ascii 1.0
element face 0
property list uchar int vertex_indices
element vertex 896
property float x
property float y
property float z
property uchar diffuse_red
property uchar diffuse_green
property uchar diffuse_blue
end_header
4.519622e-001 -9.936744e-001 2.737115e+000 138 97 79
4.514098e-001 -9.945104e-001 2.736241e+000 138 97 79
3.137655e-001 -9.745203e-001 2.798317e+000 13 56 101
4.547451e-001 -1.067955e+000 2.798423e+000 177 123 73
3.853114e-001 -1.087664e+000 2.839059e+000 82 48 38
3.853114e-001 -1.087664e+000 2.839059e+000 82 48 38
3.586299e-001 -1.089589e+000 2.878773e+000 184 119 94
3.905064e-001 -1.105464e+000 2.854507e+000 185 121 98
4.414523e-001 -1.119329e+000 2.842630e+000 108 58 28
3.613151e-001 -1.101080e+000 2.885553e+000 131 26 40
3.819313e-001 -1.127822e+000 2.889511e+000 205 55 72
3.810898e-001 -1.170170e+000 2.945320e+000 99 38 14
3.952008e-001 -1.193064e+000 2.954873e+000 172 84 38
5.023191e-001 -2.316470e-001 2.960955e+000 91 63 56
4.528589e-001 -2.496109e-001 2.995598e+000 70 51 57
4.590831e-001 -2.537719e-001 2.991984e+000 93 62 70
4.635670e-001 -8.866522e-001 2.672494e+000 168 161 83
4.297536e-001 -9.345333e-001 2.669432e+000 166 156 56
4.371146e-001 -1.002220e+000 2.733835e+000 159 108 89
4.716640e-001 -9.995950e-001 2.754070e+000 176 43 48
4.009113e-001 -1.052875e+000 2.789573e+000 163 142 118
4.481202e-001 -1.083602e+000 2.809626e+000 103 48 48
4.491546e-001 -1.090295e+000 2.815805e+000 96 43 48
4.751339e-001 -1.151739e+000 2.880552e+000 161 124 90
4.751339e-001 -1.151739e+000 2.880552e+000 161 124 90
5.095949e-001 -2.337904e-001 2.962340e+000 136 102 92
4.705792e-001 -2.316173e-001 2.978242e+000 117 60 65
4.654401e-001 -2.378586e-001 2.983876e+000 95 44 49
4.843301e-001 -2.566043e-001 2.989949e+000 71 42 51
5.140177e-001 -2.561470e-001 2.978226e+000 132 97 93
5.465575e-001 -2.516470e-001 2.966117e+000 70 54 55
4.861181e-001 -2.813663e-001 3.004814e+000 47 29 29
4.948208e-001 -2.766105e-001 3.000874e+000 59 42 48
4.923029e-001 -2.864079e-001 3.007096e+000 104 88 65
3.231823e-001 -9.692401e-001 2.777865e+000 147 27 42
4.651595e-001 -1.064546e+000 2.800060e+000 174 100 76
4.949723e-001 -1.117758e+000 2.857184e+000 129 99 91
3.933442e-001 -1.151227e+000 2.901354e+000 181 125 99
5.251248e-001 -2.587630e-001 2.972535e+000 148 66 45
4.853656e-001 -2.910880e-001 3.011646e+000 67 40 36
5.240604e-001 -2.937612e-001 3.001954e+000 130 105 101
5.339817e-001 -2.957108e-001 2.999129e+000 52 30 19
5.364645e-001 -3.105233e-001 3.008184e+000 110 54 39
4.614461e-001 -3.160964e-001 3.041702e+000 83 60 70
4.614461e-001 -3.160964e-001 3.041702e+000 83 60 70
4.805084e-001 -3.249885e-001 3.039865e+000 164 94 62
3.028991e-001 -8.578821e-001 2.671744e+000 13 80 122
3.016278e-001 -8.686980e-001 2.689155e+000 47 82 51
3.016628e-001 -8.695086e-001 2.689459e+000 47 82 51
4.451129e-001 -9.517853e-001 2.695870e+000 34 59 28
5.588635e-001 -2.761074e-001 2.973979e+000 131 116 111
5.291360e-001 -2.861239e-001 2.992825e+000 21 10 16
4.676341e-001 -2.992425e-001 3.025786e+000 33 19 32
2.826205e-001 -8.697775e-001 2.728709e+000 110 130 131
4.538937e-001 -1.071023e+000 2.801714e+000 171 127 80
4.596352e-001 -1.180323e+000 2.899210e+000 16 64 104
4.724701e-001 -1.187003e+000 2.904722e+000 156 120 85
5.351891e-001 -2.352416e-001 2.954933e+000 39 55 44
5.351891e-001 -2.352416e-001 2.954933e+000 39 55 44
5.042967e-001 -2.385784e-001 2.968934e+000 134 106 89
5.440087e-001 -2.464164e-001 2.958946e+000 169 115 68
5.440087e-001 -2.464164e-001 2.958946e+000 169 115 68
5.523885e-001 -2.408176e-001 2.946546e+000 34 33 32
4.237209e-001 -9.273156e-001 2.662549e+000 30 59 29
4.515052e-001 -1.059467e+000 2.789357e+000 15 74 108
4.477380e-001 -1.132878e+000 2.854541e+000 154 110 63
3.834095e-001 -1.152687e+000 2.918070e+000 176 127 95
4.342817e-001 -1.169044e+000 2.888470e+000 67 19 27
3.650210e-001 -1.151677e+000 2.947037e+000 156 120 96
3.988328e-001 -1.209712e+000 2.975531e+000 167 129 107
4.580128e-001 -1.252457e+000 2.965639e+000 176 80 40
5.426568e-001 -2.678161e-001 2.970877e+000 25 16 21
5.080960e-001 -2.937126e-001 3.007281e+000 30 19 27
4.320073e-001 -1.131121e+000 2.856596e+000 41 15 23
3.570194e-001 -1.161364e+000 2.980082e+000 79 63 56
3.677691e-001 -1.165987e+000 2.960615e+000 167 139 110
5.490066e-001 -2.849797e-001 2.985196e+000 156 116 86
5.137067e-001 -2.442161e-001 2.969318e+000 120 83 75
5.148687e-001 -2.763681e-001 2.990561e+000 25 15 24
4.573051e-001 -1.220419e+000 2.940512e+000 174 92 36
4.618637e-001 -8.626894e-001 2.649441e+000 69 98 116
4.655004e-001 -9.103726e-001 2.688310e+000 50 56 22
4.650685e-001 -9.699524e-001 2.726695e+000 149 55 55
4.650685e-001 -9.699524e-001 2.726695e+000 149 55 55
4.778612e-001 -1.042077e+000 2.792326e+000 36 72 102
4.762491e-001 -1.068951e+000 2.812777e+000 73 31 28
4.615325e-001 -1.073792e+000 2.806944e+000 85 33 31
4.885508e-001 -1.081076e+000 2.830402e+000 110 77 84
4.809445e-001 -1.147564e+000 2.879314e+000 109 50 35
4.706973e-001 -1.175948e+000 2.896241e+000 25 58 90
2.736067e-001 -8.248923e-001 2.693400e+000 148 45 50
2.913921e-001 -8.392807e-001 2.674856e+000 146 49 49
4.192414e-001 -8.749485e-001 2.620936e+000 179 37 39
4.266930e-001 -9.008408e-001 2.646746e+000 76 106 114
3.951001e-001 -1.121015e+000 2.871054e+000 197 59 74
4.034489e-001 -1.129916e+000 2.868800e+000 208 70 81
3.693269e-001 -1.123541e+000 2.900817e+000 184 61 71
3.758089e-001 -1.136669e+000 2.908397e+000 112 76 54
4.737295e-001 -1.231084e+000 2.946834e+000 132 75 61
4.359201e-001 -1.239162e+000 2.969717e+000 36 13 8
4.437596e-001 -1.240695e+000 2.962245e+000 48 16 7
2.713547e-001 -8.149127e-001 2.687813e+000 175 37 47
2.833781e-001 -8.361276e-001 2.686177e+000 173 41 52
2.995137e-001 -8.700680e-001 2.693529e+000 154 156 34
3.123945e-001 -9.404197e-001 2.759631e+000 158 146 134
3.123945e-001 -9.404197e-001 2.759631e+000 158 146 134
3.810713e-001 -1.036866e+000 2.786125e+000 178 112 91
4.671297e-001 -1.083914e+000 2.816700e+000 71 37 36
4.827484e-001 -1.080518e+000 2.825919e+000 59 39 38
3.823801e-001 -1.106172e+000 2.861309e+000 181 125 99
3.931223e-001 -1.124744e+000 2.874717e+000 189 45 60
4.454401e-001 -1.148532e+000 2.867280e+000 162 116 66
4.938317e-001 -1.019801e+000 2.791261e+000 28 69 100
4.433092e-001 -1.088796e+000 2.812973e+000 168 126 90
4.861181e-001 -2.813663e-001 3.004814e+000 47 29 29
3.071446e-001 -8.764401e-001 2.685364e+000 29 56 36
4.722078e-001 -8.763719e-001 2.669443e+000 39 62 33
4.492225e-001 -8.941224e-001 2.658741e+000 42 59 35
4.920503e-001 -8.843957e-001 2.693786e+000 169 157 85
4.606581e-001 -9.191559e-001 2.686453e+000 36 61 35
4.458628e-001 -9.775894e-001 2.720397e+000 42 57 22
4.458628e-001 -9.775894e-001 2.720397e+000 42 57 22
3.440175e-001 -1.119485e+000 2.935666e+000 179 124 108
4.306261e-001 -2.329701e-001 2.989220e+000 110 86 74
4.326966e-001 -2.458087e-001 2.995857e+000 104 85 71
4.574621e-001 -2.982189e-001 3.029213e+000 78 71 87
4.550762e-001 -9.073465e-001 2.672813e+000 38 62 29
4.869303e-001 -8.916090e-001 2.696595e+000 169 160 92
3.199653e-001 -9.019493e-001 2.705244e+000 29 55 34
5.014875e-001 -9.172433e-001 2.723731e+000 48 60 30
4.839493e-001 -9.955653e-001 2.761104e+000 167 154 122
4.452960e-001 -1.242662e+000 2.963952e+000 69 28 16
4.410000e-001 -2.380292e-001 2.989135e+000 164 146 126
4.703396e-001 -2.471993e-001 2.987149e+000 134 84 83
5.572836e-001 -2.532206e-001 2.956165e+000 41 30 29
4.428478e-001 -2.506576e-001 2.999098e+000 139 120 106
3.802730e-001 -1.103267e+000 2.861608e+000 177 124 101
3.776170e-001 -1.121241e+000 2.887736e+000 154 22 37
4.747156e-001 -2.785809e-001 3.008396e+000 142 46 57
2.967170e-001 -8.855999e-001 2.712688e+000 72 111 134
4.071481e-001 -1.188920e+000 2.934866e+000 165 73 45
5.426568e-001 -2.678161e-001 2.970877e+000 25 16 21
4.515889e-001 -2.682030e-001 3.010365e+000 19 14 21
4.092240e-001 -1.162330e+000 2.896595e+000 179 123 94
4.271790e-001 -8.535681e-001 2.613977e+000 224 142 104
4.684252e-001 -8.344063e-001 2.634113e+000 230 125 104
4.208060e-001 -8.914942e-001 2.637741e+000 136 141 21
2.954407e-001 -8.898832e-001 2.721867e+000 29 54 25
5.108629e-001 -1.015610e+000 2.798508e+000 127 168 199
4.976539e-001 -1.027140e+000 2.793491e+000 131 161 176
4.732585e-001 -1.043616e+000 2.787644e+000 120 166 191
3.756713e-001 -1.055080e+000 2.813138e+000 178 110 91
4.648238e-001 -1.077552e+000 2.809932e+000 73 31 28
4.666834e-001 -1.074469e+000 2.808046e+000 163 82 78
4.696316e-001 -1.078366e+000 2.814237e+000 74 36 35
4.798113e-001 -1.068900e+000 2.812873e+000 154 85 83
4.805241e-001 -1.072990e+000 2.816151e+000 146 83 84
4.689229e-001 -1.080830e+000 2.816491e+000 149 81 83
4.706805e-001 -1.082059e+000 2.814257e+000 82 42 40
4.688108e-001 -1.087040e+000 2.818593e+000 149 103 108
4.558695e-001 -1.101812e+000 2.827115e+000 105 52 62
4.542986e-001 -1.125280e+000 2.847093e+000 58 17 26
3.899757e-001 -1.132309e+000 2.887309e+000 206 54 69
4.585595e-001 -1.168922e+000 2.888475e+000 147 143 157
4.566027e-001 -1.170600e+000 2.889063e+000 31 31 52
4.004584e-001 -1.198467e+000 2.955691e+000 174 138 123
4.284922e-001 -1.232748e+000 2.967888e+000 45 17 10
4.340986e-001 -1.235976e+000 2.965278e+000 39 6 5
4.605385e-001 -8.265714e-001 2.628673e+000 169 43 42
4.609756e-001 -8.415812e-001 2.632027e+000 158 44 48
4.418097e-001 -8.547698e-001 2.626587e+000 155 50 47
4.662111e-001 -1.000697e+000 2.751904e+000 178 148 122
4.889943e-001 -1.017781e+000 2.779645e+000 200 76 76
4.674270e-001 -1.071245e+000 2.807750e+000 82 32 32
3.786911e-001 -1.077568e+000 2.835672e+000 86 53 40
4.495114e-001 -1.098594e+000 2.822964e+000 84 43 44
4.889345e-001 -1.110572e+000 2.852734e+000 26 22 19
5.173609e-001 -1.101700e+000 2.866594e+000 120 81 82
3.556288e-001 -1.100683e+000 2.891460e+000 139 37 43
3.556288e-001 -1.100683e+000 2.891460e+000 139 37 43
3.778288e-001 -1.126761e+000 2.892874e+000 135 28 38
2.668502e-001 -8.148963e-001 2.688431e+000 170 40 53
4.470899e-001 -8.368369e-001 2.621411e+000 170 44 45
4.474587e-001 -8.366393e-001 2.622246e+000 170 44 45
4.510057e-001 -8.516946e-001 2.635398e+000 167 46 51
4.331837e-001 -8.656292e-001 2.626640e+000 173 42 43
3.057993e-001 -8.807195e-001 2.698128e+000 49 91 115
3.300841e-001 -8.952769e-001 2.682564e+000 28 54 29
3.302461e-001 -8.954000e-001 2.682976e+000 28 54 29
2.893733e-001 -8.951348e-001 2.744661e+000 38 53 26
5.197306e-001 -9.383227e-001 2.746858e+000 147 106 87
3.864005e-001 -1.077783e+000 2.831671e+000 176 121 90
4.568414e-001 -1.098443e+000 2.825851e+000 73 31 37
4.850858e-001 -1.127721e+000 2.863817e+000 83 52 50
4.843475e-001 -1.145700e+000 2.873878e+000 162 118 85
3.419871e-001 -1.125689e+000 2.947836e+000 168 134 109
3.771368e-001 -1.140839e+000 2.912774e+000 180 129 102
3.934084e-001 -1.182207e+000 2.936180e+000 184 113 59
1.748581e-001 -1.136620e+000 3.063972e+000 50 38 48
4.755472e-001 -1.221668e+000 2.940221e+000 192 130 96
4.235665e-001 -8.526895e-001 2.613214e+000 174 43 39
3.271336e-001 -8.806415e-001 2.672448e+000 110 125 47
4.833178e-001 -9.137157e-001 2.698422e+000 41 57 31
3.885845e-001 -1.028819e+000 2.768764e+000 12 71 105
4.639537e-001 -1.052333e+000 2.788198e+000 131 157 154
4.965137e-001 -1.049899e+000 2.810310e+000 80 54 64
4.475726e-001 -1.106187e+000 2.830709e+000 168 124 87
2.648634e-001 -1.237319e+000 3.011913e+000 50 39 49
4.497453e-001 -2.327448e-001 2.983667e+000 62 45 53
5.238397e-001 -2.362754e-001 2.960290e+000 160 109 84
5.176713e-001 -2.479117e-001 2.969641e+000 108 60 53
6.864986e-001 -4.185397e-001 3.005678e+000 64 60 75
4.246391e-001 -8.906750e-001 2.641135e+000 103 122 53
4.768604e-001 -9.903466e-001 2.751914e+000 170 154 121
3.742900e-001 -1.132009e+000 2.906798e+000 182 122 93
1.832785e-001 -1.147642e+000 3.056421e+000 50 40 49
2.728510e-001 -1.244778e+000 3.009968e+000 47 35 46
6.027967e-001 -2.951412e-001 2.972477e+000 46 36 44
4.818862e-001 -1.102516e+000 2.844937e+000 139 111 99
4.096527e-001 -1.121250e+000 2.854157e+000 144 23 34
4.926278e-001 -1.171628e+000 2.902463e+000 155 117 80
2.044363e-001 -1.180551e+000 3.042442e+000 135 120 123
2.453236e-001 -1.212951e+000 3.032156e+000 43 33 42
4.187179e-001 -8.790219e-001 2.624940e+000 117 125 109
3.512705e-001 -1.126129e+000 2.936623e+000 179 125 105
4.142173e-001 -1.148182e+000 2.879580e+000 147 23 41
2.334057e-001 -1.211333e+000 3.035947e+000 133 115 120
2.181795e-001 -1.196761e+000 3.042753e+000 132 113 117
6.404684e-001 -2.541116e-001 2.922613e+000 103 80 66
3.472367e-001 -1.115824e+000 2.963083e+000 123 95 81
3.396012e-001 -1.032266e+000 2.869033e+000 181 118 103
3.207788e-001 -9.422046e-001 2.747848e+000 85 48 40
3.271087e-001 -9.527003e-001 2.749166e+000 92 33 34
2.925895e-001 -9.384741e-001 2.811072e+000 213 122 114
3.717481e-001 -1.031968e+000 2.785480e+000 51 20 15
4.647037e-001 -1.049721e+000 2.784199e+000 82 129 148
3.196890e-001 -1.011050e+000 2.856803e+000 179 118 105
4.701383e-001 -1.082922e+000 2.812904e+000 128 83 86
3.844643e-001 -1.099627e+000 2.854480e+000 91 54 34
4.025439e-001 -1.121412e+000 2.859510e+000 195 63 72
3.866138e-001 -1.126655e+000 2.890078e+000 143 26 34
2.940958e-001 -8.847079e-001 2.721816e+000 26 51 27
4.848279e-001 -1.011825e+000 2.766678e+000 137 44 39
4.904706e-001 -1.006990e+000 2.767780e+000 134 47 37
3.236453e-001 -1.017662e+000 2.850252e+000 182 116 97
3.191490e-001 -1.020603e+000 2.862565e+000 112 68 53
4.628406e-001 -1.073112e+000 2.801207e+000 93 44 40
4.778562e-001 -1.081499e+000 2.818929e+000 61 39 41
3.457103e-001 -1.083033e+000 2.895896e+000 137 32 37
3.649326e-001 -1.104088e+000 2.880477e+000 135 35 41
3.641311e-001 -1.104607e+000 2.889222e+000 134 33 41
3.991891e-001 -7.737828e-001 2.563447e+000 199 172 135
3.003493e-001 -9.766064e-001 2.861224e+000 166 69 71
3.244807e-001 -1.021028e+000 2.850785e+000 122 79 67
3.360214e-001 -1.041228e+000 2.851680e+000 180 115 93
3.757732e-001 -1.060697e+000 2.812621e+000 84 54 39
3.779864e-001 -1.070327e+000 2.823615e+000 180 122 96
4.614580e-001 -1.081333e+000 2.808202e+000 158 83 78
4.606250e-001 -1.082307e+000 2.807586e+000 158 83 78
3.891463e-001 -1.084926e+000 2.838324e+000 179 124 90
3.835536e-001 -1.127236e+000 2.892163e+000 199 62 70
3.093660e-001 -8.571986e-001 2.659195e+000 30 51 31
2.780008e-001 -8.786379e-001 2.755149e+000 29 54 24
3.544508e-001 -9.862989e-001 2.757390e+000 143 23 35
4.600880e-001 -1.048158e+000 2.782202e+000 23 67 97
3.222610e-001 -1.036809e+000 2.890160e+000 177 121 106
3.817191e-001 -1.083773e+000 2.835835e+000 179 124 94
3.842163e-001 -1.082990e+000 2.839207e+000 179 124 94
3.245164e-001 -1.069462e+000 2.929136e+000 141 33 49
4.680700e-001 -1.121037e+000 2.843900e+000 65 36 31
3.023476e-001 -8.386727e-001 2.649177e+000 154 87 80
2.739627e-001 -8.552347e-001 2.727798e+000 121 136 99
3.076779e-001 -9.043578e-001 2.723926e+000 22 51 23
2.935895e-001 -9.420814e-001 2.811236e+000 192 119 109
3.325811e-001 -9.800179e-001 2.776632e+000 188 120 96
3.662248e-001 -9.910073e-001 2.753101e+000 146 22 38
4.567784e-001 -9.989901e-001 2.738789e+000 172 149 118
4.368722e-001 -1.013541e+000 2.735500e+000 144 100 75
4.057535e-001 -1.122930e+000 2.850047e+000 144 23 30
2.765488e-001 -8.625183e-001 2.728760e+000 26 55 35
2.808646e-001 -8.613496e-001 2.709364e+000 22 55 26
3.006881e-001 -8.933640e-001 2.715200e+000 23 56 25
3.427785e-001 -1.075445e+000 2.886772e+000 177 120 98
4.015661e-001 -1.134579e+000 2.873510e+000 152 22 34
3.251733e-001 -9.521948e-001 2.749619e+000 154 114 104
3.447414e-001 -1.033203e+000 2.784913e+000 178 113 91
3.367142e-001 -1.064485e+000 2.886184e+000 181 121 102
3.387397e-001 -1.031587e+000 2.866707e+000 181 119 96
3.756417e-001 -1.024313e+000 2.774063e+000 10 50 85
2.717800e-001 -8.223911e-001 2.684126e+000 218 139 120
2.717800e-001 -8.223911e-001 2.684126e+000 218 139 120
2.950620e-001 -8.360542e-001 2.671075e+000 208 127 111
3.044134e-001 -8.667216e-001 2.688909e+000 50 82 40
3.158809e-001 -9.413961e-001 2.752274e+000 169 138 121
3.232924e-001 -1.073068e+000 2.904700e+000 185 62 72
3.846900e-001 -1.099839e+000 2.850185e+000 178 126 95
3.451875e-001 -1.090128e+000 2.896238e+000 193 61 66
3.732787e-001 -1.106426e+000 2.875856e+000 213 68 79
4.032103e-001 -1.124130e+000 2.854574e+000 204 54 66
3.789868e-001 -1.113569e+000 2.877179e+000 196 55 67
3.789868e-001 -1.113569e+000 2.877179e+000 196 55 67
3.428772e-001 -1.105354e+000 2.931295e+000 180 117 104
3.635735e-001 -1.115617e+000 2.903341e+000 204 58 66
3.637165e-001 -1.115591e+000 2.903319e+000 204 58 66
3.820482e-001 -1.126966e+000 2.891963e+000 203 62 72
3.950095e-001 -1.134868e+000 2.882923e+000 198 63 69
3.943158e-001 -1.135126e+000 2.883576e+000 198 63 69
4.583600e-001 -1.149541e+000 2.869477e+000 75 50 53
3.668320e-001 -1.135286e+000 2.926660e+000 175 111 93
3.840865e-001 -1.146120e+000 2.914963e+000 113 78 56
3.838687e-001 -1.146118e+000 2.915183e+000 113 78 56
3.714532e-001 -1.150165e+000 2.939136e+000 175 65 50
4.018291e-001 -1.179173e+000 2.933316e+000 152 97 44
3.602237e-001 -1.154956e+000 2.973635e+000 36 26 22
4.163888e-001 -1.223404e+000 2.972861e+000 35 10 0
4.163888e-001 -1.223404e+000 2.972861e+000 35 10 0
4.234055e-001 -1.228514e+000 2.970359e+000 44 17 0
2.967241e-001 -8.903264e-001 2.718879e+000 152 149 38
3.777510e-001 -1.035849e+000 2.781233e+000 56 31 26
3.385622e-001 -1.098181e+000 2.915887e+000 144 36 47
3.817349e-001 -1.115128e+000 2.875514e+000 205 66 75
3.427349e-001 -1.101958e+000 2.933904e+000 116 69 56
3.649073e-001 -1.119278e+000 2.907148e+000 191 53 56
3.774851e-001 -1.127847e+000 2.899778e+000 191 63 68
3.714353e-001 -1.148595e+000 2.935288e+000 132 43 31
4.295336e-001 -1.232393e+000 2.968404e+000 59 23 6
2.646538e-001 -8.157494e-001 2.679923e+000 168 38 49
2.708077e-001 -8.165649e-001 2.678222e+000 175 36 51
3.308809e-001 -1.032919e+000 2.839322e+000 93 50 35
3.760555e-001 -1.060201e+000 2.812638e+000 84 54 39
3.082802e-001 -1.040069e+000 2.881679e+000 176 123 113
3.179061e-001 -1.039305e+000 2.867619e+000 112 66 51
3.464326e-001 -1.065597e+000 2.861537e+000 117 71 58
3.464326e-001 -1.065597e+000 2.861537e+000 117 71 58
3.838683e-001 -1.078026e+000 2.822468e+000 71 43 26
3.852847e-001 -1.084884e+000 2.829445e+000 65 33 18
3.890521e-001 -1.098835e+000 2.842607e+000 61 35 16
3.745192e-001 -1.125711e+000 2.901168e+000 195 69 72
3.992703e-001 -1.138217e+000 2.879893e+000 218 64 78
3.990918e-001 -1.138171e+000 2.880290e+000 218 64 78
3.529661e-001 -1.118572e+000 2.923512e+000 118 68 61
4.834011e-001 -1.192455e+000 2.916552e+000 188 80 42
4.792571e-001 -1.125941e+000 2.857867e+000 83 48 46
3.062245e-001 -8.356433e-001 2.656317e+000 154 87 80
4.807831e-001 -1.228336e+000 2.951754e+000 171 127 99
3.305816e-001 -1.104097e+000 2.976502e+000 38 28 36
4.725031e-001 -1.184010e+000 2.904929e+000 161 124 82
4.727451e-001 -1.229170e+000 2.946330e+000 159 115 90
3.022483e-001 -7.997491e-001 2.631711e+000 15 82 124
3.710859e-001 -1.162824e+000 2.965497e+000 154 127 103
4.333300e-001 -1.213638e+000 2.934635e+000 170 77 42
5.046857e-001 -4.254844e-001 3.073573e+000 78 56 43
5.305566e-001 -4.326550e-001 3.076438e+000 101 69 60
3.565177e-001 -1.141770e+000 2.951486e+000 130 99 78
3.862953e-001 -1.175006e+000 2.951988e+000 113 50 19
4.056618e-001 -1.189457e+000 2.942091e+000 170 79 35
3.446134e-001 -1.163141e+000 3.002086e+000 105 90 81
3.483713e-001 -1.166800e+000 3.000567e+000 99 87 76
3.483713e-001 -1.166800e+000 3.000567e+000 99 87 76
3.614593e-001 -1.180258e+000 3.000601e+000 81 31 35
4.714338e-001 -8.231716e-001 2.622898e+000 222 129 91
4.368451e-001 -8.566778e-001 2.612232e+000 136 41 27
4.368451e-001 -8.566778e-001 2.612232e+000 136 41 27
4.963322e-001 -1.001700e+000 2.775510e+000 227 134 107
4.797689e-001 -1.040274e+000 2.791621e+000 133 177 189
4.713368e-001 -1.070660e+000 2.810354e+000 174 89 79
4.857932e-001 -1.065038e+000 2.816183e+000 125 71 79
4.941328e-001 -1.070053e+000 2.827359e+000 85 61 64
4.636754e-001 -1.091919e+000 2.823494e+000 125 65 70
4.845741e-001 -1.082136e+000 2.830106e+000 61 36 38
3.930497e-001 -1.110943e+000 2.850793e+000 127 82 58
5.086323e-001 -1.087111e+000 2.854226e+000 28 15 15
4.534272e-001 -1.113363e+000 2.838490e+000 138 71 75
5.429387e-001 -1.082398e+000 2.886676e+000 152 87 60
4.620119e-001 -1.127237e+000 2.854894e+000 107 57 59
4.637584e-001 -1.139326e+000 2.865980e+000 98 49 59
4.915686e-001 -1.131049e+000 2.876554e+000 119 89 88
4.334427e-001 -1.228861e+000 2.954224e+000 183 103 51
4.505069e-001 -1.254399e+000 2.975343e+000 202 95 48
4.812427e-001 -8.179954e-001 2.627453e+000 168 142 118
4.812427e-001 -8.179954e-001 2.627453e+000 168 142 118
4.725168e-001 -1.073999e+000 2.812574e+000 176 89 82
5.017490e-001 -1.062316e+000 2.830077e+000 88 66 71
4.688911e-001 -1.083326e+000 2.819763e+000 81 39 41
4.505403e-001 -1.103113e+000 2.829773e+000 75 32 38
5.386355e-001 -1.076660e+000 2.878444e+000 148 61 44
4.734405e-001 -1.148418e+000 2.876949e+000 85 55 51
4.499615e-001 -1.000718e+000 2.738919e+000 199 149 122
5.287557e-001 -1.013799e+000 2.820230e+000 100 23 28
5.344200e-001 -1.066804e+000 2.866542e+000 87 15 22
5.438543e-001 -1.086399e+000 2.891328e+000 116 68 37
3.791365e-001 -1.140856e+000 2.897849e+000 119 78 53
4.419190e-001 -1.062070e+000 2.788691e+000 189 138 91
4.907675e-001 -9.244661e-001 2.714599e+000 38 60 19
4.422324e-001 -9.245417e-001 2.668099e+000 164 158 108
5.222948e-001 -9.366786e-001 2.755741e+000 168 107 89
4.831527e-001 -1.222606e+000 2.947843e+000 158 52 48
4.729207e-001 -9.003739e-001 2.678317e+000 172 159 115
4.729207e-001 -9.003739e-001 2.678317e+000 172 159 115
5.387104e-001 -1.214282e+000 2.967133e+000 40 29 37
2.858938e-001 -8.125840e-001 2.640458e+000 105 161 190
2.858938e-001 -8.125840e-001 2.640458e+000 105 161 190
2.606612e-001 -8.400147e-001 2.680176e+000 235 148 120
2.732260e-001 -8.356291e-001 2.671277e+000 229 137 110
2.722691e-001 -8.394607e-001 2.675286e+000 138 48 42
2.722691e-001 -8.394607e-001 2.675286e+000 138 48 42
2.508781e-001 -8.444124e-001 2.687548e+000 245 131 114
2.508781e-001 -8.444124e-001 2.687548e+000 245 131 114
2.678616e-001 -8.412550e-001 2.678781e+000 231 137 112
2.828515e-001 -8.415851e-001 2.673633e+000 217 148 112
3.276283e-001 -8.802134e-001 2.676031e+000 143 158 62
3.296625e-001 -8.815949e-001 2.675403e+000 35 48 13
3.377974e-001 -9.045506e-001 2.688282e+000 57 94 75
3.377974e-001 -9.045506e-001 2.688282e+000 57 94 75
3.251412e-001 -9.049701e-001 2.707958e+000 67 103 73
3.297165e-001 -9.001190e-001 2.696818e+000 80 101 59
3.326046e-001 -9.530878e-001 2.753425e+000 97 67 56
2.768668e-001 -9.687676e-001 2.798099e+000 234 156 136
2.886665e-001 -9.674722e-001 2.793592e+000 121 33 29
2.886665e-001 -9.674722e-001 2.793592e+000 121 33 29
3.143690e-001 -9.678823e-001 2.784030e+000 233 159 127
3.192584e-001 -9.670762e-001 2.780424e+000 232 148 118
3.192584e-001 -9.670762e-001 2.780424e+000 232 148 118
3.439726e-001 -9.791438e-001 2.768239e+000 212 159 120
3.565183e-001 -9.866678e-001 2.761238e+000 132 36 35
3.588898e-001 -9.869988e-001 2.757244e+000 144 36 34
3.616334e-001 -9.915964e-001 2.756953e+000 118 44 34
3.620091e-001 -9.905359e-001 2.757379e+000 118 44 34
3.657328e-001 -9.918536e-001 2.753330e+000 217 152 120
2.623438e-001 -9.867306e-001 2.813200e+000 30 91 139
3.149958e-001 -9.708073e-001 2.785844e+000 221 152 119
3.044151e-001 -9.968980e-001 2.792973e+000 1 36 70
3.266038e-001 -9.730930e-001 2.781747e+000 218 154 123
3.383727e-001 -9.782342e-001 2.774551e+000 233 148 112
3.447525e-001 -9.813380e-001 2.770363e+000 211 148 110
3.553165e-001 -9.882661e-001 2.763042e+000 237 147 122
3.819579e-001 -1.015127e+000 2.754038e+000 25 76 103
2.809520e-001 -1.002163e+000 2.827984e+000 104 63 52
3.216290e-001 -9.956126e-001 2.804751e+000 9 88 131
3.760527e-001 -1.029290e+000 2.781090e+000 195 121 102
3.730371e-001 -1.038351e+000 2.799733e+000 204 129 94
2.737968e-001 -1.040110e+000 2.861494e+000 211 102 99
2.822299e-001 -1.031809e+000 2.854451e+000 191 132 116
3.070816e-001 -1.044249e+000 2.861468e+000 115 80 62
3.070816e-001 -1.044249e+000 2.861468e+000 115 80 62
2.920390e-001 -1.052812e+000 2.871642e+000 106 60 47
3.429859e-001 -1.069680e+000 2.869906e+000 192 129 101
3.431852e-001 -1.069128e+000 2.869791e+000 192 129 101
3.075541e-001 -1.087035e+000 2.901583e+000 226 97 101
3.257600e-001 -1.087563e+000 2.896039e+000 159 30 37
3.224201e-001 -1.092486e+000 2.899377e+000 154 32 37
3.279154e-001 -1.087696e+000 2.895336e+000 236 74 82
3.148541e-001 -1.100550e+000 2.913008e+000 230 67 78
3.483111e-001 -1.091528e+000 2.889320e+000 227 66 74
3.483111e-001 -1.091528e+000 2.889320e+000 227 66 74
3.471336e-001 -1.098000e+000 2.896557e+000 143 32 34
3.469388e-001 -1.098694e+000 2.896509e+000 143 32 34
3.827228e-001 -1.105366e+000 2.874900e+000 152 34 40
3.902919e-001 -1.116414e+000 2.870569e+000 231 76 75
3.618076e-001 -1.114670e+000 2.903851e+000 159 28 35
3.757524e-001 -1.122275e+000 2.895806e+000 221 73 75
3.955688e-001 -1.124168e+000 2.874228e+000 165 30 36
3.590743e-001 -1.116588e+000 2.906959e+000 157 32 36
3.590743e-001 -1.116588e+000 2.906959e+000 157 32 36
3.709030e-001 -1.121552e+000 2.901121e+000 148 34 36
3.452977e-001 -1.132576e+000 2.931971e+000 113 72 56
3.610825e-001 -1.136085e+000 2.925981e+000 193 130 111
3.470503e-001 -1.156665e+000 2.947772e+000 101 74 47
3.882607e-001 -1.160120e+000 2.927797e+000 137 79 33
3.896214e-001 -1.164724e+000 2.930590e+000 235 140 74
3.896214e-001 -1.164724e+000 2.930590e+000 235 140 74
2.528724e-001 -8.371333e-001 2.680233e+000 155 47 39
2.528724e-001 -8.371333e-001 2.680233e+000 155 47 39
2.548756e-001 -8.339401e-001 2.675678e+000 185 37 40
2.866639e-001 -8.375911e-001 2.668029e+000 167 39 45
2.866639e-001 -8.375911e-001 2.668029e+000 167 39 45
2.965056e-001 -8.362500e-001 2.662459e+000 201 142 109
2.860142e-001 -8.422426e-001 2.674129e+000 165 41 37
3.084961e-001 -8.547891e-001 2.670010e+000 21 75 88
3.079054e-001 -9.422524e-001 2.762903e+000 181 151 140
3.156215e-001 -9.473313e-001 2.760084e+000 176 158 138
2.973507e-001 -9.768242e-001 2.798880e+000 10 54 89
3.536300e-001 -9.948174e-001 2.775073e+000 15 70 98
2.774847e-001 -1.016292e+000 2.840182e+000 127 82 76
2.774847e-001 -1.016292e+000 2.840182e+000 127 82 76
3.309722e-001 -1.004097e+000 2.810400e+000 196 124 102
2.993020e-001 -1.030039e+000 2.850088e+000 98 59 42
2.920929e-001 -1.037443e+000 2.858691e+000 108 67 52
2.744342e-001 -1.051174e+000 2.870817e+000 205 92 90
3.420836e-001 -1.076331e+000 2.876952e+000 82 41 25
3.417351e-001 -1.077465e+000 2.877007e+000 82 41 25
2.999388e-001 -1.099425e+000 2.910165e+000 217 67 79
3.015404e-001 -1.088932e+000 2.905109e+000 152 45 51
3.155738e-001 -1.095410e+000 2.906356e+000 151 34 41
3.208068e-001 -1.094619e+000 2.905765e+000 148 37 43
3.449379e-001 -1.092625e+000 2.893012e+000 150 31 40
3.690140e-001 -1.097517e+000 2.882558e+000 146 32 39
3.723898e-001 -1.107730e+000 2.881271e+000 221 70 73
3.826966e-001 -1.115471e+000 2.877734e+000 152 31 34
3.898966e-001 -1.111415e+000 2.868740e+000 150 36 36
3.884191e-001 -1.115607e+000 2.873940e+000 147 35 37
3.925829e-001 -1.114540e+000 2.863521e+000 239 71 74
3.951010e-001 -1.116757e+000 2.868200e+000 201 65 57
4.020018e-001 -1.128572e+000 2.866765e+000 214 74 67
4.026441e-001 -1.128540e+000 2.863458e+000 147 37 42
3.200883e-001 -1.110608e+000 2.922281e+000 219 64 76
3.301801e-001 -1.111394e+000 2.916972e+000 153 38 44
3.672287e-001 -1.106495e+000 2.890159e+000 224 65 70
3.853200e-001 -1.124249e+000 2.877412e+000 213 64 63
3.934969e-001 -1.121277e+000 2.873581e+000 210 75 65
4.019122e-001 -1.127015e+000 2.869956e+000 167 29 39
3.815733e-001 -1.127241e+000 2.897395e+000 239 85 88
3.722904e-001 -1.140251e+000 2.921742e+000 128 82 61
2.886945e-001 -8.343950e-001 2.663834e+000 177 27 39
3.036754e-001 -8.989058e-001 2.722076e+000 154 152 43
3.036754e-001 -8.989058e-001 2.722076e+000 154 152 43
3.316000e-001 -9.096166e-001 2.706596e+000 74 109 97
3.311761e-001 -9.110838e-001 2.706691e+000 74 109 97
3.596152e-001 -9.418400e-001 2.702622e+000 88 87 66
3.596152e-001 -9.418400e-001 2.702622e+000 88 87 66
3.230479e-001 -1.004574e+000 2.814725e+000 78 42 30
3.232164e-001 -1.003983e+000 2.814724e+000 78 42 30
3.352281e-001 -1.025838e+000 2.827850e+000 204 129 110
3.285092e-001 -1.026488e+000 2.833025e+000 173 118 93
3.796862e-001 -1.050360e+000 2.803717e+000 101 55 41
3.796862e-001 -1.050360e+000 2.803717e+000 101 55 41
2.960310e-001 -1.042837e+000 2.864444e+000 137 90 77
2.960310e-001 -1.042837e+000 2.864444e+000 137 90 77
3.036367e-001 -1.044466e+000 2.862134e+000 103 57 39
3.342734e-001 -1.039671e+000 2.842678e+000 200 131 106
3.367946e-001 -1.045713e+000 2.849131e+000 199 132 105
3.853205e-001 -1.072571e+000 2.823095e+000 113 70 47
3.864825e-001 -1.080786e+000 2.829840e+000 106 76 56
3.148864e-001 -1.061094e+000 2.872939e+000 96 59 45
3.148864e-001 -1.061094e+000 2.872939e+000 96 59 45
3.500811e-001 -1.066530e+000 2.861247e+000 92 49 36
3.502579e-001 -1.066049e+000 2.861121e+000 92 49 36
2.893925e-001 -1.089067e+000 2.903969e+000 187 152 125
3.026930e-001 -1.071221e+000 2.889147e+000 119 71 57
3.121170e-001 -1.071349e+000 2.887007e+000 141 92 78
3.404118e-001 -1.068559e+000 2.871137e+000 167 114 96
3.830675e-001 -1.088459e+000 2.846926e+000 163 119 86
3.903477e-001 -1.094355e+000 2.842515e+000 90 59 41
3.923109e-001 -1.101869e+000 2.848572e+000 82 54 38
3.858437e-001 -1.102218e+000 2.862411e+000 198 142 100
3.061661e-001 -1.111841e+000 2.915840e+000 159 34 48
3.411044e-001 -1.091481e+000 2.893163e+000 153 32 36
3.601106e-001 -1.100933e+000 2.889426e+000 216 75 73
3.138409e-001 -1.114079e+000 2.926048e+000 151 36 43
3.850396e-001 -1.125369e+000 2.890300e+000 227 79 80
3.850396e-001 -1.125369e+000 2.890300e+000 227 79 80
4.082095e-001 -1.142448e+000 2.874100e+000 233 69 78
3.301896e-001 -1.123196e+000 2.929099e+000 140 90 77
3.301896e-001 -1.123196e+000 2.929099e+000 140 90 77
3.462846e-001 -1.125706e+000 2.924330e+000 123 66 55
3.294227e-001 -1.126364e+000 2.933667e+000 199 133 108
3.506440e-001 -1.134035e+000 2.929737e+000 100 60 45
3.596810e-001 -1.128779e+000 2.919546e+000 106 63 43
3.596336e-001 -1.128957e+000 2.919549e+000 106 63 43
3.766187e-001 -1.147544e+000 2.926394e+000 189 89 50
3.351707e-001 -1.161350e+000 2.965524e+000 148 118 97
2.785136e-001 -8.450654e-001 2.679485e+000 181 39 45
3.147713e-001 -8.759896e-001 2.686921e+000 158 152 22
2.737805e-001 -8.939312e-001 2.731638e+000 146 148 55
2.737805e-001 -8.939312e-001 2.731638e+000 146 148 55
3.156662e-001 -9.010708e-001 2.711853e+000 160 159 23
3.156662e-001 -9.010708e-001 2.711853e+000 160 159 23
3.018010e-001 -9.462885e-001 2.768017e+000 157 133 123
3.103989e-001 -9.718286e-001 2.790813e+000 165 25 38
3.230727e-001 -9.734494e-001 2.786290e+000 160 29 34
3.238390e-001 -9.825824e-001 2.790912e+000 5 54 83
3.329493e-001 -9.768751e-001 2.781199e+000 169 26 40
3.380603e-001 -1.008745e+000 2.813698e+000 201 130 105
3.412291e-001 -1.014157e+000 2.813995e+000 190 129 100
2.830867e-001 -1.021989e+000 2.842837e+000 200 136 118
2.830867e-001 -1.021989e+000 2.842837e+000 200 136 118
2.867670e-001 -1.027864e+000 2.849204e+000 199 134 116
2.875338e-001 -1.020842e+000 2.842100e+000 198 134 116
2.875338e-001 -1.020842e+000 2.842100e+000 198 134 116
2.922906e-001 -1.017144e+000 2.841313e+000 201 134 118
2.913657e-001 -1.019806e+000 2.841160e+000 201 134 118
3.286049e-001 -1.016897e+000 2.822658e+000 199 134 106
3.705647e-001 -1.036727e+000 2.801716e+000 176 114 90
3.750179e-001 -1.040312e+000 2.794280e+000 203 127 99
3.767747e-001 -1.048282e+000 2.800868e+000 200 131 101
3.309390e-001 -1.032966e+000 2.839269e+000 141 98 77
2.993364e-001 -1.050737e+000 2.866461e+000 199 134 109
3.329379e-001 -1.040956e+000 2.845525e+000 117 68 55
3.349203e-001 -1.048517e+000 2.851847e+000 89 51 37
2.935276e-001 -1.065945e+000 2.883869e+000 140 92 85
2.986725e-001 -1.071724e+000 2.886157e+000 198 136 115
2.986725e-001 -1.071724e+000 2.886157e+000 198 136 115
3.393891e-001 -1.058714e+000 2.860767e+000 197 133 108
3.393878e-001 -1.058538e+000 2.860779e+000 197 133 108
3.390526e-001 -1.064247e+000 2.864337e+000 160 106 87
3.390526e-001 -1.064247e+000 2.864337e+000 160 106 87
3.418257e-001 -1.068146e+000 2.866877e+000 197 133 107
3.873916e-001 -1.088586e+000 2.840297e+000 201 143 106
3.527026e-001 -1.090824e+000 2.884554e+000 162 25 38
3.820342e-001 -1.106979e+000 2.872481e+000 157 32 38
3.329038e-001 -1.125452e+000 2.931018e+000 202 132 107
3.329038e-001 -1.125452e+000 2.931018e+000 202 132 107
3.786019e-001 -1.136710e+000 2.910295e+000 76 36 9
3.276242e-001 -8.788325e-001 2.674100e+000 99 113 36
2.874577e-001 -8.883680e-001 2.717416e+000 137 141 30
3.125131e-001 -9.412849e-001 2.758917e+000 170 160 145
2.891757e-001 -9.640800e-001 2.788751e+000 171 27 42
3.045293e-001 -9.645865e-001 2.783970e+000 172 26 37
3.249343e-001 -9.658466e-001 2.776648e+000 171 30 39
3.507593e-001 -9.811039e-001 2.759406e+000 167 24 38
2.836798e-001 -1.051021e+000 2.869827e+000 207 138 123
2.933845e-001 -1.086975e+000 2.901985e+000 164 28 43
3.397932e-001 -1.087847e+000 2.889232e+000 166 23 35
2.675840e-001 -8.883273e-001 2.722028e+000 118 144 118
2.797369e-001 -9.058076e-001 2.738162e+000 29 59 32
3.341841e-001 -9.457652e-001 2.744198e+000 162 153 137
3.386793e-001 -1.108672e+000 2.906171e+000 174 21 39
3.386793e-001 -1.108672e+000 2.906171e+000 174 21 39
3.869203e-001 -1.122514e+000 2.883752e+000 176 23 37
3.869203e-001 -1.122514e+000 2.883752e+000 176 23 37
2.570842e-001 -8.575068e-001 2.704689e+000 127 141 143
2.593505e-001 -8.762364e-001 2.715898e+000 131 145 134
2.593505e-001 -8.762364e-001 2.715898e+000 131 145 134
3.447300e-001 -9.245187e-001 2.705857e+000 98 123 115
3.447300e-001 -9.245187e-001 2.705857e+000 98 123 115
2.578561e-001 -1.063544e+000 2.864063e+000 192 104 102
3.388161e-001 -1.082253e+000 2.883922e+000 199 132 106
3.611119e-001 -1.115911e+000 2.898221e+000 172 27 34
4.123421e-001 -1.146972e+000 2.876788e+000 177 27 39
3.824791e-001 -1.154865e+000 2.921442e+000 193 144 101
3.131899e-001 -8.965371e-001 2.707696e+000 62 106 117
2.727317e-001 -9.086577e-001 2.740212e+000 25 62 31
2.780283e-001 -8.986861e-001 2.731647e+000 126 146 137
2.812193e-001 -9.139923e-001 2.744530e+000 154 154 144
3.588082e-001 -9.229560e-001 2.681113e+000 52 97 120
3.185752e-001 -1.063424e+000 2.875585e+000 201 131 110
3.223479e-001 -1.042608e+000 2.852652e+000 194 133 105
3.445030e-001 -1.065304e+000 2.861188e+000 125 82 67
2.669538e-001 -1.069178e+000 2.859741e+000 184 102 90
4.193745e-001 -1.183045e+000 2.859802e+000 184 136 64
3.896771e-001 -1.137254e+000 2.874538e+000 163 35 35
2.159479e-001 -8.613831e-001 2.690787e+000 167 166 164
4.085884e-001 -1.091225e+000 2.819610e+000 179 140 97
2.447951e-001 -8.327523e-001 2.678516e+000 159 27 32
2.447951e-001 -8.327523e-001 2.678516e+000 159 27 32
3.042147e-001 -8.404337e-001 2.652175e+000 17 71 97
2.650825e-001 -8.398696e-001 2.679926e+000 203 130 94
2.747554e-001 -8.406570e-001 2.676303e+000 205 131 94
2.746677e-001 -8.414463e-001 2.676251e+000 205 131 94
2.977804e-001 -8.416210e-001 2.662176e+000 137 44 34
3.061275e-001 -8.447439e-001 2.658316e+000 20 72 96
3.053538e-001 -8.511941e-001 2.668612e+000 159 35 34
2.820535e-001 -8.629082e-001 2.697989e+000 64 72 21
3.022502e-001 -8.693582e-001 2.689926e+000 50 75 46
2.714539e-001 -8.962835e-001 2.729834e+000 130 134 32
3.150351e-001 -8.980059e-001 2.709606e+000 80 89 42
3.010378e-001 -9.368900e-001 2.759860e+000 191 106 87
3.306909e-001 -9.429110e-001 2.742074e+000 70 35 22
3.306909e-001 -9.429110e-001 2.742074e+000 70 35 22
3.085017e-001 -9.412082e-001 2.760500e+000 77 21 14
3.164825e-001 -9.421719e-001 2.757657e+000 76 12 7
3.164825e-001 -9.421719e-001 2.757657e+000 76 12 7
2.797406e-001 -9.652877e-001 2.794907e+000 198 130 98
3.017030e-001 -9.661295e-001 2.788249e+000 205 133 98
3.280219e-001 -9.714246e-001 2.779463e+000 116 27 21
3.280219e-001 -9.714246e-001 2.779463e+000 116 27 21
3.341017e-001 -9.736133e-001 2.775950e+000 92 24 18
3.378886e-001 -9.757100e-001 2.772294e+000 196 136 88
3.466074e-001 -9.796671e-001 2.766445e+000 222 128 100
3.501363e-001 -9.829251e-001 2.767096e+000 214 128 96
3.565151e-001 -9.869364e-001 2.761265e+000 115 25 23
3.681598e-001 -9.945675e-001 2.751670e+000 210 141 97
3.681598e-001 -9.945675e-001 2.751670e+000 210 141 97
2.838163e-001 -9.670921e-001 2.796107e+000 193 147 102
2.837341e-001 -9.678310e-001 2.796105e+000 193 147 102
2.910481e-001 -9.681937e-001 2.793878e+000 219 133 103
2.951119e-001 -9.687745e-001 2.792406e+000 198 133 97
2.999613e-001 -9.677034e-001 2.789693e+000 107 16 23
2.999613e-001 -9.677034e-001 2.789693e+000 107 16 23
3.116888e-001 -9.698692e-001 2.786891e+000 197 134 96
3.203640e-001 -9.704483e-001 2.783894e+000 199 139 113
3.235574e-001 -9.710166e-001 2.782782e+000 202 135 102
3.235574e-001 -9.710166e-001 2.782782e+000 202 135 102
3.268046e-001 -9.716569e-001 2.781272e+000 191 135 88
3.268046e-001 -9.716569e-001 2.781272e+000 191 135 88
3.299117e-001 -9.727754e-001 2.779851e+000 197 131 90
2.612776e-001 -9.843261e-001 2.810010e+000 26 73 108
3.258010e-001 -1.010740e+000 2.820236e+000 167 103 83
3.370671e-001 -1.012309e+000 2.816215e+000 50 15 3
3.299982e-001 -1.016777e+000 2.825034e+000 177 104 76
2.730013e-001 -1.031691e+000 2.856991e+000 140 42 36
3.004765e-001 -1.034982e+000 2.856176e+000 186 113 85
3.104715e-001 -1.028721e+000 2.846110e+000 184 106 79
2.873028e-001 -1.045196e+000 2.865675e+000 181 108 88
3.856585e-001 -1.088920e+000 2.845019e+000 178 115 74
3.928438e-001 -1.113611e+000 2.863347e+000 201 51 57
3.203801e-001 -1.093249e+000 2.903316e+000 223 66 74
3.203801e-001 -1.093249e+000 2.903316e+000 223 66 74
3.383031e-001 -1.089329e+000 2.892491e+000 198 55 66
3.328678e-001 -1.089084e+000 2.897173e+000 128 22 23
3.434178e-001 -1.095476e+000 2.895937e+000 220 70 76
3.022715e-001 -1.101748e+000 2.913725e+000 131 28 31
3.876768e-001 -1.128688e+000 2.888396e+000 218 51 56
3.455615e-001 -1.110762e+000 2.912257e+000 119 26 30
3.471989e-001 -1.116244e+000 2.911194e+000 125 22 29
3.556989e-001 -1.111830e+000 2.906091e+000 128 26 29
3.695676e-001 -1.118657e+000 2.899751e+000 222 70 81
2.605331e-001 -8.412006e-001 2.679907e+000 206 131 88
2.670507e-001 -8.394024e-001 2.675937e+000 192 132 95
2.700956e-001 -8.355252e-001 2.672704e+000 202 133 97
2.985821e-001 -8.441429e-001 2.664720e+000 142 39 30
2.816826e-001 -8.759509e-001 2.707752e+000 77 98 91
3.094787e-001 -8.988171e-001 2.717805e+000 141 139 32
3.593409e-001 -9.484225e-001 2.704832e+000 155 144 104
3.149081e-001 -9.359301e-001 2.751624e+000 92 16 19
3.060453e-001 -9.377632e-001 2.759628e+000 157 136 110
3.060453e-001 -9.377632e-001 2.759628e+000 157 136 110
3.080692e-001 -9.417181e-001 2.762822e+000 157 129 107
2.682053e-001 -9.782817e-001 2.805263e+000 24 68 104
2.988338e-001 -1.022020e+000 2.843283e+000 81 45 37
2.878310e-001 -1.031543e+000 2.852642e+000 67 43 32
2.920623e-001 -1.037718e+000 2.858721e+000 70 36 27
3.060711e-001 -1.037326e+000 2.855007e+000 70 43 36
3.060711e-001 -1.037326e+000 2.855007e+000 70 43 36
3.160173e-001 -1.030669e+000 2.844935e+000 70 41 30
2.690281e-001 -1.050781e+000 2.868190e+000 184 96 86
2.764048e-001 -1.043810e+000 2.866057e+000 179 90 81
2.989747e-001 -1.043991e+000 2.863767e+000 82 43 31
3.177650e-001 -1.051877e+000 2.865295e+000 62 28 13
3.183665e-001 -1.059017e+000 2.871869e+000 42 18 11
3.183665e-001 -1.059017e+000 2.871869e+000 42 18 11
3.229239e-001 -1.052046e+000 2.863451e+000 103 58 39
3.421860e-001 -1.054349e+000 2.855913e+000 176 108 77
3.421860e-001 -1.054349e+000 2.855913e+000 176 108 77
3.043169e-001 -1.064770e+000 2.882800e+000 64 26 25
3.147770e-001 -1.078270e+000 2.894765e+000 186 106 81
3.095663e-001 -1.090163e+000 2.903522e+000 131 22 27
3.122107e-001 -1.089946e+000 2.903139e+000 125 25 30
3.450303e-001 -1.091688e+000 2.893167e+000 131 28 30
3.826649e-001 -1.115723e+000 2.877570e+000 139 23 30
3.925917e-001 -1.117228e+000 2.871242e+000 130 20 29
3.925917e-001 -1.117228e+000 2.871242e+000 130 20 29
3.965519e-001 -1.119355e+000 2.868777e+000 133 23 25
4.054598e-001 -1.130150e+000 2.864232e+000 231 71 76
3.052388e-001 -1.099681e+000 2.908624e+000 127 28 34
3.041294e-001 -1.096489e+000 2.911442e+000 214 73 75
3.041294e-001 -1.096489e+000 2.911442e+000 214 73 75
3.505700e-001 -1.097631e+000 2.895701e+000 126 23 28
3.536575e-001 -1.102205e+000 2.896683e+000 184 38 38
3.809343e-001 -1.123504e+000 2.894246e+000 136 20 29
3.915524e-001 -1.129284e+000 2.886165e+000 212 45 51
3.916104e-001 -1.128361e+000 2.886150e+000 212 45 51
3.183235e-001 -1.110423e+000 2.920679e+000 137 24 33
3.525482e-001 -1.114821e+000 2.909559e+000 136 21 24
3.522055e-001 -1.116203e+000 2.912242e+000 237 77 91
3.558989e-001 -1.116839e+000 2.910553e+000 192 51 56
3.625440e-001 -1.115848e+000 2.905694e+000 126 23 31
3.759577e-001 -1.126442e+000 2.900070e+000 220 83 91
3.189678e-001 -1.124024e+000 2.933084e+000 56 30 16
2.707284e-001 -8.340526e-001 2.670259e+000 164 26 36
2.707284e-001 -8.340526e-001 2.670259e+000 164 26 36
2.630577e-001 -8.404453e-001 2.681580e+000 157 33 33
2.833358e-001 -8.437708e-001 2.675851e+000 188 138 98
2.838011e-001 -8.656516e-001 2.697481e+000 139 143 32
2.838011e-001 -8.656516e-001 2.697481e+000 139 143 32
3.007965e-001 -8.696993e-001 2.692668e+000 146 137 27
3.007965e-001 -8.696993e-001 2.692668e+000 146 137 27
3.055174e-001 -8.796981e-001 2.698852e+000 47 87 85
3.181788e-001 -8.915991e-001 2.701688e+000 57 83 89
2.951747e-001 -8.958767e-001 2.721506e+000 144 136 26
3.018822e-001 -9.406664e-001 2.763019e+000 149 128 106
3.162018e-001 -9.451842e-001 2.760080e+000 159 131 108
3.173882e-001 -9.686665e-001 2.783461e+000 146 19 28
2.856102e-001 -9.770993e-001 2.800638e+000 20 70 96
3.232579e-001 -1.003396e+000 2.814420e+000 72 35 16
3.266147e-001 -1.003541e+000 2.817083e+000 177 106 78
3.779566e-001 -1.042381e+000 2.797105e+000 74 32 19
2.953366e-001 -1.027452e+000 2.851489e+000 144 89 67
2.953366e-001 -1.027452e+000 2.851489e+000 144 89 67
3.830488e-001 -1.088774e+000 2.846748e+000 166 110 74
3.903992e-001 -1.093481e+000 2.842312e+000 70 35 12
2.969321e-001 -1.074526e+000 2.893262e+000 180 110 94
3.003033e-001 -1.075544e+000 2.892578e+000 189 107 86
3.000419e-001 -1.077985e+000 2.892489e+000 189 107 86
3.124850e-001 -1.068116e+000 2.887533e+000 153 92 73
3.421381e-001 -1.075813e+000 2.876855e+000 70 41 21
3.515291e-001 -1.077627e+000 2.874575e+000 68 29 22
4.041310e-001 -1.126511e+000 2.859706e+000 222 74 78
3.547736e-001 -1.093452e+000 2.888794e+000 123 21 28
3.652267e-001 -1.101633e+000 2.888584e+000 138 22 27
3.049331e-001 -1.105756e+000 2.918126e+000 133 24 33
3.049331e-001 -1.105756e+000 2.918126e+000 133 24 33
3.089616e-001 -1.104979e+000 2.918017e+000 131 21 33
3.093602e-001 -1.101096e+000 2.918091e+000 131 21 33
3.121516e-001 -1.100929e+000 2.912077e+000 132 23 32
3.207965e-001 -1.095088e+000 2.905900e+000 129 27 31
3.215250e-001 -1.101899e+000 2.911758e+000 155 23 18
3.355369e-001 -1.123770e+000 2.928386e+000 111 56 43
3.785421e-001 -1.135894e+000 2.910477e+000 70 38 24
2.580890e-001 -8.346646e-001 2.675043e+000 162 28 31
2.635478e-001 -8.340349e-001 2.673326e+000 157 27 25
2.635478e-001 -8.340349e-001 2.673326e+000 157 27 25
2.777345e-001 -8.665782e-001 2.701165e+000 139 129 25
2.902748e-001 -9.697713e-001 2.797201e+000 133 20 26
2.599679e-001 -9.812289e-001 2.813322e+000 153 144 142
3.066944e-001 -9.730532e-001 2.798221e+000 1 30 48
3.117391e-001 -9.780675e-001 2.795550e+000 2 27 45
3.820497e-001 -1.040553e+000 2.785345e+000 176 106 74
3.373206e-001 -1.010091e+000 2.812780e+000 177 110 73
3.373206e-001 -1.010091e+000 2.812780e+000 177 110 73
3.333278e-001 -1.016666e+000 2.820660e+000 180 107 74
3.769489e-001 -1.055681e+000 2.813106e+000 151 78 52
3.772755e-001 -1.056450e+000 2.817236e+000 182 109 81
3.772755e-001 -1.056450e+000 2.817236e+000 182 109 81
2.765929e-001 -1.040656e+000 2.863163e+000 144 35 38
3.330629e-001 -1.039635e+000 2.845458e+000 130 74 59
3.789035e-001 -1.061549e+000 2.823917e+000 181 114 77
3.833821e-001 -1.076063e+000 2.826981e+000 181 119 75
3.354886e-001 -1.044137e+000 2.848368e+000 178 103 82
3.374999e-001 -1.052451e+000 2.854083e+000 175 109 70
3.410204e-001 -1.053531e+000 2.853197e+000 175 108 77
3.884436e-001 -1.085814e+000 2.836073e+000 109 61 32
2.951685e-001 -1.058114e+000 2.874023e+000 177 110 88
2.997802e-001 -1.057025e+000 2.873285e+000 175 110 85
2.997802e-001 -1.057025e+000 2.873285e+000 175 110 85
3.045133e-001 -1.058535e+000 2.871297e+000 177 110 82
3.130758e-001 -1.049750e+000 2.866595e+000 115 58 39
3.477121e-001 -1.057726e+000 2.858416e+000 181 109 77
3.840555e-001 -1.086645e+000 2.842243e+000 183 120 73
2.979702e-001 -1.063486e+000 2.880453e+000 182 104 89
2.979702e-001 -1.063486e+000 2.880453e+000 182 104 89
3.120920e-001 -1.067815e+000 2.883832e+000 178 108 87
3.120920e-001 -1.067815e+000 2.883832e+000 178 108 87
3.189775e-001 -1.063225e+000 2.874828e+000 177 109 83
3.189775e-001 -1.063225e+000 2.874828e+000 177 109 83
3.469190e-001 -1.074865e+000 2.872033e+000 175 109 77
3.469190e-001 -1.074865e+000 2.872033e+000 175 109 77
3.084311e-001 -1.084070e+000 2.898770e+000 146 17 37
3.261046e-001 -1.089440e+000 2.899006e+000 137 23 37
3.261046e-001 -1.089440e+000 2.899006e+000 137 23 37
3.245657e-001 -1.098035e+000 2.909261e+000 140 22 28
2.919850e-001 -8.915754e-001 2.719270e+000 22 51 9
2.973586e-001 -9.606712e-001 2.786003e+000 141 18 19
3.271608e-001 -9.694131e-001 2.785134e+000 127 22 26
2.642026e-001 -1.019054e+000 2.841047e+000 159 47 45
3.307191e-001 -1.025568e+000 2.828020e+000 175 107 81
3.434749e-001 -1.061400e+000 2.859152e+000 178 109 78
2.925755e-001 -1.081273e+000 2.897951e+000 180 113 96
3.607628e-001 -1.127662e+000 2.914820e+000 182 107 77
2.822783e-001 -8.656501e-001 2.697249e+000 92 89 18
2.881256e-001 -8.677641e-001 2.698195e+000 24 46 21
2.614521e-001 -8.884041e-001 2.726032e+000 129 124 42
2.675387e-001 -8.885787e-001 2.721774e+000 118 121 43
3.223623e-001 -9.071593e-001 2.713400e+000 29 46 24
3.049670e-001 -8.610628e-001 2.673901e+000 16 70 98
2.752154e-001 -8.731817e-001 2.705569e+000 22 47 25
2.677471e-001 -8.973839e-001 2.726821e+000 23 48 18
2.777401e-001 -1.029140e+000 2.851248e+000 179 111 92
2.878370e-001 -1.063519e+000 2.880978e+000 178 111 92
3.704643e-001 -1.105838e+000 2.894672e+000 154 15 31
2.832787e-001 -1.013813e+000 2.832641e+000 176 108 87
3.261506e-001 -1.030228e+000 2.844628e+000 175 106 73
2.370583e-001 -8.315744e-001 2.675293e+000 127 126 111
4.061921e-001 -1.142998e+000 2.874119e+000 169 26 31
4.061921e-001 -1.142998e+000 2.874119e+000 169 26 31
3.304206e-001 -1.076531e+000 2.882182e+000 177 109 74
3.453744e-001 -9.634909e-001 2.752787e+000 159 141 105
3.360487e-001 -9.270357e-001 2.704004e+000 24 47 19
2.794822e-001 -9.837645e-001 2.805960e+000 23 66 93
3.642427e-001 -1.016544e+000 2.765905e+000 71 117 139
3.100629e-001 -9.448020e-001 2.754317e+000 114 30 32
3.091424e-001 -8.492018e-001 2.666116e+000 37 68 44
3.119092e-001 -8.631838e-001 2.679425e+000 34 72 45
2.803591e-001 -8.808693e-001 2.706800e+000 83 106 78
3.112023e-001 -9.676005e-001 2.784909e+000 200 139 107
3.149529e-001 -9.709746e-001 2.785814e+000 218 125 98
3.826205e-001 -1.018094e+000 2.757067e+000 45 74 82
3.446476e-001 -1.004104e+000 2.792806e+000 8 49 71
3.296672e-001 -1.018788e+000 2.825140e+000 177 112 84
3.216965e-001 -1.056143e+000 2.865410e+000 182 110 82
3.042890e-001 -1.104829e+000 2.920843e+000 216 59 71
3.018049e-001 -8.373880e-001 2.656344e+000 160 34 32
3.267506e-001 -8.859358e-001 2.687942e+000 139 139 42
3.092130e-001 -9.367026e-001 2.755594e+000 169 139 112
3.173243e-001 -9.371530e-001 2.752721e+000 180 137 111
3.044411e-001 -1.064202e+000 2.882753e+000 87 49 45
3.164889e-001 -1.091699e+000 2.898500e+000 181 80 68
3.164889e-001 -1.091699e+000 2.898500e+000 181 80 68
3.786719e-001 -1.110035e+000 2.875179e+000 128 30 31
3.562262e-001 -1.095626e+000 2.888864e+000 133 24 29
3.099940e-001 -1.104187e+000 2.920332e+000 199 60 71
3.099940e-001 -1.104187e+000 2.920332e+000 199 60 71
3.050551e-001 -8.401532e-001 2.658132e+000 173 145 116
3.064852e-001 -8.699316e-001 2.687818e+000 145 141 33
2.791630e-001 -8.775614e-001 2.707543e+000 142 132 24
2.791630e-001 -8.775614e-001 2.707543e+000 142 132 24
