ply
format ascii 1.0
element face 0
property list uchar int vertex_indices
element vertex 902
property float x
property float y
property float z
property uchar diffuse_red
property uchar diffuse_green
property uchar diffuse_blue
end_header
5.355466e-001 -1.805993e+000 2.670961e+000 121 110 31
5.142054e-001 -1.798224e+000 2.675759e+000 30 40 17
5.616380e-001 -1.818648e+000 2.671391e+000 113 113 52
4.731001e-001 -1.715367e+000 2.813272e+000 36 67 46
5.656885e-001 -1.828676e+000 2.681237e+000 110 106 27
5.461623e-001 -1.826151e+000 2.687255e+000 122 113 45
5.228321e-001 -1.833397e+000 2.702409e+000 98 102 41
4.798699e-001 -1.830806e+000 2.892571e+000 177 39 47
4.935177e-001 -1.829831e+000 2.914869e+000 157 31 37
5.069975e-001 -1.978206e+000 2.879398e+000 63 25 12
5.661138e-001 -2.028780e+000 2.877927e+000 136 76 48
6.014843e-001 -2.063532e+000 2.901668e+000 122 79 47
5.449065e-001 -2.049481e+000 2.919336e+000 112 75 65
5.655027e-001 -2.066117e+000 2.914853e+000 102 59 37
5.765275e-001 -2.087567e+000 2.933091e+000 87 46 28
5.329167e-001 -2.064631e+000 2.950257e+000 107 72 58
5.023161e-001 -2.009215e+000 3.007406e+000 32 32 53
5.142104e-001 -2.076236e+000 2.987148e+000 140 79 34
5.509694e-001 -1.783073e+000 2.643864e+000 164 96 68
5.382928e-001 -1.801245e+000 2.666970e+000 31 42 12
5.286425e-001 -1.809757e+000 2.674356e+000 31 41 19
4.697034e-001 -1.708023e+000 2.801612e+000 33 64 46
5.308315e-001 -1.821711e+000 2.683465e+000 32 42 20
5.408245e-001 -1.831387e+000 2.694085e+000 33 43 17
5.233161e-001 -1.828372e+000 2.697786e+000 28 41 15
4.545517e-001 -1.745337e+000 2.789683e+000 40 75 47
4.752764e-001 -1.726777e+000 2.819169e+000 165 175 149
5.317663e-001 -1.839350e+000 2.706587e+000 31 41 15
4.447320e-001 -1.771444e+000 2.778317e+000 166 172 150
4.685915e-001 -1.752549e+000 2.819216e+000 173 173 165
4.705012e-001 -1.752126e+000 2.820182e+000 173 173 165
4.857360e-001 -1.730403e+000 2.848592e+000 39 68 49
5.572963e-001 -1.850679e+000 2.705520e+000 90 95 63
5.246163e-001 -1.842197e+000 2.712315e+000 121 115 56
5.246163e-001 -1.842197e+000 2.712315e+000 121 115 56
4.871085e-001 -1.743480e+000 2.858617e+000 35 69 45
4.680950e-001 -1.768119e+000 2.835090e+000 43 70 36
5.355843e-001 -1.871864e+000 2.741948e+000 69 39 30
4.622178e-001 -1.822234e+000 2.844320e+000 161 168 171
4.891605e-001 -1.863302e+000 2.924534e+000 39 72 132
5.191694e-001 -1.846758e+000 2.970694e+000 76 36 43
4.977906e-001 -1.869738e+000 2.952204e+000 182 148 123
5.037167e-001 -1.946921e+000 2.847406e+000 147 87 76
5.663380e-001 -1.987490e+000 2.834777e+000 138 105 72
5.509237e-001 -2.015750e+000 2.874074e+000 137 96 66
5.455532e-001 -2.034388e+000 2.900962e+000 130 94 68
5.473594e-001 -2.065143e+000 2.938994e+000 126 90 68
5.350762e-001 -2.062360e+000 2.937235e+000 128 91 73
5.354960e-001 -2.072113e+000 2.952578e+000 131 90 70
5.502994e-001 -1.825271e+000 2.681100e+000 113 110 58
5.504904e-001 -1.825506e+000 2.681243e+000 113 110 58
5.155782e-001 -1.811613e+000 2.690316e+000 70 85 67
5.029924e-001 -1.809051e+000 2.689873e+000 72 86 62
5.268957e-001 -1.824082e+000 2.691113e+000 107 106 62
5.615906e-001 -1.846255e+000 2.699111e+000 33 41 19
4.560425e-001 -1.756714e+000 2.802593e+000 38 71 42
5.196282e-001 -1.848253e+000 2.715949e+000 33 41 20
4.567868e-001 -1.803260e+000 2.827226e+000 172 171 175
4.743256e-001 -1.777139e+000 2.851146e+000 37 69 41
5.618556e-001 -1.901698e+000 2.748966e+000 112 26 25
5.318963e-001 -1.897775e+000 2.762128e+000 168 75 65
5.197845e-001 -1.888807e+000 2.754674e+000 124 119 100
5.255451e-001 -1.787601e+000 2.942821e+000 173 169 176
5.717398e-001 -1.968155e+000 2.814338e+000 151 97 69
5.293791e-001 -1.972973e+000 2.843670e+000 100 24 24
6.656681e-001 -2.124356e+000 2.954611e+000 118 80 41
5.305577e-001 -1.912016e+000 3.027015e+000 167 67 59
5.926466e-001 -1.989173e+000 3.138700e+000 171 151 126
5.190884e-001 -1.858596e+000 2.729733e+000 106 109 102
5.994860e-001 -1.953483e+000 3.155801e+000 52 45 39
4.919161e-001 -1.826382e+000 2.728642e+000 108 115 45
4.799120e-001 -1.901578e+000 2.849426e+000 139 137 141
3.401635e+000 -9.311867e-001 2.156834e+000 173 98 37
3.421663e+000 -8.801401e-001 2.238540e+000 130 99 68
3.365474e+000 -8.246470e-001 2.295046e+000 154 112 71
2.920163e+000 -1.072882e+000 2.760201e+000 140 102 60
3.437773e+000 -9.920028e-001 2.124783e+000 117 98 94
3.407642e+000 -7.931453e-001 2.385658e+000 154 123 74
3.386095e+000 -9.649358e-001 2.255668e+000 183 127 90
3.383864e+000 -9.675283e-001 2.277958e+000 123 87 55
3.371132e+000 -9.408641e-001 2.311360e+000 88 67 49
2.929660e+000 -1.097867e+000 2.743032e+000 115 82 49
3.433593e+000 -1.035632e+000 2.133110e+000 221 155 69
3.393376e+000 -8.383041e-001 2.351599e+000 199 148 91
3.373661e+000 -8.300101e-001 2.410734e+000 190 151 86
3.466762e+000 -1.058634e+000 2.130705e+000 122 89 51
3.385567e+000 -8.286710e-001 2.445074e+000 140 109 63
2.990287e+000 -1.280559e+000 2.525632e+000 112 78 45
3.002225e+000 -1.244740e+000 2.564258e+000 115 82 40
3.405515e+000 -1.013334e+000 2.145580e+000 45 34 46
3.406853e+000 -9.784078e-001 2.171692e+000 59 40 41
3.406853e+000 -9.784078e-001 2.171692e+000 59 40 41
3.396295e+000 -8.288546e-001 2.377912e+000 109 74 36
3.392659e+000 -8.294413e-001 2.378251e+000 109 74 36
3.407050e+000 -1.085549e+000 2.157605e+000 222 189 138
3.400557e+000 -9.600201e-001 2.302292e+000 212 176 127
3.380202e+000 -1.080332e+000 2.196151e+000 51 39 25
3.001975e+000 -1.279967e+000 2.553429e+000 158 110 70
2.992271e+000 -1.281158e+000 2.554056e+000 158 110 70
3.380803e+000 -9.835939e-001 2.229650e+000 61 41 30
3.383574e+000 -8.601251e-001 2.293189e+000 220 175 114
3.385042e+000 -9.406910e-001 2.204218e+000 214 167 102
3.385042e+000 -9.406910e-001 2.204218e+000 214 167 102
3.411192e+000 -9.118118e-001 2.258717e+000 58 36 25
3.411192e+000 -9.118118e-001 2.258717e+000 58 36 25
3.413419e+000 -1.019221e+000 2.192963e+000 215 165 81
3.406627e+000 -9.871732e-001 2.136556e+000 105 86 88
3.406627e+000 -9.871732e-001 2.136556e+000 105 86 88
3.409873e+000 -1.138165e+000 2.149932e+000 237 206 149
3.400839e+000 -1.046056e+000 2.172603e+000 182 135 76
3.407368e+000 -8.581081e-001 2.260618e+000 126 92 49
3.385916e+000 -8.283282e-001 2.444990e+000 146 115 58
3.427403e+000 -9.888254e-001 2.260409e+000 220 175 117
2.924051e+000 -1.090278e+000 2.769897e+000 168 114 64
5.114592e-001 -2.094568e+000 3.050713e+000 191 158 151
3.389961e+000 -8.290173e-001 2.377083e+000 118 81 37
2.955840e+000 -1.452048e+000 2.581785e+000 69 56 40
2.888068e+000 -1.437912e+000 2.607814e+000 68 53 32
2.928345e+000 -1.400282e+000 2.603441e+000 36 27 20
5.497680e-001 -2.135091e+000 3.010532e+000 26 37 21
4.949771e-001 -1.743391e+000 2.627956e+000 31 58 79
5.579332e-001 -1.790505e+000 2.646047e+000 120 35 24
5.345075e-001 -1.785030e+000 2.650749e+000 104 32 31
4.425377e-001 -1.708580e+000 2.752159e+000 208 136 139
5.149036e-001 -1.812908e+000 2.685165e+000 93 110 52
5.739360e-001 -1.843704e+000 2.691500e+000 39 38 13
5.391730e-001 -1.872320e+000 2.733510e+000 49 23 9
5.310035e-001 -1.877450e+000 2.751304e+000 144 110 89
5.664988e-001 -1.911121e+000 2.760316e+000 121 65 41
5.205053e-001 -1.890999e+000 2.769917e+000 75 26 17
5.033917e-001 -1.789709e+000 2.921662e+000 140 119 122
5.274391e-001 -1.905517e+000 2.775693e+000 123 70 56
5.147458e-001 -1.908376e+000 2.787500e+000 113 61 47
5.446039e-001 -1.933455e+000 2.789927e+000 126 70 46
6.002515e-001 -1.971664e+000 2.807571e+000 122 57 37
5.832347e-001 -1.960895e+000 2.799792e+000 85 31 19
5.497241e-001 -1.955138e+000 2.812730e+000 159 74 57
5.895035e-001 -1.979041e+000 2.817502e+000 143 52 42
5.430305e-001 -1.963751e+000 2.829611e+000 95 47 33
5.063474e-001 -1.939803e+000 2.836338e+000 153 89 74
4.714302e-001 -1.908794e+000 2.882103e+000 157 151 172
4.692594e-001 -1.905867e+000 2.882053e+000 75 32 62
4.793503e-001 -1.887477e+000 2.916097e+000 39 88 144
4.928039e-001 -1.867951e+000 2.935842e+000 128 179 241
5.321387e-001 -1.970435e+000 2.841693e+000 158 58 53
5.537847e-001 -2.031831e+000 2.889792e+000 85 50 29
5.537847e-001 -2.031831e+000 2.889792e+000 85 50 29
5.931378e-001 -2.058123e+000 2.889045e+000 97 58 34
5.470692e-001 -2.039939e+000 2.906231e+000 133 96 71
6.176768e-001 -2.080785e+000 2.911484e+000 96 60 36
5.379116e-001 -2.076630e+000 2.955553e+000 132 87 66
5.015336e-001 -2.040874e+000 3.017201e+000 188 141 125
6.153682e-001 -2.146032e+000 2.978032e+000 47 60 33
5.711209e-001 -2.130889e+000 2.989560e+000 25 37 20
5.662472e-001 -2.137482e+000 3.001951e+000 58 70 40
5.662472e-001 -2.137482e+000 3.001951e+000 58 70 40
5.449937e-001 -1.777743e+000 2.641788e+000 127 29 28
5.395764e-001 -1.776895e+000 2.643886e+000 127 30 27
5.277394e-001 -1.775259e+000 2.648513e+000 132 27 31
5.133590e-001 -1.776441e+000 2.655055e+000 157 82 53
5.096868e-001 -1.772925e+000 2.654566e+000 132 30 27
5.230507e-001 -1.779541e+000 2.652547e+000 119 31 23
5.281600e-001 -1.786885e+000 2.656021e+000 121 35 28
5.204636e-001 -1.786317e+000 2.658617e+000 122 34 26
5.492422e-001 -1.884953e+000 2.740089e+000 94 74 49
5.433448e-001 -1.883677e+000 2.742742e+000 104 80 54
5.565350e-001 -1.910499e+000 2.760685e+000 117 64 40
5.273687e-001 -1.901036e+000 2.787449e+000 112 60 49
5.876671e-001 -1.935781e+000 2.774925e+000 127 71 46
5.614130e-001 -1.927613e+000 2.785350e+000 122 66 43
5.281563e-001 -1.912919e+000 2.780572e+000 122 69 53
5.896435e-001 -1.963786e+000 2.803648e+000 160 79 58
6.044783e-001 -1.977894e+000 2.811512e+000 91 40 25
5.624106e-001 -1.965675e+000 2.821404e+000 102 45 26
5.566637e-001 -1.965999e+000 2.818242e+000 102 45 26
5.158507e-001 -1.962297e+000 2.850093e+000 115 42 27
6.095966e-001 -2.040666e+000 2.870181e+000 135 89 60
5.378793e-001 -2.006698e+000 2.876125e+000 77 44 29
5.754398e-001 -2.067598e+000 2.909482e+000 91 46 24
5.641436e-001 -2.085561e+000 2.937708e+000 93 50 32
6.477014e-001 -2.129766e+000 2.950423e+000 42 37 15
6.189274e-001 -2.158690e+000 2.991638e+000 103 65 42
5.921603e-001 -2.140486e+000 2.985241e+000 27 36 17
5.591434e-001 -2.131006e+000 3.001888e+000 29 36 20
5.596879e-001 -2.131215e+000 3.002353e+000 29 36 20
5.445331e-001 -2.123449e+000 3.004885e+000 61 81 52
5.541464e-001 -1.767993e+000 2.626966e+000 57 77 78
4.421274e-001 -1.705646e+000 2.745008e+000 175 49 59
4.421274e-001 -1.705646e+000 2.745008e+000 175 49 59
4.541652e-001 -1.694165e+000 2.756816e+000 184 49 49
4.568916e-001 -1.683307e+000 2.766147e+000 178 42 52
5.585607e-001 -1.804047e+000 2.657769e+000 114 113 49
5.568931e-001 -1.803863e+000 2.656766e+000 114 113 49
4.832615e-001 -1.695570e+000 2.830893e+000 40 62 38
4.962902e-001 -1.823252e+000 2.713411e+000 30 40 17
5.459889e-001 -1.850683e+000 2.708720e+000 36 38 15
4.730345e-001 -1.755335e+000 2.834555e+000 162 184 98
2.597101e+000 -1.948372e+000 3.262367e+000 99 81 51
5.345407e-001 -1.909365e+000 2.779528e+000 158 89 73
5.524179e-001 -2.021279e+000 2.879242e+000 94 59 39
5.319150e-001 -1.929208e+000 3.038341e+000 189 146 121
6.057649e-001 -2.058829e+000 2.888312e+000 90 58 33
5.567377e-001 -2.062533e+000 2.927453e+000 72 41 30
6.162303e-001 -2.142278e+000 2.975941e+000 32 35 21
6.162303e-001 -2.142278e+000 2.975941e+000 32 35 21
6.209121e-001 -2.147309e+000 2.976696e+000 52 65 37
6.075824e-001 -2.140968e+000 2.976159e+000 30 34 20
6.078306e-001 -2.141003e+000 2.976302e+000 30 34 20
5.969333e-001 -2.143267e+000 2.984140e+000 62 72 45
5.773120e-001 -2.136648e+000 2.986609e+000 30 37 19
5.698833e-001 -2.133819e+000 3.004836e+000 29 36 18
5.698833e-001 -2.133819e+000 3.004836e+000 29 36 18
5.858814e-001 -2.152346e+000 3.007837e+000 83 37 21
5.162447e-001 -2.098672e+000 3.065593e+000 223 118 124
5.353627e-001 -1.806071e+000 2.670929e+000 121 110 31
5.617022e-001 -1.818457e+000 2.671298e+000 113 113 52
4.401650e-001 -1.765181e+000 2.746452e+000 61 108 154
5.067481e-001 -1.815124e+000 2.694283e+000 26 43 13
4.888427e-001 -1.807793e+000 2.707366e+000 26 39 9
4.573994e-001 -1.749083e+000 2.798622e+000 167 178 155
4.994144e-001 -1.822186e+000 2.713738e+000 28 41 13
4.637559e-001 -1.841322e+000 2.852651e+000 131 101 109
4.665510e-001 -1.846517e+000 2.850182e+000 126 91 98
4.858751e-001 -1.839559e+000 2.905462e+000 159 34 39
4.809833e-001 -1.846035e+000 2.899361e+000 155 32 34
6.090268e-001 -2.045093e+000 2.876746e+000 133 90 55
5.950261e-001 -2.047513e+000 2.882924e+000 86 38 24
5.970537e-001 -2.053536e+000 2.886585e+000 132 83 54
5.771808e-001 -2.046244e+000 2.890022e+000 90 41 27
5.629182e-001 -2.049557e+000 2.902008e+000 130 83 56
5.411731e-001 -2.079875e+000 2.941765e+000 93 57 39
5.463248e-001 -2.095334e+000 2.965381e+000 122 70 46
4.983011e-001 -2.043031e+000 3.014895e+000 171 145 128
5.953412e-001 -2.013648e+000 3.167469e+000 168 138 129
5.852788e-001 -2.147680e+000 2.992559e+000 28 32 18
5.852788e-001 -2.147680e+000 2.992559e+000 28 32 18
5.343745e-001 -2.119659e+000 3.012348e+000 22 42 17
5.343745e-001 -2.119659e+000 3.012348e+000 22 42 17
5.235202e-001 -2.146258e+000 3.054331e+000 31 16 19
5.030334e-001 -1.634020e+000 2.729758e+000 240 224 208
5.499773e-001 -1.783561e+000 2.643085e+000 164 96 68
5.113236e-001 -1.803376e+000 2.679660e+000 64 74 37
5.563091e-001 -1.823581e+000 2.674992e+000 33 43 17
5.449197e-001 -1.811031e+000 2.675968e+000 30 44 19
5.377906e-001 -1.814830e+000 2.680907e+000 132 121 40
5.100547e-001 -1.856650e+000 2.966462e+000 197 142 119
5.974008e-001 -2.037848e+000 2.869740e+000 87 37 23
5.584552e-001 -2.026407e+000 2.887512e+000 130 95 67
5.344951e-001 -2.010595e+000 2.886147e+000 135 94 72
5.344951e-001 -2.010595e+000 2.886147e+000 135 94 72
5.531084e-001 -2.047356e+000 2.904735e+000 131 89 65
5.632513e-001 -2.059605e+000 2.915372e+000 132 88 63
5.384846e-001 -2.042472e+000 2.915111e+000 131 94 76
5.354713e-001 -2.041348e+000 2.921523e+000 128 94 75
5.922665e-001 -2.084318e+000 2.919182e+000 119 77 53
5.072948e-001 -2.077756e+000 3.001940e+000 143 84 39
5.079241e-001 -2.062056e+000 3.042245e+000 185 116 39
5.941016e-001 -2.148778e+000 2.987481e+000 25 33 17
2.826516e+000 -1.225259e+000 2.825211e+000 38 24 15
5.651751e-001 -1.798059e+000 2.653777e+000 34 36 30
4.342431e-001 -1.722435e+000 2.740814e+000 208 152 143
5.708961e-001 -1.823345e+000 2.677433e+000 33 42 23
5.147071e-001 -1.812056e+000 2.689722e+000 70 85 67
5.032661e-001 -1.808929e+000 2.690081e+000 72 86 62
5.041937e-001 -1.701346e+000 2.866420e+000 115 136 155
5.535491e-001 -1.838346e+000 2.694339e+000 90 95 66
5.531418e-001 -1.838479e+000 2.694184e+000 90 95 66
5.112800e-001 -1.838797e+000 2.712865e+000 119 118 70
2.547085e+000 -2.077375e+000 3.101629e+000 195 166 111
4.923853e-001 -1.818000e+000 2.911009e+000 165 167 179
2.700546e+000 -2.149656e+000 3.372142e+000 103 84 54
2.632197e+000 -2.100990e+000 3.410663e+000 95 79 54
5.213636e-001 -2.132844e+000 3.047058e+000 91 42 25
4.541070e-001 -1.661254e+000 2.737747e+000 27 96 173
2.479214e+000 -1.978663e+000 3.257189e+000 59 45 33
2.727674e+000 -1.941666e+000 3.342659e+000 219 188 133
5.126585e-001 -1.834886e+000 2.960977e+000 113 167 234
6.601732e-001 -2.166771e+000 2.981947e+000 130 74 35
6.418868e-001 -2.151561e+000 2.978030e+000 27 39 19
5.201691e-001 -2.137652e+000 3.060197e+000 179 108 46
2.449301e+000 -1.981422e+000 3.193681e+000 144 121 88
2.687509e+000 -2.001963e+000 3.361175e+000 214 185 129
4.728619e-001 -1.911215e+000 2.897054e+000 15 88 165
4.942707e-001 -1.990167e+000 2.966952e+000 42 13 18
4.974362e-001 -1.839260e+000 2.725547e+000 25 43 19
4.443570e-001 -1.809490e+000 2.830381e+000 167 170 177
2.693959e+000 -2.100359e+000 3.377151e+000 53 43 33
5.415452e-001 -2.047809e+000 3.098130e+000 164 138 125
5.049651e-001 -1.779451e+000 2.656379e+000 146 86 59
5.055281e-001 -1.878579e+000 2.762943e+000 128 121 105
6.245156e-001 -2.140412e+000 2.968613e+000 51 63 43
5.150485e-001 -2.109137e+000 3.055905e+000 149 112 114
5.470613e-001 -1.994801e+000 2.855640e+000 134 109 83
5.548709e-001 -1.994157e+000 2.860651e+000 134 109 83
5.397826e-001 -2.123713e+000 3.014518e+000 30 45 26
4.751682e-001 -1.883125e+000 2.893210e+000 159 24 38
5.039048e-001 -1.883629e+000 2.963431e+000 179 150 134
4.832345e-001 -2.032109e+000 2.923520e+000 130 103 84
5.488531e-001 -2.016331e+000 3.094632e+000 170 148 134
5.272904e-001 -1.835097e+000 2.703501e+000 109 116 47
5.219205e-001 -1.904039e+000 2.778463e+000 118 65 52
5.142209e-001 -1.918444e+000 2.801939e+000 117 67 48
5.412319e-001 -1.954248e+000 2.813595e+000 155 69 59
5.370614e-001 -2.003191e+000 2.876560e+000 127 92 70
5.431815e-001 -2.051630e+000 2.922133e+000 117 82 63
6.086231e-001 -1.912094e+000 3.246334e+000 144 127 107
6.130558e-001 -2.148684e+000 2.980895e+000 26 35 14
5.491957e-001 -1.773715e+000 2.636225e+000 40 62 69
5.014408e-001 -1.779549e+000 2.663478e+000 121 28 26
5.015663e-001 -1.783237e+000 2.666353e+000 122 27 25
4.760377e-001 -1.671743e+000 2.800453e+000 51 105 164
4.787834e-001 -1.721522e+000 2.826821e+000 36 61 20
5.460700e-001 -1.851614e+000 2.709648e+000 36 34 20
4.558641e-001 -1.772914e+000 2.805934e+000 35 67 47
4.667460e-001 -1.814781e+000 2.853020e+000 153 37 54
5.074614e-001 -1.904636e+000 2.794592e+000 116 63 49
5.060245e-001 -1.904761e+000 2.793887e+000 116 63 49
4.858386e-001 -1.874985e+000 2.925093e+000 94 154 210
5.469328e-001 -2.006336e+000 2.867821e+000 131 91 67
5.235189e-001 -2.021240e+000 2.908538e+000 86 62 50
6.581663e-001 -1.927371e+000 3.216104e+000 62 52 42
6.073868e-001 -2.144918e+000 2.980473e+000 55 65 40
5.010255e-001 -1.818839e+000 2.705036e+000 99 95 31
5.373324e-001 -2.027165e+000 2.900511e+000 102 69 53
5.373832e-001 -2.027150e+000 2.900526e+000 102 69 53
5.938769e-001 -2.068775e+000 2.904107e+000 94 56 35
6.031847e-001 -2.095703e+000 2.926940e+000 119 77 55
5.406797e-001 -2.058727e+000 2.930419e+000 108 76 63
5.377594e-001 -2.058574e+000 2.928695e+000 108 76 63
5.400426e-001 -2.088721e+000 2.965632e+000 102 61 41
5.847341e-001 -2.137705e+000 2.986106e+000 27 33 19
4.582104e-001 -1.853041e+000 2.839965e+000 140 108 115
5.591751e-001 -1.831279e+000 2.687979e+000 28 41 14
5.255417e-001 -2.007905e+000 2.886648e+000 123 86 68
5.573364e-001 -2.038196e+000 2.894599e+000 124 85 64
5.573364e-001 -2.038196e+000 2.894599e+000 124 85 64
5.051398e-001 -2.045202e+000 3.020861e+000 159 136 125
5.277868e-001 -2.141489e+000 3.043291e+000 106 47 30
5.487341e-001 -1.955802e+000 2.809323e+000 112 42 27
4.709149e-001 -1.906354e+000 2.874850e+000 145 152 160
3.379244e+000 -9.470026e-001 2.290279e+000 187 150 111
3.379244e+000 -9.470026e-001 2.290279e+000 187 150 111
5.131918e-001 -1.782591e+000 2.658164e+000 107 31 25
5.393002e-001 -1.872157e+000 2.733604e+000 49 23 9
5.313386e-001 -1.875376e+000 2.739971e+000 66 32 23
5.170088e-001 -1.881526e+000 2.755461e+000 130 116 99
5.680522e-001 -1.917587e+000 2.765606e+000 125 69 45
5.322714e-001 -1.913870e+000 2.777954e+000 125 70 50
5.494435e-001 -1.930695e+000 2.783910e+000 148 84 58
5.773915e-001 -1.960440e+000 2.801522e+000 91 31 27
5.624069e-001 -1.956331e+000 2.806482e+000 154 66 55
5.992992e-001 -1.978782e+000 2.816255e+000 151 56 46
5.187570e-001 -1.876996e+000 2.750036e+000 153 109 93
5.342598e-001 -1.908352e+000 2.769268e+000 127 70 50
5.344166e-001 -1.908492e+000 2.769087e+000 127 70 50
5.435925e-001 -1.926115e+000 2.789188e+000 109 56 34
5.157300e-001 -2.109040e+000 3.028917e+000 144 101 88
5.352377e-001 -1.961396e+000 2.832610e+000 103 54 42
5.463779e-001 -1.825975e+000 2.687356e+000 122 113 45
5.727887e-001 -2.056016e+000 2.904720e+000 102 57 35
5.705585e-001 -2.081196e+000 2.931968e+000 122 70 46
5.458739e-001 -2.095352e+000 2.964780e+000 122 70 46
5.230836e-001 -2.136542e+000 3.050180e+000 96 44 27
2.825533e+000 -9.699433e-001 2.891274e+000 130 90 47
5.370543e-001 -1.778594e+000 2.650584e+000 144 74 56
5.302640e-001 -1.821882e+000 2.682990e+000 32 42 20
5.332859e-001 -2.020365e+000 2.896116e+000 128 92 70
5.337074e-001 -2.020348e+000 2.896402e+000 128 92 70
2.729027e+000 -1.175513e+000 2.917544e+000 81 64 48
5.575227e-001 -1.978142e+000 2.835168e+000 98 25 26
5.435947e-001 -1.785659e+000 2.648578e+000 113 42 23
5.574208e-001 -1.900400e+000 2.753680e+000 154 80 54
5.302391e-001 -1.950738e+000 2.820434e+000 165 63 59
5.467136e-001 -1.777088e+000 2.641975e+000 116 30 24
5.467136e-001 -1.777088e+000 2.641975e+000 116 30 24
5.413867e-001 -1.776335e+000 2.644089e+000 116 34 20
5.286140e-001 -1.774877e+000 2.648480e+000 116 34 23
5.663137e-001 -2.044969e+000 2.895117e+000 94 56 37
5.183765e-001 -2.123347e+000 3.067806e+000 170 106 50
4.896634e-001 -1.798882e+000 2.697475e+000 27 35 13
5.099535e-001 -1.843542e+000 2.722335e+000 31 39 24
5.082334e-001 -1.970508e+000 2.867043e+000 114 80 53
4.389855e-001 -1.750816e+000 2.759057e+000 93 128 153
5.537378e-001 -1.780979e+000 2.639602e+000 188 110 79
5.537378e-001 -1.780979e+000 2.639602e+000 188 110 79
5.474363e-001 -1.780332e+000 2.641724e+000 186 110 79
5.222563e-001 -1.776797e+000 2.649656e+000 196 99 61
5.222563e-001 -1.776797e+000 2.649656e+000 196 99 61
4.981230e-001 -1.768923e+000 2.657920e+000 123 114 112
4.957611e-001 -1.767346e+000 2.657291e+000 18 58 88
5.412967e-001 -1.881277e+000 2.738598e+000 133 99 78
5.227912e-001 -1.876526e+000 2.744532e+000 65 41 29
5.162019e-001 -1.876152e+000 2.751639e+000 139 112 95
5.482521e-001 -1.900217e+000 2.755388e+000 154 81 60
5.482521e-001 -1.900217e+000 2.755388e+000 154 81 60
5.287964e-001 -1.895610e+000 2.761625e+000 91 34 21
5.196885e-001 -1.897229e+000 2.769322e+000 83 33 26
5.217576e-001 -1.904068e+000 2.778298e+000 121 65 52
4.964072e-001 -1.900507e+000 2.802283e+000 118 70 56
4.964414e-001 -1.900399e+000 2.802238e+000 118 70 56
5.713353e-001 -1.955211e+000 2.799992e+000 91 29 27
5.407886e-001 -1.954367e+000 2.813206e+000 174 85 72
5.306033e-001 -1.950697e+000 2.820950e+000 160 62 60
4.962467e-001 -1.938273e+000 2.844774e+000 142 114 100
1.057641e+000 -1.990531e+000 3.045362e+000 117 103 76
5.535934e-001 -1.980536e+000 2.833328e+000 132 47 41
5.535934e-001 -1.980536e+000 2.833328e+000 132 47 41
5.325250e-001 -1.968976e+000 2.838632e+000 90 26 21
5.059565e-001 -1.953927e+000 2.852655e+000 107 34 30
5.108731e-001 -1.964062e+000 2.858568e+000 86 52 31
5.108731e-001 -1.964062e+000 2.858568e+000 86 52 31
5.362571e-001 -2.036168e+000 2.911482e+000 130 93 69
5.624562e-001 -2.064114e+000 2.918526e+000 134 85 61
6.072919e-001 -2.100792e+000 2.932267e+000 101 64 38
5.999963e-001 -2.136060e+000 2.974628e+000 71 81 50
6.098737e-001 -2.145563e+000 2.979952e+000 66 77 45
5.411375e-001 -2.122288e+000 3.007177e+000 29 44 23
5.247242e-001 -2.145005e+000 3.065125e+000 42 24 19
5.530300e-001 -1.776138e+000 2.635610e+000 126 113 83
5.511263e-001 -1.778605e+000 2.639821e+000 128 33 28
5.505110e-001 -1.778914e+000 2.639647e+000 128 33 28
5.452866e-001 -1.777665e+000 2.642055e+000 129 34 27
5.739871e-001 -1.843488e+000 2.691375e+000 31 35 6
5.651802e-001 -1.911258e+000 2.759613e+000 125 69 46
5.283143e-001 -1.912899e+000 2.780744e+000 119 66 51
5.224847e-001 -1.921637e+000 2.796045e+000 112 59 45
5.529230e-001 -1.958673e+000 2.810057e+000 89 32 23
5.274903e-001 -1.944311e+000 2.819116e+000 130 117 98
5.707116e-001 -1.985817e+000 2.832677e+000 152 107 79
5.345429e-001 -1.972126e+000 2.838632e+000 142 52 47
5.064508e-001 -1.974188e+000 2.878997e+000 141 106 79
6.057168e-001 -2.036955e+000 2.866423e+000 79 33 20
5.662543e-001 -2.026616e+000 2.875581e+000 131 69 46
5.413477e-001 -2.007413e+000 2.873926e+000 143 97 73
5.727136e-001 -2.056505e+000 2.902754e+000 89 46 21
5.958448e-001 -2.079495e+000 2.913009e+000 110 70 45
5.816788e-001 -2.108903e+000 2.953793e+000 92 50 26
6.158301e-001 -2.137775e+000 2.968399e+000 70 82 47
5.091714e-001 -2.082883e+000 3.006383e+000 146 80 28
6.282194e-001 -2.159849e+000 2.989778e+000 103 65 40
5.699239e-001 -2.138526e+000 2.999817e+000 61 74 48
5.699239e-001 -2.138526e+000 2.999817e+000 61 74 48
5.547175e-001 -1.845872e+000 2.700295e+000 35 41 10
5.548445e-001 -1.914581e+000 2.762058e+000 152 85 58
5.548445e-001 -1.914581e+000 2.762058e+000 152 85 58
5.101501e-001 -1.899520e+000 2.785679e+000 118 62 50
5.453291e-001 -2.008776e+000 2.871584e+000 103 70 51
5.446411e-001 -2.028828e+000 2.894109e+000 104 73 51
6.147616e-001 -2.091037e+000 2.917368e+000 108 71 47
5.914189e-001 -2.089500e+000 2.929202e+000 91 54 35
5.814970e-001 -2.088530e+000 2.934044e+000 95 48 25
5.559077e-001 -2.081100e+000 2.943821e+000 130 83 58
5.422997e-001 -2.078451e+000 2.955001e+000 106 65 47
5.064321e-001 -2.070951e+000 3.000832e+000 117 51 42
5.776213e-001 -2.136785e+000 2.987054e+000 31 37 22
5.444288e-001 -2.123503e+000 3.004805e+000 69 89 54
5.002998e-001 -1.615037e+000 2.702625e+000 169 143 105
4.969610e-001 -1.770597e+000 2.660470e+000 114 70 56
4.911049e-001 -1.717984e+000 2.858826e+000 43 69 42
5.469714e-001 -1.877461e+000 2.733518e+000 122 79 65
2.439423e+000 -1.753447e+000 3.438815e+000 77 55 31
4.661569e-001 -1.847551e+000 2.868861e+000 170 165 173
5.530793e-001 -2.009835e+000 2.867312e+000 93 56 35
5.574090e-001 -2.022478e+000 2.874319e+000 93 46 28
5.973866e-001 -2.074696e+000 2.907386e+000 131 84 55
4.902395e-001 -2.009309e+000 2.950477e+000 118 84 47
5.860019e-001 -2.077792e+000 2.921296e+000 97 51 28
6.028808e-001 -2.111270e+000 2.947732e+000 92 50 25
5.786020e-001 -2.098426e+000 2.942268e+000 86 44 22
5.816006e-001 -2.098624e+000 2.944614e+000 86 44 22
5.649476e-001 -2.132887e+000 2.997997e+000 28 39 22
5.502428e-001 -1.832288e+000 2.686490e+000 28 38 12
2.391636e+000 -1.727216e+000 3.457859e+000 89 64 31
5.277601e-001 -2.003573e+000 2.881287e+000 124 77 56
5.274250e-001 -2.003742e+000 2.880776e+000 124 77 56
5.712762e-001 -2.035114e+000 2.879305e+000 93 40 24
5.405296e-001 -2.023416e+000 2.885819e+000 134 95 69
5.925688e-001 -2.084418e+000 2.919591e+000 126 79 51
5.565488e-001 -2.067433e+000 2.931921e+000 130 88 64
5.715962e-001 -2.092160e+000 2.940600e+000 124 66 44
5.720611e-001 -2.092177e+000 2.941388e+000 124 66 44
6.491070e-001 -2.145584e+000 2.965985e+000 30 44 21
6.746929e-001 -2.170364e+000 2.988055e+000 157 93 43
2.493288e+000 -1.443821e+000 3.263376e+000 110 72 26
5.509164e-001 -1.824859e+000 2.681475e+000 115 107 57
4.489141e-001 -1.782567e+000 2.800240e+000 39 66 48
4.817897e-001 -1.754793e+000 2.855336e+000 171 172 153
2.370126e+000 -1.655739e+000 3.433341e+000 122 84 39
5.893308e-001 -1.902041e+000 2.744600e+000 112 24 23
4.984838e-001 -2.044784e+000 2.977011e+000 154 121 111
4.399387e-001 -1.744377e+000 2.754714e+000 28 68 42
5.118755e-001 -1.823802e+000 2.702161e+000 69 88 86
5.140181e-001 -1.822949e+000 2.703188e+000 69 88 86
2.379519e+000 -1.707080e+000 3.475865e+000 213 184 124
5.901323e-001 -2.128329e+000 2.978842e+000 27 39 17
5.527036e-001 -2.147431e+000 3.028298e+000 94 35 27
5.200071e-001 -2.112445e+000 3.023348e+000 128 91 72
5.289660e-001 -1.963800e+000 2.826727e+000 113 57 46
5.107095e-001 -1.802343e+000 2.669224e+000 112 119 49
4.992724e-001 -2.016820e+000 2.975372e+000 158 135 121
5.176764e-001 -2.098995e+000 3.050894e+000 164 127 121
5.163795e-001 -1.814651e+000 2.692208e+000 92 107 48
4.330453e-001 -1.817303e+000 2.797022e+000 162 174 130
5.474560e-001 -1.873240e+000 2.732616e+000 65 30 24
5.116295e-001 -1.876601e+000 2.743792e+000 73 43 42
4.413254e-001 -1.838000e+000 2.815943e+000 60 67 44
4.413254e-001 -1.838000e+000 2.815943e+000 60 67 44
5.358858e-001 -1.901074e+000 2.761479e+000 87 30 28
5.915171e-001 -1.929288e+000 2.773448e+000 124 67 43
5.915171e-001 -1.929288e+000 2.773448e+000 124 67 43
4.997025e-001 -1.935429e+000 2.833428e+000 135 118 108
5.827546e-001 -1.974003e+000 2.813947e+000 145 70 54
5.777846e-001 -1.978851e+000 2.819175e+000 134 49 40
5.433313e-001 -1.979296e+000 2.836227e+000 143 56 55
1.002552e+000 -1.992831e+000 3.022002e+000 99 84 71
5.462462e-001 -2.020808e+000 2.879079e+000 135 93 72
5.342149e-001 -2.016972e+000 2.893039e+000 141 93 77
5.157961e-001 -2.021030e+000 2.895094e+000 138 101 83
5.565995e-001 -2.037466e+000 2.917315e+000 134 98 78
5.534451e-001 -2.059703e+000 2.919622e+000 136 93 76
5.673560e-001 -2.081847e+000 2.944362e+000 132 74 55
5.638033e-001 -2.081748e+000 2.946486e+000 91 46 36
1.613604e+000 -8.047691e-001 4.252080e+000 218 195 141
1.604309e+000 -8.232410e-001 4.242941e+000 169 148 101
1.604309e+000 -8.232410e-001 4.242941e+000 169 148 101
5.413431e-001 -1.829565e+000 2.689008e+000 29 40 18
5.533447e-001 -1.877173e+000 2.742123e+000 136 103 86
5.172666e-001 -1.870518e+000 2.747260e+000 76 38 41
5.292408e-001 -1.882380e+000 2.739951e+000 133 107 83
5.292408e-001 -1.882380e+000 2.739951e+000 133 107 83
4.477410e-001 -1.858012e+000 2.839127e+000 148 120 134
5.850071e-001 -1.918617e+000 2.759708e+000 130 70 46
5.157264e-001 -1.908769e+000 2.787362e+000 121 64 55
5.157264e-001 -1.908769e+000 2.787362e+000 121 64 55
5.129217e-001 -1.905786e+000 2.792225e+000 126 69 58
4.501304e-001 -1.857278e+000 2.848200e+000 183 160 171
5.911434e-001 -1.934958e+000 2.777296e+000 118 66 44
5.746710e-001 -1.930635e+000 2.771832e+000 124 66 46
5.636488e-001 -1.921098e+000 2.778339e+000 121 65 48
5.016783e-001 -1.917024e+000 2.803347e+000 116 63 55
5.016783e-001 -1.917024e+000 2.803347e+000 116 63 55
5.544933e-001 -1.933085e+000 2.787439e+000 125 68 48
4.620213e-001 -1.903686e+000 2.889615e+000 97 146 215
6.284808e-001 -1.976236e+000 2.813872e+000 108 43 24
5.920813e-001 -1.966959e+000 2.802115e+000 113 46 33
5.373395e-001 -1.964545e+000 2.825387e+000 108 56 49
5.359596e-001 -1.965082e+000 2.823918e+000 108 56 49
5.309681e-001 -1.961197e+000 2.831901e+000 109 50 48
4.650985e-001 -1.914359e+000 2.898504e+000 177 115 102
5.067087e-001 -1.952484e+000 2.849803e+000 166 86 80
5.393029e-001 -2.018571e+000 2.880074e+000 140 97 80
6.150755e-001 -1.932988e+000 3.183111e+000 54 43 39
5.491874e-001 -2.040617e+000 2.902212e+000 89 61 45
6.080189e-001 -1.920490e+000 3.225309e+000 51 43 34
5.617722e-001 -1.907901e+000 3.255623e+000 51 42 34
5.488145e-001 -2.050904e+000 2.916889e+000 137 92 75
4.889302e-001 -2.011179e+000 2.989298e+000 46 32 50
4.889302e-001 -2.011179e+000 2.989298e+000 46 32 50
4.993601e-001 -2.043393e+000 3.006954e+000 28 82 155
5.938437e-001 -2.100471e+000 2.934812e+000 92 55 35
5.938437e-001 -2.100471e+000 2.934812e+000 92 55 35
5.708542e-001 -2.098277e+000 2.944449e+000 100 49 32
5.063169e-001 -2.074856e+000 3.003406e+000 162 89 53
6.431944e-001 -2.138116e+000 2.958552e+000 53 77 38
6.049891e-001 -2.135992e+000 2.980662e+000 63 80 49
5.772781e-001 -1.654715e+000 2.623211e+000 175 37 37
5.162969e-001 -1.874431e+000 2.741314e+000 141 117 108
5.436887e-001 -1.887276e+000 2.734972e+000 114 96 75
5.552129e-001 -1.909594e+000 2.766102e+000 120 68 47
5.112839e-001 -1.906080e+000 2.782386e+000 160 88 76
4.939919e-001 -1.905649e+000 2.790578e+000 124 71 58
6.195648e-001 -1.949030e+000 2.805386e+000 136 118 80
6.009054e-001 -1.964720e+000 2.799037e+000 154 78 55
5.443902e-001 -1.964832e+000 2.824356e+000 108 52 39
5.530913e-001 -2.021202e+000 2.880002e+000 102 64 51
6.173765e-001 -1.921960e+000 3.223388e+000 50 41 36
6.473104e-001 -2.128791e+000 2.948637e+000 35 46 24
6.473104e-001 -2.128791e+000 2.948637e+000 35 46 24
5.011760e-001 -2.062583e+000 3.030957e+000 196 113 56
5.941134e-001 -2.140136e+000 2.986983e+000 30 39 20
5.515285e-001 -1.847092e+000 2.697589e+000 25 41 11
4.615358e-001 -1.857056e+000 2.852217e+000 148 123 137
4.761637e-001 -1.920087e+000 2.905854e+000 176 141 122
1.047211e+000 -1.999226e+000 3.018072e+000 147 129 104
6.177551e-001 -2.034876e+000 2.877980e+000 80 30 21
6.133111e-001 -2.058452e+000 2.893732e+000 123 82 62
5.776374e-001 -2.039165e+000 2.896531e+000 130 69 50
5.980179e-001 -2.068872e+000 2.903900e+000 99 56 34
5.980179e-001 -2.068872e+000 2.903900e+000 99 56 34
5.603539e-001 -2.061675e+000 2.921977e+000 120 81 64
5.915157e-001 -2.091419e+000 2.919261e+000 103 61 41
5.976197e-001 -2.095163e+000 2.934801e+000 131 81 56
5.041078e-001 -2.071559e+000 3.007855e+000 137 73 56
6.065754e-001 -2.136227e+000 2.971512e+000 80 95 56
5.347611e-001 -1.806325e+000 2.670307e+000 115 111 38
4.988728e-001 -1.822327e+000 2.712729e+000 26 40 21
5.092138e-001 -1.851359e+000 2.707919e+000 28 41 21
5.979181e-001 -1.958713e+000 2.792700e+000 106 25 22
5.303678e-001 -1.964447e+000 2.837585e+000 152 86 70
1.028820e+000 -2.005306e+000 3.016742e+000 57 48 41
5.493555e-001 -2.015970e+000 2.872407e+000 138 97 77
6.121286e-001 -2.043589e+000 2.881153e+000 136 91 60
5.545770e-001 -2.026982e+000 2.882987e+000 134 98 76
5.462591e-001 -2.022207e+000 2.892417e+000 134 96 78
5.842672e-001 -2.045157e+000 2.897505e+000 93 38 31
5.645154e-001 -2.059345e+000 2.916815e+000 136 93 77
5.574441e-001 -2.047197e+000 2.908220e+000 136 95 77
5.551998e-001 -2.069379e+000 2.919015e+000 134 90 71
5.377208e-001 -2.052682e+000 2.927136e+000 134 95 78
5.377208e-001 -2.052682e+000 2.927136e+000 134 95 78
4.948071e-001 -2.025094e+000 3.003875e+000 30 85 164
5.645096e-001 -2.080603e+000 2.935826e+000 126 77 52
5.798968e-001 -2.103618e+000 2.948564e+000 123 72 46
5.082125e-001 -1.853519e+000 2.705579e+000 32 42 18
5.912053e-001 -1.901205e+000 2.746229e+000 115 23 25
5.473677e-001 -2.044901e+000 2.911304e+000 135 98 79
5.274229e-001 -2.068178e+000 2.957459e+000 134 96 77
6.483451e-001 -2.131835e+000 2.955522e+000 26 47 26
5.239876e-001 -1.967543e+000 2.862995e+000 134 106 83
5.924537e-001 -1.925485e+000 3.174587e+000 146 130 107
5.624799e-001 -1.772343e+000 2.633327e+000 132 118 91
5.531852e-001 -1.930769e+000 2.788111e+000 140 76 54
4.627941e-001 -1.896344e+000 2.877576e+000 155 32 45
4.649101e-001 -1.912627e+000 2.888675e+000 26 83 168
4.649101e-001 -1.912627e+000 2.888675e+000 26 83 168
4.965198e-001 -2.001899e+000 2.935434e+000 37 15 17
4.965198e-001 -2.001899e+000 2.935434e+000 37 15 17
6.611905e-001 -2.125737e+000 2.950445e+000 143 91 52
4.986704e-001 -1.844281e+000 2.908075e+000 165 162 179
4.541814e-001 -1.888848e+000 2.861530e+000 158 32 44
5.948501e-001 -1.942908e+000 3.172104e+000 52 42 41
6.324814e-001 -2.118096e+000 2.924081e+000 130 84 43
5.004573e-001 -2.058937e+000 3.011197e+000 171 142 134
6.202225e-001 -2.027130e+000 2.912124e+000 94 37 25
4.958617e-001 -1.866778e+000 2.750370e+000 123 119 110
5.492538e-001 -1.954828e+000 2.813001e+000 153 66 53
5.875106e-001 -1.983241e+000 2.819536e+000 150 53 44
9.739576e-001 -1.984638e+000 3.049281e+000 104 91 75
4.960739e-001 -1.788807e+000 2.668148e+000 23 55 77
5.598546e-001 -1.850082e+000 2.701833e+000 95 104 50
5.317361e-001 -1.906763e+000 2.774222e+000 129 71 59
5.204590e-001 -1.904238e+000 2.777792e+000 127 69 58
5.204590e-001 -1.904238e+000 2.777792e+000 127 69 58
9.805475e-001 -1.985571e+000 3.045500e+000 109 93 78
5.465927e-001 -1.948602e+000 3.093372e+000 53 44 38
5.439032e-001 -2.051531e+000 2.923467e+000 137 94 77
5.012977e-001 -2.043580e+000 2.988110e+000 23 78 156
5.299273e-001 -1.829024e+000 2.694572e+000 113 111 29
5.477427e-001 -1.877144e+000 2.728721e+000 127 108 84
5.172379e-001 -1.902873e+000 2.780937e+000 122 65 54
4.581992e-001 -1.852278e+000 2.841222e+000 139 113 125
4.581992e-001 -1.852278e+000 2.841222e+000 139 113 125
5.410289e-001 -2.016596e+000 2.888275e+000 102 64 50
5.919466e-001 -2.098699e+000 2.943075e+000 99 52 30
6.368962e-001 -2.142144e+000 2.962606e+000 31 43 23
5.268360e-001 -1.877192e+000 2.742707e+000 142 108 88
5.268360e-001 -1.877192e+000 2.742707e+000 142 108 88
4.957573e-001 -1.936785e+000 2.844344e+000 135 121 112
5.207140e-001 -2.000861e+000 2.885537e+000 106 69 60
5.449610e-001 -2.028681e+000 2.894382e+000 102 69 54
6.179738e-001 -2.079477e+000 2.905230e+000 96 61 42
5.793320e-001 -2.067440e+000 2.913124e+000 95 46 29
5.518404e-001 -2.062052e+000 2.923935e+000 92 57 45
5.518404e-001 -2.062052e+000 2.923935e+000 92 57 45
6.228867e-001 -2.101161e+000 2.936294e+000 98 53 37
5.993436e-001 -2.105598e+000 2.941524e+000 127 81 55
5.506681e-001 -2.100108e+000 2.975279e+000 108 64 45
5.536172e-001 -2.031197e+000 2.891020e+000 106 67 52
5.536172e-001 -2.031197e+000 2.891020e+000 106 67 52
5.619326e-001 -1.845948e+000 2.699165e+000 25 40 14
7.665447e-001 -1.656558e+000 2.750712e+000 91 39 20
7.656924e-001 -1.655528e+000 2.750833e+000 91 39 20
7.728648e-001 -1.808600e+000 2.883524e+000 127 98 64
8.046014e-001 -1.797294e+000 2.926083e+000 90 16 17
7.775477e-001 -1.867713e+000 2.940842e+000 47 18 15
7.838857e-001 -1.867840e+000 2.951912e+000 119 59 51
7.771549e-001 -2.003260e+000 3.070093e+000 144 100 65
8.244706e-001 -1.737788e+000 2.920543e+000 149 95 60
7.643115e-001 -1.875829e+000 2.935379e+000 45 17 14
8.131876e-001 -1.892181e+000 3.015034e+000 78 40 31
7.758492e-001 -1.877920e+000 2.952188e+000 73 42 27
8.105462e-001 -1.852654e+000 2.983698e+000 58 39 33
7.833078e-001 -1.637695e+000 2.759907e+000 122 18 19
8.112395e-001 -1.789584e+000 2.929999e+000 105 15 15
7.964982e-001 -1.854046e+000 2.954322e+000 64 27 19
7.657035e-001 -1.760736e+000 2.833415e+000 122 106 46
8.076320e-001 -1.720462e+000 2.866721e+000 23 35 16
7.748690e-001 -1.567049e+000 2.694048e+000 78 59 39
7.824196e-001 -1.566456e+000 2.705009e+000 70 52 26
7.824196e-001 -1.566456e+000 2.705009e+000 70 52 26
7.765376e-001 -1.565858e+000 2.718563e+000 55 40 20
7.994600e-001 -1.543920e+000 2.711736e+000 150 123 76
8.029390e-001 -1.541340e+000 2.714646e+000 153 122 83
7.999794e-001 -1.633749e+000 2.782830e+000 107 22 23
7.998780e-001 -1.634335e+000 2.783975e+000 107 22 23
8.249531e-001 -1.738130e+000 2.910007e+000 145 92 60
7.942754e-001 -1.803409e+000 2.911460e+000 159 100 59
7.869621e-001 -1.834509e+000 2.928867e+000 81 111 107
7.869621e-001 -1.834509e+000 2.928867e+000 81 111 107
7.983393e-001 -1.823724e+000 2.938086e+000 92 114 104
8.243478e-001 -1.802928e+000 2.959651e+000 91 106 88
8.141418e-001 -1.822966e+000 2.963635e+000 106 48 24
7.741001e-001 -1.876668e+000 2.942748e+000 126 61 47
8.188738e-001 -1.830659e+000 2.978209e+000 58 25 22
8.369717e-001 -1.855661e+000 3.028817e+000 94 31 16
7.738598e-001 -2.002788e+000 3.068295e+000 146 97 65
7.761128e-001 -2.004431e+000 3.067214e+000 100 33 19
7.679801e-001 -1.577194e+000 2.691910e+000 167 134 81
7.736005e-001 -1.576427e+000 2.699694e+000 159 128 82
7.732754e-001 -1.645936e+000 2.750330e+000 105 26 17
7.930480e-001 -1.624539e+000 2.763218e+000 149 98 61
7.889450e-001 -1.814076e+000 2.914944e+000 101 11 14
7.986945e-001 -1.826216e+000 2.934569e+000 24 41 40
8.191172e-001 -1.804633e+000 2.956391e+000 31 40 36
7.702212e-001 -1.872021e+000 2.941107e+000 123 57 35
7.906704e-001 -1.868482e+000 2.963147e+000 49 34 27
8.368644e-001 -1.842205e+000 3.018507e+000 34 56 54
8.419399e-001 -1.831832e+000 3.016859e+000 18 38 41
7.835763e-001 -1.916560e+000 2.995706e+000 111 76 55
7.679193e-001 -2.016545e+000 3.053067e+000 136 48 23
7.940447e-001 -1.831461e+000 2.930856e+000 87 97 88
8.463092e-001 -1.826958e+000 3.019978e+000 16 36 44
7.745482e-001 -1.842060e+000 2.915021e+000 15 44 50
8.122751e-001 -1.822218e+000 2.943662e+000 20 39 43
7.663601e-001 -1.910455e+000 2.960290e+000 55 22 16
8.403540e-001 -1.855698e+000 3.035639e+000 117 79 40
8.068697e-001 -1.653163e+000 2.811580e+000 20 37 18
2.627502e+000 -3.532294e-001 3.089749e+000 223 190 136
2.627502e+000 -3.532294e-001 3.089749e+000 223 190 136
2.582118e+000 -3.268617e-001 3.095778e+000 157 122 82
2.585403e+000 -3.554069e-001 3.121963e+000 166 136 97
2.568806e+000 -3.313519e-001 3.135097e+000 186 152 113
2.526436e+000 -2.817938e-001 3.154060e+000 186 145 99
2.194942e+000 -2.534920e-001 3.602530e+000 71 58 48
2.586852e+000 -3.496888e-001 3.072233e+000 138 104 69
2.567926e+000 -3.107073e-001 3.151455e+000 246 212 166
2.542505e+000 -4.770708e-001 3.438273e+000 178 147 100
2.540716e+000 -4.445881e-001 3.406382e+000 154 133 90
2.531284e+000 -3.847500e-001 3.466069e+000 159 134 94
2.544235e+000 -2.591806e-001 3.195996e+000 111 91 82
2.319221e+000 -2.597707e-001 3.516891e+000 98 81 74
2.603345e+000 -3.310295e-001 3.098547e+000 228 181 135
2.603345e+000 -3.310295e-001 3.098547e+000 228 181 135
2.606235e+000 -3.813671e-001 3.126003e+000 185 148 106
2.582240e+000 -3.066771e-001 3.123609e+000 162 124 87
2.571443e+000 -3.081889e-001 3.148360e+000 254 212 165
5.221913e-001 -2.133647e+000 3.047934e+000 104 50 26
5.135019e-001 -2.089015e+000 3.062652e+000 196 159 164
6.086127e-001 -2.144524e+000 2.990183e+000 26 38 25
6.091244e-001 -2.134236e+000 3.009779e+000 78 95 59
5.070973e-001 -2.102611e+000 3.052971e+000 159 112 113
5.143683e-001 -2.107053e+000 3.059136e+000 134 93 95
5.143683e-001 -2.107053e+000 3.059136e+000 134 93 95
5.583322e-001 -2.149581e+000 3.027560e+000 68 26 10
6.106526e-001 -2.145594e+000 2.980913e+000 73 88 55
5.612669e-001 -2.128083e+000 2.991236e+000 31 40 28
5.612669e-001 -2.128083e+000 2.991236e+000 31 40 28
4.732629e-001 -2.117852e+000 2.980411e+000 179 110 61
6.209503e-001 -2.161911e+000 2.999154e+000 58 26 11
5.255933e-001 -2.142624e+000 3.050272e+000 142 69 52
2.534069e+000 -3.538316e-001 3.256376e+000 199 166 133
5.042170e-001 -2.079489e+000 3.046462e+000 181 128 85
6.002000e-001 -2.140191e+000 2.979039e+000 29 38 24
6.019245e-001 -2.139968e+000 2.996573e+000 30 39 20
5.111874e-001 -2.086326e+000 3.056808e+000 195 161 160
5.685237e-001 -2.128922e+000 2.993036e+000 47 60 37
2.578735e+000 -3.340522e-001 3.115588e+000 228 190 151
2.627911e+000 -7.920962e-001 3.482645e+000 181 149 111
2.702127e+000 -1.032110e+000 3.448851e+000 194 163 116
5.175986e-001 -2.137631e+000 3.056576e+000 193 119 51
6.628826e-001 -2.166625e+000 2.984677e+000 132 79 28
5.057719e-001 -2.102360e+000 3.031486e+000 170 116 87
6.331644e-001 -2.163729e+000 2.994408e+000 62 30 19
5.456432e-001 -2.121101e+000 3.002355e+000 28 42 25
6.118707e-001 -2.161025e+000 3.000299e+000 71 37 18
2.551684e+000 -3.208539e-001 3.235854e+000 179 146 113
5.125103e-001 -1.899210e+000 3.273184e+000 51 41 39
5.579921e-001 -2.135251e+000 3.002449e+000 75 89 63
2.341326e+000 -2.401738e-001 3.563398e+000 87 76 70
7.969326e-001 -1.614350e+000 2.766392e+000 105 28 20
7.999249e-001 -1.609134e+000 2.766754e+000 18 51 66
8.287227e-001 -1.727350e+000 2.906819e+000 67 39 22
8.332675e-001 -1.738365e+000 2.925671e+000 122 92 63
7.990988e-001 -1.799111e+000 2.919215e+000 59 20 7
7.669056e-001 -1.876766e+000 2.933075e+000 117 57 42
7.641323e-001 -1.887869e+000 2.938002e+000 96 46 40
8.554701e-001 -1.740382e+000 2.963550e+000 111 88 57
8.141427e-001 -1.890097e+000 3.019598e+000 67 33 23
7.772322e-001 -1.925767e+000 2.992016e+000 47 22 18
7.976402e-001 -1.808364e+000 2.924802e+000 98 18 16
7.639546e-001 -1.899866e+000 2.947920e+000 60 26 24
7.577648e-001 -1.921185e+000 2.956733e+000 47 19 14
7.602185e-001 -1.929420e+000 2.968395e+000 113 72 23
6.776716e-001 -2.178862e+000 3.056951e+000 115 93 79
8.057196e-001 -1.531967e+000 2.718043e+000 153 128 87
8.427737e-001 -1.758150e+000 2.955766e+000 113 98 62
7.755018e-001 -1.966227e+000 3.024776e+000 126 91 49
7.641104e-001 -2.013077e+000 3.047948e+000 153 73 24
7.568496e-001 -1.911095e+000 2.948378e+000 38 16 14
8.632296e-001 -1.921220e+000 3.124509e+000 80 44 28
7.820396e-001 -1.846859e+000 2.931657e+000 17 44 51
7.618038e-001 -1.910625e+000 2.954236e+000 134 91 45
7.541977e-001 -1.670058e+000 2.739261e+000 146 96 62
7.622060e-001 -1.831204e+000 2.886966e+000 113 16 18
7.668044e-001 -1.884885e+000 2.940067e+000 63 24 23
7.573482e-001 -1.748742e+000 2.809978e+000 60 65 19
8.284226e-001 -1.905745e+000 3.056471e+000 111 77 42
8.284226e-001 -1.905745e+000 3.056471e+000 111 77 42
7.728997e-001 -2.006499e+000 3.056381e+000 128 74 41
8.242409e-001 -1.684087e+000 2.865386e+000 98 93 31
8.379871e-001 -1.590858e+000 2.816847e+000 91 89 68
8.531208e-001 -1.943463e+000 3.139221e+000 61 25 6
8.393949e-001 -1.913283e+000 3.087998e+000 35 10 12
2.577627e+000 -1.629788e+000 3.344267e+000 76 60 36
7.731252e-001 -1.660864e+000 2.759170e+000 182 81 64
7.813994e-001 -1.861579e+000 2.945417e+000 53 20 14
8.407267e-001 -1.852026e+000 3.019125e+000 49 70 75
7.765383e-001 -1.942944e+000 2.988405e+000 83 51 46
7.803419e-001 -1.850523e+000 2.944316e+000 53 23 19
7.753264e-001 -1.877302e+000 2.945239e+000 52 22 22
7.743174e-001 -1.867181e+000 2.934344e+000 76 31 24
8.113358e-001 -1.764083e+000 2.911440e+000 122 106 70
7.916879e-001 -1.654470e+000 2.782065e+000 40 64 64
7.777180e-001 -1.580207e+000 2.703075e+000 160 133 88
7.943165e-001 -1.562834e+000 2.714453e+000 152 131 87
8.289834e-001 -1.727142e+000 2.906535e+000 79 53 31
8.069046e-001 -1.818683e+000 2.949138e+000 92 107 95
7.743507e-001 -1.884573e+000 2.950913e+000 100 62 54
7.798644e-001 -1.884880e+000 2.960063e+000 95 66 57
8.224169e-001 -1.860857e+000 3.012248e+000 63 44 40
7.765190e-001 -1.944179e+000 3.004594e+000 26 18 15
7.779781e-001 -1.999891e+000 3.055825e+000 103 54 27
8.100315e-001 -1.799241e+000 2.937810e+000 151 53 47
7.999925e-001 -1.809137e+000 2.929832e+000 141 47 40
7.699534e-001 -2.025866e+000 3.063229e+000 149 66 24
7.958464e-001 -1.558332e+000 2.711895e+000 141 119 81
7.901164e-001 -1.707450e+000 2.829055e+000 24 37 20
7.730241e-001 -1.904558e+000 2.965489e+000 104 69 50
7.812122e-001 -1.661111e+000 2.775468e+000 30 59 63
7.812122e-001 -1.661111e+000 2.775468e+000 30 59 63
7.672055e-001 -1.785497e+000 2.855383e+000 122 107 74
6.186242e-001 -1.645538e+000 2.788332e+000 135 43 25
6.186242e-001 -1.645538e+000 2.788332e+000 135 43 25
5.848891e-001 -1.633888e+000 2.790821e+000 35 80 96
6.125692e-001 -1.643960e+000 2.789686e+000 156 33 27
6.326803e-001 -1.649056e+000 2.773685e+000 169 26 35
4.577208e-001 -1.732675e+000 2.787821e+000 142 161 105
5.814039e-001 -1.634456e+000 2.800790e+000 204 125 89
6.075693e-001 -1.690771e+000 2.846108e+000 114 128 32
5.063865e-001 -1.719549e+000 2.856855e+000 125 145 59
5.063865e-001 -1.719549e+000 2.856855e+000 125 145 59
5.029967e-001 -1.831665e+000 2.940312e+000 191 76 80
5.029967e-001 -1.831665e+000 2.940312e+000 191 76 80
5.447041e-001 -1.878240e+000 3.025350e+000 68 119 182
6.002195e-001 -1.702608e+000 2.865970e+000 142 153 53
8.522429e-001 -1.842531e+000 3.029333e+000 60 96 122
8.522429e-001 -1.842531e+000 3.029333e+000 60 96 122
7.822800e-001 -1.876062e+000 2.957935e+000 59 35 33
7.851381e-001 -1.820328e+000 2.918512e+000 138 31 29
7.163793e-001 -2.117612e+000 3.007966e+000 55 46 51
8.821403e-001 -1.949484e+000 3.128211e+000 99 54 38
1.249913e-002 -2.504626e+000 9.832476e-001 0 255 0
-2.726204e-003 -2.522888e+000 9.392627e-001 255 255 0
4.799383e-001 -2.477222e+000 9.938636e-001 255 0 0
4.746304e-001 -2.495818e+000 9.477549e-001 255 255 0
4.114651e+001 2.773758e+001 7.827771e+001 0 255 0
4.112416e+001 2.772130e+001 7.823605e+001 255 255 0
3.239551e+001 2.821408e+001 8.120764e+001 255 0 0
3.237782e+001 2.819740e+001 8.116395e+001 255 255 0
9.324702e-002 2.049185e+001 6.336370e+001 0 255 0
9.373478e-002 2.047460e+001 6.331678e+001 255 255 0
1.296641e+000 -1.035680e+000 2.970539e+000 255 0 0
1.263110e+000 -1.072368e+000 2.965099e+000 255 255 0
-5.978629e-001 -2.333115e+000 1.297104e+000 0 255 0
-6.281085e-001 -2.347111e+000 1.259831e+000 255 255 0
8.761317e-001 -2.299003e+000 1.372567e+000 255 0 0
8.809163e-001 -2.316680e+000 1.326041e+000 255 255 0
8.875438e-001 -1.059643e+000 3.093848e+000 0 255 0
8.679645e-001 -1.102941e+000 3.078293e+000 255 255 0
9.918209e-001 -1.092013e+000 3.033203e+000 255 0 0
9.662744e-001 -1.133240e+000 3.021047e+000 255 255 0
1.103318e+000 -1.082324e+000 3.008119e+000 0 255 0
1.073341e+000 -1.121082e+000 2.998157e+000 255 255 0
-8.165499e+001 6.448478e+001 2.593147e+002 255 0 0
-8.164014e+001 6.447284e+001 2.592685e+002 255 255 0
7.459617e-001 -9.636012e-001 3.204620e+000 0 255 0
7.352599e-001 -1.008210e+000 3.184732e+000 255 255 0
7.763279e-001 -9.855608e-001 3.167335e+000 255 0 0
7.631822e-001 -1.030138e+000 3.148894e+000 255 255 0
6.411099e-001 -9.422953e-001 3.243744e+000 0 255 0
6.363491e-001 -9.873428e-001 3.222577e+000 255 255 0
8.134651e+001 -3.874625e+002 -1.394352e+002 255 0 0
8.135615e+001 -3.875085e+002 -1.394521e+002 255 255 0
4.036796e-001 -8.857852e-001 3.339078e+000 0 255 0
4.111846e-001 -9.294720e-001 3.315945e+000 255 255 0
3.181484e-001 -8.668896e-001 3.333956e+000 255 0 0
3.294717e-001 -9.099057e-001 3.311122e+000 255 255 0
1.536148e-001 -9.710125e-001 3.306607e+000 0 255 0
1.716237e-001 -1.012241e+000 3.284793e+000 255 255 0
-3.647299e+001 1.593783e+001 8.798900e+001 255 0 0
-3.645333e+001 1.592848e+001 8.794399e+001 255 255 0
8.001166e-002 -9.968493e-001 3.264369e+000 0 255 0
