ply
format ascii 1.0
element face 0
property list uchar int vertex_indices
element vertex 894
property float x
property float y
property float z
property uchar diffuse_red
property uchar diffuse_green
property uchar diffuse_blue
end_header
6.174194e-001 -1.989213e+000 3.014753e+000 51 19 25
7.530016e-001 -2.032566e+000 2.925936e+000 127 21 26
6.797199e-001 -1.976767e+000 2.970544e+000 178 120 82
6.793854e-001 -1.977924e+000 2.970470e+000 178 120 82
6.192640e-001 -2.014243e+000 3.027302e+000 192 151 130
6.280305e-001 -1.869848e+000 2.893594e+000 94 59 45
6.542061e-001 -1.887788e+000 2.897628e+000 73 44 39
6.762729e-001 -1.931502e+000 2.927887e+000 225 80 85
6.744190e-001 -2.004675e+000 3.003633e+000 170 129 92
6.549488e-001 -1.867511e+000 2.875223e+000 74 43 31
6.552726e-001 -1.942343e+000 2.955221e+000 152 37 40
7.317841e-001 -1.950522e+000 2.883182e+000 246 73 92
7.152065e-001 -1.996753e+000 2.959371e+000 217 119 76
6.018026e-001 -1.803436e+000 2.836608e+000 126 30 52
6.490814e-001 -1.779244e+000 2.782942e+000 190 113 103
6.258170e-001 -1.726999e+000 2.740810e+000 111 120 116
6.292118e-001 -1.697562e+000 2.537686e+000 45 29 24
6.184123e-001 -1.691798e+000 2.704663e+000 235 127 95
6.184123e-001 -1.691798e+000 2.704663e+000 235 127 95
6.239769e-001 -1.690870e+000 2.698534e+000 219 137 106
6.441265e-001 -1.698688e+000 2.692773e+000 236 126 90
6.552035e-001 -1.698885e+000 2.681816e+000 156 53 41
6.503169e-001 -1.730888e+000 2.726810e+000 100 118 59
6.719863e-001 -1.744124e+000 2.715365e+000 144 139 19
6.808845e-001 -1.752300e+000 2.712181e+000 77 107 78
6.903018e-001 -1.752270e+000 2.705019e+000 70 100 89
6.828877e-001 -1.763750e+000 2.722894e+000 96 120 65
6.790082e-001 -1.788567e+000 2.763898e+000 181 154 119
6.790082e-001 -1.788567e+000 2.763898e+000 181 154 119
6.786252e-001 -1.791576e+000 2.770232e+000 91 42 35
6.801984e-001 -1.792435e+000 2.772020e+000 183 148 118
6.806861e-001 -1.798635e+000 2.773187e+000 116 83 64
6.616870e-001 -1.792086e+000 2.789002e+000 171 150 125
6.654808e-001 -1.809489e+000 2.803711e+000 220 154 112
6.808043e-001 -1.817477e+000 2.795179e+000 236 142 96
6.793342e-001 -1.816291e+000 2.800270e+000 232 142 97
6.840822e-001 -1.818525e+000 2.793166e+000 216 143 103
6.198308e-001 -1.799721e+000 2.823607e+000 239 140 111
6.274299e-001 -1.804907e+000 2.824577e+000 217 154 107
6.351234e-001 -1.806757e+000 2.821252e+000 229 137 109
6.448193e-001 -1.808031e+000 2.815816e+000 127 32 31
6.470651e-001 -1.809227e+000 2.816081e+000 224 146 108
6.834966e-001 -1.822726e+000 2.810084e+000 18 56 79
6.003334e-001 -1.819424e+000 2.840842e+000 24 83 124
7.206281e-001 -1.864885e+000 2.802343e+000 87 41 17
7.206281e-001 -1.864885e+000 2.802343e+000 87 41 17
7.140469e-001 -1.878647e+000 2.819583e+000 200 124 80
6.313611e-001 -1.854976e+000 2.877114e+000 204 125 96
5.838667e-001 -1.889101e+000 2.910245e+000 168 59 59
5.838001e-001 -1.889020e+000 2.910135e+000 168 59 59
5.872814e-001 -1.888795e+000 2.911180e+000 215 100 100
6.029269e-001 -1.881344e+000 2.911306e+000 167 43 38
6.399570e-001 -1.892021e+000 2.910154e+000 198 124 97
5.769076e-001 -1.921248e+000 2.928606e+000 32 86 149
7.365578e-001 -1.963666e+000 2.875163e+000 206 52 54
7.110526e-001 -1.936591e+000 2.904022e+000 136 26 30
7.148173e-001 -1.942207e+000 2.900811e+000 147 27 31
7.163772e-001 -1.945832e+000 2.904518e+000 140 27 29
7.308354e-001 -1.934285e+000 2.894246e+000 202 55 55
7.369222e-001 -1.950837e+000 2.893805e+000 153 24 29
7.091761e-001 -1.945638e+000 2.915208e+000 155 23 29
6.366437e-001 -1.928890e+000 2.949526e+000 242 88 94
6.366437e-001 -1.928890e+000 2.949526e+000 242 88 94
6.560028e-001 -1.931371e+000 2.939169e+000 143 27 36
6.815697e-001 -1.939326e+000 2.929468e+000 217 59 53
7.023329e-001 -1.957922e+000 2.933112e+000 216 65 61
7.146478e-001 -1.958967e+000 2.919184e+000 226 57 66
6.321613e-001 -1.943461e+000 2.965485e+000 235 71 75
6.910024e-001 -1.948286e+000 2.938654e+000 146 28 32
7.555736e-001 -2.020871e+000 2.930291e+000 139 30 25
6.534274e-001 -1.959714e+000 2.971849e+000 199 126 97
6.759553e-001 -1.967365e+000 2.965766e+000 207 133 96
6.050617e-001 -1.987525e+000 3.002594e+000 143 72 50
7.366931e-001 -2.018368e+000 2.954036e+000 134 46 17
6.699037e-001 -1.986782e+000 2.991870e+000 125 86 56
6.761225e-001 -1.989726e+000 2.988299e+000 133 92 60
6.749715e-001 -1.994329e+000 2.990789e+000 179 130 93
6.823693e-001 -1.989430e+000 2.985565e+000 150 108 70
7.034594e-001 -1.993249e+000 2.979386e+000 139 52 17
7.003961e-001 -2.006784e+000 2.993219e+000 138 73 21
6.536962e-001 -2.008933e+000 3.019246e+000 17 7 4
6.597520e-001 -2.008935e+000 3.017041e+000 28 18 16
6.803010e-001 -2.011627e+000 3.007373e+000 32 16 26
7.325947e-001 -2.065077e+000 3.006200e+000 30 6 1
7.402844e-001 -2.064628e+000 3.001995e+000 41 12 5
7.462454e-001 -2.065949e+000 2.998280e+000 40 13 3
6.736649e-001 -2.030125e+000 3.032437e+000 28 18 9
6.293057e-001 -1.696978e+000 2.534087e+000 185 59 53
6.293188e-001 -1.697377e+000 2.541347e+000 244 183 134
4.818380e-001 -1.739553e+000 2.659029e+000 174 41 49
4.806288e-001 -1.742642e+000 2.657197e+000 174 41 49
4.885685e-001 -1.731057e+000 2.665598e+000 160 47 58
4.882024e-001 -1.731871e+000 2.665071e+000 160 47 58
4.852425e-001 -1.777859e+000 2.693469e+000 161 178 92
6.570601e-001 -1.727058e+000 2.718110e+000 146 143 27
6.601190e-001 -1.730664e+000 2.715919e+000 51 101 93
4.910417e-001 -1.796042e+000 2.714508e+000 43 57 38
5.042715e-001 -1.797549e+000 2.738211e+000 142 162 93
5.104925e-001 -1.800860e+000 2.750481e+000 50 66 33
5.124422e-001 -1.809875e+000 2.760534e+000 50 62 35
5.054946e-001 -1.840922e+000 2.772679e+000 150 58 64
5.058899e-001 -1.839414e+000 2.772962e+000 150 58 64
6.617986e-001 -1.790390e+000 2.784864e+000 131 103 84
6.776774e-001 -1.798223e+000 2.778315e+000 180 152 122
5.399296e-001 -1.820884e+000 2.815088e+000 140 112 123
7.189287e-001 -1.879781e+000 2.817565e+000 91 42 17
6.269539e-001 -1.857987e+000 2.878622e+000 70 38 24
6.726171e-001 -1.863952e+000 2.858867e+000 186 123 96
7.171909e-001 -1.912310e+000 2.856434e+000 87 47 19
6.094430e-001 -1.889338e+000 2.900799e+000 173 86 69
6.798080e-001 -1.895206e+000 2.884099e+000 191 120 89
6.265760e-001 -1.885396e+000 2.907896e+000 74 43 29
5.642081e-001 -1.938896e+000 2.925538e+000 87 138 208
5.718282e-001 -1.922136e+000 2.927133e+000 104 157 233
7.368065e-001 -1.958991e+000 2.883110e+000 208 53 50
7.369300e-001 -1.956377e+000 2.883592e+000 208 53 50
5.696281e-001 -1.940408e+000 2.931836e+000 39 91 148
6.876902e-001 -1.924451e+000 2.905621e+000 198 118 85
7.072899e-001 -1.943481e+000 2.905076e+000 132 28 32
6.515658e-001 -1.926481e+000 2.936093e+000 143 29 34
6.800810e-001 -1.935756e+000 2.927858e+000 137 29 31
6.806586e-001 -1.930903e+000 2.928656e+000 137 29 31
6.835281e-001 -1.942315e+000 2.922462e+000 218 67 66
6.835281e-001 -1.942315e+000 2.922462e+000 218 67 66
6.934055e-001 -1.942253e+000 2.923595e+000 223 71 68
7.274861e-001 -1.965222e+000 2.908236e+000 221 61 61
6.328082e-001 -1.925060e+000 2.945804e+000 187 51 48
6.407766e-001 -1.926758e+000 2.945606e+000 149 35 41
7.531104e-001 -1.998743e+000 2.899759e+000 74 27 19
6.332225e-001 -1.947040e+000 2.962045e+000 146 34 36
6.332225e-001 -1.947040e+000 2.962045e+000 146 34 36
7.246535e-001 -1.987376e+000 2.937228e+000 193 128 86
6.693136e-001 -1.997976e+000 2.995293e+000 124 93 64
6.835093e-001 -1.991976e+000 2.987270e+000 180 133 86
6.832324e-001 -1.996738e+000 2.986832e+000 180 133 86
6.887487e-001 -1.999762e+000 2.988567e+000 187 133 88
6.948138e-001 -2.003603e+000 2.984825e+000 183 125 81
7.230508e-001 -2.013299e+000 2.971318e+000 197 111 37
7.230508e-001 -2.013299e+000 2.971318e+000 197 111 37
6.545618e-001 -1.996392e+000 3.009645e+000 177 127 92
7.032911e-001 -2.017959e+000 2.992903e+000 214 152 89
7.093960e-001 -2.016432e+000 2.986542e+000 150 66 23
7.307414e-001 -2.028770e+000 2.983745e+000 193 154 109
6.138330e-001 -2.012171e+000 3.029291e+000 125 80 59
6.708590e-001 -2.011213e+000 3.011960e+000 23 21 17
7.255761e-001 -2.047769e+000 2.998404e+000 178 94 27
7.254805e-001 -2.049832e+000 2.998321e+000 178 94 27
7.461389e-001 -2.064556e+000 2.994340e+000 47 9 0
7.122279e-001 -2.048295e+000 3.012524e+000 84 59 40
6.840198e-001 -2.043625e+000 3.028787e+000 154 124 103
6.382027e-001 -1.713640e+000 2.717864e+000 152 156 36
6.382027e-001 -1.713640e+000 2.717864e+000 152 156 36
6.555189e-001 -1.721567e+000 2.710720e+000 158 148 33
6.554767e-001 -1.721601e+000 2.710579e+000 158 148 33
6.708838e-001 -1.742676e+000 2.718806e+000 61 100 93
6.709628e-001 -1.792457e+000 2.784947e+000 174 151 119
5.135780e-001 -1.887034e+000 2.815649e+000 192 119 118
5.195971e-001 -1.880200e+000 2.822638e+000 195 115 114
5.438728e-001 -1.883729e+000 2.864990e+000 95 145 210
7.197570e-001 -1.891279e+000 2.822975e+000 122 66 38
6.553772e-001 -1.854392e+000 2.875799e+000 198 124 87
6.783790e-001 -1.872631e+000 2.855869e+000 53 20 8
6.756427e-001 -1.880997e+000 2.872783e+000 87 48 38
7.240774e-001 -1.915230e+000 2.851727e+000 124 86 58
6.822675e-001 -1.890316e+000 2.876759e+000 117 70 50
6.502318e-001 -1.894640e+000 2.906368e+000 61 30 21
6.502318e-001 -1.894640e+000 2.906368e+000 61 30 21
7.276510e-001 -1.934374e+000 2.871921e+000 101 63 42
6.762729e-001 -1.906158e+000 2.900916e+000 169 101 82
6.774215e-001 -1.912741e+000 2.907472e+000 85 50 36
7.165852e-001 -1.936171e+000 2.899258e+000 140 26 31
7.374286e-001 -1.966393e+000 2.887010e+000 208 55 51
6.463720e-001 -1.934662e+000 2.947685e+000 152 31 40
6.462585e-001 -1.934348e+000 2.947779e+000 152 31 40
6.999421e-001 -1.952517e+000 2.929702e+000 206 58 54
7.173419e-001 -1.962921e+000 2.915912e+000 233 73 78
7.173419e-001 -1.962921e+000 2.915912e+000 233 73 78
6.350770e-001 -1.943376e+000 2.959096e+000 223 71 70
6.877578e-001 -1.953220e+000 2.939068e+000 146 28 31
7.179064e-001 -1.975280e+000 2.937694e+000 189 125 86
6.867413e-001 -1.971836e+000 2.959792e+000 169 92 64
6.868578e-001 -1.969794e+000 2.960033e+000 169 92 64
7.257554e-001 -2.008923e+000 2.964729e+000 208 125 50
6.852094e-001 -2.003195e+000 2.990182e+000 182 134 84
6.852094e-001 -2.003195e+000 2.990182e+000 182 134 84
7.585322e-001 -2.049838e+000 2.958402e+000 34 15 8
7.585322e-001 -2.049838e+000 2.958402e+000 34 15 8
6.483409e-001 -1.994338e+000 3.008753e+000 171 125 90
7.072544e-001 -2.017782e+000 2.990676e+000 195 148 103
6.677982e-001 -2.009182e+000 3.011320e+000 185 144 105
7.256434e-001 -2.073415e+000 3.011728e+000 138 74 19
6.325994e-001 -2.033138e+000 3.053586e+000 96 78 70
6.273788e-001 -2.039892e+000 3.065518e+000 134 29 40
6.281526e-001 -1.701933e+000 2.543601e+000 45 28 21
6.370035e-001 -1.693664e+000 2.689222e+000 179 38 29
6.681571e-001 -1.712707e+000 2.680854e+000 29 54 21
6.323818e-001 -1.712025e+000 2.722904e+000 147 140 19
6.323818e-001 -1.712025e+000 2.722904e+000 147 140 19
6.827187e-001 -1.754447e+000 2.714983e+000 160 152 30
6.656275e-001 -1.747683e+000 2.723489e+000 64 106 112
6.749104e-001 -1.789544e+000 2.769516e+000 179 152 123
5.452612e-001 -1.835551e+000 2.831194e+000 145 114 120
5.451551e-001 -1.835824e+000 2.831062e+000 145 114 120
6.905038e-001 -1.834292e+000 2.798985e+000 12 55 73
5.523918e-001 -1.865771e+000 2.867582e+000 65 58 106
6.791268e-001 -1.855859e+000 2.836950e+000 195 127 84
6.788721e-001 -1.856993e+000 2.836115e+000 195 127 84
5.486957e-001 -1.880065e+000 2.868998e+000 90 140 206
6.679718e-001 -1.858876e+000 2.852992e+000 169 109 73
6.758650e-001 -1.864661e+000 2.853706e+000 197 121 88
6.760232e-001 -1.863106e+000 2.853902e+000 197 121 88
7.172253e-001 -1.898318e+000 2.841995e+000 126 78 43
7.170489e-001 -1.900920e+000 2.841397e+000 126 78 43
6.745438e-001 -1.882971e+000 2.877161e+000 202 122 88
7.214875e-001 -1.910035e+000 2.849399e+000 197 136 90
7.220973e-001 -1.921977e+000 2.855065e+000 195 129 83
6.275397e-001 -1.881707e+000 2.903693e+000 195 132 99
6.275397e-001 -1.881707e+000 2.903693e+000 195 132 99
7.238780e-001 -1.926573e+000 2.871256e+000 188 131 86
5.741531e-001 -1.920244e+000 2.923951e+000 26 87 154
7.485016e-001 -1.971848e+000 2.873148e+000 49 18 16
5.854899e-001 -1.917831e+000 2.934446e+000 21 88 159
6.259800e-001 -1.922518e+000 2.920662e+000 195 130 106
6.259800e-001 -1.922518e+000 2.920662e+000 195 130 106
5.770922e-001 -1.939827e+000 2.946395e+000 189 155 126
5.767222e-001 -1.940522e+000 2.945522e+000 189 155 126
6.655187e-001 -1.961700e+000 2.968012e+000 205 127 100
7.254955e-001 -2.022142e+000 2.978912e+000 202 114 37
5.089560e-001 -1.775074e+000 2.729148e+000 49 64 36
5.011445e-001 -1.789269e+000 2.727633e+000 163 170 130
5.011445e-001 -1.789269e+000 2.727633e+000 163 170 130
5.035862e-001 -1.794567e+000 2.734535e+000 99 117 75
5.170001e-001 -1.775804e+000 2.744027e+000 159 172 115
5.344496e-001 -1.763147e+000 2.767822e+000 40 65 44
5.750445e-001 -1.849994e+000 2.871073e+000 178 51 55
6.518663e-001 -2.001359e+000 3.011591e+000 167 124 93
6.589898e-001 -1.719806e+000 2.706733e+000 59 88 44
5.048097e-001 -1.765880e+000 2.714558e+000 46 66 40
4.970918e-001 -1.788520e+000 2.723096e+000 166 165 155
6.350687e-001 -1.724249e+000 2.728438e+000 93 117 105
6.955185e-001 -1.760192e+000 2.707767e+000 28 57 22
6.780673e-001 -1.753655e+000 2.718599e+000 27 55 25
6.932946e-001 -1.764365e+000 2.712331e+000 101 129 96
6.932946e-001 -1.764365e+000 2.712331e+000 101 129 96
5.041412e-001 -1.809609e+000 2.744038e+000 104 132 91
6.588520e-001 -1.744944e+000 2.738750e+000 105 128 50
5.193767e-001 -1.819722e+000 2.778767e+000 172 169 178
6.049259e-001 -1.846063e+000 2.878611e+000 181 49 47
5.612301e-001 -1.918394e+000 2.913111e+000 139 31 44
5.846286e-001 -1.931082e+000 2.942331e+000 22 93 171
7.313462e-001 -1.971562e+000 2.897492e+000 157 23 30
6.483325e-001 -1.671080e+000 2.645615e+000 26 93 122
6.292018e-001 -1.717089e+000 2.727128e+000 25 59 25
5.634521e-001 -1.947038e+000 2.935136e+000 79 24 29
6.146308e-001 -1.998957e+000 3.012119e+000 44 15 18
5.278716e-001 -1.812337e+000 2.787569e+000 168 167 177
7.553525e-001 -2.035835e+000 2.934472e+000 197 106 25
5.584728e-001 -1.885804e+000 2.887440e+000 124 31 39
5.394682e-001 -1.875910e+000 2.847299e+000 170 34 48
7.589488e-001 -2.057568e+000 2.835866e+000 39 31 29
7.392080e-001 -1.960689e+000 2.924280e+000 195 128 83
7.206245e-001 -1.804276e+000 2.695001e+000 179 162 118
5.862401e-001 -1.825254e+000 2.859668e+000 173 168 165
6.117159e-001 -1.664771e+000 2.676895e+000 15 88 120
5.885265e-001 -1.968021e+000 2.966304e+000 186 151 132
7.186002e-001 -1.820788e+000 2.873537e+000 194 130 82
6.767259e-001 -1.605084e+000 2.754744e+000 23 81 111
9.572164e-001 -1.247691e+000 3.067227e+000 97 75 60
9.547716e-001 -1.287071e+000 3.085686e+000 92 75 59
6.426212e-001 -1.696323e+000 2.689781e+000 208 127 95
6.458140e-001 -1.726878e+000 2.723475e+000 148 142 29
6.462859e-001 -1.782887e+000 2.787447e+000 66 32 22
6.462859e-001 -1.782887e+000 2.787447e+000 66 32 22
6.322269e-001 -1.941969e+000 2.965727e+000 210 63 70
6.354451e-001 -1.714458e+000 2.717279e+000 58 78 45
6.819828e-001 -1.932572e+000 2.922294e+000 125 22 26
6.344264e-001 -1.932016e+000 2.952534e+000 121 28 30
6.837698e-001 -1.934077e+000 2.926702e+000 126 23 28
6.512472e-001 -1.942311e+000 2.955373e+000 131 23 30
7.017977e-001 -1.990835e+000 2.968141e+000 177 45 33
7.329981e-001 -2.022034e+000 2.964304e+000 181 75 34
6.398336e-001 -1.883819e+000 2.903038e+000 78 49 37
6.866803e-001 -1.896625e+000 2.882138e+000 39 12 8
6.448496e-001 -1.912177e+000 2.928635e+000 148 73 60
7.231857e-001 -1.977617e+000 2.928661e+000 102 61 44
6.795958e-001 -1.811432e+000 2.794153e+000 143 19 29
7.260556e-001 -2.019260e+000 2.974239e+000 163 77 28
5.967413e-001 -1.814813e+000 2.846274e+000 151 146 143
7.040635e-001 -1.857959e+000 2.812220e+000 178 104 77
4.624682e-001 -1.760857e+000 2.639455e+000 165 38 45
4.911024e-001 -1.740183e+000 2.676637e+000 128 60 54
6.447618e-001 -1.693079e+000 2.683111e+000 224 135 101
6.392480e-001 -1.693539e+000 2.689687e+000 161 49 31
6.228413e-001 -1.707264e+000 2.719848e+000 90 113 59
6.228413e-001 -1.707264e+000 2.719848e+000 90 113 59
5.346889e-001 -1.767099e+000 2.771073e+000 130 165 98
5.346889e-001 -1.767099e+000 2.771073e+000 130 165 98
5.117980e-001 -1.817333e+000 2.763938e+000 48 61 35
6.667464e-001 -1.785919e+000 2.777448e+000 172 148 120
6.314960e-001 -1.805723e+000 2.823230e+000 230 148 110
5.472408e-001 -1.905340e+000 2.879160e+000 206 117 111
5.507407e-001 -1.949543e+000 2.919235e+000 98 56 50
5.786390e-001 -1.912871e+000 2.927334e+000 118 191 251
5.787979e-001 -1.912530e+000 2.927575e+000 118 191 251
5.778323e-001 -1.923832e+000 2.935112e+000 78 134 208
5.762527e-001 -1.927213e+000 2.938489e+000 68 136 198
5.794639e-001 -1.929828e+000 2.939719e+000 67 142 217
7.216152e-001 -1.948204e+000 2.899551e+000 137 29 36
7.000871e-001 -1.942269e+000 2.919045e+000 205 54 54
7.147210e-001 -1.958752e+000 2.916583e+000 162 24 31
7.003377e-001 -1.956927e+000 2.932037e+000 136 28 32
7.047566e-001 -1.959313e+000 2.930994e+000 214 68 63
7.046744e-001 -1.960294e+000 2.930733e+000 214 68 63
7.316226e-001 -1.978855e+000 2.922601e+000 192 128 84
6.593838e-001 -1.982495e+000 2.989396e+000 191 136 95
6.727513e-001 -1.981414e+000 2.984235e+000 179 130 88
6.912916e-001 -1.984841e+000 2.972563e+000 134 41 22
7.071791e-001 -2.005291e+000 2.975551e+000 142 50 13
7.396608e-001 -2.019487e+000 2.956642e+000 98 28 2
6.921416e-001 -2.003227e+000 2.981305e+000 178 126 78
7.074240e-001 -2.010014e+000 2.982176e+000 186 80 29
6.621376e-001 -1.998846e+000 3.008120e+000 86 60 39
6.705765e-001 -1.996208e+000 3.002219e+000 182 128 83
4.824382e-001 -1.751335e+000 2.672287e+000 171 45 57
6.301984e-001 -1.691775e+000 2.698780e+000 166 46 44
5.019233e-001 -1.753044e+000 2.701032e+000 47 63 43
5.019233e-001 -1.753044e+000 2.701032e+000 47 63 43
6.549645e-001 -1.714211e+000 2.702031e+000 24 58 18
6.795681e-001 -1.736094e+000 2.698183e+000 29 50 13
6.230840e-001 -1.735993e+000 2.754406e+000 150 145 27
7.246523e-001 -1.853308e+000 2.770138e+000 38 76 92
5.691440e-001 -1.848324e+000 2.868926e+000 179 56 63
6.973942e-001 -1.931875e+000 2.911218e+000 217 52 53
7.310271e-001 -1.969543e+000 2.891491e+000 205 55 61
6.875817e-001 -1.933103e+000 2.925112e+000 138 27 33
6.875817e-001 -1.933103e+000 2.925112e+000 138 27 33
7.161728e-001 -1.949788e+000 2.906823e+000 214 56 63
6.377586e-001 -1.939094e+000 2.959551e+000 217 65 63
6.620014e-001 -1.948453e+000 2.954412e+000 195 49 46
6.621611e-001 -1.947111e+000 2.954672e+000 195 49 46
6.795317e-001 -1.987778e+000 2.984576e+000 184 133 88
7.186859e-001 -1.998036e+000 2.963100e+000 135 52 19
-1.043530e-001 -2.986348e+000 2.110507e+000 101 74 59
6.606412e-001 -1.733037e+000 2.714336e+000 50 101 98
6.800314e-001 -1.743999e+000 2.714948e+000 62 104 102
6.774995e-001 -1.794028e+000 2.772889e+000 187 141 117
5.384313e-001 -1.835606e+000 2.821235e+000 182 162 170
6.799224e-001 -1.850026e+000 2.834363e+000 93 45 23
7.119372e-001 -1.872228e+000 2.823716e+000 157 101 78
6.866123e-001 -1.918351e+000 2.903144e+000 95 51 42
7.390015e-001 -1.971523e+000 2.898005e+000 220 58 60
7.390015e-001 -1.971523e+000 2.898005e+000 220 58 60
6.357938e-001 -1.944852e+000 2.964844e+000 232 87 87
7.585109e-001 -2.031515e+000 2.928588e+000 201 115 30
6.305035e-001 -1.689346e+000 2.540049e+000 200 42 42
-2.747537e-002 -2.980581e+000 2.090089e+000 104 85 70
6.995470e-001 -1.825445e+000 2.775321e+000 165 24 31
5.643993e-001 -1.853656e+000 2.863515e+000 176 165 173
8.056636e-001 -2.311278e+000 2.649317e+000 19 15 16
7.160915e-001 -1.892696e+000 2.835627e+000 136 78 53
6.399238e-001 -1.861142e+000 2.878022e+000 195 127 87
6.692377e-001 -1.867710e+000 2.859972e+000 182 114 83
6.692976e-001 -1.863901e+000 2.860735e+000 182 114 83
6.270484e-001 -1.875605e+000 2.896790e+000 203 126 101
6.268685e-001 -1.877236e+000 2.896424e+000 203 126 101
6.119735e-001 -1.880238e+000 2.907708e+000 166 44 36
6.321712e-001 -1.883288e+000 2.905816e+000 181 113 94
5.840884e-001 -1.912622e+000 2.929589e+000 14 91 170
5.934860e-001 -1.920783e+000 2.941865e+000 192 153 122
-1.255342e-001 -2.951272e+000 1.976935e+000 101 84 66
-5.149467e-002 -2.765220e+000 2.433982e+000 58 46 31
5.356441e-001 -1.848482e+000 2.829621e+000 176 163 173
7.155781e-001 -1.870051e+000 2.797963e+000 193 120 91
6.726661e-001 -1.924594e+000 2.921020e+000 160 18 30
6.179297e-001 -1.919745e+000 2.945230e+000 189 146 112
6.917808e-001 -1.988533e+000 2.970312e+000 166 54 35
5.991188e-001 -1.670531e+000 2.689160e+000 54 103 120
-1.110879e-001 -2.985272e+000 2.132061e+000 146 122 94
6.948079e-001 -1.758826e+000 2.708599e+000 28 57 22
7.471681e-001 -1.921005e+000 2.799933e+000 37 27 26
4.997224e-001 -1.983626e+000 2.849451e+000 26 18 15
4.997224e-001 -1.983626e+000 2.849451e+000 26 18 15
4.953750e-001 -1.730176e+000 2.676994e+000 176 110 101
-1.088101e-001 -2.930329e+000 2.031411e+000 102 87 68
-5.912104e-002 -3.004199e+000 2.074868e+000 33 29 52
-6.435202e-002 -3.024593e+000 2.091631e+000 136 119 93
6.391480e-001 -1.737185e+000 2.744152e+000 24 57 23
6.714125e-001 -1.758367e+000 2.737985e+000 132 139 112
6.597407e-001 -1.940409e+000 2.945090e+000 169 21 33
6.597614e-001 -1.940035e+000 2.945108e+000 169 21 33
6.867629e-001 -1.851477e+000 2.826206e+000 195 120 88
6.846176e-001 -1.760354e+000 2.737105e+000 30 55 22
-1.816971e-001 -2.733864e+000 2.142583e+000 29 19 20
5.625904e-001 -1.704190e+000 2.715318e+000 161 159 154
6.575669e-001 -1.901344e+000 2.907993e+000 189 123 89
5.780251e-001 -1.972278e+000 2.969372e+000 134 95 78
6.993997e-001 -1.956251e+000 2.934519e+000 217 65 71
6.993997e-001 -1.956251e+000 2.934519e+000 217 65 71
7.266463e-001 -2.017405e+000 2.968778e+000 197 111 50
6.794167e-001 -1.733667e+000 2.692905e+000 38 52 6
6.823318e-001 -1.738771e+000 2.689988e+000 42 52 8
6.151243e-001 -1.835477e+000 2.864928e+000 186 115 93
7.317876e-001 -1.948825e+000 2.883244e+000 220 61 69
7.185484e-001 -1.956690e+000 2.906079e+000 159 23 29
6.621245e-001 -1.928361e+000 2.939692e+000 198 46 47
6.621245e-001 -1.928361e+000 2.939692e+000 198 46 47
7.225050e-001 -1.960649e+000 2.915910e+000 164 24 34
6.921045e-001 -1.970994e+000 2.957458e+000 113 62 45
6.601038e-001 -1.997032e+000 3.007219e+000 173 118 85
6.659993e-001 -1.742974e+000 2.725038e+000 69 104 101
6.787209e-001 -1.868018e+000 2.856698e+000 65 36 23
6.543131e-001 -1.937427e+000 2.950572e+000 152 25 37
6.484066e-001 -1.899773e+000 2.909727e+000 196 121 93
6.435794e-001 -1.938454e+000 2.954141e+000 148 19 30
6.615825e-001 -1.959773e+000 2.968727e+000 185 110 88
6.704853e-001 -1.965368e+000 2.965132e+000 189 112 85
7.108136e-001 -1.986061e+000 2.954312e+000 195 131 87
6.910462e-001 -1.971055e+000 2.962203e+000 197 118 79
6.778756e-001 -1.812749e+000 2.800381e+000 191 117 77
7.009330e-001 -1.942156e+000 2.924938e+000 167 25 32
6.358081e-001 -1.666547e+000 2.652808e+000 25 91 123
6.734903e-001 -2.043593e+000 3.040182e+000 91 39 30
7.557928e-001 -2.068379e+000 2.986419e+000 43 14 10
7.058506e-001 -2.051454e+000 3.018513e+000 170 125 93
6.863914e-001 -2.054501e+000 3.034869e+000 136 75 45
6.277449e-001 -2.039800e+000 3.067933e+000 41 14 26
-6.371880e-002 -2.802903e+000 1.792896e+000 97 80 60
-8.721580e-002 -2.754860e+000 1.802459e+000 120 99 76
-8.335245e-002 -2.784709e+000 1.821354e+000 68 56 56
-3.650969e-002 -2.815927e+000 1.777077e+000 93 80 63
8.578503e-001 -1.301394e+000 3.188616e+000 43 27 27
5.874142e-001 -1.888277e+000 2.914214e+000 178 42 48
6.790801e-001 -1.853305e+000 2.844237e+000 194 124 87
6.379343e-001 -1.898996e+000 2.918230e+000 66 32 26
6.688893e-001 -1.966993e+000 2.971803e+000 196 125 90
6.524067e-001 -1.783094e+000 2.689250e+000 50 101 98
6.919685e-001 -1.996246e+000 2.982430e+000 174 120 75
6.683453e-001 -1.712791e+000 2.680092e+000 38 50 14
6.795012e-001 -1.736048e+000 2.697902e+000 37 49 15
6.705760e-001 -1.947869e+000 2.950461e+000 190 39 36
6.761754e-001 -1.905214e+000 2.901041e+000 160 97 66
6.751803e-001 -1.959456e+000 2.958910e+000 107 50 31
6.751803e-001 -1.959456e+000 2.958910e+000 107 50 31
6.405060e-001 -1.757094e+000 2.762023e+000 34 56 22
6.097445e-001 -1.683914e+000 2.706529e+000 190 130 87
6.099378e-001 -1.685845e+000 2.704649e+000 190 130 87
6.455384e-001 -1.725409e+000 2.721588e+000 63 95 73
5.843343e-001 -1.898896e+000 2.918363e+000 180 35 42
8.803276e-001 -1.332811e+000 3.200899e+000 39 34 41
5.779999e-001 -1.888318e+000 2.902907e+000 165 52 56
5.544479e-001 -1.782518e+000 2.805628e+000 154 165 170
6.672504e-001 -2.033678e+000 3.034991e+000 128 99 76
6.750062e-001 -2.013427e+000 3.007993e+000 192 145 97
6.695547e-001 -1.818874e+000 2.811231e+000 26 72 98
4.685826e-001 -1.814237e+000 2.690971e+000 36 56 28
6.669624e-001 -1.734681e+000 2.714740e+000 27 42 0
5.042918e-001 -1.788675e+000 2.735845e+000 39 55 23
5.145992e-001 -1.885553e+000 2.820598e+000 102 26 33
5.268894e-001 -1.870353e+000 2.829735e+000 234 130 129
5.268894e-001 -1.870353e+000 2.829735e+000 234 130 129
5.261585e-001 -1.881670e+000 2.828056e+000 118 28 34
5.280322e-001 -1.878230e+000 2.830151e+000 215 121 117
5.045447e-001 -1.916839e+000 2.828328e+000 44 78 128
5.235732e-001 -1.916055e+000 2.842750e+000 98 129 173
6.276412e-001 -1.879715e+000 2.897074e+000 173 108 80
6.368461e-001 -1.924019e+000 2.944464e+000 183 57 54
6.915854e-001 -1.955638e+000 2.939423e+000 192 59 54
4.812350e-001 -1.817880e+000 2.717207e+000 34 57 36
4.808617e-001 -1.839220e+000 2.733594e+000 140 163 79
4.872922e-001 -1.882803e+000 2.768727e+000 127 112 115
6.540037e-001 -1.923876e+000 2.932095e+000 217 83 76
5.832846e-001 -1.933472e+000 2.937986e+000 26 77 130
6.877970e-001 -1.949460e+000 2.939304e+000 130 26 29
5.890433e-001 -2.000951e+000 2.991861e+000 148 94 59
1.033398e+000 -2.544716e+000 1.760543e+000 108 86 63
1.011768e+000 -2.581106e+000 1.756990e+000 46 35 21
4.587004e-001 -1.759787e+000 2.638026e+000 148 145 166
4.636728e-001 -1.767742e+000 2.658968e+000 157 37 46
5.003064e-001 -1.719988e+000 2.678262e+000 158 31 45
4.779910e-001 -1.821599e+000 2.718222e+000 144 166 91
4.964145e-001 -1.805033e+000 2.725768e+000 150 161 54
4.956117e-001 -1.797309e+000 2.729801e+000 150 161 54
4.835667e-001 -1.870376e+000 2.761900e+000 135 115 110
4.835667e-001 -1.870376e+000 2.761900e+000 135 115 110
5.066387e-001 -1.850079e+000 2.776955e+000 160 151 157
5.292974e-001 -1.850027e+000 2.818447e+000 155 151 160
5.081949e-001 -1.899585e+000 2.820356e+000 174 58 66
6.685192e-001 -1.859940e+000 2.861124e+000 125 70 44
6.375591e-001 -1.854215e+000 2.875089e+000 122 79 57
6.073162e-001 -1.860157e+000 2.890266e+000 150 49 44
6.777409e-001 -1.912113e+000 2.906877e+000 98 59 37
6.752165e-001 -1.916483e+000 2.916663e+000 176 112 73
7.309467e-001 -1.972704e+000 2.922543e+000 133 86 44
6.812367e-001 -1.964429e+000 2.967190e+000 177 113 74
1.156846e+000 -2.640349e+000 1.956078e+000 62 50 25
4.921721e-001 -1.842749e+000 2.741234e+000 43 54 32
4.921721e-001 -1.842749e+000 2.741234e+000 43 54 32
6.655253e-001 -1.778180e+000 2.788201e+000 124 100 74
4.909082e-001 -1.911209e+000 2.782098e+000 134 30 27
5.007428e-001 -1.870204e+000 2.790559e+000 156 151 159
6.548706e-001 -1.806141e+000 2.817408e+000 128 20 24
6.279866e-001 -1.834045e+000 2.857542e+000 124 64 39
5.245963e-001 -1.900631e+000 2.847591e+000 92 130 180
5.415793e-001 -1.903986e+000 2.871227e+000 177 121 104
6.153274e-001 -1.873473e+000 2.901018e+000 176 108 86
5.565773e-001 -1.951411e+000 2.919567e+000 183 125 111
5.263654e-001 -2.027497e+000 2.919673e+000 148 129 116
6.929966e-001 -1.988182e+000 2.969741e+000 132 43 21
6.346284e-001 -1.713104e+000 2.719209e+000 61 80 29
7.067567e-001 -1.765265e+000 2.699727e+000 60 94 95
5.205001e-001 -1.742451e+000 2.738128e+000 33 56 21
6.566853e-001 -1.740394e+000 2.741651e+000 95 102 35
6.157879e-001 -1.795798e+000 2.827751e+000 198 128 93
6.301763e-001 -1.800171e+000 2.822150e+000 166 94 75
5.145106e-001 -1.864554e+000 2.805952e+000 149 47 45
5.258731e-001 -1.876411e+000 2.821806e+000 140 23 31
5.439573e-001 -1.886432e+000 2.865244e+000 66 105 151
5.947551e-001 -1.923442e+000 2.942297e+000 161 128 105
1.062458e+000 -2.479515e+000 1.813446e+000 45 36 29
4.919040e-001 -1.766707e+000 2.694978e+000 151 159 146
6.520380e-001 -1.719618e+000 2.718599e+000 23 50 17
6.454932e-001 -1.725580e+000 2.723191e+000 61 86 54
5.073211e-001 -1.773049e+000 2.733502e+000 26 55 33
6.635048e-001 -1.741115e+000 2.727567e+000 68 93 75
5.210509e-001 -1.765852e+000 2.752267e+000 152 154 151
5.223227e-001 -1.770313e+000 2.748682e+000 152 154 151
5.179514e-001 -1.779299e+000 2.750593e+000 24 57 28
6.099622e-001 -1.803260e+000 2.823793e+000 142 18 24
5.432705e-001 -1.820342e+000 2.823910e+000 186 141 146
5.257500e-001 -1.900537e+000 2.838077e+000 92 32 62
6.278672e-001 -1.938984e+000 2.957739e+000 139 20 28
6.600362e-001 -1.939127e+000 2.944615e+000 141 20 25
4.771498e-001 -1.806277e+000 2.707281e+000 155 157 154
4.892487e-001 -1.793999e+000 2.713100e+000 27 61 34
5.071291e-001 -1.774659e+000 2.722258e+000 152 154 151
5.072908e-001 -1.775452e+000 2.732426e+000 25 54 32
5.118841e-001 -1.784697e+000 2.740722e+000 155 157 152
5.067130e-001 -1.926749e+000 2.833370e+000 98 58 73
1.032681e+000 -2.510786e+000 1.763802e+000 201 171 111
1.164363e+000 -2.689907e+000 2.113790e+000 192 166 107
5.536987e-001 -1.843320e+000 2.854967e+000 146 23 28
6.146497e-001 -1.991025e+000 2.995102e+000 162 128 101
6.970164e-001 -1.865007e+000 2.819801e+000 180 111 72
7.221126e-001 -1.975729e+000 2.911653e+000 196 52 49
7.371074e-001 -1.991199e+000 2.920307e+000 178 123 74
6.093589e-001 -1.933996e+000 2.948042e+000 160 128 103
4.703616e-001 -1.777929e+000 2.640548e+000 192 125 121
5.360078e-001 -1.726476e+000 2.717341e+000 113 134 164
6.211937e-001 -2.060584e+000 2.977783e+000 164 130 104
7.788282e-001 -1.753038e+000 2.669941e+000 82 108 112
7.785149e-001 -1.972835e+000 2.883507e+000 174 118 62
7.846815e-001 -1.619675e+000 2.613680e+000 207 183 147
7.880027e-001 -1.628556e+000 2.612036e+000 212 182 140
7.925969e-001 -1.703613e+000 2.655292e+000 213 134 109
7.117741e-001 -1.798400e+000 2.715405e+000 100 96 70
8.568216e-001 -1.791161e+000 2.828994e+000 183 136 106
8.568216e-001 -1.791161e+000 2.828994e+000 183 136 106
7.316414e-001 -1.868029e+000 2.774583e+000 33 73 104
8.211656e-001 -1.849237e+000 2.811311e+000 215 140 115
7.156387e-001 -1.883854e+000 2.805890e+000 138 82 63
7.156387e-001 -1.883854e+000 2.805890e+000 138 82 63
8.151899e-001 -1.854159e+000 2.809993e+000 219 139 108
8.181102e-001 -1.854720e+000 2.816032e+000 130 24 28
8.181962e-001 -1.854827e+000 2.815903e+000 130 24 28
8.425877e-001 -1.854530e+000 2.848009e+000 38 62 71
8.473074e-001 -1.849418e+000 2.851476e+000 37 55 64
8.155484e-001 -1.881011e+000 2.832897e+000 36 65 82
8.125860e-001 -1.884491e+000 2.829263e+000 128 153 159
7.163402e-001 -1.912136e+000 2.832931e+000 192 131 100
7.184224e-001 -1.911008e+000 2.833276e+000 134 88 62
7.217920e-001 -1.915470e+000 2.837401e+000 195 136 101
8.407467e-001 -1.880777e+000 2.866244e+000 135 81 94
8.407467e-001 -1.880777e+000 2.866244e+000 135 81 94
8.079766e-001 -1.908909e+000 2.843637e+000 177 92 96
8.107711e-001 -1.909923e+000 2.848297e+000 151 80 81
7.782093e-001 -1.932288e+000 2.842418e+000 84 36 39
7.892523e-001 -1.924860e+000 2.839004e+000 172 85 80
7.892632e-001 -1.924875e+000 2.838707e+000 172 85 80
8.144539e-001 -1.920197e+000 2.862807e+000 91 55 62
8.217111e-001 -1.914134e+000 2.865157e+000 80 56 60
8.623623e-001 -1.888209e+000 2.919093e+000 40 67 82
8.633628e-001 -1.888333e+000 2.916094e+000 40 67 82
8.658734e-001 -1.885641e+000 2.921274e+000 62 96 123
8.540436e-001 -1.922940e+000 2.926077e+000 175 110 93
8.534056e-001 -1.938584e+000 2.916141e+000 109 75 76
7.863330e-001 -1.970503e+000 2.883439e+000 115 53 58
8.680436e-001 -1.935196e+000 2.961487e+000 131 79 40
7.930347e-001 -1.984297e+000 2.898400e+000 121 75 81
7.623863e-001 -1.626626e+000 2.605311e+000 221 186 151
6.615918e-001 -1.710860e+000 2.662948e+000 179 49 47
8.011283e-001 -1.686759e+000 2.655465e+000 205 149 106
8.061830e-001 -1.684512e+000 2.662046e+000 157 35 44
7.944314e-001 -1.704477e+000 2.658411e+000 168 38 50
8.602956e-001 -1.739058e+000 2.803806e+000 88 88 64
7.183221e-001 -1.913070e+000 2.839047e+000 197 134 101
8.102500e-001 -1.898815e+000 2.836421e+000 157 67 50
7.991865e-001 -1.914180e+000 2.833012e+000 88 37 36
7.962718e-001 -1.921733e+000 2.842213e+000 171 88 85
8.408189e-001 -1.897533e+000 2.879164e+000 84 62 70
8.422040e-001 -1.945164e+000 2.921859e+000 101 71 73
7.720178e-001 -1.981478e+000 2.888430e+000 135 83 34
8.120638e-001 -1.972710e+000 2.905454e+000 117 78 81
8.713375e-001 -1.939411e+000 2.993243e+000 140 103 70
6.755619e-001 -1.601615e+000 2.619117e+000 212 107 104
7.804132e-001 -1.627891e+000 2.609057e+000 214 183 145
7.932323e-001 -1.839710e+000 2.767019e+000 170 143 116
7.805969e-001 -1.852618e+000 2.762951e+000 185 143 115
7.894059e-001 -1.853184e+000 2.775064e+000 175 145 116
8.017341e-001 -1.848281e+000 2.784448e+000 169 147 116
8.025620e-001 -1.906145e+000 2.840247e+000 164 71 58
8.167056e-001 -1.915655e+000 2.863910e+000 84 59 65
8.453986e-001 -1.910156e+000 2.898923e+000 95 70 73
7.941106e-001 -1.952331e+000 2.869695e+000 168 110 106
8.548125e-001 -1.932935e+000 2.931192e+000 79 52 47
7.326491e-001 -2.025351e+000 2.949477e+000 170 78 41
6.808058e-001 -1.612997e+000 2.624633e+000 156 134 113
7.967382e-001 -1.689527e+000 2.650683e+000 174 35 35
7.345206e-001 -1.952799e+000 2.871552e+000 197 137 103
7.294571e-001 -1.954918e+000 2.875562e+000 161 33 41
7.997498e-001 -2.016967e+000 2.932208e+000 162 124 83
7.646723e-001 -1.631881e+000 2.604524e+000 151 124 93
7.646723e-001 -1.631881e+000 2.604524e+000 151 124 93
6.635838e-001 -1.744861e+000 2.698966e+000 32 60 42
8.020935e-001 -1.762698e+000 2.716389e+000 169 151 47
8.056410e-001 -1.763848e+000 2.723208e+000 30 56 28
7.911128e-001 -1.807018e+000 2.734339e+000 162 149 92
7.911486e-001 -1.806999e+000 2.733973e+000 162 149 92
8.395711e-001 -1.791874e+000 2.791323e+000 162 148 114
8.395711e-001 -1.791874e+000 2.791323e+000 162 148 114
8.219662e-001 -1.809090e+000 2.775423e+000 158 146 118
8.542635e-001 -1.793151e+000 2.827832e+000 169 114 88
8.545549e-001 -1.793635e+000 2.827387e+000 169 114 88
8.390902e-001 -1.812116e+000 2.811390e+000 160 147 115
8.377277e-001 -1.818784e+000 2.809268e+000 175 36 36
7.298238e-001 -1.875646e+000 2.786205e+000 17 78 123
8.117998e-001 -1.961215e+000 2.892252e+000 147 108 96
6.100424e-001 -2.067884e+000 3.000874e+000 51 39 49
8.051982e-001 -1.748261e+000 2.711626e+000 31 57 29
8.051624e-001 -1.748266e+000 2.711583e+000 31 57 29
8.518600e-001 -1.728584e+000 2.770365e+000 109 124 111
8.363930e-001 -1.792573e+000 2.796935e+000 167 146 113
8.524492e-001 -1.840692e+000 2.866786e+000 38 65 78
8.541349e-001 -1.840849e+000 2.860089e+000 38 65 78
8.280227e-001 -1.929818e+000 2.894415e+000 28 12 18
8.004157e-001 -1.748323e+000 2.701636e+000 169 148 103
8.004157e-001 -1.748323e+000 2.701636e+000 169 148 103
8.309610e-001 -1.735878e+000 2.736830e+000 168 151 96
8.364525e-001 -1.735002e+000 2.753076e+000 31 54 34
8.369852e-001 -1.734937e+000 2.752500e+000 31 54 34
8.228147e-001 -1.908969e+000 2.868466e+000 79 57 59
8.508550e-001 -1.908545e+000 2.908097e+000 158 123 101
6.995336e-001 -1.954074e+000 2.900084e+000 164 37 46
8.050107e-001 -1.960979e+000 2.889937e+000 134 96 86
8.704765e-001 -1.943988e+000 2.990505e+000 146 103 60
8.147473e-001 -2.006330e+000 2.932890e+000 159 113 80
7.771606e-001 -1.765434e+000 2.681561e+000 161 145 105
7.769935e-001 -1.765320e+000 2.682105e+000 161 145 105
7.941932e-001 -1.820619e+000 2.753139e+000 159 145 117
8.669444e-001 -1.956740e+000 2.980357e+000 46 16 19
7.902377e-001 -1.769009e+000 2.702635e+000 165 147 112
7.294345e-001 -2.037159e+000 2.973932e+000 165 128 101
7.489739e-001 -2.054841e+000 2.974518e+000 147 83 50
6.596828e-001 -1.789129e+000 2.766931e+000 160 157 138
6.919391e-001 -1.619694e+000 2.623625e+000 227 204 173
7.261774e-001 -2.056500e+000 2.984507e+000 38 26 36
8.455968e-001 -1.984379e+000 2.976226e+000 155 113 73
8.455968e-001 -1.984379e+000 2.976226e+000 155 113 73
6.141338e-001 -2.013540e+000 3.029256e+000 135 83 59
5.096486e-001 -1.727359e+000 2.700364e+000 26 49 20
5.291310e-001 -1.759314e+000 2.764851e+000 126 148 49
5.295028e-001 -1.759659e+000 2.764648e+000 126 148 49
5.905971e-001 -2.007441e+000 3.003204e+000 86 31 29
6.305304e-001 -2.041369e+000 3.052572e+000 185 155 127
6.306512e-001 -2.040881e+000 3.057263e+000 200 141 119
6.248242e-001 -1.748304e+000 2.768153e+000 133 140 35
6.545387e-001 -1.787370e+000 2.792211e+000 150 132 104
5.719828e-001 -1.842133e+000 2.868985e+000 149 153 157
6.782614e-001 -1.915667e+000 2.913326e+000 130 83 65
6.775047e-001 -1.925684e+000 2.922125e+000 186 54 49
6.624865e-001 -1.948333e+000 2.954184e+000 184 59 51
6.710902e-001 -1.949519e+000 2.949918e+000 186 61 51
6.870116e-001 -1.970307e+000 2.960215e+000 105 61 36
6.870116e-001 -1.970307e+000 2.960215e+000 105 61 36
6.943928e-001 -2.001782e+000 2.986337e+000 157 107 58
6.610877e-001 -2.001072e+000 3.001570e+000 158 122 74
6.587760e-001 -1.963690e+000 2.970407e+000 179 114 84
5.345886e-001 -2.123927e+000 2.962809e+000 169 121 111
6.541399e-001 -1.997434e+000 3.006985e+000 61 37 10
1.052395e+000 -2.442500e+000 1.764756e+000 32 22 21
1.067743e+000 -2.488773e+000 1.785641e+000 29 20 13
5.365092e-001 -1.840838e+000 2.825345e+000 161 153 161
6.249216e-001 -1.893931e+000 2.922381e+000 152 101 72
7.531554e-001 -2.063013e+000 2.992799e+000 54 17 1
6.569118e-001 -2.036534e+000 3.039498e+000 49 33 19
5.343403e-001 -1.767158e+000 2.774321e+000 104 131 123
5.439924e-001 -1.886510e+000 2.865329e+000 66 105 151
6.230826e-001 -1.919599e+000 2.940637e+000 128 19 30
7.167754e-001 -1.987897e+000 3.120854e+000 41 30 28
5.386779e-001 -2.114231e+000 2.965679e+000 131 94 84
5.856276e-001 -2.033910e+000 3.005136e+000 163 130 110
1.025957e+000 -2.487649e+000 1.751283e+000 207 171 113
1.025957e+000 -2.487649e+000 1.751283e+000 207 171 113
6.363871e-001 -2.040620e+000 3.051372e+000 176 150 123
1.049414e+000 -2.444568e+000 1.704245e+000 215 179 119
7.570062e-001 -1.981328e+000 3.107932e+000 131 109 88
8.560268e-001 -2.627585e+000 1.480603e+000 132 105 76
1.069842e+000 -2.446850e+000 1.738840e+000 31 21 20
7.377872e-001 -2.058277e+000 3.018705e+000 33 21 21
7.271590e-001 -2.013921e+000 3.062091e+000 36 26 27
6.268834e-001 -1.883113e+000 2.907217e+000 101 53 33
6.899784e-001 -1.920954e+000 2.912533e+000 137 26 17
6.543882e-001 -1.924718e+000 2.937504e+000 175 51 48
6.350977e-001 -1.933980e+000 2.951386e+000 134 36 31
6.333739e-001 -1.946801e+000 2.964882e+000 185 53 57
6.648563e-001 -2.001301e+000 3.002900e+000 72 49 20
6.451321e-001 -1.691798e+000 2.683589e+000 157 34 28
6.381452e-001 -1.687481e+000 2.688735e+000 157 34 30
6.381452e-001 -1.687481e+000 2.688735e+000 157 34 30
6.198108e-001 -1.691926e+000 2.703400e+000 136 41 30
7.120863e-001 -1.856797e+000 2.808740e+000 132 77 50
6.669428e-001 -1.851638e+000 2.854289e+000 123 74 44
7.136824e-001 -1.881819e+000 2.837986e+000 127 74 38
5.293030e-001 -1.905939e+000 2.848099e+000 29 75 134
6.498984e-001 -1.877364e+000 2.891488e+000 110 61 36
6.790875e-001 -1.880742e+000 2.879038e+000 110 62 35
6.568112e-001 -1.884311e+000 2.895834e+000 106 65 37
6.568112e-001 -1.884311e+000 2.895834e+000 106 65 37
5.911549e-001 -1.885087e+000 2.909126e+000 171 77 70
6.314667e-001 -1.910048e+000 2.932346e+000 113 66 46
6.625835e-001 -2.002232e+000 3.005941e+000 148 113 67
6.084839e-001 -1.682266e+000 2.700226e+000 153 32 31
6.085110e-001 -1.681359e+000 2.700840e+000 153 32 31
5.105861e-001 -1.729866e+000 2.700368e+000 33 50 24
5.105861e-001 -1.729866e+000 2.700368e+000 33 50 24
5.077464e-001 -1.852814e+000 2.774799e+000 159 151 162
4.897054e-001 -1.899410e+000 2.761381e+000 128 109 115
5.027889e-001 -1.889030e+000 2.789001e+000 150 37 47
5.549849e-001 -1.824153e+000 2.839740e+000 160 153 162
6.709950e-001 -1.841050e+000 2.838268e+000 84 43 21
6.709950e-001 -1.841050e+000 2.838268e+000 84 43 21
6.729676e-001 -1.845355e+000 2.840467e+000 174 110 74
6.738106e-001 -1.857516e+000 2.854506e+000 173 109 69
6.415365e-001 -1.876128e+000 2.894749e+000 103 59 36
6.821957e-001 -1.913131e+000 2.908079e+000 182 114 79
6.980731e-001 -2.054526e+000 3.025630e+000 135 102 73
5.213008e-001 -1.798515e+000 2.770298e+000 145 165 103
5.126462e-001 -1.871676e+000 2.796007e+000 161 148 163
6.735368e-001 -1.863714e+000 2.862662e+000 180 112 73
6.046929e-001 -1.879954e+000 2.907903e+000 163 73 64
6.532096e-001 -1.955411e+000 2.969104e+000 114 66 44
6.532096e-001 -1.955411e+000 2.969104e+000 114 66 44
6.937734e-001 -1.977393e+000 2.960793e+000 180 107 67
5.021380e-001 -1.761368e+000 2.710728e+000 142 163 96
5.029738e-001 -1.792345e+000 2.727791e+000 153 158 90
5.312162e-001 -1.848895e+000 2.823582e+000 157 38 36
5.654292e-001 -1.847323e+000 2.864189e+000 160 153 159
5.751378e-001 -1.846838e+000 2.871414e+000 153 43 42
6.328041e-001 -1.723220e+000 2.738435e+000 25 50 20
6.577391e-001 -1.757202e+000 2.755613e+000 30 46 16
5.072114e-001 -1.816668e+000 2.752092e+000 156 152 151
5.072114e-001 -1.816668e+000 2.752092e+000 156 152 151
6.169746e-001 -1.919726e+000 2.944145e+000 162 126 99
7.154142e-001 -1.851930e+000 2.793439e+000 28 68 86
6.562041e-001 -1.840559e+000 2.843718e+000 175 109 81
7.745119e-001 -1.744853e+000 2.664223e+000 96 105 83
7.777879e-001 -1.858381e+000 2.767269e+000 117 71 56
7.801430e-001 -1.620416e+000 2.612323e+000 213 183 144
7.801430e-001 -1.620416e+000 2.612323e+000 213 183 144
7.880706e-001 -1.737403e+000 2.673327e+000 64 101 103
7.258214e-001 -1.941573e+000 2.862406e+000 195 141 107
7.995060e-001 -1.943376e+000 2.863352e+000 109 61 67
7.401547e-001 -1.979437e+000 2.892965e+000 218 61 71
7.990487e-001 -2.015009e+000 2.933660e+000 167 121 84
7.421740e-001 -1.959976e+000 2.870080e+000 160 29 41
5.275155e-001 -1.952260e+000 3.008122e+000 60 48 52
8.403237e-001 -1.784942e+000 2.794610e+000 170 35 41
8.409288e-001 -1.846928e+000 2.848484e+000 19 65 92
4.697115e-001 -1.443708e+000 3.056903e+000 152 124 102
4.469992e-001 -1.467910e+000 3.034579e+000 130 103 86
7.605707e-001 -1.631019e+000 2.602604e+000 94 67 50
4.386585e-001 -1.441207e+000 3.018710e+000 148 119 103
7.846375e-001 -1.879877e+000 2.795026e+000 156 26 36
6.471145e-001 -2.837844e+000 1.316774e+000 144 110 64
6.230151e-001 -1.677655e+000 2.569196e+000 162 67 45
5.730036e-001 -1.852513e+000 2.875880e+000 181 54 61
6.391532e-001 -1.935870e+000 2.952472e+000 184 58 52
6.193326e-001 -1.832946e+000 2.860527e+000 95 57 38
6.986049e-001 -1.965890e+000 2.946064e+000 139 90 55
6.066720e-001 -1.875325e+000 2.903338e+000 163 76 59
7.134630e-001 -1.709931e+000 2.600013e+000 31 24 13
6.505372e-001 -1.802132e+000 2.808370e+000 136 20 21
7.410519e-001 -1.992039e+000 3.112447e+000 134 108 93
4.606081e-001 -1.769667e+000 2.639756e+000 229 158 155
4.605218e-001 -1.769407e+000 2.639608e+000 229 158 155
4.679552e-001 -1.757765e+000 2.649691e+000 233 155 149
4.696452e-001 -1.761789e+000 2.647370e+000 233 155 149
4.720731e-001 -1.753167e+000 2.653731e+000 217 148 143
4.826470e-001 -1.740061e+000 2.664996e+000 240 156 153
4.993589e-001 -1.712865e+000 2.682855e+000 167 169 201
4.749394e-001 -1.754435e+000 2.659429e+000 202 151 141
4.763597e-001 -1.752865e+000 2.661607e+000 134 55 56
4.764047e-001 -1.752956e+000 2.661632e+000 134 55 56
4.974074e-001 -1.728149e+000 2.676189e+000 217 154 140
4.966458e-001 -1.743418e+000 2.678765e+000 155 39 46
5.028828e-001 -1.719193e+000 2.685495e+000 164 150 169
6.277327e-001 -1.688541e+000 2.704468e+000 146 49 29
4.680252e-001 -1.806054e+000 2.670229e+000 86 122 139
4.742994e-001 -1.787956e+000 2.676766e+000 67 115 155
5.185424e-001 -1.738536e+000 2.733657e+000 38 66 31
4.882122e-001 -1.809015e+000 2.719710e+000 145 159 53
4.882122e-001 -1.809015e+000 2.719710e+000 145 159 53
5.030128e-001 -1.812230e+000 2.746898e+000 29 64 31
4.955059e-001 -1.891806e+000 2.779838e+000 199 139 142
4.955059e-001 -1.891806e+000 2.779838e+000 199 139 142
5.984325e-001 -1.799246e+000 2.838256e+000 70 37 60
5.139865e-001 -1.896557e+000 2.814066e+000 215 154 139
5.173301e-001 -1.896867e+000 2.827757e+000 122 31 34
5.190259e-001 -1.900544e+000 2.826318e+000 122 31 34
5.263786e-001 -1.873309e+000 2.828566e+000 224 150 139
5.269830e-001 -1.874660e+000 2.827968e+000 224 150 139
5.059221e-001 -1.932190e+000 2.820853e+000 35 75 127
5.420818e-001 -1.891994e+000 2.862558e+000 43 75 119
5.414043e-001 -1.890683e+000 2.863303e+000 43 75 119
5.491830e-001 -1.880916e+000 2.867774e+000 97 163 235
5.477596e-001 -1.885326e+000 2.869029e+000 33 79 131
5.507856e-001 -1.880898e+000 2.870861e+000 27 78 127
5.507856e-001 -1.880898e+000 2.870861e+000 27 78 127
6.376495e-001 -1.863728e+000 2.881307e+000 85 45 21
6.376495e-001 -1.863728e+000 2.881307e+000 85 45 21
6.114085e-001 -1.869663e+000 2.896967e+000 132 50 36
6.395209e-001 -1.900738e+000 2.916515e+000 115 66 37
6.395209e-001 -1.900738e+000 2.916515e+000 115 66 37
6.607466e-001 -1.907442e+000 2.909678e+000 191 123 85
5.692533e-001 -1.937932e+000 2.924647e+000 29 80 136
5.744781e-001 -1.927332e+000 2.930983e+000 33 81 127
5.744781e-001 -1.927332e+000 2.930983e+000 33 81 127
6.625868e-001 -1.930496e+000 2.929876e+000 147 29 25
6.647902e-001 -1.931691e+000 2.931854e+000 198 56 48
5.204066e-001 -2.047777e+000 2.900016e+000 171 127 120
5.244174e-001 -2.056015e+000 2.907289e+000 116 115 148
6.411688e-001 -1.925060e+000 2.942367e+000 195 52 51
6.411688e-001 -1.925060e+000 2.942367e+000 195 52 51
6.470198e-001 -1.938506e+000 2.949432e+000 208 63 60
6.635103e-001 -1.948583e+000 2.948531e+000 207 60 53
6.883913e-001 -1.954464e+000 2.936947e+000 217 67 61
6.689768e-001 -1.947299e+000 2.945748e+000 205 59 46
6.614301e-001 -1.950239e+000 2.952218e+000 144 35 29
6.556699e-001 -1.950895e+000 2.956566e+000 194 58 51
5.769495e-001 -1.978625e+000 2.962434e+000 168 96 74
5.775543e-001 -1.980140e+000 2.962214e+000 168 96 74
6.291754e-001 -1.951669e+000 2.968724e+000 138 22 15
6.291754e-001 -1.951669e+000 2.968724e+000 138 22 15
6.817269e-001 -1.974475e+000 2.963281e+000 97 53 27
5.867701e-001 -1.998913e+000 2.987932e+000 150 100 57
5.420115e-001 -2.133803e+000 2.968773e+000 96 50 49
5.420115e-001 -2.133803e+000 2.968773e+000 96 50 49
4.655586e-001 -1.767253e+000 2.643083e+000 221 161 157
4.927107e-001 -1.728356e+000 2.671381e+000 166 29 44
6.216177e-001 -1.679385e+000 2.698593e+000 176 39 28
6.216177e-001 -1.679385e+000 2.698593e+000 176 39 28
4.789291e-001 -1.760289e+000 2.663577e+000 164 42 47
4.845923e-001 -1.749473e+000 2.674779e+000 200 163 153
4.899535e-001 -1.740129e+000 2.679907e+000 156 34 41
4.946008e-001 -1.732564e+000 2.680546e+000 163 31 37
6.142753e-001 -1.683620e+000 2.710410e+000 151 46 33
6.289254e-001 -1.688665e+000 2.707970e+000 164 40 25
4.913970e-001 -1.745914e+000 2.682586e+000 174 38 44
4.979152e-001 -1.747369e+000 2.682267e+000 173 35 48
6.113507e-001 -1.691503e+000 2.717981e+000 64 98 107
6.626023e-001 -1.755268e+000 2.752740e+000 48 55 17
4.849414e-001 -1.888656e+000 2.760603e+000 177 148 153
4.869366e-001 -1.893925e+000 2.758134e+000 177 148 153
5.489310e-001 -1.828487e+000 2.835698e+000 195 155 159
6.651055e-001 -1.838912e+000 2.841108e+000 86 47 25
5.174571e-001 -1.895908e+000 2.823552e+000 130 26 35
6.556590e-001 -1.865381e+000 2.873704e+000 125 78 49
6.556590e-001 -1.865381e+000 2.873704e+000 125 78 49
6.451115e-001 -1.881914e+000 2.892442e+000 107 64 39
6.759239e-001 -1.885740e+000 2.878371e+000 106 60 33
6.759239e-001 -1.885740e+000 2.878371e+000 106 60 33
6.117013e-001 -1.872376e+000 2.898817e+000 129 42 30
6.885110e-001 -1.903635e+000 2.887357e+000 127 78 48
6.802858e-001 -1.915536e+000 2.905361e+000 113 68 42
6.895719e-001 -1.919520e+000 2.901601e+000 106 58 30
6.376842e-001 -1.908441e+000 2.923805e+000 123 79 55
6.376842e-001 -1.908441e+000 2.923805e+000 123 79 55
5.661647e-001 -1.938500e+000 2.925818e+000 55 120 187
5.699992e-001 -1.938288e+000 2.928355e+000 65 126 198
5.770001e-001 -1.938954e+000 2.936862e+000 67 131 195
6.427501e-001 -1.935960e+000 2.948991e+000 135 31 31
5.280577e-001 -2.056804e+000 2.911494e+000 41 39 58
6.907027e-001 -1.973608e+000 2.955789e+000 191 118 85
7.363554e-001 -2.011848e+000 2.949498e+000 142 45 17
6.579699e-001 -1.967894e+000 2.970933e+000 192 124 88
