ply
format ascii 1.0
element face 0
property list uchar int vertex_indices
element vertex 897
property float x
property float y
property float z
property uchar diffuse_red
property uchar diffuse_green
property uchar diffuse_blue
end_header
7.138734e-001 -1.916262e+000 2.964145e+000 144 23 34
6.188423e-001 -1.681070e+000 2.834858e+000 116 133 63
6.858306e-001 -1.963581e+000 3.082478e+000 184 135 100
7.158908e-001 -2.001038e+000 3.074407e+000 27 21 17
6.885546e-001 -1.835172e+000 2.903716e+000 53 20 11
7.027663e-001 -1.916836e+000 2.984951e+000 129 31 40
7.300859e-001 -2.006789e+000 3.053797e+000 178 142 144
6.324879e-001 -1.675610e+000 2.802472e+000 154 156 34
7.021744e-001 -1.912417e+000 2.979653e+000 137 26 39
6.895596e-001 -1.920239e+000 3.013387e+000 142 27 40
7.243313e-001 -2.004202e+000 3.063772e+000 176 147 142
6.925211e-001 -1.871197e+000 2.943934e+000 179 121 99
6.551129e-001 -1.713173e+000 2.809698e+000 32 57 38
6.551129e-001 -1.713173e+000 2.809698e+000 32 57 38
6.563620e-001 -1.801470e+000 2.914799e+000 5 40 72
6.879561e-001 -1.800532e+000 2.861845e+000 227 134 117
7.099951e-001 -1.925784e+000 2.983053e+000 140 27 44
6.576242e-001 -1.779800e+000 2.884260e+000 204 135 120
7.050885e-001 -1.915153e+000 2.977391e+000 130 32 37
7.028290e-001 -1.972726e+000 3.060779e+000 190 111 66
7.141012e-001 -1.980168e+000 3.047921e+000 66 14 4
7.366290e-001 -2.031350e+000 3.076613e+000 44 17 9
7.403089e-001 -1.987227e+000 3.030407e+000 177 96 31
7.209578e-001 -1.983411e+000 3.039661e+000 190 92 44
6.912472e-001 -1.962388e+000 3.069124e+000 167 81 41
6.870731e-001 -1.836939e+000 2.909253e+000 176 115 95
7.066927e-001 -1.970769e+000 3.048677e+000 132 50 28
7.022172e-001 -1.985255e+000 3.079029e+000 174 138 123
7.436857e-001 -1.940783e+000 2.984561e+000 126 82 36
6.109550e-001 -1.626946e+000 2.791240e+000 162 42 42
7.529131e-001 -1.961693e+000 3.005279e+000 28 26 42
7.087929e-001 -1.990379e+000 3.073276e+000 179 147 136
7.351964e-001 -2.009935e+000 3.049529e+000 22 11 14
6.225536e-001 -1.669648e+000 2.810668e+000 25 55 35
6.343010e-001 -1.703098e+000 2.829691e+000 95 120 49
6.342294e-001 -1.703104e+000 2.829686e+000 95 120 49
7.247581e-001 -2.016836e+000 3.077104e+000 170 87 41
7.255275e-001 -1.981963e+000 3.031575e+000 177 86 40
7.287563e-001 -1.969145e+000 3.015952e+000 88 18 32
6.624270e-001 -1.725474e+000 2.812004e+000 33 54 35
7.617277e-001 -1.882412e+000 2.930169e+000 168 85 86
7.128294e-001 -1.977704e+000 3.047572e+000 172 69 42
6.548808e-001 -1.697412e+000 2.793770e+000 148 148 17
7.516226e-001 -1.855486e+000 2.900774e+000 162 147 118
7.517755e-001 -1.860287e+000 2.905375e+000 170 126 90
6.901277e-001 -1.872969e+000 2.949038e+000 86 53 40
7.004568e-001 -1.963986e+000 3.051078e+000 180 104 45
6.606903e-001 -1.941573e+000 3.090610e+000 159 137 113
6.830189e-001 -1.962390e+000 3.084571e+000 182 142 108
6.892287e-001 -1.966758e+000 3.079904e+000 186 142 106
7.033863e-001 -1.980448e+000 3.068267e+000 194 104 52
6.168049e-001 -1.665900e+000 2.821847e+000 25 55 38
6.867656e-001 -1.795584e+000 2.865895e+000 201 142 110
7.588821e-001 -1.877173e+000 2.924225e+000 88 43 38
7.654217e-001 -1.878310e+000 2.929112e+000 80 30 32
7.515824e-001 -1.939725e+000 2.983599e+000 132 89 44
7.601280e-001 -1.939594e+000 2.986053e+000 63 25 40
7.656433e-001 -1.954343e+000 3.003839e+000 32 28 43
7.691106e-001 -1.952860e+000 3.004350e+000 29 26 36
7.146290e-001 -2.001661e+000 3.071782e+000 27 21 17
6.332686e-001 -1.682843e+000 2.808680e+000 141 151 58
6.742335e-001 -1.788478e+000 2.872064e+000 204 138 106
7.722963e-001 -1.852476e+000 2.907922e+000 131 157 154
7.116908e-001 -1.916485e+000 2.978832e+000 132 28 35
7.097969e-001 -1.920990e+000 2.980390e+000 128 32 36
7.133754e-001 -1.924944e+000 2.983153e+000 230 82 98
6.643736e-001 -1.914323e+000 3.043619e+000 183 120 101
6.615700e-001 -1.913853e+000 3.046386e+000 127 82 72
7.203580e-001 -2.005155e+000 3.066184e+000 29 22 20
9.491588e-001 -1.059298e+000 3.233310e+000 51 35 46
7.470775e-001 -1.937764e+000 2.980345e+000 124 78 36
6.786249e-001 -1.936816e+000 3.041746e+000 165 81 51
9.086695e-001 -1.059478e+000 3.240493e+000 71 59 59
9.262810e-001 -1.084798e+000 3.257183e+000 80 71 66
6.494011e-001 -1.700110e+000 2.802770e+000 34 59 38
6.813569e-001 -1.789074e+000 2.866339e+000 141 23 37
7.571103e-001 -1.896857e+000 2.940898e+000 86 40 43
9.272623e-001 -1.109428e+000 3.277398e+000 83 74 57
6.825198e-001 -1.794837e+000 2.869336e+000 131 71 53
7.620428e-001 -1.912955e+000 2.960590e+000 75 30 33
9.252204e-001 -1.056722e+000 3.237338e+000 100 85 52
9.252204e-001 -1.056722e+000 3.237338e+000 100 85 52
6.182413e-001 -1.688641e+000 2.851010e+000 120 136 131
6.202323e-001 -1.702038e+000 2.863387e+000 148 146 130
9.512653e-001 -1.044565e+000 3.220739e+000 70 53 54
6.646250e-001 -1.884793e+000 2.997918e+000 151 34 45
8.000717e-001 -1.633983e+000 2.753618e+000 167 150 130
7.482571e-001 -1.670333e+000 2.726700e+000 197 151 106
8.120666e-001 -1.804770e+000 2.923101e+000 207 73 77
6.877955e-001 -1.836144e+000 2.907654e+000 177 111 94
7.711688e-001 -1.867786e+000 2.927251e+000 169 93 74
7.612416e-001 -1.885992e+000 2.934066e+000 173 92 99
7.841184e-001 -1.881716e+000 2.948868e+000 121 86 90
7.570783e-001 -1.911703e+000 2.958443e+000 77 41 37
6.957778e-001 -1.924470e+000 3.001673e+000 206 54 69
7.653531e-001 -1.939574e+000 2.988522e+000 69 34 40
7.586947e-001 -2.025821e+000 3.068181e+000 159 63 43
7.307176e-001 -2.025704e+000 3.081056e+000 163 84 47
7.440742e-001 -1.668896e+000 2.723926e+000 169 41 43
7.439958e-001 -1.690664e+000 2.736482e+000 155 163 143
7.440837e-001 -1.690186e+000 2.737428e+000 155 163 143
6.411838e-001 -1.683941e+000 2.793806e+000 35 57 29
7.332035e-001 -1.710840e+000 2.752591e+000 81 105 112
6.484493e-001 -1.773688e+000 2.887026e+000 193 126 106
7.771248e-001 -1.808801e+000 2.876955e+000 175 41 48
7.771248e-001 -1.808801e+000 2.876955e+000 175 41 48
7.608678e-001 -1.872814e+000 2.925936e+000 179 125 83
7.731574e-001 -1.880777e+000 2.938066e+000 71 37 36
8.094504e-001 -1.885967e+000 2.977036e+000 34 22 18
7.565568e-001 -1.905966e+000 2.951576e+000 70 35 41
7.586041e-001 -1.926151e+000 2.972536e+000 60 22 29
6.979918e-001 -1.911270e+000 2.981135e+000 131 32 41
7.050313e-001 -1.915017e+000 2.978188e+000 130 32 37
7.019149e-001 -1.926015e+000 2.995609e+000 142 28 44
6.879123e-001 -1.951208e+000 3.044616e+000 192 121 68
7.574012e-001 -1.989493e+000 3.033712e+000 138 65 41
7.199866e-001 -2.014747e+000 3.085767e+000 154 89 48
6.451253e-001 -1.663205e+000 2.771965e+000 31 55 37
7.667313e-001 -1.797487e+000 2.856054e+000 138 97 79
7.665533e-001 -1.796818e+000 2.858171e+000 138 97 79
6.360628e-001 -1.773301e+000 2.910422e+000 13 56 101
7.629339e-001 -1.866733e+000 2.917930e+000 177 123 73
6.953909e-001 -1.882731e+000 2.952023e+000 82 48 38
6.953909e-001 -1.882731e+000 2.952023e+000 82 48 38
6.689438e-001 -1.882796e+000 2.993146e+000 184 119 94
6.988721e-001 -1.899460e+000 2.968328e+000 185 121 98
7.460044e-001 -1.914676e+000 2.958795e+000 108 58 28
6.707180e-001 -1.893522e+000 3.000289e+000 131 26 40
6.884177e-001 -1.919743e+000 3.004006e+000 205 55 72
6.833541e-001 -1.958935e+000 3.061663e+000 99 38 14
6.949769e-001 -1.980768e+000 3.071379e+000 172 84 38
8.598408e-001 -1.033568e+000 3.230600e+000 91 63 56
8.093036e-001 -1.050234e+000 3.258754e+000 70 51 57
8.152737e-001 -1.054403e+000 3.255339e+000 93 62 70
7.510414e-001 -1.741636e+000 2.785499e+000 166 156 56
7.521140e-001 -1.804888e+000 2.850791e+000 159 108 89
7.136610e-001 -1.851074e+000 2.902745e+000 163 142 118
7.554606e-001 -1.881089e+000 2.927701e+000 103 48 48
7.557005e-001 -1.887539e+000 2.933414e+000 96 43 48
7.744149e-001 -1.945478e+000 3.000390e+000 161 124 90
7.744149e-001 -1.945478e+000 3.000390e+000 161 124 90
8.669823e-001 -1.035099e+000 3.233883e+000 136 102 92
8.282662e-001 -1.033072e+000 3.244505e+000 117 60 65
8.227201e-001 -1.038952e+000 3.249315e+000 95 44 49
8.400528e-001 -1.056547e+000 3.257963e+000 71 42 51
8.697092e-001 -1.055879e+000 3.250759e+000 132 97 93
9.025723e-001 -1.050946e+000 3.244508e+000 70 54 55
8.399997e-001 -1.079962e+000 3.272696e+000 47 29 29
8.489888e-001 -1.075219e+000 3.270582e+000 59 42 48
8.457282e-001 -1.084669e+000 3.275966e+000 104 88 65
6.457157e-001 -1.769448e+000 2.888768e+000 147 27 42
7.736384e-001 -1.863822e+000 2.920400e+000 174 100 76
6.974723e-001 -1.941950e+000 3.016176e+000 181 125 99
8.807246e-001 -1.058366e+000 3.246372e+000 148 66 45
8.384553e-001 -1.089280e+000 3.279114e+000 67 40 36
8.769674e-001 -1.091014e+000 3.276350e+000 130 105 101
8.868365e-001 -1.092634e+000 3.275253e+000 52 30 19
8.882040e-001 -1.106670e+000 3.284544e+000 110 54 39
8.125556e-001 -1.112912e+000 3.305846e+000 83 60 70
8.125556e-001 -1.112912e+000 3.305846e+000 83 60 70
8.309148e-001 -1.121242e+000 3.306765e+000 164 94 62
6.367697e-001 -1.665191e+000 2.780966e+000 13 80 122
6.344008e-001 -1.674822e+000 2.798979e+000 47 82 51
6.342451e-001 -1.675884e+000 2.798970e+000 47 82 51
7.635056e-001 -1.757992e+000 2.814874e+000 34 59 28
9.132996e-001 -1.073932e+000 3.253843e+000 131 116 111
8.826378e-001 -1.083924e+000 3.267652e+000 21 10 16
8.201145e-001 -1.096966e+000 3.290827e+000 33 19 32
7.616927e-001 -1.869832e+000 2.920543e+000 171 127 80
7.698970e-001 -1.978298e+000 3.026231e+000 156 120 85
8.923916e-001 -1.036141e+000 3.230595e+000 39 55 44
8.923916e-001 -1.036141e+000 3.230595e+000 39 55 44
8.613187e-001 -1.039543e+000 3.239870e+000 134 106 89
9.004658e-001 -1.046428e+000 3.236100e+000 169 115 68
9.004658e-001 -1.046428e+000 3.236100e+000 169 115 68
9.092920e-001 -1.041594e+000 3.223903e+000 34 33 32
7.606704e-001 -1.858414e+000 2.908528e+000 15 74 108
7.514442e-001 -1.926648e+000 2.973875e+000 154 110 63
6.874766e-001 -1.942863e+000 3.033492e+000 176 127 95
7.349994e-001 -1.960505e+000 3.003805e+000 67 19 27
6.692204e-001 -1.940684e+000 3.063666e+000 156 120 96
6.969763e-001 -1.996499e+000 3.093800e+000 167 129 107
7.501329e-001 -2.039464e+000 3.084319e+000 176 80 40
8.976232e-001 -1.066781e+000 3.247224e+000 25 16 21
8.609691e-001 -1.091265e+000 3.278896e+000 30 19 27
7.358406e-001 -1.925082e+000 2.971421e+000 41 15 23
6.600334e-001 -1.948810e+000 3.099482e+000 79 63 56
6.704189e-001 -1.954284e+000 3.077277e+000 167 139 110
9.027399e-001 -1.082322e+000 3.263708e+000 156 116 86
8.702355e-001 -1.044863e+000 3.241500e+000 120 83 75
8.690800e-001 -1.075001e+000 3.262916e+000 25 15 24
7.854536e-001 -1.675107e+000 2.774146e+000 69 98 116
7.848585e-001 -1.719361e+000 2.812079e+000 50 56 22
7.804608e-001 -1.774972e+000 2.849753e+000 149 55 55
7.804608e-001 -1.774972e+000 2.849753e+000 149 55 55
7.856974e-001 -1.843211e+000 2.916655e+000 36 72 102
7.822715e-001 -1.868265e+000 2.934379e+000 73 31 28
7.686376e-001 -1.872458e+000 2.926845e+000 85 33 31
7.928752e-001 -1.879294e+000 2.955759e+000 110 77 84
7.803505e-001 -1.941850e+000 3.001630e+000 109 50 35
7.688183e-001 -1.968039e+000 3.016853e+000 25 58 90
6.110145e-001 -1.631175e+000 2.807347e+000 148 45 50
6.273912e-001 -1.646182e+000 2.786951e+000 146 49 49
7.017120e-001 -1.913958e+000 2.985464e+000 197 59 74
7.092766e-001 -1.922677e+000 2.983489e+000 208 70 81
6.766004e-001 -1.914839e+000 3.016056e+000 184 61 71
6.814062e-001 -1.927614e+000 3.022883e+000 112 76 54
7.301169e-001 -2.026233e+000 3.087463e+000 36 13 8
7.377878e-001 -2.027906e+000 3.080200e+000 48 16 7
6.097391e-001 -1.621626e+000 2.802246e+000 175 37 47
6.197091e-001 -1.642535e+000 2.799011e+000 173 41 52
6.320506e-001 -1.676213e+000 2.803464e+000 154 156 34
6.379938e-001 -1.741876e+000 2.870934e+000 158 146 134
6.379938e-001 -1.741876e+000 2.870934e+000 158 146 134
6.960296e-001 -1.835348e+000 2.898032e+000 178 112 91
7.734711e-001 -1.882454e+000 2.936198e+000 71 37 36
7.866478e-001 -1.878890e+000 2.949917e+000 59 39 38
6.911106e-001 -1.899519e+000 2.975307e+000 181 125 99
6.997041e-001 -1.917279e+000 2.989515e+000 189 45 60
7.477755e-001 -1.941588e+000 2.985086e+000 162 116 66
8.023905e-001 -1.821846e+000 2.919229e+000 28 69 100
7.507763e-001 -1.885718e+000 2.930490e+000 168 126 90
8.399997e-001 -1.079962e+000 3.272696e+000 47 29 29
6.391656e-001 -1.682685e+000 2.794815e+000 29 56 36
7.932354e-001 -1.687366e+000 2.794763e+000 39 62 33
7.707415e-001 -1.703807e+000 2.781854e+000 42 59 35
7.801780e-001 -1.727915e+000 2.809389e+000 36 61 35
7.626573e-001 -1.782283e+000 2.837842e+000 42 57 22
7.626573e-001 -1.782283e+000 2.837842e+000 42 57 22
6.514346e-001 -1.909759e+000 3.050912e+000 179 124 108
7.887472e-001 -1.034511e+000 3.249362e+000 110 86 74
7.898287e-001 -1.046722e+000 3.255861e+000 104 85 71
8.100417e-001 -1.096060e+000 3.292739e+000 78 71 87
7.758726e-001 -1.716888e+000 2.794306e+000 38 62 29
6.489559e-001 -1.706987e+000 2.815145e+000 29 55 34
7.950177e-001 -1.799753e+000 2.885841e+000 167 154 122
7.390249e-001 -2.029874e+000 3.082107e+000 69 28 16
7.986016e-001 -1.039315e+000 3.250616e+000 164 146 126
8.269633e-001 -1.047689e+000 3.253197e+000 134 84 83
9.133388e-001 -1.052775e+000 3.235080e+000 41 30 29
7.993736e-001 -1.051156e+000 3.260889e+000 139 120 106
6.891637e-001 -1.896414e+000 2.975659e+000 177 124 101
6.847201e-001 -1.913294e+000 3.001922e+000 154 22 37
8.288091e-001 -1.077348e+000 3.274740e+000 142 46 57
6.279586e-001 -1.690388e+000 2.822736e+000 72 111 134
7.071131e-001 -1.977913e+000 3.050779e+000 165 73 45
8.976232e-001 -1.066781e+000 3.247224e+000 25 16 21
8.065969e-001 -1.067605e+000 3.273493e+000 19 14 21
7.119619e-001 -1.953174e+000 3.011615e+000 179 123 94
7.544328e-001 -1.666079e+000 2.730573e+000 224 142 104
7.937642e-001 -1.648586e+000 2.761692e+000 230 125 104
6.264094e-001 -1.693686e+000 2.833382e+000 29 54 25
8.172604e-001 -1.816173e+000 2.933820e+000 127 168 199
8.054026e-001 -1.828914e+000 2.920588e+000 131 161 176
7.823046e-001 -1.843691e+000 2.910819e+000 120 166 191
6.889646e-001 -1.851798e+000 2.925196e+000 178 110 91
7.717086e-001 -1.875651e+000 2.930998e+000 73 31 28
7.736093e-001 -1.872743e+000 2.928802e+000 163 82 78
7.763630e-001 -1.876383e+000 2.933600e+000 74 36 35
7.847996e-001 -1.867939e+000 2.938018e+000 154 85 83
7.861255e-001 -1.871859e+000 2.939258e+000 146 83 84
7.748790e-001 -1.879206e+000 2.937218e+000 149 81 83
7.767956e-001 -1.879905e+000 2.935561e+000 82 42 40
7.746026e-001 -1.884547e+000 2.939541e+000 149 103 108
7.612418e-001 -1.898271e+000 2.945471e+000 105 52 62
7.577395e-001 -1.920327e+000 2.964689e+000 58 17 26
6.957754e-001 -1.924152e+000 3.002079e+000 206 54 69
7.580640e-001 -1.961240e+000 3.006951e+000 147 143 157
7.557532e-001 -1.962651e+000 3.005775e+000 31 31 52
6.998043e-001 -1.986248e+000 3.073460e+000 174 138 123
7.237566e-001 -2.019836e+000 3.086038e+000 45 17 10
7.289234e-001 -2.023157e+000 3.083318e+000 39 6 5
7.864856e-001 -1.641056e+000 2.753931e+000 169 43 42
7.675478e-001 -1.668324e+000 2.746434e+000 155 50 47
7.786091e-001 -1.804149e+000 2.872869e+000 178 148 122
7.982413e-001 -1.820090e+000 2.905178e+000 200 76 76
7.742531e-001 -1.870040e+000 2.928209e+000 82 32 32
6.898474e-001 -1.872762e+000 2.948502e+000 86 53 40
7.555952e-001 -1.895442e+000 2.940247e+000 84 43 44
7.902434e-001 -1.906714e+000 2.977544e+000 26 22 19
6.652236e-001 -1.892569e+000 3.006816e+000 139 37 43
6.652236e-001 -1.892569e+000 3.006816e+000 139 37 43
6.847354e-001 -1.918129e+000 3.008733e+000 135 28 38
6.053829e-001 -1.621602e+000 2.802708e+000 170 40 53
7.737079e-001 -1.651419e+000 2.743587e+000 170 44 45
7.739817e-001 -1.650678e+000 2.744300e+000 170 44 45
7.755521e-001 -1.663422e+000 2.757207e+000 167 46 51
7.584182e-001 -1.676969e+000 2.744685e+000 173 42 43
6.371652e-001 -1.686711e+000 2.807885e+000 49 91 115
6.596004e-001 -1.701709e+000 2.791917e+000 28 54 29
6.596884e-001 -1.701869e+000 2.792189e+000 28 54 29
6.197228e-001 -1.697571e+000 2.857986e+000 38 53 26
8.343342e-001 -1.743541e+000 2.886598e+000 147 106 87
6.971450e-001 -1.873366e+000 2.944647e+000 176 121 90
7.623296e-001 -1.895325e+000 2.944344e+000 73 31 37
7.860951e-001 -1.922733e+000 2.986086e+000 83 52 50
7.842984e-001 -1.939786e+000 2.997046e+000 162 118 85
6.492113e-001 -1.914580e+000 3.066814e+000 168 134 109
6.824814e-001 -1.931237e+000 3.028750e+000 180 129 102
6.948335e-001 -1.970746e+000 3.052859e+000 184 113 59
4.878109e-001 -1.913830e+000 3.191410e+000 50 38 48
7.508007e-001 -1.666783e+000 2.728819e+000 174 43 39
6.580113e-001 -1.687874e+000 2.782163e+000 110 125 47
8.019068e-001 -1.721850e+000 2.827729e+000 41 57 31
7.041196e-001 -1.828333e+000 2.880401e+000 12 71 105
7.728878e-001 -1.851991e+000 2.908739e+000 131 157 154
8.025522e-001 -1.850218e+000 2.936784e+000 80 54 64
7.530393e-001 -1.902214e+000 2.947811e+000 168 124 87
8.075912e-001 -1.034364e+000 3.246474e+000 62 45 53
8.810069e-001 -1.037126e+000 3.234369e+000 160 109 84
8.738688e-001 -1.048491e+000 3.242070e+000 108 60 53
1.033990e+000 -1.205735e+000 3.308693e+000 64 60 75
7.490747e-001 -1.701733e+000 2.755546e+000 103 122 53
7.892228e-001 -1.794197e+000 2.875794e+000 170 154 121
6.804661e-001 -1.922862e+000 3.022534e+000 182 122 93
4.954687e-001 -1.925125e+000 3.181912e+000 50 40 49
9.564430e-001 -1.090415e+000 3.261017e+000 46 36 44
7.847806e-001 -1.899112e+000 2.967879e+000 139 111 99
7.160269e-001 -1.914930e+000 2.968642e+000 144 23 34
7.892496e-001 -1.964974e+000 3.025170e+000 155 117 80
5.132144e-001 -1.958979e+000 3.158094e+000 135 120 123
5.513212e-001 -1.991719e+000 3.150296e+000 43 33 42
6.582734e-001 -1.915613e+000 3.054924e+000 179 125 105
7.180055e-001 -1.940209e+000 2.994774e+000 147 23 41
5.401408e-001 -1.989404e+000 3.154765e+000 133 115 120
5.263485e-001 -1.974452e+000 3.163437e+000 132 113 117
9.973746e-001 -1.051738e+000 3.215851e+000 103 80 66
6.541701e-001 -1.904892e+000 3.085652e+000 123 95 81
6.548048e-001 -1.826874e+000 2.987673e+000 181 118 103
6.457922e-001 -1.743638e+000 2.859289e+000 85 48 40
6.508827e-001 -1.754791e+000 2.858049e+000 92 33 34
6.190199e-001 -1.735912e+000 2.928274e+000 213 122 114
6.875598e-001 -1.830557e+000 2.896827e+000 51 20 15
7.772653e-001 -1.846297e+000 2.913806e+000 82 129 148
6.410887e-001 -1.803841e+000 2.980094e+000 179 118 105
7.789015e-001 -1.878102e+000 2.941460e+000 128 83 86
6.934290e-001 -1.893909e+000 2.967921e+000 91 54 34
7.092362e-001 -1.914960e+000 2.973961e+000 195 63 72
6.935151e-001 -1.918201e+000 3.006770e+000 143 26 34
6.243025e-001 -1.689623e+000 2.830269e+000 26 51 27
8.023354e-001 -1.807459e+000 2.909275e+000 137 44 39
8.087518e-001 -1.802042e+000 2.913883e+000 134 47 37
6.438003e-001 -1.811291e+000 2.970569e+000 182 116 97
6.388970e-001 -1.813652e+000 2.982871e+000 112 68 53
7.729077e-001 -1.868982e+000 2.928215e+000 93 44 40
7.874293e-001 -1.875406e+000 2.952629e+000 61 39 41
6.601104e-001 -1.872709e+000 3.018829e+000 137 32 37
6.753514e-001 -1.895829e+000 2.996878e+000 135 35 41
6.753546e-001 -1.895539e+000 3.009098e+000 134 33 41
7.403725e-001 -1.584298e+000 2.693558e+000 199 172 135
6.266447e-001 -1.768314e+000 2.990831e+000 166 69 71
6.435514e-001 -1.815182e+000 2.968874e+000 122 79 67
6.533446e-001 -1.834901e+000 2.969460e+000 180 115 93
6.896236e-001 -1.856508e+000 2.926234e+000 84 54 39
6.907339e-001 -1.865980e+000 2.937643e+000 180 122 96
7.704492e-001 -1.877083e+000 2.933874e+000 158 83 78
7.671908e-001 -1.879906e+000 2.926654e+000 158 83 78
6.990528e-001 -1.880396e+000 2.952254e+000 179 124 90
6.908044e-001 -1.918422e+000 3.009171e+000 199 62 70
6.082251e-001 -1.681684e+000 2.865830e+000 29 54 24
6.740759e-001 -1.787739e+000 2.866408e+000 143 23 35
7.730100e-001 -1.844857e+000 2.910899e+000 23 67 97
6.420400e-001 -1.826705e+000 3.017323e+000 177 121 106
6.933407e-001 -1.878536e+000 2.950700e+000 179 124 94
6.948065e-001 -1.878174e+000 2.953080e+000 179 124 94
6.405081e-001 -1.857624e+000 3.056197e+000 141 33 49
7.705518e-001 -1.916589e+000 2.963594e+000 65 36 31
6.354253e-001 -1.649197e+000 2.751647e+000 154 87 80
6.058382e-001 -1.660918e+000 2.835757e+000 121 136 99
6.366731e-001 -1.708085e+000 2.833849e+000 22 51 23
6.199325e-001 -1.739351e+000 2.928504e+000 192 119 109
6.539306e-001 -1.780044e+000 2.887231e+000 188 120 96
6.850560e-001 -1.792590e+000 2.862790e+000 146 22 38
7.746841e-001 -1.798189e+000 2.868812e+000 172 149 118
7.521209e-001 -1.814879e+000 2.853446e+000 144 100 75
7.129058e-001 -1.916696e+000 2.964163e+000 144 23 30
6.088410e-001 -1.667291e+000 2.838184e+000 26 55 35
6.156743e-001 -1.665748e+000 2.821035e+000 22 55 26
6.296800e-001 -1.698837e+000 2.821456e+000 23 56 25
6.562574e-001 -1.867344e+000 3.005192e+000 177 120 98
7.077016e-001 -1.927009e+000 2.989355e+000 152 22 34
6.488970e-001 -1.754411e+000 2.857949e+000 154 114 104
6.591172e-001 -1.834085e+000 2.885157e+000 178 113 91
6.512909e-001 -1.856477e+000 3.005212e+000 181 121 102
6.583267e-001 -1.822963e+000 2.993293e+000 181 119 96
6.920289e-001 -1.823809e+000 2.884667e+000 10 50 85
6.107667e-001 -1.630578e+000 2.795369e+000 218 139 120
6.107667e-001 -1.630578e+000 2.795369e+000 218 139 120
6.316256e-001 -1.645648e+000 2.780477e+000 208 127 111
6.365765e-001 -1.674280e+000 2.798268e+000 50 82 40
6.412150e-001 -1.859960e+000 3.030377e+000 185 62 72
6.949570e-001 -1.893308e+000 2.965869e+000 178 126 95
6.594495e-001 -1.879177e+000 3.018909e+000 193 61 66
6.838693e-001 -1.897944e+000 2.994372e+000 213 68 79
7.105732e-001 -1.917340e+000 2.969196e+000 204 54 66
6.886377e-001 -1.905114e+000 2.995309e+000 196 55 67
6.886377e-001 -1.905114e+000 2.995309e+000 196 55 67
6.559616e-001 -1.892216e+000 3.057702e+000 180 117 104
6.742579e-001 -1.905004e+000 3.024729e+000 204 58 66
6.740327e-001 -1.904984e+000 3.024693e+000 204 58 66
6.901201e-001 -1.917723e+000 3.011001e+000 203 62 72
7.024100e-001 -1.925726e+000 2.999932e+000 198 63 69
7.010853e-001 -1.926606e+000 3.000762e+000 198 63 69
7.605800e-001 -1.941954e+000 2.991716e+000 75 50 53
6.757115e-001 -1.923327e+000 3.049289e+000 175 111 93
6.902958e-001 -1.935450e+000 3.035229e+000 113 78 56
6.905516e-001 -1.935350e+000 3.035427e+000 113 78 56
6.789365e-001 -1.937251e+000 3.062241e+000 175 65 50
7.044475e-001 -1.967480e+000 3.052956e+000 152 97 44
6.687740e-001 -1.938444e+000 3.103442e+000 36 26 22
7.144144e-001 -2.008574e+000 3.094995e+000 35 10 0
7.144144e-001 -2.008574e+000 3.094995e+000 35 10 0
7.203036e-001 -2.014156e+000 3.091470e+000 44 17 0
6.246532e-001 -1.696351e+000 2.829529e+000 152 149 38
6.945610e-001 -1.833072e+000 2.891283e+000 56 31 26
6.910695e-001 -1.906864e+000 2.993281e+000 205 66 75
6.565054e-001 -1.888327e+000 3.062313e+000 116 69 56
6.735733e-001 -1.909247e+000 3.029002e+000 191 53 56
6.850633e-001 -1.918438e+000 3.017354e+000 191 63 68
6.785363e-001 -1.935904e+000 3.057270e+000 132 43 31
7.253555e-001 -2.018554e+000 3.088479e+000 59 23 6
6.116247e-001 -1.624827e+000 2.790566e+000 175 36 51
6.478237e-001 -1.826361e+000 2.959052e+000 93 50 35
6.906826e-001 -1.855450e+000 2.925721e+000 84 54 39
6.297501e-001 -1.827850e+000 3.006842e+000 176 123 113
6.379373e-001 -1.829246e+000 2.990365e+000 112 66 51
6.607700e-001 -1.857803e+000 2.981704e+000 117 71 58
6.607700e-001 -1.857803e+000 2.981704e+000 117 71 58
6.958337e-001 -1.873282e+000 2.936205e+000 71 43 26
6.967411e-001 -1.879640e+000 2.943633e+000 65 33 18
6.991599e-001 -1.892814e+000 2.957440e+000 61 35 16
6.826681e-001 -1.916001e+000 3.019444e+000 195 69 72
7.064735e-001 -1.929192e+000 2.996137e+000 218 64 78
7.053069e-001 -1.929872e+000 2.996865e+000 218 64 78
7.810821e-001 -1.981432e+000 3.045329e+000 188 80 42
7.841875e-001 -1.917806e+000 2.989584e+000 83 48 46
7.759056e-001 -2.014563e+000 3.081232e+000 171 127 99
6.464428e-001 -1.886170e+000 3.114765e+000 38 28 36
7.712890e-001 -1.973863e+000 3.030722e+000 161 124 82
7.671009e-001 -2.016645e+000 3.070794e+000 159 115 90
6.776120e-001 -1.947558e+000 3.092250e+000 154 127 103
7.305528e-001 -2.001947e+000 3.051690e+000 170 77 42
8.329733e-001 -1.249602e+000 3.291601e+000 78 56 43
8.566546e-001 -1.257197e+000 3.296873e+000 101 69 60
6.661132e-001 -1.927398e+000 3.076952e+000 130 99 78
6.903738e-001 -1.961903e+000 3.074223e+000 113 50 19
7.067718e-001 -1.977635e+000 3.061634e+000 170 79 35
6.539406e-001 -1.944620e+000 3.131806e+000 105 90 81
6.571112e-001 -1.948420e+000 3.129863e+000 99 87 76
6.571112e-001 -1.948420e+000 3.129863e+000 99 87 76
6.677002e-001 -1.962731e+000 3.128317e+000 81 31 35
7.968248e-001 -1.637411e+000 2.747885e+000 222 129 91
7.633861e-001 -1.668575e+000 2.731236e+000 136 41 27
7.633861e-001 -1.668575e+000 2.731236e+000 136 41 27
8.056255e-001 -1.805508e+000 2.901430e+000 227 134 107
7.878477e-001 -1.841702e+000 2.913870e+000 133 177 189
7.783386e-001 -1.869895e+000 2.930715e+000 174 89 79
7.910141e-001 -1.864465e+000 2.940997e+000 125 71 79
7.982282e-001 -1.869210e+000 2.953846e+000 85 61 64
7.690382e-001 -1.889513e+000 2.942495e+000 125 65 70
7.884139e-001 -1.880553e+000 2.953944e+000 61 36 38
7.008646e-001 -1.903744e+000 2.966433e+000 127 82 58
8.081630e-001 -1.885504e+000 2.988590e+000 28 15 15
7.579074e-001 -1.909496e+000 2.956224e+000 138 71 75
8.407597e-001 -1.880984e+000 3.023806e+000 152 87 60
7.647216e-001 -1.922815e+000 2.973866e+000 107 57 59
7.652686e-001 -1.934046e+000 2.984343e+000 98 49 59
7.911381e-001 -1.926800e+000 2.999791e+000 119 89 88
7.295025e-001 -2.016747e+000 3.069658e+000 183 103 51
7.434168e-001 -2.041410e+000 3.091995e+000 202 95 48
8.054988e-001 -1.630906e+000 2.756943e+000 168 142 118
7.786704e-001 -1.873234e+000 2.933338e+000 176 89 82
8.054567e-001 -1.861922e+000 2.960313e+000 88 66 71
7.745708e-001 -1.881863e+000 2.939848e+000 81 39 41
7.560819e-001 -1.899795e+000 2.947157e+000 75 32 38
8.371084e-001 -1.875050e+000 3.015942e+000 148 61 44
7.735789e-001 -1.943092e+000 2.996746e+000 85 55 51
7.637568e-001 -1.803423e+000 2.859821e+000 199 149 122
8.330884e-001 -1.815779e+000 2.956579e+000 100 23 28
8.340703e-001 -1.865614e+000 3.003350e+000 87 15 22
8.411880e-001 -1.884640e+000 3.028891e+000 116 68 37
6.844681e-001 -1.930304e+000 3.014111e+000 119 78 53
7.515849e-001 -1.861191e+000 2.906005e+000 189 138 91
8.048190e-001 -1.730348e+000 2.847044e+000 38 60 19
7.630624e-001 -1.732462e+000 2.786644e+000 164 158 108
8.331884e-001 -1.742946e+000 2.889953e+000 168 107 89
7.763772e-001 -2.012778e+000 3.068296e+000 158 52 48
7.924249e-001 -1.710113e+000 2.801954e+000 172 159 115
7.924249e-001 -1.710113e+000 2.801954e+000 172 159 115
8.277158e-001 -2.006075e+000 3.100076e+000 40 29 37
6.197741e-001 -1.629617e+000 2.748877e+000 105 161 190
6.197741e-001 -1.629617e+000 2.748877e+000 105 161 190
5.928008e-001 -1.644503e+000 2.792918e+000 235 148 120
6.055274e-001 -1.644837e+000 2.782066e+000 229 137 110
6.042728e-001 -1.647510e+000 2.786275e+000 138 48 42
6.042728e-001 -1.647510e+000 2.786275e+000 138 48 42
5.821079e-001 -1.645599e+000 2.801272e+000 245 131 114
5.821079e-001 -1.645599e+000 2.801272e+000 245 131 114
5.999451e-001 -1.647458e+000 2.790594e+000 231 137 112
6.147949e-001 -1.652032e+000 2.783500e+000 217 148 112
6.561036e-001 -1.692199e+000 2.781584e+000 143 158 62
6.578449e-001 -1.693755e+000 2.780835e+000 35 48 13
6.634807e-001 -1.714917e+000 2.794613e+000 57 94 75
6.634807e-001 -1.714917e+000 2.794613e+000 57 94 75
6.521846e-001 -1.712980e+000 2.815977e+000 67 103 73
6.564031e-001 -1.710111e+000 2.803787e+000 80 101 59
6.561461e-001 -1.755876e+000 2.864578e+000 97 67 56
5.960272e-001 -1.759163e+000 2.919675e+000 234 156 136
6.087428e-001 -1.760945e+000 2.913200e+000 121 33 29
6.087428e-001 -1.760945e+000 2.913200e+000 121 33 29
6.358083e-001 -1.766898e+000 2.899710e+000 233 159 127
6.413713e-001 -1.766441e+000 2.895334e+000 232 148 118
6.412157e-001 -1.766701e+000 2.895321e+000 232 148 118
6.655106e-001 -1.779767e+000 2.879818e+000 212 159 120
6.774258e-001 -1.787646e+000 2.871298e+000 132 36 35
6.797048e-001 -1.787906e+000 2.866803e+000 144 36 34
6.821448e-001 -1.791919e+000 2.866720e+000 118 44 34
6.826173e-001 -1.791187e+000 2.866723e+000 118 44 34
6.862172e-001 -1.792367e+000 2.862097e+000 217 152 120
5.785641e-001 -1.770576e+000 2.938753e+000 30 91 139
6.363856e-001 -1.769083e+000 2.901712e+000 221 152 119
6.209373e-001 -1.787622e+000 2.911782e+000 1 36 70
6.491673e-001 -1.771965e+000 2.895827e+000 218 154 123
6.599488e-001 -1.778712e+000 2.887139e+000 233 148 112
6.660284e-001 -1.782160e+000 2.882107e+000 211 148 110
6.761648e-001 -1.788769e+000 2.873586e+000 237 147 122
7.002627e-001 -1.813693e+000 2.862133e+000 25 76 103
5.967192e-001 -1.789980e+000 2.952604e+000 104 63 52
6.411082e-001 -1.791589e+000 2.921938e+000 9 88 131
6.933869e-001 -1.826823e+000 2.891762e+000 195 121 102
6.896184e-001 -1.835650e+000 2.911890e+000 204 129 94
5.852401e-001 -1.821029e+000 2.991559e+000 211 102 99
5.954907e-001 -1.815675e+000 2.982245e+000 191 132 116
6.216238e-001 -1.831969e+000 2.986471e+000 115 80 62
6.216238e-001 -1.831969e+000 2.986471e+000 115 80 62
6.034429e-001 -1.837466e+000 3.000202e+000 106 60 47
6.555613e-001 -1.863146e+000 2.991079e+000 192 129 101
6.555724e-001 -1.863119e+000 2.991049e+000 192 129 101
6.148185e-001 -1.874496e+000 3.031175e+000 226 97 101
6.356694e-001 -1.876327e+000 3.022428e+000 159 30 37
6.303624e-001 -1.882061e+000 3.027139e+000 154 32 37
6.371568e-001 -1.877867e+000 3.021346e+000 236 74 82
6.213611e-001 -1.887713e+000 3.042500e+000 230 67 78
6.581144e-001 -1.884887e+000 3.011874e+000 227 66 74
6.581144e-001 -1.884887e+000 3.011874e+000 227 66 74
6.558895e-001 -1.891080e+000 3.019955e+000 143 32 34
6.558095e-001 -1.891215e+000 3.019969e+000 143 32 34
6.917241e-001 -1.901553e+000 2.991949e+000 152 34 40
6.989735e-001 -1.909722e+000 2.987181e+000 231 76 75
6.692554e-001 -1.908327e+000 3.026046e+000 159 28 35
6.828983e-001 -1.915835e+000 3.015906e+000 221 73 75
7.042145e-001 -1.915646e+000 2.990559e+000 165 30 36
6.661248e-001 -1.909754e+000 3.029867e+000 157 32 36
6.663655e-001 -1.909332e+000 3.029827e+000 157 32 36
6.783656e-001 -1.914227e+000 3.022107e+000 148 34 36
6.490612e-001 -1.924041e+000 3.059012e+000 113 72 56
6.654767e-001 -1.928799e+000 3.050243e+000 193 130 111
6.492192e-001 -1.943467e+000 3.077097e+000 101 74 47
6.910643e-001 -1.952616e+000 3.048793e+000 137 79 33
6.919467e-001 -1.956853e+000 3.051805e+000 235 140 74
6.919467e-001 -1.956853e+000 3.051805e+000 235 140 74
5.847342e-001 -1.640685e+000 2.793409e+000 155 47 39
5.851185e-001 -1.640160e+000 2.793504e+000 155 47 39
5.875651e-001 -1.637932e+000 2.788784e+000 185 37 40
6.189770e-001 -1.649740e+000 2.777307e+000 167 39 45
6.189770e-001 -1.649740e+000 2.777307e+000 167 39 45
6.275382e-001 -1.652569e+000 2.770141e+000 201 142 109
6.176091e-001 -1.654101e+000 2.783897e+000 165 41 37
6.389996e-001 -1.668744e+000 2.777527e+000 21 75 88
6.311983e-001 -1.743788e+000 2.876949e+000 181 151 140
6.402045e-001 -1.746779e+000 2.873304e+000 176 158 138
6.178927e-001 -1.769567e+000 2.918049e+000 10 54 89
6.738260e-001 -1.795050e+000 2.886442e+000 15 70 98
5.923432e-001 -1.800111e+000 2.966846e+000 127 82 76
5.923432e-001 -1.800111e+000 2.966846e+000 127 82 76
6.498170e-001 -1.801682e+000 2.927209e+000 196 124 102
6.125423e-001 -1.821125e+000 2.974873e+000 98 59 42
6.049642e-001 -1.824034e+000 2.985514e+000 108 67 52
5.816741e-001 -1.836324e+000 3.001909e+000 205 92 90
6.532601e-001 -1.870036e+000 2.999169e+000 82 41 25
6.533561e-001 -1.869902e+000 2.999206e+000 82 41 25
6.071532e-001 -1.880599e+000 3.042810e+000 217 67 79
6.076435e-001 -1.875765e+000 3.035969e+000 152 45 51
6.216019e-001 -1.885346e+000 3.035318e+000 151 34 41
6.276947e-001 -1.884665e+000 3.033807e+000 148 37 43
6.539767e-001 -1.886563e+000 3.016377e+000 150 31 40
6.791000e-001 -1.892886e+000 3.001843e+000 146 32 39
6.812706e-001 -1.901461e+000 3.000620e+000 221 70 73
6.920831e-001 -1.906620e+000 2.995706e+000 152 31 34
6.992010e-001 -1.905378e+000 2.985160e+000 150 36 36
6.973035e-001 -1.908907e+000 2.990996e+000 147 35 37
7.016301e-001 -1.907942e+000 2.979216e+000 239 71 74
7.033122e-001 -1.911386e+000 2.983800e+000 201 65 57
7.097681e-001 -1.920327e+000 2.982120e+000 214 74 67
7.105473e-001 -1.919674e+000 2.978642e+000 147 37 42
6.256349e-001 -1.898386e+000 3.051813e+000 219 64 76
6.364984e-001 -1.900427e+000 3.044968e+000 153 38 44
6.759760e-001 -1.900891e+000 3.010521e+000 224 65 70
6.928941e-001 -1.915855e+000 2.995500e+000 213 64 63
7.020978e-001 -1.913810e+000 2.990083e+000 210 75 65
7.098596e-001 -1.919594e+000 2.985273e+000 167 29 39
6.886130e-001 -1.920498e+000 3.016703e+000 239 85 88
6.769671e-001 -1.933103e+000 3.044157e+000 128 82 61
6.208890e-001 -1.648367e+000 2.772594e+000 177 27 39
6.319793e-001 -1.703505e+000 2.832939e+000 154 152 43
6.319793e-001 -1.703505e+000 2.832939e+000 154 152 43
6.575812e-001 -1.718817e+000 2.813949e+000 74 109 97
6.575733e-001 -1.718976e+000 2.814027e+000 74 109 97
6.837427e-001 -1.746867e+000 2.807936e+000 88 87 66
6.838423e-001 -1.746661e+000 2.807964e+000 88 87 66
6.416474e-001 -1.800418e+000 2.932700e+000 78 42 30
6.416507e-001 -1.800391e+000 2.932732e+000 78 42 30
6.523439e-001 -1.821233e+000 2.945947e+000 204 129 110
6.451974e-001 -1.820841e+000 2.952396e+000 173 118 93
6.957224e-001 -1.845670e+000 2.915725e+000 101 55 41
6.952971e-001 -1.846591e+000 2.915841e+000 101 55 41
6.100892e-001 -1.828340e+000 2.991290e+000 137 90 77
6.100892e-001 -1.828340e+000 2.991290e+000 137 90 77
6.179233e-001 -1.831333e+000 2.987758e+000 103 57 39
6.502094e-001 -1.833304e+000 2.962231e+000 200 131 106
6.520849e-001 -1.839691e+000 2.968920e+000 199 132 105
6.991410e-001 -1.866786e+000 2.936317e+000 113 70 47
6.991348e-001 -1.875146e+000 2.943690e+000 106 76 56
6.276748e-001 -1.849043e+000 2.998380e+000 96 59 45
6.276748e-001 -1.849043e+000 2.998380e+000 96 59 45
6.631990e-001 -1.861245e+000 2.980733e+000 92 49 36
6.632948e-001 -1.861120e+000 2.980727e+000 92 49 36
5.957687e-001 -1.870467e+000 3.037187e+000 187 152 125
6.109264e-001 -1.860664e+000 3.017994e+000 119 71 57
6.216688e-001 -1.861091e+000 3.014185e+000 141 92 78
6.530489e-001 -1.861795e+000 2.992698e+000 167 114 96
6.946966e-001 -1.883249e+000 2.962388e+000 163 119 86
7.016652e-001 -1.888186e+000 2.957084e+000 90 59 41
7.033024e-001 -1.894151e+000 2.963353e+000 82 54 38
6.955631e-001 -1.897397e+000 2.978460e+000 198 142 100
6.121459e-001 -1.892904e+000 3.048627e+000 159 34 48
6.504152e-001 -1.884006e+000 3.017230e+000 153 32 36
6.693161e-001 -1.894844e+000 3.010582e+000 216 75 73
6.178380e-001 -1.901729e+000 3.057404e+000 151 36 43
6.922702e-001 -1.919031e+000 3.008842e+000 227 79 80
6.922702e-001 -1.919031e+000 3.008842e+000 227 79 80
7.146266e-001 -1.932976e+000 2.989459e+000 233 69 78
6.341641e-001 -1.912886e+000 3.058050e+000 140 90 77
6.341791e-001 -1.912881e+000 3.058076e+000 140 90 77
6.510984e-001 -1.917496e+000 3.050538e+000 123 66 55
6.332086e-001 -1.915434e+000 3.063087e+000 199 133 108
6.546939e-001 -1.925583e+000 3.055815e+000 100 60 45
6.651777e-001 -1.921359e+000 3.043441e+000 106 63 43
6.650150e-001 -1.921582e+000 3.043429e+000 106 63 43
6.806931e-001 -1.939839e+000 3.048521e+000 189 89 50
6.341825e-001 -1.949841e+000 3.097087e+000 148 118 97
6.101270e-001 -1.654004e+000 2.790325e+000 181 39 45
6.439477e-001 -1.686951e+000 2.794403e+000 158 152 22
6.023649e-001 -1.691643e+000 2.846089e+000 146 148 55
6.023649e-001 -1.691643e+000 2.846089e+000 146 148 55
6.435858e-001 -1.707418e+000 2.821242e+000 160 159 23
6.435858e-001 -1.707418e+000 2.821242e+000 160 159 23
6.251486e-001 -1.743939e+000 2.883465e+000 157 133 123
6.320352e-001 -1.768490e+000 2.907518e+000 165 25 38
6.449068e-001 -1.772831e+000 2.901319e+000 160 29 34
6.448168e-001 -1.780259e+000 2.906489e+000 5 54 83
6.548310e-001 -1.777049e+000 2.894772e+000 169 26 40
6.573900e-001 -1.806597e+000 2.929530e+000 201 130 105
6.595193e-001 -1.812341e+000 2.930082e+000 190 129 100
5.963244e-001 -1.808099e+000 2.968948e+000 200 136 118
5.963244e-001 -1.808099e+000 2.968948e+000 200 136 118
5.998152e-001 -1.814663e+000 2.975742e+000 199 134 116
6.008859e-001 -1.809553e+000 2.967586e+000 198 134 116
6.008859e-001 -1.809553e+000 2.967586e+000 198 134 116
6.063546e-001 -1.807959e+000 2.965877e+000 201 134 118
6.077806e-001 -1.805745e+000 2.966004e+000 201 134 118
6.460203e-001 -1.812564e+000 2.941066e+000 199 134 106
6.872191e-001 -1.834354e+000 2.914306e+000 176 114 90
6.912736e-001 -1.836881e+000 2.906068e+000 203 127 99
6.923899e-001 -1.844082e+000 2.913159e+000 200 131 101
6.469030e-001 -1.827649e+000 2.959068e+000 141 98 77
6.101169e-001 -1.839068e+000 2.993247e+000 199 134 109
6.479574e-001 -1.835315e+000 2.965792e+000 117 68 55
6.495856e-001 -1.841937e+000 2.972499e+000 89 51 37
6.045448e-001 -1.848612e+000 3.013822e+000 140 92 85
6.071242e-001 -1.857844e+000 3.015769e+000 198 136 115
6.080654e-001 -1.856412e+000 3.015679e+000 198 136 115
6.523154e-001 -1.853830e+000 2.981630e+000 197 133 108
6.525705e-001 -1.853132e+000 2.981714e+000 197 133 108
6.522234e-001 -1.856920e+000 2.985617e+000 160 106 87
6.522234e-001 -1.856920e+000 2.985617e+000 160 106 87
6.540449e-001 -1.861778e+000 2.988192e+000 197 133 107
6.991812e-001 -1.883015e+000 2.954870e+000 201 143 106
6.623733e-001 -1.885252e+000 3.006263e+000 162 25 38
6.919118e-001 -1.900218e+000 2.989866e+000 157 32 38
6.373287e-001 -1.914782e+000 3.060079e+000 202 132 107
6.371988e-001 -1.915139e+000 3.060229e+000 202 132 107
6.843065e-001 -1.929363e+000 3.031200e+000 76 36 9
6.573977e-001 -1.688838e+000 2.780768e+000 99 113 36
6.149188e-001 -1.692086e+000 2.829207e+000 137 141 30
6.365555e-001 -1.743014e+000 2.872318e+000 170 160 145
6.094578e-001 -1.757175e+000 2.907440e+000 171 27 42
6.275330e-001 -1.759312e+000 2.900614e+000 172 26 37
6.466244e-001 -1.767294e+000 2.890403e+000 171 30 39
6.719382e-001 -1.782058e+000 2.869929e+000 167 24 38
5.936902e-001 -1.834728e+000 2.999362e+000 207 138 123
5.995462e-001 -1.870785e+000 3.034022e+000 164 28 43
6.489377e-001 -1.881108e+000 3.013015e+000 166 23 35
5.953737e-001 -1.685575e+000 2.837077e+000 118 144 118
6.050135e-001 -1.705981e+000 2.852051e+000 29 59 32
6.581905e-001 -1.749781e+000 2.854353e+000 162 153 137
6.459882e-001 -1.898272e+000 3.032060e+000 174 21 39
6.459882e-001 -1.898272e+000 3.032060e+000 174 21 39
6.942217e-001 -1.916651e+000 3.001508e+000 176 23 37
6.942217e-001 -1.916651e+000 3.001508e+000 176 23 37
5.884093e-001 -1.657690e+000 2.818488e+000 127 141 143
5.904679e-001 -1.671127e+000 2.830994e+000 131 145 134
5.904679e-001 -1.671127e+000 2.830994e+000 131 145 134
6.689183e-001 -1.733635e+000 2.812123e+000 98 123 115
6.689183e-001 -1.733635e+000 2.812123e+000 98 123 115
5.643146e-001 -1.835499e+000 2.999226e+000 192 104 102
6.489597e-001 -1.874911e+000 3.007268e+000 199 132 106
6.678273e-001 -1.909121e+000 3.020660e+000 172 27 34
7.182902e-001 -1.937509e+000 2.991742e+000 177 27 39
6.870852e-001 -1.943493e+000 3.042957e+000 193 144 101
6.407132e-001 -1.703713e+000 2.816585e+000 62 106 117
5.995014e-001 -1.701805e+000 2.856558e+000 25 62 31
6.066452e-001 -1.710793e+000 2.859093e+000 154 154 144
6.839803e-001 -1.730262e+000 2.785188e+000 52 97 120
6.312126e-001 -1.852350e+000 3.000656e+000 201 131 110
6.362913e-001 -1.835996e+000 2.975170e+000 194 133 105
6.577373e-001 -1.858632e+000 2.981533e+000 125 82 67
5.734581e-001 -1.841723e+000 2.993640e+000 184 102 90
7.230335e-001 -1.960847e+000 2.975838e+000 184 136 64
6.956347e-001 -1.926758e+000 2.992863e+000 163 35 35
5.401800e-001 -1.649410e+000 2.807777e+000 167 166 164
7.200816e-001 -1.886404e+000 2.930411e+000 179 140 97
5.763834e-001 -1.636131e+000 2.792289e+000 159 27 32
5.763834e-001 -1.636131e+000 2.792289e+000 159 27 32
6.368606e-001 -1.652252e+000 2.759892e+000 17 71 97
5.963421e-001 -1.647364e+000 2.791490e+000 203 130 94
6.067218e-001 -1.649360e+000 2.787207e+000 205 131 94
6.065383e-001 -1.649701e+000 2.787046e+000 205 131 94
6.301942e-001 -1.653651e+000 2.770611e+000 137 44 34
6.382708e-001 -1.657833e+000 2.765805e+000 20 72 96
6.371323e-001 -1.663203e+000 2.776590e+000 159 35 34
6.107213e-001 -1.672595e+000 2.808347e+000 64 72 21
6.325853e-001 -1.678127e+000 2.799130e+000 50 75 46
5.978983e-001 -1.694633e+000 2.844805e+000 130 134 32
6.429446e-001 -1.704401e+000 2.818582e+000 80 89 42
6.250308e-001 -1.736857e+000 2.874707e+000 191 106 87
6.551267e-001 -1.745811e+000 2.852567e+000 70 35 22
6.551267e-001 -1.745811e+000 2.852567e+000 70 35 22
6.322801e-001 -1.742348e+000 2.874454e+000 77 21 14
6.406447e-001 -1.744487e+000 2.870682e+000 76 12 7
6.406447e-001 -1.744487e+000 2.870682e+000 76 12 7
5.991972e-001 -1.758110e+000 2.915719e+000 198 130 98
6.224244e-001 -1.763798e+000 2.905880e+000 205 133 98
6.500514e-001 -1.771921e+000 2.893715e+000 116 27 21
6.500514e-001 -1.771921e+000 2.893715e+000 116 27 21
6.559891e-001 -1.774723e+000 2.889244e+000 92 24 18
6.597173e-001 -1.776373e+000 2.884804e+000 196 136 88
6.681187e-001 -1.780609e+000 2.877768e+000 222 128 100
6.714394e-001 -1.784008e+000 2.878139e+000 214 128 96
6.776830e-001 -1.786826e+000 2.871371e+000 115 25 23
6.890037e-001 -1.792382e+000 2.860131e+000 210 141 97
6.890037e-001 -1.792382e+000 2.860131e+000 210 141 97
6.036926e-001 -1.760014e+000 2.916608e+000 193 147 102
6.033077e-001 -1.760764e+000 2.916488e+000 193 147 102
6.112265e-001 -1.762489e+000 2.913376e+000 219 133 103
6.152945e-001 -1.764227e+000 2.911283e+000 198 133 97
6.206292e-001 -1.764100e+000 2.907749e+000 107 16 23
6.206200e-001 -1.764237e+000 2.907778e+000 107 16 23
6.327456e-001 -1.768512e+000 2.903370e+000 197 134 96
6.418326e-001 -1.770682e+000 2.899105e+000 199 139 113
6.451663e-001 -1.771683e+000 2.897599e+000 202 135 102
6.451729e-001 -1.771707e+000 2.897620e+000 202 135 102
6.485705e-001 -1.772568e+000 2.895680e+000 191 135 88
6.487270e-001 -1.772241e+000 2.895768e+000 191 135 88
6.518290e-001 -1.773618e+000 2.893914e+000 197 131 90
5.769966e-001 -1.768710e+000 2.934973e+000 26 73 108
6.433253e-001 -1.807997e+000 2.938761e+000 167 103 83
6.552067e-001 -1.810806e+000 2.933103e+000 50 15 3
6.471939e-001 -1.814198e+000 2.943580e+000 177 104 76
5.829459e-001 -1.818514e+000 2.985726e+000 140 42 36
6.130866e-001 -1.827024e+000 2.981264e+000 186 113 85
6.247824e-001 -1.822554e+000 2.968998e+000 184 106 79
5.975288e-001 -1.833507e+000 2.993643e+000 181 108 88
6.974766e-001 -1.883355e+000 2.960174e+000 178 115 74
7.020728e-001 -1.906459e+000 2.979420e+000 201 51 57
6.277281e-001 -1.883005e+000 3.030814e+000 223 66 74
6.276755e-001 -1.883214e+000 3.030845e+000 223 66 74
6.474215e-001 -1.882222e+000 3.016647e+000 198 55 66
6.411452e-001 -1.883011e+000 3.022220e+000 128 22 23
6.521225e-001 -1.888565e+000 3.019720e+000 220 70 76
6.072749e-001 -1.886367e+000 3.044994e+000 131 28 31
6.947071e-001 -1.921469e+000 3.006869e+000 218 51 56
6.516015e-001 -1.905455e+000 3.037100e+000 119 26 30
6.535970e-001 -1.907422e+000 3.036040e+000 125 22 29
6.628919e-001 -1.906022e+000 3.029165e+000 128 26 29
6.774999e-001 -1.910741e+000 3.020731e+000 222 70 81
5.920495e-001 -1.645800e+000 2.792287e+000 206 131 88
5.991386e-001 -1.645670e+000 2.787613e+000 192 132 95
6.020969e-001 -1.644640e+000 2.783675e+000 202 133 97
6.308502e-001 -1.655957e+000 2.773202e+000 142 39 30
6.104742e-001 -1.680141e+000 2.819658e+000 77 98 91
6.375700e-001 -1.704798e+000 2.828236e+000 141 139 32
6.833941e-001 -1.749404e+000 2.810217e+000 155 144 104
6.396730e-001 -1.738421e+000 2.864409e+000 92 16 19
6.294766e-001 -1.740090e+000 2.873306e+000 157 136 110
6.294270e-001 -1.740191e+000 2.873154e+000 157 136 110
6.319658e-001 -1.742799e+000 2.877084e+000 157 129 107
5.861621e-001 -1.764019e+000 2.928915e+000 24 68 104
6.133539e-001 -1.813384e+000 2.967347e+000 81 45 37
6.005030e-001 -1.818791e+000 2.979287e+000 67 43 32
6.038361e-001 -1.827187e+000 2.985262e+000 70 36 27
6.192965e-001 -1.828723e+000 2.979452e+000 70 43 36
6.192965e-001 -1.828723e+000 2.979452e+000 70 43 36
6.307766e-001 -1.824357e+000 2.967032e+000 70 41 30
5.762289e-001 -1.834589e+000 2.999291e+000 184 96 86
5.846742e-001 -1.831241e+000 2.995310e+000 179 90 81
6.104931e-001 -1.834305e+000 2.990014e+000 82 43 31
6.299709e-001 -1.844766e+000 2.989356e+000 62 28 13
6.299102e-001 -1.850957e+000 2.996512e+000 42 18 11
6.299102e-001 -1.850957e+000 2.996512e+000 42 18 11
6.350786e-001 -1.846770e+000 2.986645e+000 103 58 39
6.558892e-001 -1.850300e+000 2.976207e+000 176 108 77
6.558166e-001 -1.850482e+000 2.976167e+000 176 108 77
6.143072e-001 -1.853320e+000 3.010411e+000 64 26 25
6.239016e-001 -1.868238e+000 3.021989e+000 186 106 81
6.168147e-001 -1.877411e+000 3.032758e+000 131 22 27
6.195041e-001 -1.878129e+000 3.031699e+000 125 25 30
6.542563e-001 -1.885667e+000 3.016353e+000 131 28 30
6.910433e-001 -1.908956e+000 2.995781e+000 139 23 30
7.009961e-001 -1.911674e+000 2.987786e+000 130 20 29
7.014258e-001 -1.910079e+000 2.987913e+000 130 20 29
7.059572e-001 -1.910027e+000 2.984963e+000 133 23 25
7.134765e-001 -1.920716e+000 2.979444e+000 231 71 76
6.114743e-001 -1.883564e+000 3.039193e+000 127 28 34
6.098610e-001 -1.882795e+000 3.042155e+000 214 73 75
6.098610e-001 -1.882795e+000 3.042155e+000 214 73 75
6.595440e-001 -1.891486e+000 3.018441e+000 126 23 28
6.618800e-001 -1.896532e+000 3.019213e+000 184 38 38
6.884170e-001 -1.916798e+000 3.013606e+000 136 20 29
6.990125e-001 -1.921197e+000 3.003855e+000 212 45 51
6.988767e-001 -1.921642e+000 3.004011e+000 212 45 51
6.232380e-001 -1.898808e+000 3.050303e+000 137 24 33
6.592630e-001 -1.907822e+000 3.033414e+000 136 21 24
6.586695e-001 -1.909380e+000 3.036280e+000 237 77 91
6.623329e-001 -1.910935e+000 3.033986e+000 192 51 56
6.694780e-001 -1.910588e+000 3.027745e+000 126 23 31
6.842676e-001 -1.914059e+000 3.020693e+000 220 83 91
6.219962e-001 -1.912437e+000 3.063576e+000 56 30 16
6.027563e-001 -1.643796e+000 2.781090e+000 164 26 36
6.030834e-001 -1.642993e+000 2.781236e+000 164 26 36
5.943440e-001 -1.647351e+000 2.793604e+000 157 33 33
6.149422e-001 -1.654630e+000 2.785771e+000 188 138 98
6.138986e-001 -1.671790e+000 2.808782e+000 139 143 32
6.138986e-001 -1.671790e+000 2.808782e+000 139 143 32
6.310701e-001 -1.678375e+000 2.802160e+000 146 137 27
6.310701e-001 -1.678375e+000 2.802160e+000 146 137 27
6.352396e-001 -1.687144e+000 2.808515e+000 47 87 85
6.466804e-001 -1.700120e+000 2.809961e+000 57 83 89
6.228146e-001 -1.699701e+000 2.832571e+000 144 136 26
6.254925e-001 -1.740425e+000 2.877987e+000 149 128 106
6.400692e-001 -1.746849e+000 2.873458e+000 159 131 108
6.386136e-001 -1.769242e+000 2.898920e+000 146 19 28
6.039483e-001 -1.769312e+000 2.921489e+000 20 70 96
6.416732e-001 -1.800201e+000 2.932806e+000 72 35 16
6.452515e-001 -1.801995e+000 2.935063e+000 177 106 78
6.944501e-001 -1.838552e+000 2.908848e+000 74 32 19
6.081259e-001 -1.819597e+000 2.976558e+000 144 89 67
6.081259e-001 -1.819597e+000 2.976558e+000 144 89 67
6.951482e-001 -1.881966e+000 2.962309e+000 166 110 74
7.021764e-001 -1.886170e+000 2.957010e+000 70 35 12
6.050072e-001 -1.860888e+000 3.023115e+000 180 110 94
6.084894e-001 -1.862400e+000 3.021904e+000 189 107 86
6.078177e-001 -1.864145e+000 3.021839e+000 189 107 86
6.215263e-001 -1.861707e+000 3.014117e+000 153 92 73
6.532294e-001 -1.870113e+000 2.999121e+000 70 41 21
6.627351e-001 -1.873788e+000 2.995368e+000 68 29 22
7.122797e-001 -1.917889e+000 2.974689e+000 222 74 78
6.645950e-001 -1.887851e+000 3.010400e+000 123 21 28
6.745141e-001 -1.896318e+000 3.009022e+000 138 22 27
6.093493e-001 -1.891565e+000 3.049619e+000 133 24 33
6.088880e-001 -1.892948e+000 3.049656e+000 133 24 33
6.139734e-001 -1.891561e+000 3.048469e+000 131 21 33
6.143633e-001 -1.890011e+000 3.048525e+000 131 21 33
6.171260e-001 -1.890170e+000 3.041849e+000 132 23 32
6.273879e-001 -1.886125e+000 3.033656e+000 129 27 31
6.277791e-001 -1.891522e+000 3.040022e+000 155 23 18
6.397176e-001 -1.914901e+000 3.055940e+000 111 56 43
6.841537e-001 -1.928930e+000 3.031342e+000 70 38 24
5.900042e-001 -1.640508e+000 2.787454e+000 162 28 31
5.957456e-001 -1.641412e+000 2.785163e+000 157 27 25
5.957071e-001 -1.641658e+000 2.785204e+000 157 27 25
6.074845e-001 -1.671397e+000 2.813237e+000 139 129 25
6.099115e-001 -1.764954e+000 2.917025e+000 133 20 26
5.754324e-001 -1.768270e+000 2.938403e+000 153 144 142
6.260715e-001 -1.774307e+000 2.915744e+000 1 30 48
6.320894e-001 -1.775690e+000 2.912867e+000 2 27 45
6.986806e-001 -1.836129e+000 2.895710e+000 176 106 74
