ply
format ascii 1.0
element face 0
property list uchar int vertex_indices
element vertex 896
property float x
property float y
property float z
property uchar diffuse_red
property uchar diffuse_green
property uchar diffuse_blue
end_header
6.274294e-001 -1.899204e+000 2.981534e+000 226 97 101
6.482297e-001 -1.901039e+000 2.972913e+000 159 30 37
6.429972e-001 -1.906680e+000 2.977560e+000 154 32 37
6.497613e-001 -1.902523e+000 2.971832e+000 236 74 82
6.339111e-001 -1.912478e+000 2.992834e+000 230 67 78
6.707448e-001 -1.909454e+000 2.962463e+000 227 66 74
6.707448e-001 -1.909454e+000 2.962463e+000 227 66 74
6.685057e-001 -1.915659e+000 2.970498e+000 143 32 34
6.684098e-001 -1.915822e+000 2.970513e+000 143 32 34
7.044158e-001 -1.925992e+000 2.942692e+000 152 34 40
7.116929e-001 -1.934133e+000 2.937941e+000 231 76 75
6.818349e-001 -1.932930e+000 2.976596e+000 159 28 35
6.955149e-001 -1.940381e+000 2.966517e+000 221 73 75
7.169523e-001 -1.939994e+000 2.941322e+000 165 30 36
6.786913e-001 -1.934381e+000 2.980389e+000 157 32 36
6.789576e-001 -1.933911e+000 2.980347e+000 157 32 36
6.909875e-001 -1.938751e+000 2.972685e+000 148 34 36
6.615816e-001 -1.948715e+000 3.009345e+000 113 72 56
6.780068e-001 -1.953440e+000 3.000663e+000 193 130 111
6.615751e-001 -1.968408e+000 3.027356e+000 101 74 47
7.035947e-001 -1.977224e+000 2.999272e+000 137 79 33
7.044514e-001 -1.981513e+000 3.002273e+000 235 140 74
7.044514e-001 -1.981513e+000 3.002273e+000 235 140 74
5.982492e-001 -1.664683e+000 2.744906e+000 155 47 39
5.986380e-001 -1.664153e+000 2.745010e+000 155 47 39
6.010984e-001 -1.661901e+000 2.740320e+000 185 37 40
6.325117e-001 -1.673580e+000 2.728988e+000 167 39 45
6.325117e-001 -1.673580e+000 2.728988e+000 167 39 45
6.411404e-001 -1.676309e+000 2.721889e+000 201 142 109
6.311087e-001 -1.677982e+000 2.735531e+000 165 41 37
6.525103e-001 -1.692535e+000 2.729240e+000 21 75 88
6.443538e-001 -1.767892e+000 2.828129e+000 181 151 140
6.533638e-001 -1.770849e+000 2.824530e+000 176 158 138
6.308979e-001 -1.793865e+000 2.868985e+000 10 54 89
6.869216e-001 -1.819093e+000 2.837642e+000 15 70 98
6.051917e-001 -1.824661e+000 2.917448e+000 127 82 76
6.051917e-001 -1.824661e+000 2.917448e+000 127 82 76
6.627809e-001 -1.825896e+000 2.878184e+000 196 124 102
6.253637e-001 -1.845615e+000 2.925492e+000 98 59 42
6.177357e-001 -1.848612e+000 2.936064e+000 108 67 52
5.944485e-001 -1.860972e+000 2.952261e+000 205 92 90
6.659512e-001 -1.894538e+000 2.949801e+000 82 41 25
6.660075e-001 -1.894463e+000 2.949842e+000 82 41 25
6.196407e-001 -1.905497e+000 2.993099e+000 217 67 79
6.202524e-001 -1.900495e+000 2.986278e+000 152 45 51
6.342271e-001 -1.909983e+000 2.985673e+000 151 34 41
6.402881e-001 -1.909358e+000 2.984195e+000 148 37 43
6.666312e-001 -1.911088e+000 2.966930e+000 150 31 40
6.917734e-001 -1.917342e+000 2.952532e+000 146 32 39
6.939412e-001 -1.925949e+000 2.951294e+000 221 70 73
7.048019e-001 -1.931003e+000 2.946427e+000 152 31 34
7.119374e-001 -1.929751e+000 2.935938e+000 150 36 36
7.100348e-001 -1.933278e+000 2.941744e+000 147 35 37
7.144305e-001 -1.932243e+000 2.930024e+000 239 71 74
7.160447e-001 -1.935776e+000 2.934582e+000 201 65 57
7.225083e-001 -1.944714e+000 2.932908e+000 214 74 67
7.233005e-001 -1.944051e+000 2.929441e+000 147 37 42
6.381477e-001 -1.923178e+000 3.002121e+000 219 64 76
6.490151e-001 -1.925185e+000 2.995340e+000 153 38 44
6.886378e-001 -1.925361e+000 2.961152e+000 224 65 70
7.055827e-001 -1.940331e+000 2.946194e+000 213 64 63
7.148356e-001 -1.938175e+000 2.940840e+000 210 75 65
7.225877e-001 -1.943981e+000 2.936059e+000 167 29 39
7.012560e-001 -1.944977e+000 2.967326e+000 239 85 88
6.895101e-001 -1.957712e+000 2.994634e+000 128 82 61
6.344366e-001 -1.672194e+000 2.724300e+000 177 27 39
6.453104e-001 -1.727447e+000 2.784370e+000 154 152 43
6.453104e-001 -1.727447e+000 2.784370e+000 154 152 43
6.709531e-001 -1.742647e+000 2.765489e+000 74 109 97
6.709457e-001 -1.742814e+000 2.765574e+000 74 109 97
6.971333e-001 -1.770623e+000 2.759523e+000 88 87 66
6.972265e-001 -1.770427e+000 2.759551e+000 88 87 66
6.545987e-001 -1.824671e+000 2.883625e+000 78 42 30
6.545898e-001 -1.824665e+000 2.883657e+000 78 42 30
6.652120e-001 -1.845553e+000 2.896830e+000 204 129 110
6.580475e-001 -1.845202e+000 2.903232e+000 173 118 93
7.087272e-001 -1.869756e+000 2.866809e+000 101 55 41
7.082844e-001 -1.870710e+000 2.866913e+000 101 55 41
6.227800e-001 -1.852985e+000 2.941849e+000 137 90 77
6.227800e-001 -1.852985e+000 2.941849e+000 137 90 77
6.306247e-001 -1.855942e+000 2.938355e+000 103 57 39
6.630038e-001 -1.857712e+000 2.913035e+000 200 131 106
6.648518e-001 -1.864121e+000 2.919701e+000 199 132 105
7.120720e-001 -1.890938e+000 2.887309e+000 113 70 47
7.120069e-001 -1.899393e+000 2.894633e+000 106 76 56
6.403306e-001 -1.873674e+000 2.948952e+000 96 59 45
6.403306e-001 -1.873674e+000 2.948952e+000 96 59 45
6.759212e-001 -1.885700e+000 2.931479e+000 92 49 36
6.760339e-001 -1.885550e+000 2.931474e+000 92 49 36
6.083442e-001 -1.895298e+000 2.987451e+000 187 152 125
6.236066e-001 -1.885290e+000 2.968397e+000 119 71 57
6.343339e-001 -1.885716e+000 2.964651e+000 141 92 78
6.657235e-001 -1.886325e+000 2.943371e+000 167 114 96
7.075192e-001 -1.907542e+000 2.913254e+000 163 119 86
7.145033e-001 -1.912456e+000 2.907978e+000 90 59 41
7.161390e-001 -1.918398e+000 2.914227e+000 82 54 38
7.083100e-001 -1.921778e+000 2.929256e+000 198 142 100
6.246116e-001 -1.917822e+000 2.998894e+000 159 34 48
6.630749e-001 -1.908518e+000 2.967775e+000 153 32 36
6.819865e-001 -1.919315e+000 2.961201e+000 216 75 73
6.303767e-001 -1.926475e+000 3.007645e+000 151 36 43
7.049126e-001 -1.943532e+000 2.959503e+000 227 79 80
7.049126e-001 -1.943532e+000 2.959503e+000 227 79 80
7.273431e-001 -1.957391e+000 2.940219e+000 233 69 78
6.466884e-001 -1.937607e+000 3.008343e+000 140 90 77
6.466928e-001 -1.937628e+000 3.008369e+000 140 90 77
6.636252e-001 -1.942184e+000 3.000919e+000 123 66 55
6.457049e-001 -1.940198e+000 3.013359e+000 199 133 108
6.672245e-001 -1.950226e+000 3.006180e+000 100 60 45
6.776938e-001 -1.946044e+000 2.993900e+000 106 63 43
6.775791e-001 -1.946173e+000 2.993883e+000 106 63 43
6.932384e-001 -1.964413e+000 2.998990e+000 189 89 50
6.465461e-001 -1.974787e+000 3.047200e+000 148 118 97
6.236179e-001 -1.677912e+000 2.741908e+000 181 39 45
6.574038e-001 -1.710755e+000 2.746038e+000 158 152 22
6.156663e-001 -1.715731e+000 2.797381e+000 146 148 55
6.156663e-001 -1.715731e+000 2.797381e+000 146 148 55
6.569391e-001 -1.731309e+000 2.772739e+000 160 159 23
6.569391e-001 -1.731309e+000 2.772739e+000 160 159 23
6.382816e-001 -1.768088e+000 2.834598e+000 157 133 123
6.450642e-001 -1.792709e+000 2.858553e+000 165 25 38
6.579546e-001 -1.796984e+000 2.852418e+000 160 29 34
6.578596e-001 -1.804417e+000 2.857551e+000 5 54 83
6.678871e-001 -1.801168e+000 2.845918e+000 169 26 40
6.703097e-001 -1.830840e+000 2.880523e+000 201 130 105
6.724530e-001 -1.836564e+000 2.881062e+000 190 129 100
6.092056e-001 -1.832579e+000 2.919541e+000 200 136 118
6.092056e-001 -1.832579e+000 2.919541e+000 200 136 118
6.126393e-001 -1.839203e+000 2.926314e+000 199 134 116
6.137512e-001 -1.834040e+000 2.918195e+000 198 134 116
6.137512e-001 -1.834040e+000 2.918195e+000 198 134 116
6.192151e-001 -1.832429e+000 2.916526e+000 201 134 118
6.205794e-001 -1.830289e+000 2.916672e+000 201 134 118
6.589377e-001 -1.836839e+000 2.891956e+000 199 134 106
7.002073e-001 -1.858478e+000 2.865381e+000 176 114 90
7.042952e-001 -1.860979e+000 2.857169e+000 203 127 99
7.053854e-001 -1.868206e+000 2.864228e+000 200 131 101
6.597528e-001 -1.851987e+000 2.909878e+000 141 98 77
6.228962e-001 -1.863584e+000 2.943768e+000 199 134 109
6.607833e-001 -1.859679e+000 2.916568e+000 117 68 55
6.623898e-001 -1.866311e+000 2.923251e+000 89 51 37
6.171475e-001 -1.873379e+000 2.964247e+000 140 92 85
6.197998e-001 -1.882515e+000 2.966167e+000 198 136 115
6.207102e-001 -1.881121e+000 2.966090e+000 198 136 115
6.650926e-001 -1.878224e+000 2.932343e+000 197 133 108
6.653238e-001 -1.877566e+000 2.932428e+000 197 133 108
6.649271e-001 -1.881426e+000 2.936312e+000 160 106 87
6.649271e-001 -1.881426e+000 2.936312e+000 160 106 87
6.667996e-001 -1.886191e+000 2.938876e+000 197 133 107
7.120268e-001 -1.907277e+000 2.905771e+000 201 143 106
6.750522e-001 -1.909747e+000 2.956879e+000 162 25 38
7.046482e-001 -1.924580e+000 2.940617e+000 157 32 38
6.498248e-001 -1.939541e+000 3.010380e+000 202 132 107
6.497024e-001 -1.939882e+000 3.010527e+000 202 132 107
6.968981e-001 -1.953914e+000 2.981745e+000 76 36 9
6.708845e-001 -1.712583e+000 2.732500e+000 99 113 36
6.282665e-001 -1.716089e+000 2.780588e+000 137 141 30
6.497226e-001 -1.767087e+000 2.823541e+000 170 160 145
6.225256e-001 -1.781445e+000 2.858392e+000 171 27 42
6.405880e-001 -1.783525e+000 2.851674e+000 172 26 37
6.597179e-001 -1.791411e+000 2.841560e+000 171 30 39
6.851114e-001 -1.806030e+000 2.821198e+000 167 24 38
6.064331e-001 -1.859379e+000 2.949791e+000 207 138 123
6.121584e-001 -1.895552e+000 2.984307e+000 164 28 43
6.615954e-001 -1.905660e+000 2.963564e+000 166 23 35
6.087154e-001 -1.709656e+000 2.788360e+000 118 144 118
6.182853e-001 -1.730088e+000 2.803271e+000 29 59 32
6.714007e-001 -1.773751e+000 2.805697e+000 162 153 137
6.585913e-001 -1.922890e+000 2.982504e+000 174 21 39
6.585913e-001 -1.922890e+000 2.982504e+000 174 21 39
7.068835e-001 -1.941136e+000 2.952199e+000 176 23 37
7.068835e-001 -1.941136e+000 2.952199e+000 176 23 37
6.018348e-001 -1.681737e+000 2.769897e+000 127 141 143
6.038221e-001 -1.695227e+000 2.782329e+000 131 145 134
6.038221e-001 -1.695227e+000 2.782329e+000 131 145 134
6.822932e-001 -1.757435e+000 2.763668e+000 98 123 115
6.822932e-001 -1.757435e+000 2.763668e+000 98 123 115
5.770279e-001 -1.860346e+000 2.949502e+000 192 104 102
6.616357e-001 -1.899447e+000 2.957845e+000 199 132 106
6.804606e-001 -1.933676e+000 2.971203e+000 172 27 34
7.310000e-001 -1.961923e+000 2.942502e+000 177 27 39
6.996506e-001 -1.968043e+000 2.993455e+000 193 144 101
6.540902e-001 -1.727595e+000 2.768093e+000 62 106 117
6.127521e-001 -1.725958e+000 2.807748e+000 25 62 31
6.198788e-001 -1.734933e+000 2.810288e+000 154 154 144
6.974536e-001 -1.753952e+000 2.736885e+000 52 97 120
6.438580e-001 -1.876977e+000 2.951231e+000 201 131 110
6.490925e-001 -1.860421e+000 2.925867e+000 194 133 105
6.704565e-001 -1.883108e+000 2.932259e+000 125 82 67
5.861924e-001 -1.866530e+000 2.943952e+000 184 102 90
7.358129e-001 -1.985316e+000 2.926559e+000 184 136 64
7.083603e-001 -1.951215e+000 2.943537e+000 163 35 35
5.536924e-001 -1.673636e+000 2.758967e+000 167 166 164
7.330223e-001 -1.910537e+000 2.881446e+000 179 140 97
5.899356e-001 -1.660125e+000 2.743776e+000 159 27 32
5.899356e-001 -1.660125e+000 2.743776e+000 159 27 32
6.504383e-001 -1.676012e+000 2.711691e+000 17 71 97
6.098491e-001 -1.671320e+000 2.743022e+000 203 130 94
6.202430e-001 -1.673252e+000 2.738808e+000 205 131 94
6.200556e-001 -1.673606e+000 2.738641e+000 205 131 94
6.437376e-001 -1.677456e+000 2.722346e+000 137 44 34
6.518212e-001 -1.681615e+000 2.717576e+000 20 72 96
6.506493e-001 -1.686987e+000 2.728311e+000 159 35 34
6.241554e-001 -1.696549e+000 2.759829e+000 64 72 21
6.460236e-001 -1.701992e+000 2.750725e+000 50 75 46
6.112158e-001 -1.718729e+000 2.796062e+000 130 134 32
6.563038e-001 -1.728295e+000 2.770093e+000 80 89 42
6.382031e-001 -1.760960e+000 2.825886e+000 191 106 87
6.683592e-001 -1.769758e+000 2.803921e+000 70 35 22
6.683592e-001 -1.769758e+000 2.803921e+000 70 35 22
6.454468e-001 -1.766432e+000 2.825649e+000 77 21 14
6.538188e-001 -1.768525e+000 2.821925e+000 76 12 7
6.538188e-001 -1.768525e+000 2.821925e+000 76 12 7
6.122475e-001 -1.782418e+000 2.866596e+000 198 130 98
6.354875e-001 -1.788007e+000 2.856884e+000 205 133 98
6.631305e-001 -1.796015e+000 2.844861e+000 116 27 21
6.631305e-001 -1.796015e+000 2.844861e+000 116 27 21
6.690836e-001 -1.798784e+000 2.840421e+000 92 24 18
6.728310e-001 -1.800417e+000 2.836002e+000 196 136 88
6.812540e-001 -1.804603e+000 2.829013e+000 222 128 100
6.845717e-001 -1.807994e+000 2.829388e+000 214 128 96
6.908492e-001 -1.810756e+000 2.822665e+000 115 25 23
7.022113e-001 -1.816252e+000 2.811490e+000 210 141 97
7.022113e-001 -1.816252e+000 2.811490e+000 210 141 97
6.167288e-001 -1.784327e+000 2.867502e+000 193 147 102
6.163492e-001 -1.785070e+000 2.867378e+000 193 147 102
6.242686e-001 -1.786766e+000 2.864309e+000 219 133 103
6.283465e-001 -1.788469e+000 2.862236e+000 198 133 97
6.336851e-001 -1.788327e+000 2.858738e+000 107 16 23
6.336794e-001 -1.788452e+000 2.858766e+000 107 16 23
6.458100e-001 -1.792678e+000 2.854418e+000 197 134 96
6.549040e-001 -1.794808e+000 2.850203e+000 199 139 113
6.582410e-001 -1.795791e+000 2.848714e+000 202 135 102
6.582476e-001 -1.795816e+000 2.848736e+000 202 135 102
6.616496e-001 -1.796660e+000 2.846814e+000 191 135 88
6.617996e-001 -1.796344e+000 2.846902e+000 191 135 88
6.649068e-001 -1.797706e+000 2.845062e+000 197 131 90
5.900110e-001 -1.793156e+000 2.885663e+000 26 73 108
6.562508e-001 -1.832261e+000 2.889657e+000 167 103 83
6.681487e-001 -1.835005e+000 2.884067e+000 50 15 3
6.600976e-001 -1.838469e+000 2.894466e+000 177 104 76
5.957539e-001 -1.843142e+000 2.936175e+000 140 42 36
6.258912e-001 -1.851509e+000 2.931858e+000 186 113 85
6.376160e-001 -1.846973e+000 2.919690e+000 184 106 79
6.103054e-001 -1.858083e+000 2.944107e+000 181 108 88
7.103052e-001 -1.907622e+000 2.911057e+000 178 115 74
7.148387e-001 -1.930797e+000 2.930219e+000 201 51 57
6.403381e-001 -1.907658e+000 2.981216e+000 223 66 74
6.402882e-001 -1.907860e+000 2.981246e+000 223 66 74
6.600735e-001 -1.906757e+000 2.967180e+000 198 55 66
6.537788e-001 -1.907587e+000 2.972708e+000 128 22 23
6.647557e-001 -1.913116e+000 2.970253e+000 220 70 76
6.198508e-001 -1.911134e+000 2.995252e+000 131 28 31
7.073784e-001 -1.945915e+000 2.957538e+000 218 51 56
6.641816e-001 -1.930061e+000 2.987546e+000 119 26 30
6.661832e-001 -1.932015e+000 2.986492e+000 125 22 29
6.754970e-001 -1.930559e+000 2.979683e+000 128 26 29
6.901289e-001 -1.935224e+000 2.971323e+000 222 70 81
6.055633e-001 -1.669772e+000 2.743807e+000 206 131 88
6.126581e-001 -1.669606e+000 2.739179e+000 192 132 95
6.156242e-001 -1.668563e+000 2.735265e+000 202 133 97
6.443882e-001 -1.679748e+000 2.724926e+000 142 39 30
6.238665e-001 -1.704128e+000 2.771089e+000 77 98 91
6.508981e-001 -1.728721e+000 2.779698e+000 141 139 32
6.967722e-001 -1.773172e+000 2.761792e+000 155 144 104
6.528686e-001 -1.762448e+000 2.815682e+000 92 16 19
6.426523e-001 -1.764172e+000 2.824500e+000 157 136 110
6.425925e-001 -1.764307e+000 2.824339e+000 157 136 110
6.451170e-001 -1.766900e+000 2.828270e+000 157 129 107
5.991857e-001 -1.788410e+000 2.879680e+000 24 68 104
6.261997e-001 -1.837835e+000 2.918011e+000 81 45 37
6.133306e-001 -1.843298e+000 2.929846e+000 67 43 32
6.166370e-001 -1.851707e+000 2.935797e+000 70 36 27
6.321004e-001 -1.853189e+000 2.930077e+000 70 43 36
6.321004e-001 -1.853189e+000 2.930077e+000 70 43 36
6.436157e-001 -1.848746e+000 2.917755e+000 70 41 30
5.890309e-001 -1.859198e+000 2.949635e+000 184 96 86
5.974802e-001 -1.855808e+000 2.945721e+000 179 90 81
6.232625e-001 -1.858847e+000 2.940552e+000 82 43 31
6.427341e-001 -1.869230e+000 2.939967e+000 62 28 13
6.426400e-001 -1.875468e+000 2.947088e+000 42 18 11
6.426400e-001 -1.875468e+000 2.947088e+000 42 18 11
6.478500e-001 -1.871216e+000 2.937284e+000 103 58 39
6.686805e-001 -1.874650e+000 2.926962e+000 176 108 77
6.685999e-001 -1.874852e+000 2.926918e+000 176 108 77
6.269972e-001 -1.877926e+000 2.960874e+000 64 26 25
6.365406e-001 -1.892859e+000 2.972435e+000 186 106 81
6.294247e-001 -1.902097e+000 2.983117e+000 131 22 27
6.321125e-001 -1.902815e+000 2.982071e+000 125 25 30
6.669027e-001 -1.910188e+000 2.966911e+000 131 28 30
7.037534e-001 -1.933364e+000 2.946489e+000 139 23 30
7.137512e-001 -1.935974e+000 2.938556e+000 130 20 29
7.141773e-001 -1.934381e+000 2.938691e+000 130 20 29
7.187157e-001 -1.934304e+000 2.935769e+000 133 23 25
7.262483e-001 -1.945021e+000 2.930258e+000 231 71 76
6.240885e-001 -1.908222e+000 2.989494e+000 127 28 34
6.224453e-001 -1.907531e+000 2.992445e+000 214 73 75
6.224453e-001 -1.907531e+000 2.992445e+000 214 73 75
6.721754e-001 -1.916015e+000 2.969005e+000 126 23 28
6.745169e-001 -1.921049e+000 2.969771e+000 184 38 38
7.010597e-001 -1.941270e+000 2.964248e+000 136 20 29
7.117071e-001 -1.945579e+000 2.954553e+000 212 45 51
7.115604e-001 -1.946045e+000 2.954707e+000 212 45 51
6.357845e-001 -1.923542e+000 3.000599e+000 137 24 33
6.718466e-001 -1.932412e+000 2.983900e+000 136 21 24
6.712581e-001 -1.933940e+000 2.986754e+000 237 77 91
6.749221e-001 -1.935494e+000 2.984477e+000 192 51 56
6.820921e-001 -1.935100e+000 2.978288e+000 126 23 31
6.968936e-001 -1.938512e+000 2.971311e+000 220 83 91
6.345226e-001 -1.937127e+000 3.013803e+000 56 30 16
6.162936e-001 -1.667706e+000 2.732692e+000 164 26 36
6.166340e-001 -1.666879e+000 2.732855e+000 164 26 36
6.078493e-001 -1.671315e+000 2.745126e+000 157 33 33
6.284452e-001 -1.678520e+000 2.737386e+000 188 138 98
6.273283e-001 -1.695726e+000 2.760287e+000 139 143 32
6.273283e-001 -1.695726e+000 2.760287e+000 139 143 32
6.445016e-001 -1.702243e+000 2.753742e+000 146 137 27
6.445016e-001 -1.702243e+000 2.753742e+000 146 137 27
6.486401e-001 -1.711026e+000 2.760071e+000 47 87 85
6.600648e-001 -1.723981e+000 2.761521e+000 57 83 89
6.361295e-001 -1.723716e+000 2.783949e+000 144 136 26
6.386526e-001 -1.764539e+000 2.829147e+000 149 128 106
6.532328e-001 -1.770902e+000 2.824683e+000 159 131 108
6.516752e-001 -1.793415e+000 2.850003e+000 146 19 28
6.169749e-001 -1.793639e+000 2.872344e+000 20 70 96
6.546230e-001 -1.824449e+000 2.883738e+000 72 35 16
6.581824e-001 -1.826240e+000 2.885996e+000 177 106 78
7.074694e-001 -1.862607e+000 2.859964e+000 74 32 19
6.209568e-001 -1.844072e+000 2.927160e+000 144 89 67
6.209568e-001 -1.844072e+000 2.927160e+000 144 89 67
7.079862e-001 -1.906208e+000 2.913186e+000 166 110 74
7.150395e-001 -1.910345e+000 2.907924e+000 70 35 12
6.176564e-001 -1.885576e+000 2.973481e+000 180 110 94
6.211462e-001 -1.887065e+000 2.972286e+000 189 107 86
6.204716e-001 -1.888830e+000 2.972210e+000 189 107 86
6.341989e-001 -1.886306e+000 2.964583e+000 153 92 73
6.659414e-001 -1.894559e+000 2.949755e+000 70 41 21
6.754551e-001 -1.898198e+000 2.946047e+000 68 29 22
7.250747e-001 -1.942167e+000 2.925514e+000 222 74 78
6.772619e-001 -1.912313e+000 2.961016e+000 123 21 28
6.871841e-001 -1.920751e+000 2.959666e+000 138 22 27
6.219058e-001 -1.916343e+000 2.999865e+000 133 24 33
6.214681e-001 -1.917664e+000 2.999894e+000 133 24 33
6.265253e-001 -1.916333e+000 2.998742e+000 131 21 33
6.269150e-001 -1.914769e+000 2.998805e+000 131 21 33
6.297306e-001 -1.914829e+000 2.992154e+000 132 23 32
6.399928e-001 -1.910779e+000 2.984042e+000 129 27 31
6.403584e-001 -1.916204e+000 2.990383e+000 155 23 18
6.522342e-001 -1.939617e+000 3.006263e+000 111 56 43
6.967373e-001 -1.953475e+000 2.981893e+000 70 38 24
6.035381e-001 -1.664469e+000 2.738991e+000 162 28 31
6.092789e-001 -1.665351e+000 2.736733e+000 157 27 25
6.092370e-001 -1.665598e+000 2.736766e+000 157 27 25
6.209065e-001 -1.695364e+000 2.764701e+000 139 129 25
6.229426e-001 -1.789241e+000 2.867933e+000 133 20 26
5.884131e-001 -1.792766e+000 2.889069e+000 153 144 142
6.390952e-001 -1.798535e+000 2.866710e+000 1 30 48
6.451189e-001 -1.799892e+000 2.863867e+000 2 27 45
7.117514e-001 -1.860131e+000 2.846883e+000 176 106 74
6.685562e-001 -1.833099e+000 2.880329e+000 177 110 73
6.685562e-001 -1.833099e+000 2.880329e+000 177 110 73
6.636233e-001 -1.838116e+000 2.889321e+000 180 107 74
7.049596e-001 -1.875372e+000 2.877287e+000 151 78 52
7.050059e-001 -1.878454e+000 2.881601e+000 182 109 81
7.054262e-001 -1.875882e+000 2.881722e+000 182 109 81
5.989486e-001 -1.851475e+000 2.942651e+000 144 35 38
6.608021e-001 -1.859509e+000 2.916550e+000 130 74 59
7.066318e-001 -1.881230e+000 2.888843e+000 181 114 77
7.092506e-001 -1.894831e+000 2.891946e+000 181 119 75
6.626677e-001 -1.864408e+000 2.919465e+000 178 103 82
6.639677e-001 -1.871646e+000 2.925459e+000 175 109 70
6.675588e-001 -1.873132e+000 2.924074e+000 175 108 77
7.135738e-001 -1.904237e+000 2.901301e+000 109 61 32
6.173126e-001 -1.870958e+000 2.952626e+000 177 110 88
6.226738e-001 -1.869976e+000 2.951186e+000 175 110 85
6.226738e-001 -1.869976e+000 2.951186e+000 175 110 85
6.296171e-001 -1.867296e+000 2.948751e+000 177 110 82
6.374620e-001 -1.868033e+000 2.941676e+000 115 58 39
6.738428e-001 -1.879681e+000 2.928855e+000 181 109 77
7.087847e-001 -1.905463e+000 2.908350e+000 183 120 73
6.202679e-001 -1.874827e+000 2.959205e+000 182 104 89
6.202679e-001 -1.874827e+000 2.959205e+000 182 104 89
6.348725e-001 -1.882605e+000 2.960891e+000 178 108 87
6.348725e-001 -1.882605e+000 2.960891e+000 178 108 87
6.426019e-001 -1.879761e+000 2.950308e+000 177 109 83
6.426019e-001 -1.879761e+000 2.950308e+000 177 109 83
6.709925e-001 -1.894444e+000 2.944005e+000 175 109 77
6.709925e-001 -1.894444e+000 2.944005e+000 175 109 77
6.281091e-001 -1.898061e+000 2.977944e+000 146 17 37
6.469443e-001 -1.905562e+000 2.975716e+000 137 23 37
6.469443e-001 -1.905562e+000 2.975716e+000 137 23 37
6.438300e-001 -1.914443e+000 2.987247e+000 140 22 28
6.332975e-001 -1.719446e+000 2.782743e+000 22 51 9
6.309396e-001 -1.782520e+000 2.854637e+000 141 18 19
6.617128e-001 -1.797545e+000 2.850440e+000 127 22 26
5.883419e-001 -1.826407e+000 2.919892e+000 159 47 45
6.613863e-001 -1.841483e+000 2.898331e+000 175 107 81
6.690260e-001 -1.880917e+000 2.930230e+000 178 109 78
6.112575e-001 -1.892298e+000 2.979097e+000 180 113 96
6.787705e-001 -1.945217e+000 2.988724e+000 182 107 77
6.245392e-001 -1.697526e+000 2.759592e+000 92 89 18
6.313487e-001 -1.698827e+000 2.760372e+000 24 46 21
6.016563e-001 -1.709731e+000 2.793057e+000 129 124 42
6.087289e-001 -1.709591e+000 2.788403e+000 118 121 43
6.635292e-001 -1.736993e+000 2.774166e+000 29 46 24
6.181692e-001 -1.698468e+000 2.770029e+000 22 47 25
6.023751e-001 -1.837488e+000 2.928532e+000 179 111 92
6.089552e-001 -1.872278e+000 2.960225e+000 178 111 92
6.894108e-001 -1.933892e+000 2.965143e+000 154 15 31
6.118541e-001 -1.822668e+000 2.908534e+000 176 108 87
6.541046e-001 -1.851617e+000 2.915867e+000 175 106 73
5.844669e-001 -1.652280e+000 2.743237e+000 127 126 111
7.251940e-001 -1.957550e+000 2.940926e+000 169 26 31
7.251940e-001 -1.957550e+000 2.940926e+000 169 26 31
6.515821e-001 -1.897970e+000 2.957106e+000 177 109 74
6.811200e-001 -1.791485e+000 2.814089e+000 159 141 105
6.741587e-001 -1.754385e+000 2.762089e+000 24 47 19
6.105224e-001 -1.795868e+000 2.879971e+000 23 66 93
6.955440e-001 -1.834968e+000 2.827334e+000 71 117 139
6.461190e-001 -1.768897e+000 2.818869e+000 114 30 32
6.532721e-001 -1.688451e+000 2.724687e+000 37 68 44
6.547919e-001 -1.701307e+000 2.738284e+000 34 72 45
6.215820e-001 -1.707063e+000 2.770011e+000 83 106 78
6.456609e-001 -1.790142e+000 2.852029e+000 200 139 107
6.491874e-001 -1.793860e+000 2.852673e+000 218 125 98
7.138221e-001 -1.840522e+000 2.816497e+000 45 74 82
6.764858e-001 -1.827358e+000 2.857854e+000 8 49 71
6.597630e-001 -1.839249e+000 2.894471e+000 177 112 84
6.471467e-001 -1.871875e+000 2.939742e+000 182 110 82
6.212898e-001 -1.916185e+000 3.003146e+000 216 59 71
6.474654e-001 -1.676411e+000 2.715892e+000 160 34 32
6.683660e-001 -1.721438e+000 2.746375e+000 139 139 42
6.465376e-001 -1.762562e+000 2.820081e+000 169 139 112
6.550162e-001 -1.764499e+000 2.816219e+000 180 137 111
6.272243e-001 -1.877535e+000 2.960877e+000 87 49 45
6.379670e-001 -1.901925e+000 2.977176e+000 181 80 68
6.378935e-001 -1.902045e+000 2.977180e+000 181 80 68
7.003539e-001 -1.927698e+000 2.944204e+000 128 30 31
6.786674e-001 -1.914014e+000 2.960883e+000 133 24 29
6.262938e-001 -1.919415e+000 3.001748e+000 199 60 71
6.277110e-001 -1.916650e+000 3.001537e+000 199 60 71
6.501049e-001 -1.680135e+000 2.717332e+000 173 145 116
6.495489e-001 -1.704326e+000 2.747864e+000 145 141 33
6.210640e-001 -1.704189e+000 2.770980e+000 142 132 24
6.210640e-001 -1.704189e+000 2.770980e+000 142 132 24
6.764833e-001 -1.902241e+000 2.948682e+000 187 111 91
7.156417e-001 -1.919517e+000 2.914386e+000 87 49 30
6.260479e-001 -1.903637e+000 2.989353e+000 134 28 36
7.017313e-001 -1.932897e+000 2.948374e+000 140 26 30
6.359313e-001 -1.913938e+000 2.995893e+000 138 24 32
6.418523e-001 -1.687182e+000 2.595911e+000 207 174 131
6.117953e-001 -1.786620e+000 2.871791e+000 145 20 36
6.234487e-001 -1.836666e+000 2.914337e+000 182 113 90
6.579484e-001 -1.739670e+000 2.792672e+000 27 50 23
6.579484e-001 -1.739670e+000 2.792672e+000 27 50 23
6.308621e-001 -1.786604e+000 2.859494e+000 192 117 90
6.172042e-001 -1.913988e+000 3.002639e+000 151 21 31
6.124463e-001 -1.685079e+000 2.751199e+000 40 88 107
6.003015e-001 -1.891707e+000 2.979943e+000 115 24 39
7.088185e-001 -1.906759e+000 2.929291e+000 187 125 84
5.820433e-001 -1.908741e+000 2.991084e+000 186 147 135
6.789827e-001 -1.907908e+000 2.956296e+000 154 25 27
7.176387e-001 -2.012879e+000 3.027695e+000 183 150 124
7.280675e-001 -2.021128e+000 3.020232e+000 23 14 7
7.445340e-001 -2.052091e+000 3.027847e+000 48 16 2
7.064887e-001 -1.989243e+000 3.018570e+000 169 75 39
8.484896e-001 -1.282640e+000 3.220499e+000 73 53 44
8.251286e-001 -1.342564e+000 3.292711e+000 71 60 54
8.687128e-001 -1.198991e+000 3.152678e+000 159 108 85
8.617297e-001 -1.321655e+000 3.226301e+000 39 34 41
8.444873e-001 -1.291771e+000 3.235212e+000 23 12 18
8.294617e-001 -1.315292e+000 3.277108e+000 20 10 18
7.124403e-001 -2.012302e+000 3.039112e+000 164 92 47
6.551639e-001 -1.947216e+000 3.012630e+000 71 41 24
6.621489e-001 -1.947620e+000 3.009194e+000 113 72 56
6.540750e-001 -1.959744e+000 3.025854e+000 175 136 105
6.667865e-001 -1.964652e+000 3.020581e+000 135 102 74
6.440119e-001 -1.973696e+000 3.046014e+000 164 129 98
6.517784e-001 -1.976374e+000 3.042483e+000 168 129 99
6.573823e-001 -1.967134e+000 3.031729e+000 165 128 100
7.078319e-001 -1.981109e+000 2.998010e+000 189 109 52
7.059027e-001 -1.982313e+000 3.000791e+000 100 48 18
6.459044e-001 -1.979110e+000 3.049954e+000 170 130 105
6.575470e-001 -1.976695e+000 3.039762e+000 173 131 100
6.560968e-001 -1.978753e+000 3.045175e+000 172 132 102
6.820104e-001 -1.978620e+000 3.025936e+000 143 103 68
6.835856e-001 -1.984206e+000 3.027002e+000 184 126 88
6.872389e-001 -1.982531e+000 3.020319e+000 193 94 41
6.842273e-001 -1.986396e+000 3.028699e+000 188 130 87
6.857294e-001 -1.990516e+000 3.030441e+000 187 117 64
6.947719e-001 -1.984625e+000 3.015790e+000 192 78 42
6.941192e-001 -1.987481e+000 3.020434e+000 180 79 37
7.080184e-001 -1.988686e+000 3.006898e+000 185 74 37
6.688097e-001 -1.994081e+000 3.049017e+000 28 19 14
6.689270e-001 -1.993828e+000 3.048889e+000 28 19 14
7.248632e-001 -2.008286e+000 3.005669e+000 123 52 17
7.138019e-001 -2.017902e+000 3.030001e+000 32 22 17
7.135151e-001 -2.018488e+000 3.030088e+000 32 22 17
7.289263e-001 -2.022890e+000 3.018300e+000 191 149 122
7.397484e-001 -2.032827e+000 3.005021e+000 183 155 127
7.401337e-001 -2.036243e+000 3.011189e+000 178 141 114
6.401476e-001 -2.014642e+000 3.090606e+000 137 95 93
6.511402e-001 -2.014210e+000 3.079343e+000 33 23 16
6.511402e-001 -2.014210e+000 3.079343e+000 33 23 16
6.541125e-001 -2.017915e+000 3.081324e+000 153 124 113
6.625194e-001 -2.020867e+000 3.075409e+000 155 127 111
6.789132e-001 -2.022846e+000 3.064506e+000 32 22 13
6.939345e-001 -2.029072e+000 3.058441e+000 170 139 118
7.139952e-001 -2.022765e+000 3.034453e+000 38 23 15
7.138572e-001 -2.031225e+000 3.040301e+000 177 107 40
7.163077e-001 -2.024650e+000 3.033703e+000 190 156 131
7.163157e-001 -2.024765e+000 3.033720e+000 190 156 131
7.144644e-001 -2.033955e+000 3.042576e+000 174 104 38
7.269433e-001 -2.029877e+000 3.025111e+000 33 22 14
7.292069e-001 -2.032799e+000 3.030237e+000 175 93 34
7.129515e-001 -2.043401e+000 3.052662e+000 43 16 0
7.193731e-001 -2.044125e+000 3.046887e+000 157 84 30
7.282509e-001 -2.051158e+000 3.043083e+000 47 22 13
7.401125e-001 -2.055500e+000 3.036002e+000 43 22 10
6.604008e-001 -1.972976e+000 3.034484e+000 168 130 99
6.663330e-001 -1.967608e+000 3.023440e+000 168 130 93
6.724040e-001 -1.971137e+000 3.024292e+000 177 133 98
7.212664e-001 -1.991046e+000 2.989508e+000 187 54 39
6.563668e-001 -1.978442e+000 3.042695e+000 109 82 63
6.820304e-001 -1.985409e+000 3.029936e+000 97 66 41
6.814935e-001 -1.988341e+000 3.032751e+000 190 138 98
6.924171e-001 -1.982084e+000 3.015591e+000 138 50 28
6.973082e-001 -1.990198e+000 3.018383e+000 192 85 41
6.783058e-001 -2.025612e+000 3.069124e+000 171 138 119
7.340933e-001 -2.053479e+000 3.039484e+000 46 15 3
7.143398e-001 -1.970512e+000 2.976616e+000 88 57 39
6.390133e-001 -1.978597e+000 3.049514e+000 82 61 42
7.480055e-001 -2.017768e+000 2.966972e+000 151 60 52
6.803197e-001 -1.996002e+000 3.041117e+000 194 156 115
7.247402e-001 -2.036107e+000 3.035090e+000 164 91 30
7.314951e-001 -2.049297e+000 3.039617e+000 158 87 43
6.787949e-001 -1.955117e+000 3.003926e+000 201 132 103
7.339935e-001 -2.028551e+000 3.018666e+000 37 19 13
7.248750e-001 -2.046272e+000 3.043443e+000 171 96 29
7.413573e-001 -2.005029e+000 2.976644e+000 188 97 27
6.187406e-001 -2.010102e+000 3.091770e+000 190 166 156
7.033328e-001 -2.034705e+000 3.053566e+000 184 150 124
7.433363e-001 -2.024078e+000 2.956293e+000 175 134 88
7.393719e-001 -2.046996e+000 2.981773e+000 185 107 25
4.946268e-001 -1.712347e+000 2.638642e+000 216 197 173
7.624172e-001 -2.057688e+000 2.925071e+000 35 24 30
6.398732e-001 -2.014630e+000 2.983108e+000 160 32 40
6.165887e-001 -1.673373e+000 2.739742e+000 202 129 92
6.437234e-001 -1.677413e+000 2.722308e+000 137 44 34
6.199570e-001 -1.676943e+000 2.741394e+000 238 112 92
6.464016e-001 -1.685963e+000 2.727313e+000 231 116 93
6.465854e-001 -1.685434e+000 2.727484e+000 231 116 93
6.523471e-001 -1.694187e+000 2.727844e+000 37 66 36
6.464407e-001 -1.700632e+000 2.751562e+000 50 75 46
6.679230e-001 -1.721837e+000 2.746470e+000 133 132 32
6.678769e-001 -1.722015e+000 2.746412e+000 133 132 32
6.416358e-001 -1.766463e+000 2.827075e+000 78 36 27
6.416358e-001 -1.766463e+000 2.827075e+000 78 36 27
6.087007e-001 -1.780368e+000 2.866379e+000 211 131 108
6.159187e-001 -1.783313e+000 2.865180e+000 196 141 105
6.354590e-001 -1.788338e+000 2.856901e+000 205 133 98
6.579538e-001 -1.793451e+000 2.846583e+000 189 134 94
7.129844e-001 -1.830253e+000 2.807085e+000 70 44 39
6.042605e-001 -1.783881e+000 2.872049e+000 212 130 107
6.042605e-001 -1.783881e+000 2.872049e+000 212 130 107
6.616099e-001 -1.827067e+000 2.880664e+000 33 18 8
5.783530e-001 -1.859136e+000 2.945874e+000 183 85 83
5.932203e-001 -1.849263e+000 2.939805e+000 154 53 49
5.968018e-001 -1.841291e+000 2.936112e+000 140 42 36
5.944600e-001 -1.847879e+000 2.937717e+000 177 73 68
5.787489e-001 -1.867002e+000 2.956069e+000 160 42 49
5.812989e-001 -1.860107e+000 2.950684e+000 145 59 54
5.880908e-001 -1.861910e+000 2.951786e+000 146 46 45
5.750416e-001 -1.902093e+000 2.980788e+000 68 125 199
5.750416e-001 -1.902093e+000 2.980788e+000 68 125 199
6.306960e-001 -1.915324e+000 2.994328e+000 135 19 31
6.558832e-001 -1.910356e+000 2.976915e+000 129 26 30
6.609826e-001 -1.919624e+000 2.978153e+000 133 26 29
6.791241e-001 -1.935605e+000 2.982858e+000 229 67 71
6.913144e-001 -1.936027e+000 2.972993e+000 133 24 32
6.908116e-001 -1.939812e+000 2.975322e+000 219 76 77
6.580524e-001 -1.948456e+000 3.011050e+000 45 15 7
6.582205e-001 -1.947991e+000 3.011038e+000 45 15 7
6.713927e-001 -1.952091e+000 3.004454e+000 120 72 52
6.780943e-001 -1.953168e+000 3.000686e+000 184 104 81
5.915277e-001 -1.964231e+000 3.045233e+000 67 29 15
6.876674e-001 -1.971444e+000 3.012173e+000 167 46 30
6.891160e-001 -1.974380e+000 3.015601e+000 171 55 33
7.011376e-001 -1.974917e+000 3.001023e+000 120 56 25
6.935328e-001 -1.976126e+000 3.008140e+000 169 50 35
6.966768e-001 -1.972999e+000 3.006702e+000 179 44 34
7.135164e-001 -1.988129e+000 2.999975e+000 108 48 8
7.205052e-001 -1.996744e+000 2.999228e+000 125 43 21
6.566066e-001 -1.973619e+000 3.035583e+000 166 117 81
6.563138e-001 -1.972625e+000 3.038053e+000 88 55 36
6.630152e-001 -1.968819e+000 3.029149e+000 168 115 77
6.652321e-001 -1.971905e+000 3.027931e+000 161 113 80
6.684809e-001 -1.975799e+000 3.030085e+000 158 111 77
6.593893e-001 -1.972224e+000 3.036814e+000 76 45 21
6.637157e-001 -1.974662e+000 3.032977e+000 162 116 82
6.635150e-001 -1.975146e+000 3.032907e+000 162 116 82
6.750121e-001 -1.973641e+000 3.024691e+000 92 58 31
6.810357e-001 -1.974843e+000 3.019816e+000 159 89 54
6.810404e-001 -1.974567e+000 3.019746e+000 159 89 54
6.911599e-001 -1.981998e+000 3.018194e+000 170 60 33
6.876275e-001 -1.980888e+000 3.022510e+000 144 66 22
6.955108e-001 -1.981765e+000 3.013537e+000 123 44 24
6.955108e-001 -1.981765e+000 3.013537e+000 123 44 24
7.024494e-001 -1.984979e+000 3.010187e+000 167 62 25
6.988154e-001 -1.990612e+000 3.014500e+000 129 46 16
7.181058e-001 -2.004941e+000 3.012131e+000 168 78 29
7.262535e-001 -2.002655e+000 2.997768e+000 187 71 30
6.457087e-001 -1.979604e+000 3.050041e+000 168 121 86
6.609169e-001 -1.981388e+000 3.040389e+000 164 120 81
6.609169e-001 -1.981388e+000 3.040389e+000 164 120 81
6.637848e-001 -1.984185e+000 3.041883e+000 161 115 81
6.674471e-001 -1.987186e+000 3.043378e+000 161 119 84
6.762492e-001 -1.984814e+000 3.033203e+000 61 29 9
6.762492e-001 -1.984814e+000 3.033203e+000 61 29 9
7.229121e-001 -2.017862e+000 3.020733e+000 21 8 1
7.289854e-001 -2.022245e+000 3.018374e+000 202 148 109
6.306443e-001 -1.985663e+000 3.065814e+000 26 16 11
6.481840e-001 -1.989655e+000 3.058920e+000 30 21 14
6.772513e-001 -1.997728e+000 3.044578e+000 25 12 9
7.186509e-001 -2.019060e+000 3.025411e+000 184 143 108
7.275377e-001 -2.021761e+000 3.020547e+000 24 13 5
7.298231e-001 -2.025833e+000 3.019825e+000 188 127 96
6.919860e-001 -2.027101e+000 3.057392e+000 20 8 5
7.149109e-001 -2.032791e+000 3.042451e+000 161 83 36
7.120182e-001 -2.032676e+000 3.044971e+000 162 84 35
7.211472e-001 -2.043189e+000 3.044621e+000 35 11 6
7.438706e-001 -2.053695e+000 3.028178e+000 39 12 9
7.438948e-001 -2.053528e+000 3.028127e+000 39 12 9
7.480355e-001 -2.058119e+000 3.029640e+000 46 11 5
6.341064e-001 -2.011505e+000 3.087509e+000 22 12 4
6.357817e-001 -2.015572e+000 3.090034e+000 170 127 111
6.357817e-001 -2.015572e+000 3.090034e+000 170 127 111
6.363697e-001 -2.017409e+000 3.092355e+000 166 115 106
6.454814e-001 -2.014119e+000 3.082429e+000 17 9 6
6.420353e-001 -2.015051e+000 3.087289e+000 169 128 110
6.424569e-001 -2.013508e+000 3.086982e+000 169 128 110
6.500307e-001 -2.018957e+000 3.083619e+000 168 125 105
6.493342e-001 -2.021200e+000 3.083586e+000 168 125 105
6.581748e-001 -2.020591e+000 3.077594e+000 161 119 97
6.581577e-001 -2.020506e+000 3.077556e+000 161 119 97
6.704441e-001 -2.020436e+000 3.069150e+000 11 9 9
6.886050e-001 -2.028969e+000 3.061873e+000 163 120 96
6.994604e-001 -2.033847e+000 3.057664e+000 172 122 91
7.117577e-001 -2.045988e+000 3.053121e+000 34 6 2
7.117966e-001 -2.045672e+000 3.053159e+000 34 6 2
7.230028e-001 -2.046546e+000 3.045529e+000 152 78 37
7.344736e-001 -2.051601e+000 3.039881e+000 25 10 3
6.612343e-001 -2.019463e+000 3.085606e+000 117 46 42
6.621064e-001 -2.034388e+000 3.083916e+000 116 50 35
6.430347e-001 -1.680122e+000 2.727247e+000 204 133 99
6.457039e-001 -1.709058e+000 2.760523e+000 141 133 21
6.549661e-001 -1.764711e+000 2.816201e+000 164 138 102
6.629960e-001 -1.775116e+000 2.817714e+000 165 126 90
6.194094e-001 -1.783620e+000 2.863078e+000 201 133 108
6.237488e-001 -1.785511e+000 2.862060e+000 186 133 94
6.013259e-001 -1.789404e+000 2.878682e+000 23 71 106
6.160931e-001 -1.836639e+000 2.921669e+000 49 22 17
6.135006e-001 -1.842980e+000 2.929939e+000 67 43 32
6.252310e-001 -1.847830e+000 2.924956e+000 58 38 22
6.151030e-001 -1.866064e+000 2.950374e+000 62 48 37
6.248049e-001 -1.871841e+000 2.954575e+000 62 32 19
6.267251e-001 -1.878764e+000 2.960834e+000 64 26 25
7.172970e-001 -1.929136e+000 2.920671e+000 199 116 86
7.230560e-001 -1.933393e+000 2.922832e+000 202 56 59
7.230120e-001 -1.933561e+000 2.922820e+000 202 56 59
6.333560e-001 -1.906781e+000 2.980880e+000 127 20 31
6.572975e-001 -1.910152e+000 2.970905e+000 130 27 25
6.739604e-001 -1.911339e+000 2.960508e+000 194 49 52
6.229252e-001 -1.912883e+000 2.994587e+000 121 28 30
6.274197e-001 -1.914451e+000 2.992676e+000 131 28 34
6.330968e-001 -1.915170e+000 2.992942e+000 220 47 64
6.519670e-001 -1.915388e+000 2.983007e+000 145 15 28
6.726399e-001 -1.918964e+000 2.973151e+000 137 23 29
6.248627e-001 -1.923754e+000 3.004095e+000 128 27 33
6.248859e-001 -1.924139e+000 3.004201e+000 128 27 33
6.397645e-001 -1.923837e+000 2.997501e+000 131 23 30
6.549204e-001 -1.924799e+000 2.988943e+000 169 27 25
6.611704e-001 -1.922710e+000 2.987741e+000 201 59 61
6.611704e-001 -1.922710e+000 2.987741e+000 201 59 61
6.625077e-001 -1.932306e+000 2.990907e+000 226 70 83
6.748939e-001 -1.935740e+000 2.984452e+000 192 51 56
6.972994e-001 -1.959485e+000 2.989153e+000 177 119 87
5.975532e-001 -1.973606e+000 3.047555e+000 149 84 54
6.514948e-001 -1.962863e+000 3.030181e+000 172 122 88
6.512999e-001 -1.963971e+000 3.030064e+000 172 122 88
6.638227e-001 -1.967135e+000 3.024206e+000 169 116 78
6.666395e-001 -1.967031e+000 3.023398e+000 171 118 76
6.733703e-001 -1.966525e+000 3.019952e+000 169 116 78
6.780576e-001 -1.970975e+000 3.016875e+000 181 108 71
6.885325e-001 -1.977033e+000 3.012933e+000 97 25 16
6.982685e-001 -1.980527e+000 3.009195e+000 177 58 27
7.083976e-001 -1.981525e+000 3.001719e+000 189 99 41
7.136005e-001 -1.984117e+000 2.997699e+000 179 93 34
7.179574e-001 -1.990590e+000 2.999088e+000 185 95 31
6.767395e-001 -1.974554e+000 3.021668e+000 168 112 75
6.834781e-001 -1.984235e+000 3.026957e+000 173 107 66
6.834781e-001 -1.984235e+000 3.026957e+000 173 107 66
7.005635e-001 -1.990704e+000 3.015949e+000 170 71 28
7.019184e-001 -1.990983e+000 3.020177e+000 178 76 30
6.512946e-001 -1.976694e+000 3.045137e+000 52 28 15
6.512946e-001 -1.976694e+000 3.045137e+000 52 28 15
6.537986e-001 -1.979392e+000 3.043775e+000 80 49 28
6.537986e-001 -1.979392e+000 3.043775e+000 80 49 28
6.780680e-001 -1.989310e+000 3.037684e+000 155 115 80
6.899705e-001 -1.991003e+000 3.027859e+000 176 92 45
7.450977e-001 -2.041094e+000 3.012753e+000 118 73 50
7.345082e-001 -2.046720e+000 3.036192e+000 44 21 13
7.403568e-001 -2.051300e+000 3.033785e+000 36 9 6
6.112518e-001 -2.019867e+000 3.104688e+000 198 134 119
6.619394e-001 -2.016850e+000 3.073711e+000 26 12 5
6.784497e-001 -2.025273e+000 3.072076e+000 106 50 31
6.886684e-001 -2.031576e+000 3.062819e+000 165 118 92
7.120348e-001 -2.041273e+000 3.050390e+000 25 6 4
7.206987e-001 -2.048213e+000 3.047606e+000 38 8 0
7.282869e-001 -2.051134e+000 3.043130e+000 29 7 4
6.150211e-001 -1.673889e+000 2.741635e+000 143 31 26
6.500282e-001 -1.703946e+000 2.747954e+000 134 137 42
6.502014e-001 -1.703584e+000 2.748186e+000 134 137 42
6.362728e-001 -1.723764e+000 2.784017e+000 144 136 26
5.714681e-001 -1.821984e+000 2.916337e+000 174 50 59
7.128723e-001 -1.895779e+000 2.894555e+000 75 46 27
7.071068e-001 -1.897692e+000 2.906677e+000 69 47 32
7.071286e-001 -1.897174e+000 2.906590e+000 69 47 32
6.737935e-001 -1.891594e+000 2.939682e+000 59 26 19
6.176580e-001 -1.885717e+000 2.973562e+000 180 110 94
6.753641e-001 -1.898636e+000 2.945948e+000 68 29 22
7.121861e-001 -1.926418e+000 2.933267e+000 219 78 77
6.823242e-001 -1.914850e+000 2.955657e+000 210 64 66
6.222167e-001 -1.927069e+000 3.010211e+000 126 26 31
6.474794e-001 -1.928579e+000 2.995341e+000 133 25 32
6.521476e-001 -1.940409e+000 3.006321e+000 111 56 43
6.634708e-001 -1.943231e+000 3.000898e+000 106 50 40
6.775720e-001 -1.945984e+000 2.993870e+000 110 62 48
7.150169e-001 -1.967943e+000 2.976437e+000 47 21 6
7.150110e-001 -1.968565e+000 2.976402e+000 47 21 6
6.805185e-001 -1.953326e+000 2.999329e+000 82 32 26
6.548398e-001 -1.961418e+000 3.028040e+000 168 123 86
6.101199e-001 -1.972060e+000 3.059097e+000 181 131 94
6.480093e-001 -1.977779e+000 3.044085e+000 171 117 79
6.488443e-001 -1.974632e+000 3.044004e+000 171 117 79
7.428279e-001 -2.029989e+000 3.000815e+000 53 32 17
7.452951e-001 -2.031355e+000 3.004077e+000 189 149 115
7.118331e-001 -2.025548e+000 3.041116e+000 164 90 37
7.247522e-001 -2.035976e+000 3.035283e+000 154 79 29
6.296288e-001 -2.014318e+000 3.095043e+000 179 143 131
6.508390e-001 -2.027274e+000 3.087147e+000 78 24 20
6.581290e-001 -2.020043e+000 3.081160e+000 151 102 88
6.842302e-001 -2.030050e+000 3.065592e+000 170 121 103
6.847542e-001 -2.030786e+000 3.068990e+000 108 47 29
6.918314e-001 -2.029018e+000 3.065206e+000 101 46 29
6.564184e-001 -1.717634e+000 2.756699e+000 24 49 17
6.448817e-001 -1.727883e+000 2.784151e+000 134 125 30
6.448817e-001 -1.727883e+000 2.784151e+000 134 125 30
6.131118e-001 -1.726222e+000 2.800102e+000 130 127 43
6.130324e-001 -1.726291e+000 2.800215e+000 130 127 43
5.898323e-001 -1.785229e+000 2.879887e+000 114 23 48
7.089801e-001 -1.830858e+000 2.817278e+000 12 48 65
6.244909e-001 -1.797168e+000 2.872535e+000 13 49 70
6.522118e-001 -1.806497e+000 2.867699e+000 12 49 73
7.143795e-001 -1.851143e+000 2.827458e+000 22 69 92
6.609264e-001 -1.851817e+000 2.905240e+000 177 108 74
6.636317e-001 -1.853844e+000 2.908980e+000 72 40 35
6.616372e-001 -1.857828e+000 2.912705e+000 178 107 72
6.616372e-001 -1.857828e+000 2.912705e+000 178 107 72
6.643334e-001 -1.862018e+000 2.915409e+000 74 45 26
6.623400e-001 -1.866322e+000 2.923300e+000 95 49 38
6.173271e-001 -1.871619e+000 2.952532e+000 177 110 88
6.652536e-001 -1.880832e+000 2.936278e+000 164 96 71
6.652536e-001 -1.880832e+000 2.936278e+000 164 96 71
6.686107e-001 -1.891465e+000 2.945476e+000 182 107 78
7.140984e-001 -1.918560e+000 2.918777e+000 184 121 79
6.383984e-001 -1.921648e+000 2.994161e+000 133 26 31
6.973612e-001 -1.950991e+000 2.981997e+000 67 36 23
7.063955e-001 -1.958677e+000 2.979613e+000 182 120 90
7.107317e-001 -1.963267e+000 2.975245e+000 190 118 79
7.443263e-001 -2.030087e+000 3.004115e+000 186 137 105
6.447130e-001 -1.989602e+000 3.058373e+000 183 135 95
6.181315e-001 -2.018778e+000 3.106487e+000 132 27 41
7.088817e-001 -1.760676e+000 2.721146e+000 96 110 101
5.951663e-001 -1.806567e+000 2.899281e+000 20 72 119
6.618986e-001 -1.838259e+000 2.899109e+000 175 107 81
6.231569e-001 -1.850832e+000 2.929177e+000 176 109 84
6.229589e-001 -1.863981e+000 2.943645e+000 176 105 85
6.638365e-001 -1.902125e+000 2.958529e+000 179 105 77
7.286141e-001 -1.939973e+000 2.921701e+000 150 21 27
7.293563e-001 -1.944953e+000 2.926003e+000 144 23 27
6.171854e-001 -1.924145e+000 3.010220e+000 141 23 34
6.927451e-001 -1.950132e+000 2.979796e+000 182 117 74
7.254632e-001 -1.989909e+000 2.984461e+000 110 17 18
6.435121e-001 -1.956975e+000 3.029060e+000 75 48 33
6.435758e-001 -1.957357e+000 3.029159e+000 75 48 33
6.466547e-001 -1.968391e+000 3.038318e+000 167 121 89
6.726046e-001 -1.996347e+000 3.046078e+000 180 136 100
6.652090e-001 -2.021369e+000 3.076339e+000 159 115 92
6.667575e-001 -1.737242e+000 2.760333e+000 32 47 28
6.674963e-001 -1.735541e+000 2.761249e+000 32 47 28
6.407046e-001 -1.790424e+000 2.855669e+000 101 27 26
5.926954e-001 -1.861034e+000 2.949033e+000 171 78 71
7.304771e-001 -1.963186e+000 2.942207e+000 152 19 32
7.436785e-001 -2.006998e+000 2.968357e+000 117 23 24
6.346166e-001 -1.986318e+000 3.062997e+000 167 133 105
6.939847e-001 -2.025293e+000 3.054372e+000 26 13 8
6.495716e-001 -2.015640e+000 3.084036e+000 166 122 105
6.701024e-001 -1.742087e+000 2.765980e+000 82 97 86
7.289687e-001 -1.953119e+000 2.933448e+000 155 18 30
6.668796e-001 -1.922787e+000 2.978779e+000 147 17 29
6.668796e-001 -1.922787e+000 2.978779e+000 147 17 29
6.801824e-001 -1.935388e+000 2.971077e+000 148 18 28
6.554192e-001 -1.953821e+000 3.018807e+000 170 116 80
6.552008e-001 -1.954555e+000 3.018724e+000 170 116 80
7.192773e-001 -2.000646e+000 3.010920e+000 104 39 17
7.192773e-001 -2.000646e+000 3.010920e+000 104 39 17
7.037418e-001 -2.003407e+000 3.029784e+000 185 141 96
7.390579e-001 -2.039097e+000 3.026872e+000 173 82 27
6.358835e-001 -1.718503e+000 2.777024e+000 66 102 95
6.358835e-001 -1.718503e+000 2.777024e+000 66 102 95
5.976692e-001 -1.868452e+000 2.956846e+000 165 31 43
6.420435e-001 -1.945276e+000 3.020633e+000 182 110 86
6.420463e-001 -1.963227e+000 3.038680e+000 169 123 89
7.501167e-001 -2.059472e+000 3.015141e+000 188 87 31
6.918013e-001 -1.837551e+000 2.857538e+000 180 105 76
6.660031e-001 -1.862131e+000 2.921580e+000 154 92 63
6.660031e-001 -1.862131e+000 2.921580e+000 154 92 63
7.068370e-001 -1.827251e+000 2.809627e+000 151 25 31
5.965454e-001 -1.783970e+000 2.877182e+000 145 23 28
6.750948e-001 -2.016624e+000 3.070855e+000 154 121 98
6.295449e-001 -2.028696e+000 3.103365e+000 33 18 25
7.244620e-001 -1.978094e+000 2.963110e+000 187 120 78
6.945032e-001 -1.980530e+000 3.013109e+000 123 38 19
7.448799e-001 -2.064694e+000 3.019365e+000 180 90 37
6.336741e-001 -1.916441e+000 2.991391e+000 125 24 27
7.255492e-001 -2.068813e+000 3.016970e+000 67 41 31
7.164130e-001 -2.117472e+000 3.014870e+000 67 41 31
6.136779e-001 -2.006275e+000 3.050139e+000 170 126 91
6.379026e-001 -1.719426e+000 2.778396e+000 90 103 58
6.451585e-001 -1.784879e+000 2.815884e+000 152 141 111
5.883908e-001 -1.787879e+000 2.879183e+000 95 25 43
6.129168e-001 -1.785185e+000 2.868767e+000 207 134 108
6.317820e-001 -1.790705e+000 2.860293e+000 217 132 107
6.898790e-001 -1.811629e+000 2.824832e+000 218 135 104
5.942352e-001 -1.841418e+000 2.934905e+000 199 81 81
5.940741e-001 -1.841628e+000 2.934861e+000 199 81 81
6.376066e-001 -1.846919e+000 2.919695e+000 190 116 90
5.976431e-001 -1.861122e+000 2.950183e+000 154 50 47
6.335556e-001 -1.859270e+000 2.934581e+000 184 112 88
6.175958e-001 -1.888284e+000 2.937806e+000 180 109 86
6.285926e-001 -1.872706e+000 2.952578e+000 181 114 86
6.330230e-001 -1.915457e+000 2.993043e+000 228 63 71
6.494882e-001 -1.924626e+000 2.992362e+000 224 56 67
6.483195e-001 -1.922399e+000 2.995536e+000 133 31 33
6.840160e-001 -1.933801e+000 2.975342e+000 254 69 84
7.032047e-001 -1.941488e+000 2.961361e+000 215 56 63
6.499364e-001 -1.938404e+000 3.007189e+000 190 113 87
6.712656e-001 -1.933899e+000 2.986745e+000 218 69 70
6.573285e-001 -1.948586e+000 3.013474e+000 181 110 84
6.714383e-001 -1.951937e+000 3.004387e+000 97 56 36
6.826696e-001 -1.968638e+000 3.012737e+000 115 32 18
7.055795e-001 -1.988425e+000 2.995699e+000 136 77 33
6.715767e-001 -1.971279e+000 3.026913e+000 136 93 64
6.756238e-001 -1.972516e+000 3.024313e+000 103 69 40
6.849057e-001 -1.976989e+000 3.018910e+000 182 78 41
6.832730e-001 -1.976771e+000 3.020491e+000 110 40 13
6.832730e-001 -1.976771e+000 3.020491e+000 110 40 13
7.007314e-001 -1.979261e+000 3.005432e+000 114 41 20
6.455730e-001 -1.975529e+000 3.049827e+000 175 125 89
6.434340e-001 -1.980987e+000 3.054451e+000 178 129 89
6.436198e-001 -1.981528e+000 3.054480e+000 178 129 89
6.503556e-001 -1.981286e+000 3.049798e+000 93 65 50
6.503640e-001 -1.981415e+000 3.049897e+000 93 65 50
6.777735e-001 -1.979510e+000 3.027443e+000 121 77 48
6.813159e-001 -1.979438e+000 3.026102e+000 115 75 48
6.883938e-001 -1.995004e+000 3.034238e+000 126 54 12
6.940267e-001 -2.001476e+000 3.035292e+000 27 13 5
6.996191e-001 -2.000000e+000 3.030047e+000 193 142 108
7.392518e-001 -2.027666e+000 3.007416e+000 199 149 112
7.208829e-001 -2.028320e+000 3.032018e+000 188 144 109
6.539210e-001 -2.018376e+000 3.081570e+000 166 126 111
7.205401e-001 -2.041648e+000 3.042386e+000 165 89 28
7.489982e-001 -2.059229e+000 3.026832e+000 186 79 38
6.843611e-001 -2.047652e+000 3.071013e+000 123 55 43
7.536820e-001 -2.068681e+000 3.032658e+000 41 21 25
6.467223e-001 -1.762091e+000 2.820073e+000 169 139 112
6.859453e-001 -1.807675e+000 2.825062e+000 210 138 105
6.261205e-001 -1.838033e+000 2.917995e+000 93 51 38
6.654129e-001 -1.908905e+000 2.964544e+000 174 41 45
6.918350e-001 -1.916778e+000 2.948823e+000 178 39 42
7.152948e-001 -1.929065e+000 2.930295e+000 215 64 68
7.163693e-001 -1.941546e+000 2.935405e+000 140 27 34
6.236203e-001 -1.911111e+000 2.994498e+000 134 30 36
6.485410e-001 -1.914901e+000 2.984321e+000 142 21 30
6.817471e-001 -1.914226e+000 2.959061e+000 125 29 31
