ply
format ascii 1.0
element face 0
property list uchar int vertex_indices
element vertex 895
property float x
property float y
property float z
property uchar diffuse_red
property uchar diffuse_green
property uchar diffuse_blue
end_header
4.171782e-001 -1.670921e+000 2.751386e+000 221 154 151
4.171849e-001 -1.670907e+000 2.751390e+000 221 154 151
4.198427e-001 -1.669138e+000 2.756732e+000 246 152 151
4.197414e-001 -1.669122e+000 2.756780e+000 246 152 151
4.270668e-001 -1.649775e+000 2.759451e+000 125 41 44
4.270928e-001 -1.649832e+000 2.759486e+000 125 41 44
4.293952e-001 -1.653182e+000 2.765546e+000 225 154 146
4.362453e-001 -1.637030e+000 2.767939e+000 220 156 148
4.372341e-001 -1.647344e+000 2.774178e+000 138 41 39
4.367744e-001 -1.646488e+000 2.774357e+000 138 41 39
4.377636e-001 -1.643190e+000 2.775034e+000 224 157 152
4.501850e-001 -1.628870e+000 2.787844e+000 208 156 143
4.514618e-001 -1.625899e+000 2.787889e+000 144 33 40
4.514618e-001 -1.625899e+000 2.787889e+000 144 33 40
4.576684e-001 -1.628939e+000 2.802177e+000 146 171 202
4.626162e-001 -1.796539e+000 2.909352e+000 225 156 147
4.693781e-001 -1.803181e+000 2.925444e+000 123 27 29
4.563676e-001 -1.835123e+000 2.920181e+000 26 72 128
5.274420e-001 -1.753165e+000 2.978036e+000 194 60 62
5.043177e-001 -1.793566e+000 2.983841e+000 141 41 41
5.305287e-001 -1.827993e+000 3.037301e+000 84 146 205
4.781188e-001 -1.954854e+000 3.006846e+000 49 30 34
4.772655e-001 -1.953587e+000 3.007026e+000 49 30 34
5.093741e-001 -1.869824e+000 3.033572e+000 203 125 113
4.859782e-001 -2.002014e+000 3.040031e+000 117 22 33
5.392983e-001 -1.893761e+000 3.089285e+000 174 127 77
4.865588e-001 -2.024260e+000 3.058465e+000 134 93 82
4.174774e-001 -1.660358e+000 2.747956e+000 197 169 156
4.381969e-001 -1.646283e+000 2.777634e+000 210 164 155
4.291510e-001 -1.755812e+000 2.806121e+000 40 54 19
5.830212e-001 -1.642097e+000 2.864971e+000 41 52 16
4.406318e-001 -1.797270e+000 2.868348e+000 170 150 154
4.493284e-001 -1.797235e+000 2.882096e+000 171 31 34
4.539782e-001 -1.784112e+000 2.887818e+000 158 159 168
5.292468e-001 -1.786829e+000 3.008373e+000 192 71 73
4.750612e-001 -1.939439e+000 3.010180e+000 159 134 122
5.409734e-001 -1.890294e+000 3.090907e+000 145 101 56
4.754972e-001 -1.612472e+000 2.657972e+000 31 27 24
4.224353e-001 -1.662297e+000 2.759434e+000 176 34 44
4.207396e-001 -1.669520e+000 2.760823e+000 180 36 47
4.697054e-001 -1.793049e+000 2.920928e+000 149 23 32
5.406008e-001 -1.824179e+000 3.040911e+000 36 85 131
4.198390e-001 -1.655785e+000 2.748362e+000 177 36 45
4.199513e-001 -1.656097e+000 2.748518e+000 177 36 45
4.475376e-001 -1.623578e+000 2.777663e+000 171 35 42
4.473915e-001 -1.623634e+000 2.778123e+000 171 35 42
4.526492e-001 -1.615590e+000 2.786141e+000 170 31 42
4.541581e-001 -1.624738e+000 2.794334e+000 166 34 42
4.541573e-001 -1.624727e+000 2.794305e+000 166 34 42
4.607344e-001 -1.623311e+000 2.809884e+000 22 60 33
4.612427e-001 -1.623691e+000 2.809864e+000 22 60 33
4.171762e-001 -1.694335e+000 2.766960e+000 106 140 53
5.635307e-001 -1.619630e+000 2.857361e+000 135 132 37
4.399855e-001 -1.712586e+000 2.818804e+000 29 66 34
4.417547e-001 -1.787293e+000 2.858367e+000 111 86 90
4.985501e-001 -1.723919e+000 2.932709e+000 171 161 169
4.832870e-001 -1.956736e+000 3.020005e+000 156 134 121
5.215960e-001 -1.867881e+000 3.051418e+000 161 65 43
5.804677e-001 -1.844024e+000 3.071333e+000 152 26 30
1.245207e+000 -3.098498e+000 1.285575e+000 29 18 16
4.174231e-001 -1.673987e+000 2.754822e+000 172 37 41
6.109560e-001 -1.653738e+000 2.860351e+000 31 51 29
4.707096e-001 -1.704084e+000 2.874253e+000 25 58 41
4.692926e-001 -1.703345e+000 2.875488e+000 25 58 41
4.672331e-001 -1.826153e+000 2.939004e+000 16 81 144
4.832864e-001 -2.022584e+000 3.011797e+000 37 28 24
5.305665e-001 -1.880532e+000 3.071480e+000 127 69 47
1.075851e+000 -3.661072e+000 1.416385e+000 99 83 58
4.182515e-001 -1.693535e+000 2.758375e+000 25 59 32
1.153065e+000 -3.609195e+000 1.656439e+000 131 111 74
1.153065e+000 -3.609195e+000 1.656439e+000 131 111 74
4.376596e-001 -1.741774e+000 2.828585e+000 29 61 38
4.376596e-001 -1.741774e+000 2.828585e+000 29 61 38
4.610312e-001 -1.750285e+000 2.881156e+000 154 159 173
4.777176e-001 -1.729277e+000 2.901047e+000 161 160 167
4.558192e-001 -1.779752e+000 2.886485e+000 158 161 167
4.554659e-001 -1.779102e+000 2.886477e+000 158 161 167
4.659174e-001 -1.767977e+000 2.897641e+000 161 161 165
4.690777e-001 -1.765574e+000 2.906618e+000 170 38 40
4.823958e-001 -1.747871e+000 2.917699e+000 157 158 168
5.006371e-001 -1.776816e+000 2.965263e+000 29 60 119
6.612102e-001 -1.913075e+000 3.087660e+000 164 80 25
1.156539e+000 -3.074807e+000 1.361712e+000 197 167 113
4.172251e-001 -1.667208e+000 2.748695e+000 208 155 157
1.124798e+000 -3.681191e+000 1.386201e+000 24 19 14
1.130415e+000 -3.742198e+000 1.474238e+000 59 47 31
1.165673e+000 -3.698777e+000 1.457552e+000 103 86 55
1.165673e+000 -3.698777e+000 1.457552e+000 103 86 55
1.171528e+000 -3.654933e+000 1.515440e+000 18 14 11
4.454991e-001 -1.682844e+000 2.810242e+000 164 165 159
4.862270e-001 -1.664787e+000 2.881295e+000 113 137 165
4.865915e-001 -1.665274e+000 2.881311e+000 113 137 165
4.631229e-001 -1.713134e+000 2.865434e+000 24 63 34
4.383357e-001 -1.774093e+000 2.852901e+000 152 158 168
4.383357e-001 -1.774093e+000 2.852901e+000 152 158 168
4.834993e-001 -2.002429e+000 3.018171e+000 157 127 116
4.988184e-001 -2.012740e+000 3.092078e+000 152 98 36
1.031579e+000 -3.300712e+000 1.418146e+000 46 47 33
4.366216e-001 -1.732345e+000 2.820842e+000 164 165 171
1.162676e+000 -3.675722e+000 1.830422e+000 30 21 16
1.162676e+000 -3.675722e+000 1.830422e+000 30 21 16
4.727799e-001 -1.764636e+000 2.916477e+000 161 160 167
5.610789e-001 -1.713486e+000 2.956177e+000 16 76 118
4.623326e-001 -1.842874e+000 2.929957e+000 92 51 86
5.120452e-001 -1.827439e+000 3.014461e+000 116 21 27
5.314813e-001 -1.848328e+000 3.052367e+000 176 142 115
6.095662e-001 -1.746954e+000 2.948536e+000 188 118 82
1.143033e+000 -3.711746e+000 1.391109e+000 27 22 20
4.700552e-001 -1.725152e+000 2.879290e+000 163 162 168
5.909463e-001 -1.905720e+000 3.121195e+000 174 136 90
7.369226e-001 -1.511244e+000 2.725814e+000 59 39 12
7.536158e-001 -1.492250e+000 2.752697e+000 164 135 78
7.612597e-001 -1.484533e+000 2.756866e+000 164 128 81
7.699026e-001 -1.508612e+000 2.719047e+000 159 130 74
7.411944e-001 -1.532672e+000 2.708872e+000 53 44 24
7.399600e-001 -1.530484e+000 2.711660e+000 164 135 80
7.502866e-001 -1.522502e+000 2.719446e+000 54 38 19
7.758846e-001 -1.564784e+000 2.785762e+000 23 49 48
7.412122e-001 -1.611361e+000 2.744856e+000 160 87 56
7.386861e-001 -1.615321e+000 2.755816e+000 181 87 59
7.386861e-001 -1.615321e+000 2.755816e+000 181 87 59
7.314258e-001 -1.646573e+000 2.760905e+000 57 72 52
7.494234e-001 -1.746393e+000 2.873037e+000 81 47 22
7.494234e-001 -1.746393e+000 2.873037e+000 81 47 22
7.784066e-001 -1.744420e+000 2.921134e+000 169 96 65
7.781384e-001 -1.744607e+000 2.921312e+000 169 96 65
7.846465e-001 -1.740985e+000 2.935737e+000 89 20 16
7.896271e-001 -1.734618e+000 2.927002e+000 161 95 60
7.863137e-001 -1.735105e+000 2.935510e+000 92 17 13
7.863137e-001 -1.735105e+000 2.935510e+000 92 17 13
7.896983e-001 -1.737919e+000 2.934010e+000 91 16 13
7.896983e-001 -1.737919e+000 2.934010e+000 91 16 13
7.713964e-001 -1.757535e+000 2.920336e+000 171 81 57
7.715433e-001 -1.757599e+000 2.920481e+000 171 81 57
7.784954e-001 -1.772727e+000 2.943666e+000 100 117 103
7.925168e-001 -1.754690e+000 2.953849e+000 88 105 90
7.918620e-001 -1.749975e+000 2.965315e+000 93 106 89
8.025699e-001 -1.746895e+000 2.964119e+000 98 115 96
7.978628e-001 -1.753716e+000 2.961494e+000 94 111 95
7.958534e-001 -1.749285e+000 2.974503e+000 93 115 103
8.111901e-001 -1.743797e+000 3.022109e+000 122 43 32
7.582218e-001 -1.817397e+000 2.948416e+000 62 24 19
7.586603e-001 -1.817363e+000 2.947780e+000 62 24 19
7.639912e-001 -1.812301e+000 2.952800e+000 55 22 17
7.682647e-001 -1.807921e+000 2.954031e+000 89 49 41
7.770941e-001 -1.798423e+000 2.964505e+000 60 27 20
7.816203e-001 -1.811297e+000 2.973549e+000 52 34 27
8.045028e-001 -1.772301e+000 3.059515e+000 111 72 39
7.381446e-001 -1.854927e+000 2.964151e+000 57 23 11
7.656805e-001 -1.848197e+000 2.987308e+000 107 70 54
7.477957e-001 -1.881855e+000 2.994685e+000 52 23 21
7.648507e-001 -1.869948e+000 3.004606e+000 52 29 21
8.070347e-001 -1.890904e+000 3.171091e+000 70 33 10
7.270891e-001 -1.978166e+000 3.081087e+000 166 70 18
7.314868e-001 -1.517441e+000 2.719392e+000 169 135 84
7.314868e-001 -1.517441e+000 2.719392e+000 169 135 84
7.654191e-001 -1.575667e+000 2.766773e+000 164 94 63
7.591331e-001 -1.588943e+000 2.762776e+000 108 25 17
8.007898e-001 -1.691263e+000 2.946917e+000 144 94 57
7.853391e-001 -1.744468e+000 2.929150e+000 166 92 57
7.909381e-001 -1.744517e+000 2.942265e+000 182 58 51
7.577930e-001 -1.809111e+000 2.941444e+000 59 23 15
7.471119e-001 -1.824679e+000 2.941278e+000 47 15 12
7.625950e-001 -1.815054e+000 2.953305e+000 116 55 45
8.029128e-001 -1.826574e+000 3.064982e+000 113 48 27
7.444474e-001 -1.504675e+000 2.732180e+000 125 91 60
7.515360e-001 -1.515182e+000 2.725839e+000 164 131 78
7.515360e-001 -1.515182e+000 2.725839e+000 164 131 78
7.359708e-001 -1.603385e+000 2.733579e+000 121 22 23
7.426363e-001 -1.636745e+000 2.777985e+000 45 66 52
7.564466e-001 -1.664514e+000 2.821906e+000 123 98 24
7.564466e-001 -1.664514e+000 2.821906e+000 123 98 24
7.545845e-001 -1.728939e+000 2.869413e+000 118 105 61
7.545845e-001 -1.728939e+000 2.869413e+000 118 105 61
7.610014e-001 -1.825771e+000 2.961156e+000 63 33 22
7.736764e-001 -1.816896e+000 2.973596e+000 50 33 27
7.872949e-001 -1.603909e+000 2.844970e+000 22 36 5
7.872949e-001 -1.603909e+000 2.844970e+000 22 36 5
8.061168e-001 -1.688631e+000 2.930225e+000 128 100 63
7.561200e-001 -1.747847e+000 2.887308e+000 122 106 65
7.575110e-001 -1.747652e+000 2.885612e+000 122 106 65
7.632219e-001 -1.741823e+000 2.891789e+000 126 105 63
7.632219e-001 -1.741823e+000 2.891789e+000 126 105 63
7.646088e-001 -1.800068e+000 2.944384e+000 141 83 43
7.487336e-001 -1.825412e+000 2.939308e+000 50 16 15
8.099960e-001 -1.784694e+000 3.021721e+000 72 90 84
7.733004e-001 -1.819731e+000 2.984622e+000 52 34 26
8.076666e-001 -1.796707e+000 3.027771e+000 18 38 39
5.752464e-001 -1.965583e+000 3.090476e+000 37 27 22
6.304285e-001 -2.026310e+000 3.058083e+000 112 90 70
7.522742e-001 -1.487689e+000 2.759963e+000 158 128 78
7.765879e-001 -1.574537e+000 2.781505e+000 127 18 23
7.988574e-001 -1.634870e+000 2.918552e+000 97 92 52
7.324080e-001 -1.830935e+000 2.938492e+000 139 94 50
5.837207e-001 -1.974872e+000 3.086653e+000 36 27 22
7.637134e-001 -1.900762e+000 3.029605e+000 15 39 49
5.896278e-001 -1.996730e+000 3.087809e+000 117 95 74
6.177888e-001 -2.013978e+000 3.065157e+000 119 96 78
7.426905e-001 -1.511407e+000 2.727198e+000 162 131 85
7.802514e-001 -1.745434e+000 2.922475e+000 95 35 18
7.787807e-001 -1.745725e+000 2.923969e+000 95 35 18
7.668052e-001 -1.904228e+000 3.035537e+000 120 79 42
7.624407e-001 -1.928664e+000 3.049280e+000 132 60 20
7.454562e-001 -1.599194e+000 2.752667e+000 113 64 38
7.530212e-001 -1.633461e+000 2.790693e+000 118 103 30
7.799859e-001 -1.628465e+000 2.830199e+000 22 34 17
7.431723e-001 -1.674215e+000 2.802159e+000 124 104 44
7.919232e-001 -1.709052e+000 2.914329e+000 122 103 63
7.753891e-001 -1.764063e+000 2.943486e+000 16 43 50
8.016581e-001 -1.709791e+000 2.930806e+000 124 102 61
7.415244e-001 -1.778997e+000 2.890982e+000 109 15 16
7.823961e-001 -1.683819e+000 2.878495e+000 125 106 64
7.920936e-001 -1.693467e+000 2.994810e+000 115 95 58
8.014269e-001 -1.847174e+000 3.066993e+000 116 78 41
7.644305e-001 -1.970740e+000 3.086235e+000 26 16 17
4.518840e-001 -1.611519e+000 2.785816e+000 131 40 50
4.221173e-001 -1.666008e+000 2.760682e+000 224 134 133
4.219549e-001 -1.665878e+000 2.760781e+000 224 134 133
4.325777e-001 -1.654602e+000 2.771245e+000 251 130 140
4.325402e-001 -1.654549e+000 2.771233e+000 251 130 140
4.413962e-001 -1.643147e+000 2.781584e+000 212 135 125
4.414708e-001 -1.643218e+000 2.781525e+000 212 135 125
5.692593e-001 -1.727469e+000 2.964420e+000 126 76 62
4.815243e-001 -1.779563e+000 2.936015e+000 183 139 128
5.792372e-001 -1.750340e+000 2.981613e+000 138 87 68
5.300388e-001 -1.827544e+000 3.037143e+000 69 119 174
5.845382e-001 -1.832783e+000 3.057590e+000 195 66 73
5.091312e-001 -1.873353e+000 3.035396e+000 117 38 34
5.091312e-001 -1.873353e+000 3.035396e+000 117 38 34
4.305641e-001 -1.643635e+000 2.762181e+000 195 148 142
4.499817e-001 -1.622240e+000 2.785143e+000 144 27 47
4.499817e-001 -1.622240e+000 2.785143e+000 144 27 47
4.565091e-001 -1.614286e+000 2.793195e+000 18 74 130
4.494588e-001 -1.637218e+000 2.784270e+000 145 34 51
4.731334e-001 -1.634832e+000 2.839419e+000 111 146 95
4.729124e-001 -1.646146e+000 2.843206e+000 31 48 25
4.430888e-001 -1.708640e+000 2.820771e+000 146 144 54
4.604301e-001 -1.704286e+000 2.847139e+000 25 52 35
4.624359e-001 -1.718563e+000 2.860372e+000 25 50 42
4.625890e-001 -1.796568e+000 2.909385e+000 185 143 133
4.641199e-001 -1.798971e+000 2.914263e+000 190 140 139
4.523286e-001 -1.843068e+000 2.909841e+000 117 150 190
5.687191e-001 -1.741204e+000 2.977001e+000 131 81 69
5.316137e-001 -1.819382e+000 3.034557e+000 111 153 189
5.290959e-001 -1.871861e+000 3.065250e+000 93 46 33
4.404373e-001 -1.633897e+000 2.774728e+000 159 36 54
4.404975e-001 -1.633648e+000 2.774398e+000 159 36 54
4.490480e-001 -1.622521e+000 2.782009e+000 181 142 135
4.367571e-001 -1.646458e+000 2.774344e+000 159 37 52
4.399051e-001 -1.642641e+000 2.778599e+000 152 34 50
4.461620e-001 -1.633560e+000 2.782995e+000 182 135 134
4.151231e-001 -1.694658e+000 2.752304e+000 21 50 29
4.558853e-001 -1.706517e+000 2.845967e+000 21 51 41
4.715716e-001 -1.785694e+000 2.919902e+000 179 132 130
4.719843e-001 -1.798646e+000 2.929333e+000 131 22 35
4.781646e-001 -1.791802e+000 2.935702e+000 144 54 61
5.440860e-001 -1.738721e+000 2.977779e+000 164 51 50
4.144057e-001 -1.667919e+000 2.736748e+000 162 34 54
4.382684e-001 -1.633270e+000 2.768246e+000 160 33 50
4.424086e-001 -1.627543e+000 2.773570e+000 159 37 47
4.733541e-001 -1.644514e+000 2.842229e+000 27 50 28
4.733541e-001 -1.644514e+000 2.842229e+000 27 50 28
5.064433e-001 -1.671253e+000 2.909551e+000 61 73 71
4.401778e-001 -1.797956e+000 2.855330e+000 160 131 143
4.446508e-001 -1.795450e+000 2.866268e+000 145 101 108
4.496145e-001 -1.797412e+000 2.882111e+000 156 32 40
4.723720e-001 -1.790526e+000 2.924316e+000 175 133 127
4.790052e-001 -1.779528e+000 2.930963e+000 134 23 32
4.663845e-001 -1.804582e+000 2.923470e+000 230 83 95
4.616898e-001 -1.914510e+000 2.956347e+000 94 53 34
5.264630e-001 -1.824882e+000 3.030771e+000 68 112 158
5.170418e-001 -1.865855e+000 3.041332e+000 149 43 48
4.785678e-001 -1.948215e+000 3.002182e+000 122 43 47
4.785678e-001 -1.948215e+000 3.002182e+000 122 43 47
4.159615e-001 -1.661606e+000 2.743215e+000 166 36 49
4.159615e-001 -1.661606e+000 2.743215e+000 166 36 49
4.238339e-001 -1.650832e+000 2.752988e+000 172 34 54
4.681304e-001 -1.711330e+000 2.871817e+000 154 149 49
4.681304e-001 -1.711330e+000 2.871817e+000 154 149 49
4.627749e-001 -1.799311e+000 2.911544e+000 57 31 28
4.748462e-001 -1.787938e+000 2.928679e+000 132 25 40
4.686280e-001 -1.821993e+000 2.934003e+000 110 141 182
5.693999e-001 -1.773963e+000 3.007377e+000 188 119 98
4.731069e-001 -1.982352e+000 3.007566e+000 15 59 118
4.551140e-001 -1.610915e+000 2.789397e+000 150 85 85
4.279250e-001 -1.689884e+000 2.782755e+000 153 149 44
4.279250e-001 -1.689884e+000 2.782755e+000 153 149 44
4.273800e-001 -1.732376e+000 2.795865e+000 149 145 106
4.455047e-001 -1.706031e+000 2.825577e+000 24 54 51
4.916671e-001 -1.733903e+000 2.931997e+000 164 123 124
4.925106e-001 -1.734388e+000 2.931805e+000 164 123 124
4.982659e-001 -1.783157e+000 2.961079e+000 13 63 126
4.905459e-001 -1.797261e+000 2.967078e+000 17 64 117
4.906668e-001 -1.797263e+000 2.967068e+000 17 64 117
4.424053e-001 -1.593526e+000 2.754258e+000 48 89 138
4.233980e-001 -1.715188e+000 2.784306e+000 147 144 152
4.220626e-001 -1.713881e+000 2.784816e+000 147 144 152
4.342406e-001 -1.722612e+000 2.812866e+000 25 54 42
4.753404e-001 -1.673737e+000 2.860171e+000 23 51 39
4.755505e-001 -1.673772e+000 2.860192e+000 23 51 39
4.564797e-001 -1.700746e+000 2.843142e+000 151 144 117
4.579568e-001 -1.723569e+000 2.858774e+000 26 54 32
4.371816e-001 -1.772002e+000 2.840129e+000 26 54 38
4.611715e-001 -1.750415e+000 2.882853e+000 142 142 148
4.657451e-001 -1.767873e+000 2.897803e+000 144 141 148
4.797469e-001 -1.807633e+000 2.956162e+000 17 64 119
4.172327e-001 -1.667172e+000 2.748642e+000 183 146 147
4.260571e-001 -1.715541e+000 2.793716e+000 25 59 44
4.458436e-001 -1.682547e+000 2.810296e+000 150 150 142
4.655139e-001 -1.698678e+000 2.862785e+000 147 142 146
4.468258e-001 -1.766143e+000 2.861775e+000 162 35 45
4.613666e-001 -1.751712e+000 2.884196e+000 143 139 146
4.654665e-001 -1.766117e+000 2.896296e+000 143 142 148
4.609785e-001 -1.839278e+000 2.929599e+000 28 49 93
4.367847e-001 -1.732356e+000 2.820884e+000 151 148 160
4.395652e-001 -1.751108e+000 2.836925e+000 148 146 160
5.393857e-001 -1.783871e+000 3.009083e+000 168 80 70
4.701616e-001 -1.933653e+000 2.968703e+000 38 13 19
4.888527e-001 -2.037929e+000 3.009587e+000 36 26 34
4.778586e-001 -1.966979e+000 3.022655e+000 16 60 133
4.323205e-001 -1.605460e+000 2.745349e+000 16 77 142
4.531959e-001 -1.925505e+000 2.938165e+000 41 33 31
4.722035e-001 -1.747641e+000 2.899204e+000 142 136 145
5.178255e-001 -1.859105e+000 3.038761e+000 64 14 23
4.456819e-001 -1.635115e+000 2.780692e+000 129 46 51
4.346618e-001 -1.628874e+000 2.738714e+000 13 80 148
4.127315e-001 -1.656360e+000 2.719624e+000 44 111 190
5.414416e-001 -1.558201e+000 2.820977e+000 160 46 27
4.173546e-001 -1.666212e+000 2.745080e+000 126 60 67
4.245643e-001 -1.659442e+000 2.760170e+000 201 133 133
5.042781e-001 -1.667408e+000 2.907716e+000 122 138 138
4.908749e-001 -1.737265e+000 2.930328e+000 157 137 138
4.638083e-001 -1.818449e+000 2.915219e+000 140 25 40
5.815707e-001 -1.740937e+000 2.973335e+000 133 82 55
6.027112e-001 -1.758052e+000 2.979085e+000 152 93 61
4.756247e-001 -1.815447e+000 2.939197e+000 94 134 183
4.864041e-001 -1.806892e+000 2.953957e+000 107 143 195
4.864041e-001 -1.806892e+000 2.953957e+000 107 143 195
4.898480e-001 -1.796579e+000 2.955820e+000 99 136 188
4.975382e-001 -1.781959e+000 2.967253e+000 95 137 190
5.584847e-001 -1.766725e+000 3.001619e+000 197 83 69
5.350232e-001 -1.785798e+000 3.013462e+000 156 51 48
5.370021e-001 -1.788187e+000 3.012710e+000 156 51 48
5.341551e-001 -1.817473e+000 3.034587e+000 21 69 118
4.764465e-001 -1.925425e+000 2.994822e+000 159 121 110
5.842286e-001 -1.836864e+000 3.063754e+000 202 62 60
6.102053e-001 -1.859184e+000 3.076101e+000 155 100 69
4.219279e-001 -1.672345e+000 2.755392e+000 202 129 128
4.326889e-001 -1.642904e+000 2.764407e+000 154 36 46
4.590025e-001 -1.623309e+000 2.801541e+000 51 87 121
4.727878e-001 -1.645607e+000 2.843180e+000 37 50 25
4.636693e-001 -1.798584e+000 2.908744e+000 175 122 118
5.715799e-001 -1.725850e+000 2.966877e+000 188 122 88
5.662328e-001 -1.738386e+000 2.977973e+000 126 78 55
5.852738e-001 -1.748132e+000 2.979103e+000 141 87 62
4.535605e-001 -1.851222e+000 2.908034e+000 25 73 133
4.629638e-001 -1.831152e+000 2.923054e+000 87 126 186
4.661203e-001 -1.837090e+000 2.926863e+000 91 131 184
4.713381e-001 -1.820343e+000 2.936371e+000 29 66 114
4.753723e-001 -1.825143e+000 2.938421e+000 101 144 189
5.562294e-001 -1.753027e+000 2.993649e+000 165 64 50
5.778082e-001 -1.791501e+000 3.024191e+000 134 80 54
5.219248e-001 -1.847723e+000 3.041104e+000 64 9 15
5.961930e-001 -1.852341e+000 3.075380e+000 144 84 59
5.961930e-001 -1.852341e+000 3.075380e+000 144 84 59
4.225713e-001 -1.656223e+000 2.752109e+000 196 137 134
4.529758e-001 -1.611219e+000 2.792213e+000 157 136 149
5.723517e-001 -1.589233e+000 2.832348e+000 43 52 18
5.595725e-001 -1.720909e+000 2.967579e+000 133 81 59
4.680263e-001 -1.796700e+000 2.917207e+000 191 117 120
4.678224e-001 -1.806793e+000 2.922612e+000 182 62 71
4.633955e-001 -1.838912e+000 2.922813e+000 26 69 124
5.783158e-001 -1.836840e+000 3.065970e+000 148 38 40
4.845391e-001 -1.967262e+000 3.019236e+000 21 67 131
6.058279e-001 -1.872991e+000 3.090606e+000 145 106 65
5.472445e-001 -1.576808e+000 2.831269e+000 144 143 83
5.633049e-001 -1.615568e+000 2.863229e+000 49 57 17
5.633049e-001 -1.615568e+000 2.863229e+000 49 57 17
5.470029e-001 -1.698797e+000 2.943723e+000 147 149 138
4.947335e-001 -1.728478e+000 2.942249e+000 160 144 145
4.636838e-001 -1.812386e+000 2.918208e+000 172 57 68
4.867597e-001 -1.786583e+000 2.943212e+000 186 75 79
4.865212e-001 -1.803261e+000 2.953781e+000 101 129 169
4.865212e-001 -1.803261e+000 2.953781e+000 101 129 169
5.701612e-001 -1.781505e+000 3.015372e+000 186 119 89
5.216768e-001 -1.827014e+000 3.027426e+000 81 124 159
4.322787e-001 -1.645936e+000 2.769657e+000 187 144 146
4.322787e-001 -1.645936e+000 2.769657e+000 187 144 146
4.650875e-001 -1.686228e+000 2.848223e+000 153 154 76
4.650875e-001 -1.686228e+000 2.848223e+000 153 154 76
4.414463e-001 -1.743113e+000 2.836548e+000 158 156 114
4.691002e-001 -1.794779e+000 2.915265e+000 114 63 64
4.641321e-001 -1.830947e+000 2.926860e+000 82 114 162
4.641321e-001 -1.830947e+000 2.926860e+000 82 114 162
4.814703e-001 -1.810428e+000 2.946595e+000 101 126 168
4.839174e-001 -1.994876e+000 2.999038e+000 25 61 121
4.435601e-001 -1.629924e+000 2.779585e+000 177 128 127
1.442212e+000 -3.563723e+000 1.546243e+000 142 122 88
1.373010e+000 -3.678059e+000 1.617134e+000 162 138 92
4.533317e-001 -1.793228e+000 2.884580e+000 162 31 39
5.660331e-001 -1.757066e+000 2.993194e+000 191 120 86
4.769435e-001 -1.966414e+000 2.966291e+000 144 114 93
1.456778e+000 -3.660597e+000 1.694647e+000 163 138 98
1.447093e+000 -3.622811e+000 1.589094e+000 165 138 95
1.447093e+000 -3.622811e+000 1.589094e+000 165 138 95
5.335647e-001 -1.735785e+000 2.928696e+000 151 151 151
5.660168e-001 -1.925778e+000 3.137393e+000 174 130 105
1.215495e+000 -2.904108e+000 1.315314e+000 28 20 18
6.614480e-001 -1.876824e+000 3.231738e+000 128 105 89
1.027843e+000 -3.250309e+000 8.090267e-001 132 105 78
6.867870e-001 -1.891624e+000 3.216869e+000 47 33 30
7.051226e-001 -1.897673e+000 3.206522e+000 51 37 36
6.407033e-001 -1.873228e+000 3.238128e+000 42 32 30
6.449011e-001 -1.868909e+000 3.239461e+000 128 105 89
6.222738e-001 -1.867152e+000 3.247417e+000 44 32 32
6.477442e-001 -1.871819e+000 3.233430e+000 47 35 34
5.321386e-001 -2.018649e+000 3.116303e+000 108 60 62
5.338640e-001 -2.018430e+000 3.119345e+000 30 16 16
1.150739e+000 -3.059603e+000 1.343308e+000 45 32 13
1.056565e+000 -3.421048e+000 1.267615e+000 42 35 25
5.795977e-001 -1.948749e+000 3.165406e+000 126 35 36
6.697113e-001 -1.869078e+000 3.223252e+000 156 125 105
1.249850e+000 -2.914272e+000 1.343920e+000 30 18 18
1.249850e+000 -2.914272e+000 1.343920e+000 30 18 18
1.078179e+000 -3.353551e+000 1.284646e+000 26 18 15
1.077385e+000 -3.397942e+000 1.283807e+000 136 127 91
1.109892e+000 -2.957983e+000 1.309552e+000 207 172 104
1.134264e+000 -3.023141e+000 1.345556e+000 202 168 104
1.161990e+000 -3.033098e+000 1.359562e+000 29 20 15
1.164880e+000 -2.947449e+000 1.314881e+000 205 174 116
5.914553e-001 -1.953946e+000 3.169636e+000 32 15 23
4.379871e-001 -1.592509e+000 2.748938e+000 139 132 139
4.093238e-001 -1.650773e+000 2.721689e+000 59 135 212
4.094050e-001 -1.650836e+000 2.721671e+000 59 135 212
4.210820e-001 -1.663589e+000 2.756339e+000 208 144 143
4.223661e-001 -1.658660e+000 2.755276e+000 116 39 47
4.377407e-001 -1.635536e+000 2.770110e+000 155 42 54
4.158388e-001 -1.676480e+000 2.749725e+000 222 130 135
4.158388e-001 -1.676480e+000 2.749725e+000 222 130 135
4.317255e-001 -1.650350e+000 2.768075e+000 199 148 145
4.634094e-001 -1.616258e+000 2.810069e+000 56 91 132
4.183558e-001 -1.697629e+000 2.761765e+000 125 141 54
4.183558e-001 -1.697629e+000 2.761765e+000 125 141 54
4.482698e-001 -1.656976e+000 2.798359e+000 71 97 122
4.631515e-001 -1.656943e+000 2.828280e+000 132 135 47
5.051619e-001 -1.726855e+000 2.939725e+000 183 130 136
4.675235e-001 -1.791269e+000 2.916490e+000 105 27 38
4.763148e-001 -1.778803e+000 2.925634e+000 216 127 130
4.763148e-001 -1.778803e+000 2.925634e+000 216 127 130
4.778367e-001 -1.784819e+000 2.931111e+000 198 137 130
4.786019e-001 -1.785612e+000 2.930997e+000 198 137 130
4.830827e-001 -1.774924e+000 2.932590e+000 116 19 31
4.830827e-001 -1.774924e+000 2.932590e+000 116 19 31
4.819406e-001 -1.776696e+000 2.936008e+000 115 20 31
4.819406e-001 -1.776696e+000 2.936008e+000 115 20 31
4.542989e-001 -1.845265e+000 2.909165e+000 115 151 193
4.543362e-001 -1.845307e+000 2.909170e+000 115 151 193
4.647796e-001 -1.828589e+000 2.926974e+000 22 57 107
4.738506e-001 -1.811946e+000 2.940051e+000 114 159 210
4.746361e-001 -1.816705e+000 2.944334e+000 21 58 107
4.760629e-001 -1.814949e+000 2.943505e+000 127 155 190
4.760629e-001 -1.814949e+000 2.943505e+000 127 155 190
4.788378e-001 -1.806902e+000 2.944505e+000 108 153 211
4.844623e-001 -1.798264e+000 2.952774e+000 123 150 183
4.844570e-001 -1.798205e+000 2.952740e+000 123 150 183
4.883157e-001 -1.794633e+000 2.956292e+000 113 143 186
4.877970e-001 -1.798872e+000 2.957556e+000 22 58 107
4.942385e-001 -1.790001e+000 2.961352e+000 115 151 194
5.032424e-001 -1.780337e+000 2.970322e+000 115 152 198
4.854154e-001 -1.803157e+000 2.957040e+000 26 65 120
4.930841e-001 -1.792666e+000 2.965815e+000 110 144 183
4.972520e-001 -1.784143e+000 2.968792e+000 122 150 190
4.982870e-001 -1.787349e+000 2.971060e+000 112 148 188
5.001191e-001 -1.781077e+000 2.970285e+000 24 62 108
5.017367e-001 -1.782629e+000 2.974795e+000 115 151 197
5.028372e-001 -1.866724e+000 3.018684e+000 154 110 99
5.096245e-001 -1.859713e+000 3.026374e+000 146 55 53
5.307155e-001 -1.834134e+000 3.038053e+000 35 64 101
5.307155e-001 -1.834134e+000 3.038053e+000 35 64 101
4.767824e-001 -1.936729e+000 2.995401e+000 153 107 101
4.776523e-001 -1.968995e+000 2.995408e+000 29 23 40
5.282173e-001 -1.881573e+000 3.069451e+000 91 32 18
4.965571e-001 -2.037005e+000 3.073158e+000 107 31 47
5.655252e-001 -1.981822e+000 3.155250e+000 99 73 81
4.121562e-001 -1.667040e+000 2.732229e+000 142 150 186
4.213942e-001 -1.661542e+000 2.755458e+000 205 141 141
4.264963e-001 -1.656416e+000 2.762529e+000 188 148 144
4.352305e-001 -1.640163e+000 2.768749e+000 158 36 52
4.550420e-001 -1.610818e+000 2.789462e+000 145 87 92
4.209108e-001 -1.666210e+000 2.757716e+000 167 41 55
4.254057e-001 -1.659449e+000 2.763199e+000 166 34 58
4.498170e-001 -1.628853e+000 2.787893e+000 187 137 134
4.494195e-001 -1.655208e+000 2.801346e+000 133 137 44
4.225127e-001 -1.702583e+000 2.774127e+000 81 104 139
4.718628e-001 -1.645971e+000 2.843661e+000 31 48 25
4.599740e-001 -1.707853e+000 2.851405e+000 28 49 34
4.895337e-001 -1.717254e+000 2.915986e+000 166 136 134
4.891672e-001 -1.716990e+000 2.916090e+000 166 136 134
5.631760e-001 -1.725677e+000 2.965370e+000 139 87 74
5.631760e-001 -1.725677e+000 2.965370e+000 139 87 74
4.664786e-001 -1.797505e+000 2.915737e+000 125 16 33
4.661446e-001 -1.791120e+000 2.913855e+000 182 139 132
4.661446e-001 -1.791120e+000 2.913855e+000 182 139 132
4.801204e-001 -1.773570e+000 2.930457e+000 183 131 128
4.673703e-001 -1.826383e+000 2.931628e+000 24 63 114
4.671899e-001 -1.826235e+000 2.931676e+000 24 63 114
4.960321e-001 -1.790680e+000 2.964908e+000 24 61 106
4.940047e-001 -1.788704e+000 2.965067e+000 24 61 106
5.008802e-001 -1.791924e+000 2.979182e+000 132 35 46
4.653661e-001 -1.922311e+000 2.951636e+000 143 103 77
5.296489e-001 -1.814190e+000 3.029643e+000 133 156 179
5.301509e-001 -1.834617e+000 3.034771e+000 61 109 155
5.301509e-001 -1.834617e+000 3.034771e+000 61 109 155
5.235831e-001 -1.835511e+000 3.037985e+000 41 98 153
5.252732e-001 -1.832349e+000 3.039958e+000 66 119 172
4.780453e-001 -1.961470e+000 3.002547e+000 24 23 39
5.276672e-001 -1.875220e+000 3.065390e+000 155 79 63
4.857985e-001 -1.972001e+000 3.028521e+000 30 59 101
4.814782e-001 -2.004341e+000 3.037778e+000 152 87 47
4.430551e-001 -1.586159e+000 2.756105e+000 113 121 140
4.390498e-001 -1.596803e+000 2.755045e+000 39 83 136
4.215026e-001 -1.654588e+000 2.752400e+000 185 151 141
4.409794e-001 -1.636594e+000 2.777121e+000 156 39 58
4.409116e-001 -1.636459e+000 2.777041e+000 156 39 58
4.447032e-001 -1.627390e+000 2.777523e+000 177 141 132
4.751419e-001 -1.635067e+000 2.842497e+000 32 43 26
5.110174e-001 -1.678774e+000 2.909927e+000 129 138 135
4.439572e-001 -1.784928e+000 2.861055e+000 149 140 151
4.427515e-001 -1.794224e+000 2.860079e+000 166 136 145
4.429227e-001 -1.800630e+000 2.866902e+000 156 137 147
4.777615e-001 -1.786027e+000 2.934574e+000 122 25 35
5.591679e-001 -1.743166e+000 2.978573e+000 153 58 52
4.549234e-001 -1.866853e+000 2.911041e+000 151 120 102
4.609851e-001 -1.833826e+000 2.923242e+000 12 66 123
5.509296e-001 -1.772048e+000 3.003954e+000 189 84 72
5.052937e-001 -1.856693e+000 3.020983e+000 87 36 31
5.256839e-001 -1.839496e+000 3.031334e+000 70 127 175
4.779673e-001 -1.932367e+000 2.997195e+000 114 49 49
4.779673e-001 -1.932367e+000 2.997195e+000 114 49 49
4.783480e-001 -1.988411e+000 2.986942e+000 132 110 108
4.768465e-001 -1.954916e+000 3.001420e+000 143 116 111
4.865240e-001 -1.974583e+000 3.033123e+000 143 113 105
4.940627e-001 -2.031502e+000 3.061491e+000 169 132 130
4.928532e-001 -2.078294e+000 3.068607e+000 28 15 22
5.892815e-001 -1.960988e+000 3.165463e+000 115 37 42
4.553623e-001 -1.628752e+000 2.798640e+000 161 33 43
4.395896e-001 -1.799361e+000 2.846754e+000 141 112 120
4.454735e-001 -1.773648e+000 2.859513e+000 156 36 45
4.405945e-001 -1.798202e+000 2.855613e+000 160 131 143
4.411282e-001 -1.803875e+000 2.856949e+000 102 68 74
4.626941e-001 -1.811184e+000 2.917747e+000 98 20 30
4.759756e-001 -1.797854e+000 2.931252e+000 199 76 85
5.004792e-001 -1.804385e+000 2.987012e+000 127 21 36
4.673235e-001 -1.939167e+000 2.959092e+000 136 92 67
5.203632e-001 -1.821996e+000 3.023274e+000 7 66 120
4.850201e-001 -1.971514e+000 3.027985e+000 21 60 112
5.736505e-001 -1.892639e+000 3.108797e+000 149 95 48
4.952972e-001 -2.031885e+000 3.065958e+000 168 133 135
4.235878e-001 -1.650739e+000 2.753027e+000 172 34 54
4.551892e-001 -1.849797e+000 2.917382e+000 20 66 127
4.801662e-001 -1.807946e+000 2.947397e+000 66 93 128
6.469944e-001 -1.794379e+000 2.988098e+000 69 51 44
4.621686e-001 -1.902250e+000 2.940569e+000 134 91 56
5.302168e-001 -1.785560e+000 3.009484e+000 169 67 62
4.863245e-001 -2.026832e+000 3.020357e+000 145 86 46
5.458908e-001 -1.896611e+000 3.092462e+000 134 79 48
4.545218e-001 -1.610795e+000 2.789403e+000 150 85 85
4.733611e-001 -1.643000e+000 2.848624e+000 99 121 129
4.276233e-001 -1.732456e+000 2.795759e+000 149 145 106
1.690154e+000 -3.456747e+000 1.910208e+000 36 28 26
1.705027e+000 -3.436858e+000 1.931008e+000 135 118 98
5.006360e-001 -1.720002e+000 2.933946e+000 150 144 146
4.636110e-001 -1.798341e+000 2.903686e+000 134 24 35
4.737237e-001 -1.778163e+000 2.919974e+000 134 23 36
4.956292e-001 -2.076825e+000 3.061768e+000 165 97 54
4.956292e-001 -2.076825e+000 3.061768e+000 165 97 54
4.157329e-001 -1.685205e+000 2.752372e+000 74 92 116
4.490294e-001 -1.661623e+000 2.806556e+000 25 56 38
4.615028e-001 -1.670684e+000 2.836224e+000 21 53 40
4.280532e-001 -1.755396e+000 2.816448e+000 143 142 147
5.034185e-001 -1.669945e+000 2.901382e+000 128 133 139
1.449551e+000 -3.683105e+000 1.845317e+000 139 117 93
1.398231e+000 -3.599779e+000 1.886335e+000 139 117 93
4.609644e-001 -1.750263e+000 2.882803e+000 142 142 148
4.770057e-001 -1.729296e+000 2.902218e+000 147 141 145
4.770057e-001 -1.729296e+000 2.902218e+000 147 141 145
4.820951e-001 -1.747371e+000 2.917302e+000 142 137 141
4.748708e-001 -1.793416e+000 2.944509e+000 47 34 72
4.837187e-001 -1.790187e+000 2.949956e+000 16 57 98
4.882727e-001 -1.806799e+000 2.962269e+000 11 64 114
4.862107e-001 -2.004326e+000 3.048290e+000 158 91 36
4.174845e-001 -1.695113e+000 2.755970e+000 21 54 37
4.427826e-001 -1.657882e+000 2.787084e+000 38 90 148
4.430738e-001 -1.715319e+000 2.824398e+000 25 57 42
4.657238e-001 -1.766037e+000 2.895998e+000 143 142 148
5.083930e-001 -1.849167e+000 3.021009e+000 156 118 99
4.892473e-001 -2.014974e+000 3.007726e+000 145 110 94
5.715768e-001 -1.906873e+000 3.115135e+000 42 15 22
1.389458e+000 -3.498451e+000 2.030933e+000 38 30 25
5.500626e-001 -1.746449e+000 2.981064e+000 160 45 42
5.262547e-001 -1.874694e+000 3.059225e+000 133 51 40
5.481242e-001 -1.919328e+000 3.111782e+000 39 13 22
5.880846e-001 -1.923763e+000 3.132795e+000 187 160 139
1.758078e+000 -3.277615e+000 2.000048e+000 36 24 26
1.822143e+000 -3.466029e+000 1.980164e+000 174 155 122
4.945642e-001 -2.043894e+000 3.059901e+000 141 75 73
5.658460e-001 -1.948810e+000 3.144484e+000 158 123 105
4.440546e-001 -1.593377e+000 2.778352e+000 14 74 136
5.982148e-001 -1.888048e+000 3.075596e+000 168 135 104
5.142440e-001 -1.676211e+000 2.794939e+000 26 53 38
4.421346e-001 -1.636692e+000 2.780161e+000 207 139 138
4.538667e-001 -1.629565e+000 2.794521e+000 235 115 117
4.538272e-001 -1.629521e+000 2.794512e+000 235 115 117
5.027456e-001 -1.727288e+000 2.943543e+000 168 143 143
4.750282e-001 -1.944604e+000 2.998486e+000 158 110 105
5.924099e-001 -1.911391e+000 3.130093e+000 104 83 60
4.552176e-001 -1.607073e+000 2.787251e+000 12 82 143
4.131626e-001 -1.688037e+000 2.748322e+000 58 93 139
5.019109e-001 -1.726169e+000 2.939291e+000 178 133 134
5.550018e-001 -1.780672e+000 3.012399e+000 152 40 33
5.652671e-001 -1.884623e+000 3.114419e+000 155 94 36
4.938005e-001 -2.038921e+000 3.056662e+000 142 95 87
4.926599e-001 -2.048803e+000 3.057517e+000 154 97 88
4.215431e-001 -1.654782e+000 2.752588e+000 196 137 134
4.498137e-001 -1.792011e+000 2.880927e+000 156 142 147
9.680511e-001 -1.958882e+000 3.052609e+000 57 46 38
2.162362e+000 -2.587140e+000 1.607071e+000 153 124 84
2.142958e+000 -2.697781e+000 1.394584e+000 118 94 59
2.162417e+000 -2.748939e+000 1.366534e+000 173 145 55
1.364087e+000 -3.427295e+000 1.469968e+000 78 64 55
1.397983e+000 -3.380902e+000 1.509368e+000 96 80 62
1.377280e+000 -3.427091e+000 1.536325e+000 93 77 61
5.899292e-001 -1.848037e+000 3.263314e+000 148 119 103
2.163910e+000 -2.620053e+000 1.681996e+000 96 68 47
5.861271e-001 -1.938784e+000 3.156947e+000 190 155 130
2.145982e+000 -2.632954e+000 1.629043e+000 70 44 31
4.427611e-001 -1.593064e+000 2.756299e+000 45 94 146
2.158648e+000 -2.608246e+000 1.423061e+000 35 23 23
5.901997e-001 -1.925807e+000 3.134582e+000 191 162 128
4.449122e-001 -1.766898e+000 2.855670e+000 160 161 170
4.920771e-001 -1.721341e+000 2.916963e+000 100 48 40
4.439582e-001 -1.775903e+000 2.857718e+000 134 116 100
4.952790e-001 -1.717932e+000 2.927174e+000 173 126 105
4.410135e-001 -1.807962e+000 2.855408e+000 139 106 87
4.429057e-001 -1.808879e+000 2.855278e+000 139 106 87
4.659892e-001 -1.800509e+000 2.916409e+000 190 114 100
4.659892e-001 -1.800509e+000 2.916409e+000 190 114 100
4.664422e-001 -1.791460e+000 2.913752e+000 182 116 100
4.678173e-001 -1.797437e+000 2.919025e+000 200 109 101
4.678173e-001 -1.797437e+000 2.919025e+000 200 109 101
4.802582e-001 -1.778824e+000 2.935820e+000 183 121 93
4.848644e-001 -1.904343e+000 2.859684e+000 91 38 31
4.514034e-001 -1.853429e+000 2.888875e+000 60 25 46
4.843526e-001 -1.782897e+000 2.944183e+000 198 79 82
4.923523e-001 -1.788158e+000 2.961536e+000 97 125 144
4.573747e-001 -1.845703e+000 2.915863e+000 108 139 149
4.653525e-001 -1.828842e+000 2.927156e+000 29 51 70
4.737381e-001 -1.816508e+000 2.938955e+000 20 55 74
4.741147e-001 -1.812085e+000 2.940067e+000 104 141 163
4.713886e-001 -1.820449e+000 2.937087e+000 22 52 69
4.768124e-001 -1.808431e+000 2.947018e+000 123 140 139
4.888160e-001 -1.799279e+000 2.957518e+000 19 56 74
4.884133e-001 -1.798379e+000 2.960314e+000 104 133 147
4.841724e-001 -1.799014e+000 2.960747e+000 18 55 81
4.863521e-001 -1.924295e+000 2.884213e+000 55 35 28
4.859113e-001 -1.808068e+000 2.965075e+000 126 42 37
4.901671e-001 -1.808573e+000 2.970310e+000 118 55 40
4.901671e-001 -1.808573e+000 2.970310e+000 118 55 40
5.284310e-001 -1.812883e+000 3.026408e+000 17 55 93
5.282680e-001 -1.812673e+000 3.026458e+000 17 55 93
5.215735e-001 -1.825686e+000 3.031370e+000 27 60 84
5.214342e-001 -1.835496e+000 3.034835e+000 25 64 94
5.348081e-001 -1.820302e+000 3.039808e+000 69 117 149
5.351174e-001 -1.820578e+000 3.039839e+000 69 117 149
4.718102e-001 -1.949944e+000 2.966478e+000 79 47 29
4.703450e-001 -1.935271e+000 2.962409e+000 42 13 14
4.283541e-001 -1.647034e+000 2.759685e+000 185 129 103
4.300686e-001 -1.653026e+000 2.768814e+000 137 39 38
4.553886e-001 -1.628580e+000 2.803002e+000 128 131 121
4.752631e-001 -1.755512e+000 2.705747e+000 82 87 58
4.711681e-001 -1.636706e+000 2.837789e+000 25 40 23
4.713408e-001 -1.785445e+000 2.919819e+000 174 133 100
4.665868e-001 -1.797501e+000 2.915673e+000 116 26 28
4.775115e-001 -1.784321e+000 2.930867e+000 184 123 96
4.520952e-001 -1.857531e+000 2.892082e+000 12 46 74
4.593254e-001 -1.839050e+000 2.918988e+000 28 51 67
4.593254e-001 -1.839050e+000 2.918988e+000 28 51 67
5.276853e-001 -1.818928e+000 3.030816e+000 22 62 99
8.890550e-001 -1.926519e+000 3.116681e+000 129 116 107
8.815188e-001 -1.925171e+000 3.123289e+000 126 112 103
5.178471e-001 -1.830595e+000 3.028484e+000 25 60 86
5.110257e-001 -1.824241e+000 3.031577e+000 62 106 140
4.682955e-001 -1.927649e+000 2.955669e+000 85 47 26
4.774211e-001 -1.956710e+000 2.949688e+000 77 49 28
4.788150e-001 -1.966674e+000 2.998944e+000 20 17 30
4.809489e-001 -1.951503e+000 3.009427e+000 137 100 73
4.278784e-001 -1.655907e+000 2.765547e+000 133 43 41
4.708866e-001 -1.776886e+000 2.731523e+000 59 61 37
4.974817e-001 -1.817186e+000 2.746810e+000 98 86 74
5.041114e-001 -1.670970e+000 2.909449e+000 82 90 79
4.399092e-001 -1.794604e+000 2.851920e+000 106 70 58
4.442505e-001 -1.792875e+000 2.861710e+000 151 120 99
4.512692e-001 -1.792807e+000 2.880979e+000 137 125 103
4.560087e-001 -1.786084e+000 2.887441e+000 135 129 107
4.551579e-001 -1.785615e+000 2.887443e+000 135 129 107
4.723540e-001 -1.790634e+000 2.924446e+000 178 126 97
5.098096e-001 -1.741543e+000 2.967601e+000 148 142 123
4.521250e-001 -1.861196e+000 2.892220e+000 128 93 63
4.780611e-001 -1.811109e+000 2.943872e+000 18 58 90
4.780455e-001 -1.811132e+000 2.943946e+000 18 58 90
5.271013e-001 -1.783805e+000 3.008746e+000 179 65 64
4.682744e-001 -1.927416e+000 2.936398e+000 74 47 28
4.692552e-001 -1.933086e+000 2.941451e+000 113 75 49
5.122197e-001 -1.861465e+000 3.036073e+000 150 53 46
5.119661e-001 -1.861358e+000 3.036137e+000 150 53 46
4.802932e-001 -1.957968e+000 3.001473e+000 128 100 75
4.849164e-001 -1.988855e+000 3.024345e+000 131 100 78
4.128015e-001 -1.666573e+000 2.737113e+000 142 26 40
4.126911e-001 -1.666637e+000 2.737136e+000 142 26 40
4.199968e-001 -1.655825e+000 2.748260e+000 151 34 41
4.470094e-001 -1.623623e+000 2.778361e+000 148 29 38
4.393103e-001 -1.646876e+000 2.781479e+000 149 29 38
4.374584e-001 -1.646024e+000 2.781677e+000 149 29 38
4.163316e-001 -1.680989e+000 2.749059e+000 140 29 35
4.206586e-001 -1.698330e+000 2.761990e+000 102 102 25
4.206586e-001 -1.698330e+000 2.761990e+000 102 102 25
4.709481e-001 -1.766788e+000 2.724332e+000 38 42 26
4.495616e-001 -1.702848e+000 2.829583e+000 145 141 40
4.518414e-001 -1.792970e+000 2.880229e+000 137 126 105
4.843837e-001 -1.800268e+000 2.954284e+000 71 96 105
5.318030e-001 -1.809177e+000 3.030464e+000 18 65 102
5.351788e-001 -1.815604e+000 3.036206e+000 21 64 96
5.174113e-001 -1.830475e+000 3.025888e+000 23 61 87
4.652258e-001 -1.918201e+000 2.954962e+000 82 45 27
5.215832e-001 -1.875701e+000 3.058411e+000 78 17 22
4.147277e-001 -1.710781e+000 2.751336e+000 46 70 81
4.643844e-001 -1.661226e+000 2.835121e+000 134 136 37
4.811368e-001 -1.808363e+000 2.947426e+000 81 99 105
5.274405e-001 -1.818921e+000 3.027018e+000 20 62 102
5.328668e-001 -1.825857e+000 3.043394e+000 24 68 100
4.778248e-001 -1.959587e+000 2.957834e+000 90 58 33
4.779038e-001 -1.981242e+000 2.986234e+000 17 15 30
4.419142e-001 -1.672103e+000 2.796032e+000 23 45 24
4.283793e-001 -1.740243e+000 2.752735e+000 66 75 82
4.278889e-001 -1.740072e+000 2.752858e+000 66 75 82
4.561868e-001 -1.700712e+000 2.843133e+000 144 141 60
4.383480e-001 -1.752146e+000 2.832742e+000 140 130 105
4.383480e-001 -1.752146e+000 2.832742e+000 140 130 105
4.961933e-001 -1.677233e+000 2.902829e+000 31 45 32
4.856804e-001 -1.715173e+000 2.916402e+000 149 92 81
4.672180e-001 -1.769157e+000 2.897955e+000 136 130 113
5.049763e-001 -1.739109e+000 2.957091e+000 137 23 31
4.835098e-001 -1.900013e+000 2.860278e+000 98 39 33
4.759330e-001 -1.784593e+000 2.732566e+000 47 49 31
4.622269e-001 -1.662089e+000 2.830839e+000 135 131 83
4.539172e-001 -1.681035e+000 2.826968e+000 24 50 26
4.636581e-001 -1.673237e+000 2.845666e+000 141 131 99
4.636581e-001 -1.673237e+000 2.845666e+000 141 131 99
4.256915e-001 -1.731518e+000 2.795789e+000 134 126 54
4.935103e-001 -1.655525e+000 2.879403e+000 23 46 35
5.059841e-001 -1.739955e+000 2.957158e+000 140 21 31
4.836611e-001 -1.798070e+000 2.945118e+000 11 56 89
4.999991e-001 -1.804738e+000 2.979130e+000 156 106 73
5.598456e-001 -1.822831e+000 3.050042e+000 167 134 100
4.835962e-001 -1.989931e+000 2.970175e+000 45 15 13
4.408381e-001 -1.668232e+000 2.661970e+000 176 158 134
4.447750e-001 -1.758562e+000 2.751984e+000 103 101 88
4.242956e-001 -1.714045e+000 2.782047e+000 133 128 98
4.240455e-001 -1.713847e+000 2.782054e+000 133 128 98
4.287430e-001 -1.729665e+000 2.807156e+000 24 45 26
4.287430e-001 -1.729665e+000 2.807156e+000 24 45 26
4.409329e-001 -1.713583e+000 2.823720e+000 21 49 27
4.793846e-001 -1.663684e+000 2.870586e+000 22 48 22
4.659587e-001 -1.699056e+000 2.862594e+000 138 133 101
5.021271e-001 -1.901513e+000 2.840077e+000 114 56 45
4.707139e-001 -1.938064e+000 2.952477e+000 114 78 52
4.121267e-001 -1.687990e+000 2.725405e+000 60 79 93
4.207408e-001 -1.721630e+000 2.757341e+000 122 111 93
4.222273e-001 -1.722652e+000 2.757716e+000 122 111 93
4.228677e-001 -1.728609e+000 2.785158e+000 27 42 35
4.322007e-001 -1.747025e+000 2.822503e+000 21 45 31
4.418704e-001 -1.827202e+000 2.878177e+000 112 21 28
4.985127e-001 -1.789349e+000 2.982064e+000 95 24 27
4.737063e-001 -1.944178e+000 2.937235e+000 37 16 21
4.751178e-001 -1.945359e+000 2.937847e+000 37 16 21
4.489865e-001 -1.807405e+000 2.876282e+000 131 125 103
4.546576e-001 -1.856368e+000 2.901661e+000 10 53 85
4.541420e-001 -1.856327e+000 2.901762e+000 10 53 85
4.856952e-001 -1.962587e+000 2.987189e+000 120 95 70
4.407792e-001 -1.625680e+000 2.741154e+000 12 66 102
4.219542e-001 -1.663093e+000 2.752449e+000 124 50 43
4.418571e-001 -1.764809e+000 2.907330e+000 135 135 109
5.954785e-001 -1.847787e+000 2.673845e+000 207 190 144
4.557395e-001 -1.832030e+000 2.903961e+000 119 17 30
4.557395e-001 -1.832030e+000 2.903961e+000 119 17 30
5.102765e-001 -1.935248e+000 2.907753e+000 112 88 64
4.279184e-001 -1.653810e+000 2.762375e+000 120 55 45
4.279184e-001 -1.653810e+000 2.762375e+000 120 55 45
4.670672e-001 -1.790990e+000 2.916461e+000 98 27 31
4.693400e-001 -1.787313e+000 2.918569e+000 108 29 27
4.736529e-001 -1.784887e+000 2.922780e+000 96 15 22
4.922581e-001 -1.792115e+000 2.965669e+000 106 146 166
5.006137e-001 -1.781988e+000 2.974721e+000 97 142 165
5.268008e-001 -1.812469e+000 3.029044e+000 115 160 194
5.076751e-001 -1.854148e+000 3.024973e+000 113 44 29
4.761806e-001 -1.970401e+000 2.992471e+000 25 17 26
4.792965e-001 -1.958614e+000 3.019928e+000 33 45 56
4.128931e-001 -1.666939e+000 2.734759e+000 137 30 38
4.399650e-001 -1.633232e+000 2.774247e+000 151 35 42
4.378863e-001 -1.640380e+000 2.773599e+000 141 42 38
4.156864e-001 -1.682943e+000 2.749503e+000 145 27 31
4.156864e-001 -1.682943e+000 2.749503e+000 145 27 31
4.171995e-001 -1.710188e+000 2.754465e+000 68 77 75
4.731803e-001 -1.632927e+000 2.842117e+000 29 43 15
4.632157e-001 -1.802369e+000 2.914776e+000 122 17 27
4.713097e-001 -1.820042e+000 2.936864e+000 25 52 79
4.878769e-001 -1.793795e+000 2.959540e+000 26 60 79
4.878769e-001 -1.793795e+000 2.959540e+000 26 60 79
4.910600e-001 -1.787093e+000 2.964713e+000 29 56 77
4.477353e-001 -1.634263e+000 2.782746e+000 188 135 104
4.152079e-001 -1.695253e+000 2.750887e+000 24 44 31
4.684180e-001 -1.644348e+000 2.843843e+000 29 42 22
4.408357e-001 -1.802005e+000 2.851724e+000 146 115 95
5.435258e-001 -1.818282e+000 3.044225e+000 171 136 100
5.276077e-001 -1.745790e+000 2.973729e+000 165 50 46
4.711925e-001 -1.905201e+000 2.882869e+000 58 35 28
4.354383e-001 -1.640878e+000 2.771099e+000 158 33 39
4.726159e-001 -1.633140e+000 2.837707e+000 70 71 20
4.648993e-001 -1.790834e+000 2.916231e+000 100 34 39
4.678371e-001 -1.792463e+000 2.916319e+000 100 34 39
4.486887e-001 -1.686852e+000 2.820861e+000 150 142 56
4.662000e-001 -1.833737e+000 2.934889e+000 17 58 87
4.272488e-001 -1.718137e+000 2.802742e+000 142 136 110
4.619615e-001 -1.752335e+000 2.884599e+000 138 132 116
4.643664e-001 -1.616788e+000 2.817321e+000 87 107 114
4.292880e-001 -1.605945e+000 2.745660e+000 14 68 104
7.451245e-001 -2.325312e+000 2.687681e+000 20 15 20
4.566544e-001 -1.828749e+000 2.973889e+000 149 114 84
4.566544e-001 -1.828749e+000 2.973889e+000 149 114 84
4.320151e-001 -1.643666e+000 2.765008e+000 127 34 30
4.320151e-001 -1.643666e+000 2.765008e+000 127 34 30
4.774354e-001 -1.942823e+000 2.997377e+000 140 94 76
4.639607e-001 -1.802874e+000 2.914574e+000 118 20 26
4.806392e-001 -1.990026e+000 2.991784e+000 25 40 62
4.669481e-001 -1.930306e+000 2.962577e+000 38 12 15
4.579416e-001 -1.656156e+000 2.823143e+000 22 47 26
5.034773e-001 -1.861798e+000 3.022930e+000 84 22 25
1.039589e-001 -1.489577e+000 3.293840e+000 56 59 92
4.923915e-001 -2.047356e+000 3.049687e+000 125 85 78
4.967843e-001 -2.047785e+000 3.070258e+000 116 30 39
4.965910e-001 -2.037128e+000 3.073179e+000 107 31 47
2.036170e+000 -2.766781e+000 1.412778e+000 125 102 67
1.787292e+000 -2.851290e+000 1.430911e+000 110 105 114
1.857596e+000 -3.244507e+000 1.371597e+000 69 50 44
1.870870e+000 -3.279992e+000 1.380580e+000 131 81 46
1.913168e+000 -3.143324e+000 1.124299e+000 165 143 119
1.824100e+000 -2.817003e+000 1.422319e+000 91 91 120
1.820413e+000 -3.438005e+000 1.304226e+000 60 44 27
1.820413e+000 -3.438005e+000 1.304226e+000 60 44 27
1.888942e+000 -3.122537e+000 1.518492e+000 110 81 65
1.403149e+000 -3.277023e+000 1.505111e+000 75 62 51
1.381774e+000 -3.230466e+000 1.554439e+000 79 69 63
1.480559e+000 -3.273926e+000 1.552770e+000 96 81 74
1.552923e+000 -3.335079e+000 1.480872e+000 72 59 44
1.447798e+000 -3.235278e+000 1.610962e+000 96 81 71
1.379485e+000 -3.259069e+000 1.632983e+000 99 84 77
2.012665e+000 -2.779465e+000 1.328934e+000 150 114 87
1.947675e+000 -3.158795e+000 1.029976e+000 213 182 153
1.886765e+000 -3.333700e+000 1.451757e+000 50 34 37
1.559314e+000 -3.272312e+000 1.532807e+000 75 61 48
1.599437e+000 -3.248237e+000 1.551967e+000 76 64 51
1.954551e+000 -3.299147e+000 1.554262e+000 29 18 24
1.395495e+000 -3.277641e+000 1.587485e+000 101 84 77
1.420643e+000 -3.289536e+000 1.619841e+000 31 25 27
1.877905e+000 -3.375972e+000 1.592110e+000 29 19 18
1.801043e+000 -2.812201e+000 1.385207e+000 118 112 124
1.797623e+000 -2.841192e+000 1.495968e+000 150 126 98
1.791339e+000 -3.407106e+000 1.361702e+000 174 147 118
1.713799e+000 -3.259755e+000 1.620884e+000 122 101 82
1.713799e+000 -3.259755e+000 1.620884e+000 122 101 82
1.918475e+000 -3.360184e+000 1.630040e+000 64 52 44
1.897919e+000 -3.383884e+000 1.634184e+000 29 19 17
1.906455e+000 -3.379061e+000 1.667435e+000 69 54 51
1.891595e+000 -3.405725e+000 1.662810e+000 30 20 19
1.477842e+000 -3.635593e+000 1.719597e+000 34 26 22
1.477842e+000 -3.635593e+000 1.719597e+000 34 26 22
5.000628e-001 -2.033227e+000 3.074791e+000 161 132 140
2.055488e+000 -2.773081e+000 1.364255e+000 187 166 77
1.772137e+000 -2.860611e+000 1.364379e+000 140 74 58
1.878997e+000 -2.800600e+000 1.452568e+000 134 134 160
1.828581e+000 -3.194057e+000 1.519000e+000 35 21 21
1.908696e+000 -3.248997e+000 1.614264e+000 111 93 79
1.908696e+000 -3.248997e+000 1.614264e+000 111 93 79
1.843988e+000 -3.358690e+000 1.577293e+000 32 20 22
1.605738e+000 -3.352170e+000 1.619233e+000 199 171 131
