ply
format ascii 1.0
element face 0
property list uchar int vertex_indices
element vertex 902
property float x
property float y
property float z
property uchar diffuse_red
property uchar diffuse_green
property uchar diffuse_blue
end_header
2.473015e+000 -2.010310e+000 3.093592e+000 144 121 88
2.712588e+000 -2.028908e+000 3.258899e+000 214 185 129
4.978768e-001 -1.952991e+000 2.814110e+000 15 88 165
5.202895e-001 -2.031432e+000 2.883887e+000 42 13 18
5.205143e-001 -1.881553e+000 2.642581e+000 25 43 19
4.682720e-001 -1.851863e+000 2.747544e+000 167 170 177
2.719469e+000 -2.127029e+000 3.274980e+000 53 43 33
5.688866e-001 -2.088278e+000 3.014527e+000 164 138 125
5.270863e-001 -1.822039e+000 2.573342e+000 146 86 59
5.291476e-001 -1.920622e+000 2.679939e+000 128 121 105
6.511375e-001 -2.180546e+000 2.884870e+000 51 63 43
5.424773e-001 -2.149747e+000 2.972797e+000 149 112 114
5.720516e-001 -2.036061e+000 2.772399e+000 134 109 83
5.798873e-001 -2.035358e+000 2.777337e+000 134 109 83
5.668988e-001 -2.164260e+000 2.931341e+000 30 45 26
4.999757e-001 -1.924962e+000 2.810177e+000 159 24 38
5.292246e-001 -1.925088e+000 2.879992e+000 179 150 134
5.091761e-001 -2.073468e+000 2.840770e+000 130 103 84
5.759526e-001 -2.056839e+000 3.010882e+000 170 148 134
5.501196e-001 -1.877275e+000 2.620336e+000 109 116 47
5.457800e-001 -1.945880e+000 2.695357e+000 118 65 52
5.383809e-001 -1.960230e+000 2.718884e+000 117 67 48
5.656410e-001 -1.995757e+000 2.730387e+000 155 69 59
5.623099e-001 -2.044432e+000 2.793386e+000 127 92 70
5.690847e-001 -2.092591e+000 2.838938e+000 117 82 63
6.361860e-001 -1.952041e+000 3.161424e+000 144 127 107
6.398592e-001 -2.188831e+000 2.897245e+000 26 35 14
5.710163e-001 -1.816104e+000 2.552851e+000 40 62 69
5.236405e-001 -1.822131e+000 2.580461e+000 121 28 26
5.238105e-001 -1.825803e+000 2.583338e+000 122 27 25
4.988161e-001 -1.714315e+000 2.717038e+000 51 105 164
5.020747e-001 -1.763887e+000 2.743464e+000 36 61 20
5.690023e-001 -1.893625e+000 2.626356e+000 36 34 20
4.793483e-001 -1.815364e+000 2.722966e+000 35 67 47
4.908444e-001 -1.856935e+000 2.769969e+000 153 37 54
5.315111e-001 -1.946515e+000 2.711581e+000 116 63 49
5.300543e-001 -1.946652e+000 2.710882e+000 116 63 49
5.108479e-001 -1.916682e+000 2.841884e+000 94 154 210
5.720973e-001 -2.047534e+000 2.784589e+000 131 91 67
5.491697e-001 -2.062426e+000 2.825452e+000 86 62 50
6.854691e-001 -1.967073e+000 3.130909e+000 62 52 42
6.341837e-001 -2.185110e+000 2.896865e+000 55 65 40
5.238103e-001 -1.861213e+000 2.622036e+000 99 95 31
5.629191e-001 -2.068279e+000 2.817344e+000 102 69 53
5.629698e-001 -2.068263e+000 2.817359e+000 102 69 53
6.196099e-001 -2.109444e+000 2.820573e+000 94 56 35
6.292480e-001 -2.136188e+000 2.843351e+000 119 77 55
5.666996e-001 -2.099662e+000 2.847245e+000 108 76 63
5.637721e-001 -2.099532e+000 2.845549e+000 108 76 63
5.665391e-001 -2.129488e+000 2.882467e+000 102 61 41
6.115911e-001 -2.178033e+000 2.902657e+000 27 33 19
4.824507e-001 -1.895199e+000 2.757124e+000 140 108 115
5.817496e-001 -1.873325e+000 2.604561e+000 28 41 14
5.509243e-001 -2.049173e+000 2.803557e+000 123 86 68
5.828925e-001 -2.079182e+000 2.811308e+000 124 85 64
5.828925e-001 -2.079182e+000 2.811308e+000 124 85 64
5.319132e-001 -2.086118e+000 2.937736e+000 159 136 125
5.552769e-001 -2.181984e+000 2.960197e+000 106 47 30
5.731097e-001 -1.997275e+000 2.726071e+000 112 42 27
4.957246e-001 -1.948215e+000 2.791965e+000 145 152 160
3.387394e+000 -9.747095e-001 2.180964e+000 187 150 111
3.387394e+000 -9.747095e-001 2.180964e+000 187 150 111
5.353272e-001 -1.825118e+000 2.575064e+000 107 31 25
5.625442e-001 -1.914099e+000 2.650361e+000 49 23 9
5.546749e-001 -1.917340e+000 2.656789e+000 66 32 23
5.405470e-001 -1.923517e+000 2.672382e+000 130 116 99
5.917777e-001 -1.959157e+000 2.682178e+000 125 69 45
5.561566e-001 -1.955630e+000 2.694787e+000 125 70 50
5.734463e-001 -1.972295e+000 2.700635e+000 148 84 58
6.016489e-001 -2.001753e+000 2.718052e+000 91 31 27
5.867150e-001 -1.997730e+000 2.723115e+000 154 66 55
6.237420e-001 -2.019880e+000 2.732620e+000 151 56 46
5.422182e-001 -1.919002e+000 2.666943e+000 153 109 93
5.580340e-001 -1.950138e+000 2.686088e+000 127 70 50
5.581899e-001 -1.950277e+000 2.685906e+000 127 70 50
5.676262e-001 -1.967745e+000 2.705937e+000 109 56 34
5.429329e-001 -2.149723e+000 2.945865e+000 144 101 88
5.598672e-001 -2.002869e+000 2.749431e+000 103 54 42
5.689391e-001 -1.868115e+000 2.604027e+000 122 113 45
5.985020e-001 -2.096839e+000 2.821327e+000 102 57 35
5.966567e-001 -2.121895e+000 2.848603e+000 122 70 46
5.723903e-001 -2.136072e+000 2.881586e+000 122 70 46
5.506111e-001 -2.177056e+000 2.967095e+000 96 44 27
2.840984e+000 -9.989579e-001 2.785854e+000 130 90 47
5.590441e-001 -1.821007e+000 2.567286e+000 144 74 56
5.528027e-001 -1.864143e+000 2.599797e+000 32 42 20
5.588034e-001 -2.061532e+000 2.812972e+000 128 92 70
5.592260e-001 -2.061510e+000 2.813254e+000 128 92 70
2.745899e+000 -1.204785e+000 2.813465e+000 81 64 48
5.822166e-001 -2.019436e+000 2.751839e+000 98 25 26
5.656214e-001 -1.828011e+000 2.565261e+000 113 42 23
5.809748e-001 -1.942106e+000 2.670323e+000 154 80 54
5.547128e-001 -1.992301e+000 2.737294e+000 165 63 59
5.686268e-001 -1.819461e+000 2.558624e+000 116 30 24
5.686268e-001 -1.819461e+000 2.558624e+000 116 30 24
5.633258e-001 -1.818735e+000 2.560776e+000 116 34 20
5.506120e-001 -1.817344e+000 2.565261e+000 116 34 23
5.918942e-001 -2.085883e+000 2.811768e+000 94 56 37
5.459789e-001 -2.163868e+000 2.984678e+000 170 106 50
5.122912e-001 -1.841392e+000 2.614533e+000 27 35 13
5.330086e-001 -1.885755e+000 2.639289e+000 31 39 24
5.332736e-001 -2.012023e+000 2.784042e+000 114 80 53
4.619732e-001 -1.793557e+000 2.676270e+000 93 128 153
5.756085e-001 -1.823319e+000 2.556196e+000 188 110 79
5.756085e-001 -1.823319e+000 2.556196e+000 188 110 79
5.693401e-001 -1.822703e+000 2.558365e+000 186 110 79
5.442639e-001 -1.819305e+000 2.566481e+000 196 99 61
5.442639e-001 -1.819305e+000 2.566481e+000 196 99 61
5.202083e-001 -1.811573e+000 2.574906e+000 123 114 112
5.178372e-001 -1.810016e+000 2.574294e+000 18 58 88
5.646317e-001 -1.923172e+000 2.655350e+000 133 99 78
5.461911e-001 -1.918526e+000 2.661413e+000 65 41 29
5.396746e-001 -1.918172e+000 2.668557e+000 139 112 95
5.718280e-001 -1.941978e+000 2.672098e+000 154 81 60
5.718280e-001 -1.941978e+000 2.672098e+000 154 81 60
5.524407e-001 -1.937481e+000 2.678470e+000 91 34 21
5.434287e-001 -1.939128e+000 2.686231e+000 83 33 26
5.456098e-001 -1.945913e+000 2.695188e+000 121 65 52
5.204995e-001 -1.942443e+000 2.719322e+000 118 70 56
5.205297e-001 -1.942335e+000 2.719275e+000 118 70 56
5.961303e-001 -1.996477e+000 2.716970e+000 91 29 27
5.651919e-001 -1.995881e+000 2.730000e+000 174 85 72
5.550741e-001 -1.992258e+000 2.737801e+000 160 62 60
5.209207e-001 -1.980000e+000 2.761822e+000 142 114 100
1.083037e+000 -2.028193e+000 2.957391e+000 117 103 76
5.782948e-001 -2.021854e+000 2.750043e+000 132 47 41
5.782948e-001 -2.021854e+000 2.750043e+000 132 47 41
5.572504e-001 -2.010432e+000 2.755479e+000 90 26 21
5.307703e-001 -1.995537e+000 2.769649e+000 107 34 30
5.357852e-001 -2.005601e+000 2.775536e+000 86 52 31
5.357852e-001 -2.005601e+000 2.775536e+000 86 52 31
5.619916e-001 -2.077236e+000 2.828323e+000 130 93 69
5.883585e-001 -2.104940e+000 2.835212e+000 134 85 61
6.334259e-001 -2.141225e+000 2.848648e+000 101 64 38
6.267161e-001 -2.176333e+000 2.891076e+000 71 81 50
6.366725e-001 -2.185740e+000 2.896333e+000 66 77 45
5.681834e-001 -2.162851e+000 2.924005e+000 29 44 23
5.524244e-001 -2.185448e+000 2.982017e+000 42 24 19
5.748399e-001 -1.818505e+000 2.552206e+000 126 113 83
5.729907e-001 -1.820966e+000 2.556429e+000 128 33 28
5.723817e-001 -1.821275e+000 2.556263e+000 128 33 28
5.671755e-001 -1.820059e+000 2.558705e+000 129 34 27
5.966193e-001 -1.885411e+000 2.607852e+000 31 35 6
5.888188e-001 -1.952878e+000 2.676201e+000 125 69 46
5.522240e-001 -1.954677e+000 2.697598e+000 119 66 51
5.465893e-001 -1.963386e+000 2.712938e+000 112 59 45
5.772983e-001 -2.000113e+000 2.726768e+000 89 32 23
5.519144e-001 -1.985911e+000 2.735979e+000 130 117 98
5.953983e-001 -2.027022e+000 2.749263e+000 152 107 79
5.592828e-001 -2.013563e+000 2.755471e+000 142 52 47
5.316076e-001 -2.015671e+000 2.795985e+000 141 106 79
6.309173e-001 -2.077736e+000 2.782786e+000 79 33 20
5.915598e-001 -2.067629e+000 2.792225e+000 131 69 46
5.665814e-001 -2.048626e+000 2.790729e+000 143 97 73
5.984131e-001 -2.097332e+000 2.819368e+000 89 46 21
6.217151e-001 -2.120102e+000 2.829470e+000 110 70 45
6.081008e-001 -2.149408e+000 2.870363e+000 92 50 26
6.424689e-001 -2.177969e+000 2.884732e+000 70 82 47
5.360439e-001 -2.123731e+000 2.923364e+000 146 80 28
6.551440e-001 -2.199857e+000 2.906023e+000 103 65 40
5.969380e-001 -2.178901e+000 2.916466e+000 61 74 48
5.969380e-001 -2.178901e+000 2.916466e+000 61 74 48
5.774848e-001 -1.887880e+000 2.616921e+000 35 41 10
5.785481e-001 -1.956249e+000 2.678738e+000 152 85 58
5.785481e-001 -1.956249e+000 2.678738e+000 152 85 58
5.340635e-001 -1.941424e+000 2.702637e+000 118 62 50
5.705420e-001 -2.049968e+000 2.788362e+000 103 70 51
5.701651e-001 -2.069912e+000 2.810897e+000 104 73 51
6.406960e-001 -2.131491e+000 2.833694e+000 108 71 47
6.174938e-001 -2.130063e+000 2.845690e+000 91 54 35
6.076320e-001 -2.129140e+000 2.850604e+000 95 48 25
5.821395e-001 -2.121852e+000 2.860551e+000 130 83 58
5.686417e-001 -2.119259e+000 2.871813e+000 106 65 47
5.331920e-001 -2.111859e+000 2.917815e+000 117 51 42
6.045004e-001 -2.177155e+000 2.903662e+000 31 37 22
5.714539e-001 -2.164051e+000 2.921613e+000 69 89 54
5.218069e-001 -1.657904e+000 2.619037e+000 169 143 105
5.190797e-001 -1.813245e+000 2.577466e+000 114 70 56
5.145696e-001 -1.760204e+000 2.775253e+000 43 69 42
5.702363e-001 -1.919343e+000 2.650227e+000 122 79 65
2.464179e+000 -1.782106e+000 3.337818e+000 77 55 31
4.905582e-001 -1.889595e+000 2.785850e+000 170 165 173
5.782441e-001 -2.050990e+000 2.784037e+000 93 56 35
5.826980e-001 -2.063558e+000 2.791026e+000 93 46 28
6.231767e-001 -2.115320e+000 2.823833e+000 131 84 55
5.162426e-001 -2.050602e+000 2.867535e+000 118 84 47
6.119560e-001 -2.118438e+000 2.837817e+000 97 51 28
6.292197e-001 -2.151662e+000 2.864147e+000 92 50 25
6.048712e-001 -2.139007e+000 2.858860e+000 86 44 22
6.078863e-001 -2.139180e+000 2.861178e+000 86 44 22
5.919262e-001 -2.173311e+000 2.914677e+000 28 39 22
5.728240e-001 -1.874394e+000 2.603148e+000 28 38 12
2.416513e+000 -1.756149e+000 3.357170e+000 89 64 31
5.530635e-001 -2.044854e+000 2.798174e+000 124 77 56
5.527264e-001 -2.045026e+000 2.797669e+000 124 77 56
5.966537e-001 -2.076067e+000 2.795923e+000 93 40 24
5.659618e-001 -2.064562e+000 2.802646e+000 134 95 69
6.185334e-001 -2.125014e+000 2.836080e+000 126 79 51
5.825968e-001 -2.108248e+000 2.848635e+000 130 88 64
5.978315e-001 -2.132802e+000 2.857238e+000 124 66 44
5.983021e-001 -2.132814e+000 2.858020e+000 124 66 44
6.756968e-001 -2.185568e+000 2.882067e+000 30 44 21
7.015580e-001 -2.210076e+000 2.903943e+000 157 93 43
2.514666e+000 -1.473191e+000 3.161373e+000 110 72 26
5.728596e-001 -1.867214e+000 2.597754e+000 115 107 57
4.723923e-001 -1.825064e+000 2.717348e+000 39 66 48
5.054742e-001 -1.796995e+000 2.771956e+000 171 172 153
2.394428e+000 -1.684993e+000 3.332683e+000 122 84 39
6.127342e-001 -1.943581e+000 2.660995e+000 112 24 23
5.249053e-001 -2.085868e+000 2.894040e+000 154 121 111
4.628284e-001 -1.787151e+000 2.671895e+000 28 68 42
5.346271e-001 -1.866114e+000 2.619081e+000 69 88 86
5.367807e-001 -1.865242e+000 2.620092e+000 69 88 86
2.404477e+000 -1.736064e+000 3.375202e+000 213 184 124
6.168618e-001 -2.168668e+000 2.895340e+000 27 39 17
5.800506e-001 -2.187807e+000 2.945053e+000 94 35 27
5.471758e-001 -2.153112e+000 2.940285e+000 128 91 72
5.535692e-001 -2.005323e+000 2.743616e+000 113 57 46
5.330596e-001 -1.844808e+000 2.586172e+000 112 119 49
5.255078e-001 -2.057969e+000 2.892319e+000 158 135 121
5.449938e-001 -2.139626e+000 2.967745e+000 164 127 121
5.389788e-001 -1.856986e+000 2.609084e+000 92 107 48
4.566823e-001 -1.859864e+000 2.714299e+000 162 174 130
5.706235e-001 -1.915157e+000 2.649258e+000 65 30 24
5.350049e-001 -1.918692e+000 2.660725e+000 73 43 42
4.652396e-001 -1.880397e+000 2.733182e+000 60 67 44
4.652396e-001 -1.880397e+000 2.733182e+000 60 67 44
5.595192e-001 -1.942900e+000 2.678255e+000 87 30 28
6.153065e-001 -1.970672e+000 2.689824e+000 124 67 43
6.153065e-001 -1.970672e+000 2.689824e+000 124 67 43
5.242652e-001 -1.977172e+000 2.750474e+000 135 118 108
6.072049e-001 -2.015212e+000 2.730461e+000 145 70 54
6.022974e-001 -2.020069e+000 2.735711e+000 134 49 40
5.680713e-001 -2.020670e+000 2.753015e+000 143 56 55
1.027905e+000 -2.030880e+000 2.934561e+000 99 84 71
5.716296e-001 -2.061936e+000 2.795908e+000 135 93 72
5.597169e-001 -2.058141e+000 2.809924e+000 141 93 77
5.413901e-001 -2.062293e+000 2.812149e+000 138 101 83
5.823718e-001 -2.078386e+000 2.834010e+000 134 98 78
5.793856e-001 -2.100583e+000 2.836409e+000 136 93 76
5.935979e-001 -2.122524e+000 2.861030e+000 132 74 55
5.900694e-001 -2.122441e+000 2.863179e+000 91 46 36
1.641159e+000 -8.375119e-001 4.154141e+000 218 195 141
1.631751e+000 -8.561584e-001 4.144971e+000 169 148 101
1.631751e+000 -8.561584e-001 4.144971e+000 169 148 101
5.639492e-001 -1.871723e+000 2.605725e+000 29 40 18
5.766042e-001 -1.919016e+000 2.658706e+000 136 103 86
5.406144e-001 -1.912581e+000 2.664114e+000 76 38 41
5.525811e-001 -1.924359e+000 2.656766e+000 133 107 83
5.525811e-001 -1.924359e+000 2.656766e+000 133 107 83
4.719687e-001 -1.900247e+000 2.756332e+000 148 120 134
6.086266e-001 -1.960107e+000 2.676136e+000 130 70 46
5.396833e-001 -1.950619e+000 2.704281e+000 121 64 55
5.396833e-001 -1.950619e+000 2.704281e+000 121 64 55
5.369164e-001 -1.947642e+000 2.709156e+000 126 69 58
4.744195e-001 -1.899476e+000 2.765357e+000 183 160 171
6.150055e-001 -1.976318e+000 2.693687e+000 118 66 44
5.984989e-001 -1.972121e+000 2.688362e+000 124 66 46
5.874937e-001 -1.962655e+000 2.694913e+000 121 65 48
5.258608e-001 -1.958889e+000 2.720380e+000 116 63 55
5.258608e-001 -1.958889e+000 2.720380e+000 116 63 55
5.785160e-001 -1.974641e+000 2.704111e+000 125 68 48
4.869371e-001 -1.945570e+000 2.806744e+000 97 146 215
6.528323e-001 -2.017166e+000 2.730002e+000 108 43 24
6.163646e-001 -2.008162e+000 2.718554e+000 113 46 33
5.619139e-001 -2.006021e+000 2.742208e+000 108 56 49
5.605517e-001 -2.006562e+000 2.740781e+000 108 56 49
5.556101e-001 -2.002694e+000 2.748772e+000 109 50 48
4.901501e-001 -1.956172e+000 2.815623e+000 177 115 102
5.314831e-001 -1.994102e+000 2.766788e+000 166 86 80
5.646980e-001 -2.059743e+000 2.796954e+000 140 97 80
6.421368e-001 -1.973071e+000 3.098218e+000 54 43 39
5.748402e-001 -2.081623e+000 2.818977e+000 89 61 45
6.354918e-001 -1.960481e+000 3.140515e+000 51 43 34
5.895217e-001 -1.948111e+000 3.171106e+000 51 42 34
5.746895e-001 -2.091841e+000 2.833696e+000 137 92 75
5.152819e-001 -2.052362e+000 2.906300e+000 46 32 50
5.152819e-001 -2.052362e+000 2.906300e+000 46 32 50
5.260272e-001 -2.084389e+000 2.923916e+000 28 82 155
6.200574e-001 -2.140974e+000 2.851332e+000 92 55 35
6.200574e-001 -2.140974e+000 2.851332e+000 92 55 35
5.971894e-001 -2.138895e+000 2.861136e+000 100 49 32
5.331225e-001 -2.115749e+000 2.920397e+000 162 89 53
6.697000e-001 -2.178172e+000 2.874689e+000 53 77 38
6.317545e-001 -2.176218e+000 2.897063e+000 63 80 49
5.981847e-001 -1.697254e+000 2.539277e+000 175 37 37
5.396249e-001 -1.916506e+000 2.658205e+000 141 117 108
5.669833e-001 -1.929171e+000 2.651692e+000 114 96 75
5.788974e-001 -1.951268e+000 2.682736e+000 120 68 47
5.351901e-001 -1.947978e+000 2.699343e+000 160 88 76
5.180106e-001 -1.947627e+000 2.707665e+000 124 71 58
6.436842e-001 -1.990105e+000 2.721518e+000 136 118 80
6.251082e-001 -2.005890e+000 2.715383e+000 154 78 55
5.689615e-001 -2.006261e+000 2.741143e+000 108 52 39
5.784304e-001 -2.062294e+000 2.796729e+000 102 64 51
6.448220e-001 -1.961896e+000 3.138527e+000 50 41 36
6.736612e-001 -2.168874e+000 2.864728e+000 35 46 24
6.736612e-001 -2.168874e+000 2.864728e+000 35 46 24
5.281477e-001 -2.103457e+000 2.947892e+000 196 113 56
6.209756e-001 -2.180400e+000 2.903465e+000 30 39 20
5.742827e-001 -1.889127e+000 2.614247e+000 25 41 11
4.858536e-001 -1.899160e+000 2.769298e+000 148 123 137
5.012756e-001 -1.961802e+000 2.822869e+000 176 141 122
1.072453e+000 -2.037008e+000 2.930270e+000 147 129 104
6.430410e-001 -2.075549e+000 2.794240e+000 80 30 21
6.388861e-001 -2.099052e+000 2.810066e+000 123 82 62
6.032002e-001 -2.080015e+000 2.813103e+000 130 69 50
6.237779e-001 -2.109511e+000 2.820372e+000 99 56 34
6.237779e-001 -2.109511e+000 2.820372e+000 99 56 34
5.863082e-001 -2.102504e+000 2.838704e+000 120 81 64
6.175541e-001 -2.132002e+000 2.835815e+000 103 61 41
6.237920e-001 -2.135656e+000 2.851275e+000 131 81 56
5.309467e-001 -2.112458e+000 2.924860e+000 137 73 56
6.332571e-001 -2.176470e+000 2.887915e+000 80 95 56
5.570794e-001 -1.848635e+000 2.587054e+000 115 111 38
5.217283e-001 -1.864693e+000 2.629724e+000 26 40 21
5.321148e-001 -1.893643e+000 2.624861e+000 28 41 21
6.220383e-001 -1.999933e+000 2.709068e+000 106 25 22
5.550588e-001 -2.005929e+000 2.754436e+000 152 86 70
1.054127e+000 -2.043189e+000 2.929115e+000 57 48 41
5.746468e-001 -2.057110e+000 2.789211e+000 138 97 77
6.375091e-001 -2.084266e+000 2.797481e+000 136 91 60
5.800098e-001 -2.068036e+000 2.799753e+000 134 98 76
5.717585e-001 -2.063295e+000 2.809216e+000 134 96 78
6.098593e-001 -2.085951e+000 2.814036e+000 93 38 31
5.904037e-001 -2.100169e+000 2.833513e+000 136 93 77
5.831676e-001 -2.088122e+000 2.824921e+000 136 95 77
5.811554e-001 -2.110234e+000 2.835775e+000 134 90 71
5.637170e-001 -2.093652e+000 2.844018e+000 134 95 78
5.637170e-001 -2.093652e+000 2.844018e+000 134 95 78
5.213469e-001 -2.066168e+000 2.920829e+000 30 85 164
5.906831e-001 -2.121324e+000 2.852539e+000 126 77 52
6.062725e-001 -2.144160e+000 2.865175e+000 123 72 46
5.311126e-001 -1.895809e+000 2.622543e+000 32 42 18
6.145761e-001 -1.942743e+000 2.662573e+000 115 23 25
5.731608e-001 -2.085876e+000 2.828116e+000 135 98 79
5.537857e-001 -2.109088e+000 2.874397e+000 134 96 77
6.747653e-001 -2.171885e+000 2.871594e+000 26 47 26
5.489477e-001 -2.008977e+000 2.779876e+000 134 106 83
6.194680e-001 -1.965742e+000 3.089903e+000 146 130 107
5.842161e-001 -1.814673e+000 2.549831e+000 132 118 91
5.772058e-001 -1.972335e+000 2.704788e+000 140 76 54
4.875582e-001 -1.938278e+000 2.794699e+000 155 32 45
4.898713e-001 -1.954474e+000 2.805815e+000 26 83 168
4.898713e-001 -1.954474e+000 2.805815e+000 26 83 168
5.223613e-001 -2.043209e+000 2.852485e+000 37 15 17
5.223613e-001 -2.043209e+000 2.852485e+000 37 15 17
6.875099e-001 -2.165737e+000 2.866413e+000 143 91 52
5.232362e-001 -1.886053e+000 2.824617e+000 165 162 179
4.787870e-001 -1.930898e+000 2.778742e+000 158 32 44
6.219354e-001 -1.983119e+000 3.087442e+000 52 42 41
6.586219e-001 -2.158359e+000 2.840350e+000 130 84 43
5.272564e-001 -2.099878e+000 2.928191e+000 171 142 134
6.457244e-001 -2.067711e+000 2.828248e+000 94 37 25
5.192646e-001 -1.908971e+000 2.667385e+000 123 119 110
5.736329e-001 -1.996291e+000 2.729719e+000 153 66 53
6.120242e-001 -2.024390e+000 2.735997e+000 150 53 44
9.995322e-001 -2.022803e+000 2.961988e+000 104 91 75
5.183611e-001 -1.831400e+000 2.585178e+000 23 55 77
5.826376e-001 -1.892049e+000 2.618418e+000 95 104 50
5.555401e-001 -1.948555e+000 2.691039e+000 129 71 59
5.443052e-001 -1.946093e+000 2.694689e+000 127 69 58
5.443052e-001 -1.946093e+000 2.694689e+000 127 69 58
1.006081e+000 -2.023705e+000 2.958163e+000 109 93 78
5.732732e-001 -1.989285e+000 3.009453e+000 53 44 38
5.698114e-001 -2.092482e+000 2.840258e+000 137 94 77
5.277979e-001 -2.084619e+000 2.905088e+000 23 78 156
5.525956e-001 -1.871241e+000 2.611367e+000 113 111 29
5.709457e-001 -1.919042e+000 2.645423e+000 127 108 84
5.411100e-001 -1.944742e+000 2.697850e+000 122 65 54
4.824102e-001 -1.894444e+000 2.758348e+000 139 113 125
4.824102e-001 -1.894444e+000 2.758348e+000 139 113 125
5.664362e-001 -2.057747e+000 2.805070e+000 102 64 50
6.181910e-001 -2.139197e+000 2.859552e+000 99 52 30
6.634621e-001 -2.182218e+000 2.878785e+000 31 43 23
5.502079e-001 -1.919175e+000 2.659553e+000 142 108 88
5.502079e-001 -1.919175e+000 2.659553e+000 142 108 88
5.204198e-001 -1.978519e+000 2.761391e+000 135 121 112
5.460514e-001 -2.042178e+000 2.802464e+000 106 69 60
5.704836e-001 -2.069763e+000 2.811165e+000 102 69 54
6.437206e-001 -2.119973e+000 2.821516e+000 96 61 42
6.051649e-001 -2.108172e+000 2.829685e+000 95 46 29
5.777976e-001 -2.102930e+000 2.840688e+000 92 57 45
5.777976e-001 -2.102930e+000 2.840688e+000 92 57 45
6.490152e-001 -2.141489e+000 2.852533e+000 98 53 37
6.255995e-001 -2.146040e+000 2.857963e+000 127 81 55
5.772894e-001 -2.140758e+000 2.892035e+000 108 64 45
5.791059e-001 -2.072231e+000 2.807744e+000 106 67 52
5.791059e-001 -2.072231e+000 2.807744e+000 106 67 52
5.846630e-001 -1.887920e+000 2.615726e+000 25 40 14
7.874725e-001 -1.697524e+000 2.666495e+000 91 39 20
7.865087e-001 -1.696444e+000 2.666627e+000 91 39 20
7.961135e-001 -1.848800e+000 2.798546e+000 127 98 64
8.273920e-001 -1.836950e+000 2.842055e+000 90 16 17
8.019696e-001 -1.907493e+000 2.855278e+000 47 18 15
8.082213e-001 -1.907504e+000 2.866577e+000 119 59 51
8.035388e-001 -2.042273e+000 2.983901e+000 144 100 65
8.462731e-001 -1.777182e+000 2.837238e+000 149 95 60
7.888318e-001 -1.915746e+000 2.849591e+000 45 17 14
8.341469e-001 -1.932195e+000 2.934824e+000 78 40 31
8.002453e-001 -1.917662e+000 2.866763e+000 73 42 27
8.341609e-001 -1.891945e+000 2.899393e+000 58 39 33
8.036963e-001 -1.678479e+000 2.676362e+000 122 18 19
8.337784e-001 -1.829162e+000 2.846279e+000 105 15 15
8.202044e-001 -1.893663e+000 2.869758e+000 64 27 19
7.884213e-001 -1.801189e+000 2.748327e+000 122 106 46
8.290997e-001 -1.760441e+000 2.783317e+000 23 35 16
7.939411e-001 -1.608217e+000 2.610888e+000 78 59 39
8.013972e-001 -1.607516e+000 2.622061e+000 70 52 26
8.013972e-001 -1.607516e+000 2.622061e+000 70 52 26
7.956436e-001 -1.606847e+000 2.635453e+000 55 40 20
8.177741e-001 -1.584784e+000 2.629479e+000 150 123 76
8.211615e-001 -1.582158e+000 2.632510e+000 153 122 83
8.199770e-001 -1.674302e+000 2.699971e+000 107 22 23
8.198831e-001 -1.674819e+000 2.700966e+000 107 22 23
8.467553e-001 -1.777569e+000 2.827279e+000 145 92 60
8.172523e-001 -1.843259e+000 2.827073e+000 159 100 59
8.106723e-001 -1.874275e+000 2.843896e+000 81 111 107
8.106723e-001 -1.874275e+000 2.843896e+000 81 111 107
8.216559e-001 -1.863347e+000 2.853558e+000 92 114 104
8.463481e-001 -1.842356e+000 2.876709e+000 91 106 88
8.371259e-001 -1.862316e+000 2.879630e+000 106 48 24
7.987976e-001 -1.916455e+000 2.857026e+000 126 61 47
8.418798e-001 -1.869885e+000 2.894308e+000 58 25 22
8.600752e-001 -1.894452e+000 2.945370e+000 94 31 16
8.003903e-001 -2.041781e+000 2.981886e+000 146 97 65
8.026213e-001 -2.043448e+000 2.980896e+000 100 33 19
7.873453e-001 -1.618436e+000 2.608459e+000 167 134 81
7.928893e-001 -1.617590e+000 2.616404e+000 159 128 82
7.939338e-001 -1.686888e+000 2.666458e+000 105 26 17
8.131587e-001 -1.665237e+000 2.679972e+000 149 98 61
8.122702e-001 -1.853907e+000 2.830193e+000 101 11 14
8.219684e-001 -1.865914e+000 2.850177e+000 24 41 40
8.416840e-001 -1.843981e+000 2.872694e+000 31 40 36
7.948593e-001 -1.911801e+000 2.855315e+000 123 57 35
8.148968e-001 -1.908019e+000 2.878027e+000 49 34 27
8.596379e-001 -1.881036e+000 2.935146e+000 34 56 54
8.085949e-001 -1.955968e+000 2.910175e+000 111 76 55
7.950759e-001 -2.055745e+000 2.966076e+000 136 48 23
8.174779e-001 -1.871222e+000 2.846288e+000 87 97 88
8.687386e-001 -1.865730e+000 2.937072e+000 16 36 44
7.985734e-001 -1.882011e+000 2.829639e+000 15 44 50
8.351362e-001 -1.861833e+000 2.859882e+000 20 39 43
7.917252e-001 -1.950199e+000 2.874093e+000 55 22 16
8.633141e-001 -1.894417e+000 2.952269e+000 117 79 40
8.271242e-001 -1.693487e+000 2.728672e+000 20 37 18
2.641164e+000 -3.837615e-001 2.983895e+000 223 190 136
2.641164e+000 -3.837615e-001 2.983895e+000 223 190 136
2.595815e+000 -3.576438e-001 2.990251e+000 157 122 82
2.599470e+000 -3.860696e-001 3.016452e+000 166 136 97
2.582872e+000 -3.621042e-001 3.029640e+000 186 152 113
2.540495e+000 -3.127685e-001 3.048805e+000 186 145 99
2.212894e+000 -2.853587e-001 3.499250e+000 71 58 48
2.600495e+000 -3.804741e-001 2.966770e+000 138 104 69
2.582008e+000 -3.414418e-001 3.045921e+000 246 212 166
2.559944e+000 -5.069460e-001 3.332978e+000 178 147 100
2.557655e+000 -4.746422e-001 3.301042e+000 154 133 90
2.548393e+000 -4.147589e-001 3.360550e+000 159 134 94
2.558493e+000 -2.899459e-001 3.090468e+000 111 91 82
2.336352e+000 -2.910847e-001 3.412737e+000 98 81 74
2.617049e+000 -3.616761e-001 2.992844e+000 228 181 135
2.617049e+000 -3.616761e-001 2.992844e+000 228 181 135
2.620432e+000 -4.118728e-001 3.020375e+000 185 148 106
2.596029e+000 -3.374191e-001 3.017974e+000 162 124 87
2.585438e+000 -3.389391e-001 3.042779e+000 254 212 165
5.496887e-001 -2.174182e+000 2.964858e+000 104 50 26
5.408559e-001 -2.129665e+000 2.979468e+000 196 159 164
6.354951e-001 -2.184682e+000 2.906549e+000 26 38 25
6.360956e-001 -2.174360e+000 2.926055e+000 78 95 59
5.344757e-001 -2.143295e+000 2.969911e+000 159 112 113
5.418145e-001 -2.147664e+000 2.976024e+000 134 93 95
5.418145e-001 -2.147664e+000 2.976024e+000 134 93 95
5.856759e-001 -2.189921e+000 2.944279e+000 68 26 10
6.374637e-001 -2.185764e+000 2.897291e+000 73 88 55
5.881785e-001 -2.168558e+000 2.907961e+000 31 40 28
5.881785e-001 -2.168558e+000 2.907961e+000 31 40 28
5.002522e-001 -2.158906e+000 2.897901e+000 179 110 61
6.479764e-001 -2.201930e+000 2.915437e+000 58 26 11
5.531576e-001 -2.183111e+000 2.967190e+000 142 69 52
2.549208e+000 -3.844984e-001 3.151055e+000 199 166 133
5.314100e-001 -2.120261e+000 2.963379e+000 181 128 85
6.269899e-001 -2.180441e+000 2.895497e+000 29 38 24
6.288463e-001 -2.180159e+000 2.912965e+000 30 39 20
5.384853e-001 -2.127013e+000 2.973655e+000 195 161 160
5.954362e-001 -2.169347e+000 2.909697e+000 47 60 37
2.592593e+000 -3.648263e-001 3.010065e+000 228 190 151
2.647462e+000 -8.208772e-001 3.377451e+000 181 149 111
2.722569e+000 -1.060240e+000 3.343706e+000 194 163 116
5.451913e-001 -2.178161e+000 2.973514e+000 193 119 51
6.897143e-001 -2.206425e+000 2.900650e+000 132 79 28
5.329839e-001 -2.143112e+000 2.948501e+000 170 116 87
6.601376e-001 -2.203685e+000 2.910611e+000 62 30 19
5.726301e-001 -2.161654e+000 2.919152e+000 28 42 25
6.389271e-001 -2.201098e+000 2.916659e+000 71 37 18
2.566502e+000 -3.514677e-001 3.130344e+000 179 146 113
5.404431e-001 -1.939695e+000 3.188981e+000 51 41 39
5.850370e-001 -2.175698e+000 2.919183e+000 75 89 63
2.358623e+000 -2.712892e-001 3.458892e+000 87 76 70
8.166584e-001 -1.655074e+000 2.683530e+000 105 28 20
8.195367e-001 -1.649843e+000 2.684017e+000 18 51 66
8.505894e-001 -1.767155e+000 2.824137e+000 67 39 22
8.545223e-001 -1.777846e+000 2.843031e+000 122 92 63
8.220103e-001 -1.838854e+000 2.834951e+000 59 20 7
7.916709e-001 -1.916643e+000 2.847147e+000 117 57 42
7.891447e-001 -1.927740e+000 2.851887e+000 96 46 40
8.764003e-001 -1.779492e+000 2.881615e+000 111 88 57
8.383332e-001 -1.929105e+000 2.935109e+000 67 33 23
8.026073e-001 -1.965180e+000 2.906112e+000 47 22 18
8.207288e-001 -1.848084e+000 2.840420e+000 98 18 16
7.891701e-001 -1.939675e+000 2.861706e+000 60 26 24
7.834444e-001 -1.960991e+000 2.870145e+000 47 19 14
7.859578e-001 -1.969131e+000 2.881842e+000 113 72 23
7.087888e-001 -2.218537e+000 2.965819e+000 115 93 79
8.238130e-001 -1.572965e+000 2.636134e+000 153 128 87
8.015649e-001 -2.005473e+000 2.938446e+000 126 91 49
7.911382e-001 -2.052266e+000 2.960876e+000 153 73 24
7.823190e-001 -1.950962e+000 2.861869e+000 38 16 14
8.871629e-001 -1.959258e+000 3.041347e+000 80 44 28
8.060500e-001 -1.886638e+000 2.846458e+000 17 44 51
7.872207e-001 -1.950412e+000 2.867874e+000 134 91 45
7.757362e-001 -1.711243e+000 2.654490e+000 146 96 62
7.862993e-001 -1.871407e+000 2.801233e+000 113 16 18
7.916940e-001 -1.924717e+000 2.854078e+000 63 24 23
7.801509e-001 -1.789466e+000 2.724716e+000 60 65 19
8.526279e-001 -1.944434e+000 2.972325e+000 111 77 42
8.526279e-001 -1.944434e+000 2.972325e+000 111 77 42
7.996586e-001 -2.045573e+000 2.969653e+000 128 74 41
8.447476e-001 -1.723999e+000 2.782862e+000 98 93 31
8.565805e-001 -1.631025e+000 2.735539e+000 91 89 68
8.770425e-001 -1.981480e+000 3.055740e+000 61 25 6
8.631931e-001 -1.951713e+000 3.004241e+000 35 10 12
2.600599e+000 -1.658104e+000 3.241918e+000 76 60 36
7.943262e-001 -1.701843e+000 2.675095e+000 182 81 64
8.059851e-001 -1.901752e+000 2.859993e+000 53 20 14
8.648964e-001 -1.891927e+000 2.935649e+000 49 70 75
8.029789e-001 -1.982402e+000 2.901915e+000 83 51 46
8.045179e-001 -1.890910e+000 2.859060e+000 53 23 19
7.997695e-001 -1.916648e+000 2.859673e+000 52 22 22
7.991582e-001 -1.907253e+000 2.848587e+000 76 31 24
8.335830e-001 -1.804142e+000 2.827941e+000 122 106 70
8.123483e-001 -1.694983e+000 2.698726e+000 40 64 64
7.971886e-001 -1.621476e+000 2.619957e+000 160 133 88
8.131621e-001 -1.603943e+000 2.632121e+000 152 131 87
8.509764e-001 -1.766781e+000 2.823886e+000 79 53 31
8.299460e-001 -1.858043e+000 2.865387e+000 92 107 95
7.993359e-001 -1.924212e+000 2.865024e+000 100 62 54
8.047369e-001 -1.924443e+000 2.874338e+000 95 66 57
8.457909e-001 -1.899862e+000 2.928519e+000 63 44 40
8.025231e-001 -1.983454e+000 2.918193e+000 26 18 15
8.048610e-001 -2.038732e+000 2.969133e+000 103 54 27
8.326583e-001 -1.838654e+000 2.854373e+000 151 53 47
8.230423e-001 -1.848697e+000 2.845822e+000 141 47 40
7.975538e-001 -2.064768e+000 2.975817e+000 149 66 24
8.146165e-001 -1.599444e+000 2.629638e+000 141 119 81
8.115836e-001 -1.747803e+000 2.745437e+000 24 37 20
7.984021e-001 -1.944117e+000 2.879311e+000 104 69 50
8.026832e-001 -1.701955e+000 2.691751e+000 30 59 63
8.019756e-001 -1.701926e+000 2.691821e+000 30 59 63
7.906083e-001 -1.825822e+000 2.770031e+000 122 107 74
6.407193e-001 -1.687237e+000 2.703867e+000 135 43 25
6.407193e-001 -1.687237e+000 2.703867e+000 135 43 25
6.070987e-001 -1.676068e+000 2.706398e+000 35 80 96
6.346946e-001 -1.685725e+000 2.705239e+000 156 33 27
6.545668e-001 -1.690476e+000 2.689346e+000 169 26 35
4.807726e-001 -1.774808e+000 2.705151e+000 142 161 105
6.037273e-001 -1.676648e+000 2.716347e+000 204 125 89
6.304738e-001 -1.732362e+000 2.761579e+000 114 128 32
5.298464e-001 -1.761768e+000 2.773149e+000 125 145 59
5.298464e-001 -1.761768e+000 2.773149e+000 125 145 59
5.277480e-001 -1.873141e+000 2.856880e+000 191 76 80
5.277480e-001 -1.873141e+000 2.856880e+000 191 76 80
5.703451e-001 -1.919247e+000 2.941405e+000 68 119 182
6.233994e-001 -1.744212e+000 2.781436e+000 142 153 53
8.810982e-001 -1.891772e+000 2.944733e+000 60 96 122
8.810982e-001 -1.891772e+000 2.944733e+000 60 96 122
8.073780e-001 -1.916673e+000 2.872331e+000 59 35 33
8.094180e-001 -1.861751e+000 2.833484e+000 138 31 29
7.382767e-001 -2.138685e+000 2.920976e+000 55 46 51
9.143955e-001 -1.999386e+000 3.042986e+000 99 54 38
8.766883e-001 -1.843764e+000 2.910621e+000 153 55 52
8.329744e-001 -1.892194e+000 2.901036e+000 80 62 69
6.683048e-001 -2.162607e+000 2.953063e+000 110 94 94
6.725174e-001 -2.162144e+000 2.953520e+000 150 131 134
8.461847e-001 -1.612489e+000 2.617516e+000 127 110 82
8.081400e-001 -1.693632e+000 2.669133e+000 144 45 43
8.032487e-001 -1.919517e+000 2.854345e+000 162 87 78
8.474208e-001 -1.819680e+000 2.881441e+000 122 156 158
8.777803e-001 -1.823878e+000 2.924430e+000 114 38 30
8.777803e-001 -1.823878e+000 2.924430e+000 114 38 30
8.210279e-001 -1.924209e+000 2.919206e+000 134 100 86
8.297009e-001 -1.630169e+000 2.612242e+000 202 180 139
8.297009e-001 -1.630169e+000 2.612242e+000 202 180 139
7.898128e-001 -1.729838e+000 2.658307e+000 208 136 105
8.631674e-001 -1.866508e+000 2.946165e+000 62 95 115
8.661496e-001 -1.860324e+000 2.948960e+000 67 102 121
8.100422e-001 -1.683405e+000 2.668662e+000 170 34 42
8.277015e-001 -1.665109e+000 2.702002e+000 32 53 27
8.282417e-001 -1.667529e+000 2.701704e+000 32 53 27
7.984698e-001 -1.775004e+000 2.728373e+000 30 54 35
8.147255e-001 -1.858074e+000 2.837293e+000 223 84 87
9.197485e-001 -1.806763e+000 2.904425e+000 127 62 53
8.020705e-001 -1.965848e+000 2.877056e+000 147 101 91
8.721997e-001 -1.851715e+000 2.939718e+000 17 51 80
8.346787e-001 -1.718055e+000 2.767707e+000 30 52 35
8.059238e-001 -1.724228e+000 2.696016e+000 150 148 111
7.911358e-001 -1.839279e+000 2.758353e+000 35 51 35
7.911358e-001 -1.839279e+000 2.758353e+000 35 51 35
8.325014e-001 -1.795772e+000 2.829690e+000 154 147 111
8.447627e-001 -1.779484e+000 2.839638e+000 166 115 92
8.547946e-001 -1.879727e+000 2.938786e+000 31 62 83
8.275430e-001 -1.779479e+000 2.802380e+000 170 33 40
8.491610e-001 -1.820577e+000 2.884913e+000 35 60 72
8.742606e-001 -1.849976e+000 2.944104e+000 16 52 86
7.903941e-001 -1.797484e+000 2.721002e+000 29 55 30
8.293502e-001 -1.726265e+000 2.758462e+000 28 55 32
7.952202e-001 -1.815254e+000 2.749338e+000 160 148 110
8.319999e-001 -1.749039e+000 2.787859e+000 30 56 37
7.992260e-001 -1.825293e+000 2.775527e+000 172 34 38
8.493316e-001 -1.821685e+000 2.884649e+000 34 62 75
8.167973e-001 -1.928446e+000 2.907503e+000 136 104 91
8.998030e-001 -1.827781e+000 2.928599e+000 105 24 31
8.998030e-001 -1.827781e+000 2.928599e+000 105 24 31
8.181217e-001 -1.663369e+000 2.681273e+000 166 43 45
8.922598e-001 -1.795272e+000 2.896168e+000 116 29 32
8.449001e-001 -1.931180e+000 2.949610e+000 155 106 99
8.599013e-001 -1.903409e+000 2.946596e+000 67 15 13
8.275779e-001 -1.624324e+000 2.616617e+000 79 62 44
8.086332e-001 -1.692471e+000 2.677925e+000 209 132 98
9.348698e-001 -1.627530e+000 2.699745e+000 167 97 83
9.474082e-001 -1.645265e+000 2.701704e+000 94 34 34
9.578611e-001 -1.829254e+000 2.872970e+000 80 27 27
9.261595e-001 -1.809336e+000 2.891486e+000 129 56 58
8.504542e-001 -1.818630e+000 2.887400e+000 119 161 176
8.642952e-001 -1.862292e+000 2.944802e+000 35 53 73
8.697640e-001 -1.598086e+000 2.620704e+000 190 162 125
8.271898e-001 -1.664869e+000 2.698697e+000 149 141 28
8.268170e-001 -1.896544e+000 2.902277e+000 91 70 69
9.269663e-001 -1.875755e+000 2.956691e+000 70 28 24
9.205452e-001 -1.801290e+000 2.895623e+000 127 60 57
9.239072e-001 -1.878928e+000 2.956272e+000 112 68 57
9.311361e-001 -1.879884e+000 2.960415e+000 110 68 56
7.936252e-001 -2.167430e+000 2.886076e+000 56 47 49
8.536505e-001 -1.898371e+000 2.960964e+000 139 49 42
8.961656e-001 -1.773819e+000 2.886323e+000 121 103 82
9.004530e-001 -1.784265e+000 2.890253e+000 108 30 28
8.041276e-001 -1.776676e+000 2.743654e+000 159 151 79
8.041276e-001 -1.776676e+000 2.743654e+000 159 151 79
8.461488e-001 -1.913737e+000 2.955377e+000 147 99 87
8.164938e-001 -1.714869e+000 2.706207e+000 29 54 32
8.167960e-001 -1.982510e+000 2.930436e+000 160 122 85
8.165105e-001 -1.981398e+000 2.930196e+000 160 122 85
8.334036e-001 -1.920918e+000 2.947409e+000 84 54 56
8.452047e-001 -1.799709e+000 2.866172e+000 147 26 35
7.854672e-001 -1.709869e+000 2.657315e+000 236 129 102
7.905113e-001 -1.708795e+000 2.663818e+000 208 135 102
8.143669e-001 -1.840002e+000 2.828084e+000 215 114 94
8.031601e-001 -1.917412e+000 2.863454e+000 137 88 84
8.282747e-001 -1.921129e+000 2.920599e+000 27 17 8
8.555772e-001 -1.875802e+000 2.938263e+000 57 97 121
8.007589e-001 -1.684564e+000 2.668541e+000 204 141 103
7.785475e-001 -1.745688e+000 2.661065e+000 173 40 41
8.029677e-001 -1.696973e+000 2.679725e+000 201 143 108
8.276151e-001 -1.664470e+000 2.702261e+000 34 47 28
8.072722e-001 -1.896561e+000 2.856930e+000 90 44 35
8.123416e-001 -1.964180e+000 2.913167e+000 136 101 89
9.743680e-001 -1.900894e+000 2.940032e+000 98 69 65
8.576607e-001 -1.869654e+000 2.942231e+000 64 98 123
8.597372e-001 -1.861577e+000 2.945279e+000 68 105 124
8.638823e-001 -1.870151e+000 2.950728e+000 65 101 118
8.174670e-001 -1.627055e+000 2.623877e+000 207 185 147
7.799371e-001 -1.721410e+000 2.649700e+000 173 41 45
7.939826e-001 -1.699732e+000 2.659777e+000 169 35 36
7.939826e-001 -1.699732e+000 2.659777e+000 169 35 36
8.040104e-001 -1.682898e+000 2.667469e+000 167 30 39
7.859096e-001 -1.717493e+000 2.665910e+000 163 38 40
7.895410e-001 -1.792332e+000 2.728713e+000 165 149 70
7.895410e-001 -1.792332e+000 2.728713e+000 165 149 70
7.934561e-001 -1.797080e+000 2.747147e+000 33 51 30
8.347401e-001 -1.717155e+000 2.768619e+000 35 52 36
8.254538e-001 -1.752097e+000 2.777875e+000 33 52 22
8.230815e-001 -1.761472e+000 2.778695e+000 162 151 42
8.036177e-001 -1.940086e+000 2.875655e+000 80 49 47
7.828632e-001 -1.779530e+000 2.700298e+000 163 158 78
8.234641e-001 -1.853328e+000 2.860594e+000 108 144 143
8.089624e-001 -1.924187e+000 2.882305e+000 92 72 73
8.512555e-001 -1.910188e+000 2.957062e+000 82 25 18
7.842635e-001 -1.790681e+000 2.713117e+000 162 155 58
8.105540e-001 -1.799973e+000 2.787111e+000 171 35 37
8.174054e-001 -1.814683e+000 2.820018e+000 171 33 46
8.344831e-001 -1.788644e+000 2.836754e+000 165 39 40
9.400805e-001 -1.827960e+000 2.885621e+000 127 68 62
8.145283e-001 -1.912536e+000 2.888881e+000 79 59 61
8.113683e-001 -1.739947e+000 2.746448e+000 33 57 31
8.469442e-001 -1.703224e+000 2.781301e+000 103 123 103
8.469442e-001 -1.703224e+000 2.781301e+000 103 123 103
8.230205e-001 -1.859397e+000 2.850042e+000 31 56 85
9.552712e-001 -1.844913e+000 2.902549e+000 112 92 67
7.907198e-001 -1.810183e+000 2.740119e+000 32 56 31
8.290692e-001 -1.723927e+000 2.759121e+000 31 56 30
7.889218e-001 -1.767348e+000 2.718098e+000 161 148 103
7.889218e-001 -1.767348e+000 2.718098e+000 161 148 103
8.082458e-001 -1.745069e+000 2.734940e+000 162 152 98
8.095885e-001 -1.945525e+000 2.886071e+000 146 119 98
8.162961e-001 -1.648109e+000 2.685508e+000 156 45 40
9.976671e-001 -2.000102e+000 2.969019e+000 104 71 62
8.326127e-001 -1.641490e+000 2.693193e+000 20 79 105
8.516284e-001 -1.875186e+000 2.924473e+000 104 22 28
8.944421e-001 -1.847341e+000 2.945641e+000 85 15 26
8.402922e-001 -1.703752e+000 2.784479e+000 30 54 30
9.392887e-001 -1.832073e+000 2.896712e+000 90 31 31
9.451144e-001 -1.886218e+000 2.945652e+000 87 39 35
6.201014e-001 -1.676535e+000 2.708568e+000 181 34 41
6.906502e-001 -1.710898e+000 2.718734e+000 28 47 18
6.310805e-001 -1.685646e+000 2.707397e+000 194 135 105
6.310805e-001 -1.685646e+000 2.707397e+000 194 135 105
5.987381e-001 -1.692311e+000 2.736703e+000 27 53 24
5.576867e-001 -1.827027e+000 2.568042e+000 115 43 31
5.421511e-001 -1.825307e+000 2.573928e+000 111 39 31
5.694672e-001 -1.822622e+000 2.558291e+000 183 110 80
5.356509e-001 -1.816033e+000 2.569644e+000 116 32 28
5.815387e-001 -1.846236e+000 2.575309e+000 117 112 56
9.710599e-001 -1.666143e+000 2.689199e+000 93 26 32
9.710599e-001 -1.666143e+000 2.689199e+000 93 26 32
9.286745e-001 -1.621101e+000 2.702504e+000 158 100 83
9.472289e-001 -1.644958e+000 2.701779e+000 94 34 34
9.621517e-001 -1.661083e+000 2.695469e+000 97 34 28
9.713639e-001 -1.694445e+000 2.717107e+000 89 101 60
9.425657e-001 -1.686757e+000 2.752619e+000 36 37 13
9.586547e-001 -1.710782e+000 2.750364e+000 99 106 60
9.613112e-001 -1.753929e+000 2.792815e+000 61 38 31
9.468807e-001 -1.986491e+000 3.035632e+000 52 55 46
9.673562e-001 -1.663391e+000 2.682818e+000 104 29 31
9.673562e-001 -1.663391e+000 2.682818e+000 104 29 31
9.478662e-001 -1.668405e+000 2.727845e+000 105 108 62
9.180086e-001 -1.954690e+000 3.047800e+000 77 82 76
9.180086e-001 -1.954690e+000 3.047800e+000 77 82 76
9.257535e-001 -1.626476e+000 2.714541e+000 122 27 31
9.257535e-001 -1.626476e+000 2.714541e+000 122 27 31
9.276616e-001 -1.663879e+000 2.745334e+000 94 100 62
9.276616e-001 -1.663879e+000 2.745334e+000 94 100 62
9.730427e-001 -1.729232e+000 2.748513e+000 30 33 22
9.501644e-001 -1.719214e+000 2.771486e+000 32 33 19
9.884736e-001 -1.815760e+000 2.794832e+000 97 51 64
8.150961e-001 -2.043972e+000 2.978189e+000 181 131 97
9.753138e-001 -1.695947e+000 2.707917e+000 30 37 22
9.689618e-001 -1.730676e+000 2.757149e+000 101 102 62
9.384279e-001 -1.901396e+000 2.975376e+000 105 67 56
8.694754e-001 -1.933603e+000 3.014735e+000 50 14 17
9.019425e-001 -1.974991e+000 3.088088e+000 31 19 24
9.725143e-001 -1.711425e+000 2.730428e+000 29 36 23
9.715531e-001 -1.720285e+000 2.740110e+000 28 34 25
8.619195e-001 -1.912638e+000 2.982165e+000 107 57 31
9.720352e-001 -1.794678e+000 2.808753e+000 138 76 75
8.867930e-001 -1.981887e+000 3.077975e+000 135 96 70
8.900460e-001 -1.928317e+000 3.006645e+000 128 88 63
9.418246e-001 -1.732571e+000 2.797168e+000 106 100 84
9.172480e-001 -1.969011e+000 3.055236e+000 24 32 26
9.286056e-001 -1.777596e+000 2.861463e+000 130 67 60
9.417039e-001 -1.642348e+000 2.694580e+000 171 86 80
9.417039e-001 -1.642348e+000 2.694580e+000 171 86 80
9.869188e-001 -1.700086e+000 2.682948e+000 90 110 102
9.460276e-001 -1.655709e+000 2.699856e+000 99 38 35
9.367254e-001 -1.699936e+000 2.766198e+000 88 89 54
9.367254e-001 -1.699936e+000 2.766198e+000 88 89 54
9.831098e-001 -1.747891e+000 2.749363e+000 110 119 91
9.831098e-001 -1.747891e+000 2.749363e+000 110 119 91
9.528302e-001 -1.745524e+000 2.798137e+000 63 35 35
9.721730e-001 -1.780397e+000 2.808792e+000 82 38 39
9.753336e-001 -1.784191e+000 2.808653e+000 148 80 90
9.619636e-001 -1.797307e+000 2.843823e+000 111 57 47
9.813814e-001 -1.865481e+000 2.880946e+000 135 94 92
9.985194e-001 -1.894303e+000 2.870559e+000 68 53 49
9.973510e-001 -1.989167e+000 2.979252e+000 56 44 39
9.648464e-001 -1.980170e+000 3.021336e+000 29 34 28
9.648464e-001 -1.980170e+000 3.021336e+000 29 34 28
9.504652e-001 -1.649160e+000 2.688746e+000 100 29 31
9.504652e-001 -1.649160e+000 2.688746e+000 100 29 31
9.423052e-001 -1.651732e+000 2.700835e+000 98 36 36
9.496023e-001 -1.678600e+000 2.724928e+000 103 103 52
9.591689e-001 -1.714448e+000 2.749318e+000 101 105 51
9.545931e-001 -1.743589e+000 2.793374e+000 55 37 35
9.545931e-001 -1.743589e+000 2.793374e+000 55 37 35
8.290755e-001 -1.832963e+000 2.849289e+000 135 30 34
9.411239e-001 -1.810827e+000 2.883034e+000 83 30 26
9.877874e-001 -1.915070e+000 2.907186e+000 97 72 68
1.002689e+000 -2.035086e+000 2.997026e+000 108 61 64
9.740958e-001 -1.989990e+000 3.012764e+000 29 34 30
9.440521e-001 -1.975242e+000 3.037157e+000 30 33 26
9.440521e-001 -1.975242e+000 3.037157e+000 30 33 26
9.277006e-001 -1.630506e+000 2.697568e+000 111 30 36
9.326952e-001 -1.633634e+000 2.696247e+000 113 27 32
9.600066e-001 -1.663440e+000 2.689482e+000 104 29 27
9.600066e-001 -1.663440e+000 2.689482e+000 104 29 27
9.577613e-001 -1.675286e+000 2.696680e+000 105 31 30
9.583186e-001 -1.712142e+000 2.750602e+000 94 97 44
9.583186e-001 -1.712142e+000 2.750602e+000 94 97 44
9.504670e-001 -1.721305e+000 2.770716e+000 26 31 24
9.596878e-001 -1.762338e+000 2.800834e+000 97 79 64
9.542221e-001 -1.757742e+000 2.803846e+000 82 69 53
9.542221e-001 -1.757742e+000 2.803846e+000 82 69 53
9.708980e-001 -1.843092e+000 2.873679e+000 93 47 48
9.350655e-001 -1.962287e+000 3.039218e+000 35 40 33
9.400308e-001 -1.973080e+000 3.039751e+000 26 31 25
1.139824e+000 -2.424606e+000 2.266079e+000 25 20 26
9.261534e-001 -1.610087e+000 2.686753e+000 49 63 74
9.337886e-001 -1.645086e+000 2.707747e+000 109 31 29
9.789807e-001 -1.707399e+000 2.719327e+000 75 88 64
9.853473e-001 -1.737330e+000 2.730653e+000 41 52 43
9.853473e-001 -1.737330e+000 2.730653e+000 41 52 43
9.705420e-001 -1.725831e+000 2.744621e+000 85 85 47
9.871704e-001 -1.746600e+000 2.734872e+000 98 113 87
9.842815e-001 -1.744269e+000 2.741294e+000 42 50 38
9.842815e-001 -1.744269e+000 2.741294e+000 42 50 38
9.708647e-001 -1.725989e+000 2.763183e+000 31 35 20
9.222680e-001 -1.687008e+000 2.772792e+000 27 36 19
9.222680e-001 -1.687008e+000 2.772792e+000 27 36 19
9.399976e-001 -1.697266e+000 2.770309e+000 29 37 16
9.399976e-001 -1.697266e+000 2.770309e+000 29 37 16
9.323997e-001 -1.714786e+000 2.791468e+000 30 34 19
9.546175e-001 -1.747049e+000 2.795965e+000 91 55 55
9.769357e-001 -1.797019e+000 2.812206e+000 148 89 91
1.006518e+000 -1.890825e+000 2.833604e+000 141 115 119
9.813123e-001 -1.838924e+000 2.854825e+000 89 40 43
8.840301e-001 -1.900512e+000 3.023583e+000 96 42 34
9.870700e-001 -1.694897e+000 2.678264e+000 26 66 111
9.757965e-001 -1.698281e+000 2.706264e+000 32 41 24
9.777090e-001 -1.727543e+000 2.733460e+000 81 94 77
9.777090e-001 -1.727543e+000 2.733460e+000 81 94 77
9.794896e-001 -1.737188e+000 2.748687e+000 113 119 88
9.824141e-001 -1.749826e+000 2.752913e+000 38 44 39
9.824141e-001 -1.749826e+000 2.752913e+000 38 44 39
1.078628e+000 -2.443444e+000 2.217266e+000 153 124 90
1.139703e+000 -2.455821e+000 2.220616e+000 221 190 146
9.324005e-001 -1.631038e+000 2.703792e+000 155 95 74
9.705757e-001 -1.783949e+000 2.811160e+000 81 33 28
9.417338e-001 -1.682979e+000 2.746871e+000 100 94 62
9.417338e-001 -1.682979e+000 2.746871e+000 100 94 62
9.410509e-001 -1.698271e+000 2.761466e+000 79 83 69
9.410509e-001 -1.698271e+000 2.761466e+000 79 83 69
9.451893e-001 -1.787548e+000 2.882621e+000 115 41 40
9.667182e-001 -1.833198e+000 2.866438e+000 125 56 58
9.418470e-001 -1.824430e+000 2.878273e+000 109 48 42
8.618427e-001 -1.963316e+000 3.020213e+000 151 110 72
9.273758e-001 -1.981740e+000 3.064140e+000 79 49 48
9.648995e-001 -1.816767e+000 2.844300e+000 118 61 52
9.797340e-001 -1.832689e+000 2.847156e+000 133 117 118
1.163668e+000 -2.443523e+000 2.249094e+000 208 176 129
9.162597e-001 -1.962297e+000 3.057525e+000 22 33 25
9.528356e-001 -1.638799e+000 2.697241e+000 128 64 52
9.767937e-001 -1.687789e+000 2.681909e+000 183 101 96
9.686321e-001 -1.744730e+000 2.749928e+000 27 36 16
9.354296e-001 -1.742033e+000 2.807953e+000 104 97 81
4.816362e-002 -2.518920e+000 9.988509e-001 0 255 0
3.248259e-002 -2.537439e+000 9.551343e-001 255 255 0
4.938044e-001 -2.499926e+000 9.865528e-001 255 0 0
4.880478e-001 -2.518795e+000 9.406091e-001 255 255 0
4.179573e+001 2.803508e+001 7.776028e+001 0 255 0
4.177305e+001 2.801861e+001 7.771888e+001 255 255 0
3.301688e+001 2.849143e+001 8.081107e+001 255 0 0
3.299887e+001 2.847457e+001 8.076758e+001 255 255 0
4.026371e-001 2.052340e+001 6.327673e+001 0 255 0
4.029027e-001 2.050610e+001 6.322981e+001 255 255 0
1.315315e+000 -1.073184e+000 2.877926e+000 255 0 0
1.281981e+000 -1.110109e+000 2.872887e+000 255 255 0
-5.630216e-001 -2.380577e+000 1.250315e+000 0 255 0
-5.934762e-001 -2.394958e+000 1.213359e+000 255 255 0
8.774179e-001 -2.320486e+000 1.362192e+000 255 0 0
8.817319e-001 -2.338444e+000 1.315728e+000 255 255 0
9.082680e-001 -1.099492e+000 3.004515e+000 0 255 0
8.888286e-001 -1.142963e+000 2.989270e+000 255 255 0
1.012209e+000 -1.130870e+000 2.943197e+000 255 0 0
9.868267e-001 -1.172302e+000 2.931402e+000 255 255 0
1.120961e+000 -1.123234e+000 2.916860e+000 0 255 0
1.091167e+000 -1.162224e+000 2.907264e+000 255 255 0
-7.979721e+001 6.327488e+001 2.590427e+002 255 0 0
-7.978263e+001 6.326311e+001 2.589964e+002 255 255 0
7.671634e-001 -1.005066e+000 3.115828e+000 0 255 0
7.565645e-001 -1.049799e+000 3.096166e+000 255 255 0
7.972405e-001 -1.026903e+000 3.078488e+000 255 0 0
7.842122e-001 -1.071614e+000 3.060290e+000 255 255 0
6.628496e-001 -9.844141e-001 3.155537e+000 0 255 0
6.581782e-001 -1.029556e+000 3.134551e+000 255 255 0
8.253299e+001 -3.866595e+002 -1.391074e+002 255 0 0
8.254279e+001 -3.867055e+002 -1.391244e+002 255 255 0
4.263468e-001 -9.289996e-001 3.252504e+000 0 255 0
4.339221e-001 -9.727141e-001 3.229446e+000 255 255 0
3.408138e-001 -9.106209e-001 3.248066e+000 255 0 0
3.522075e-001 -9.536407e-001 3.225273e+000 255 255 0
1.769992e-001 -1.015383e+000 3.222567e+000 0 255 0
1.950753e-001 -1.056572e+000 3.200733e+000 255 255 0
-3.566073e+001 1.545365e+001 8.779101e+001 255 0 0
-3.564138e+001 1.544449e+001 8.774583e+001 255 255 0
1.033821e-001 -1.041797e+000 3.181034e+000 0 255 0
1.242521e-001 -1.082069e+000 3.159996e+000 255 255 0
-1.264470e+002 2.885397e+001 2.329082e+002 255 0 0
-1.264229e+002 2.884818e+001 2.328647e+002 255 255 0
2.751101e+001 -3.582037e+000 -3.711485e+001 0 255 0
2.753883e+001 -3.583901e+000 -3.715635e+001 255 255 0
-7.246860e+001 -5.099745e+000 1.114369e+002 255 0 0
-7.244067e+001 -5.098484e+000 1.113954e+002 255 255 0
-8.193774e-002 -1.290293e+000 3.008537e+000 0 255 0
-4.805318e-002 -1.323918e+000 2.993665e+000 255 255 0
