ply
format ascii 1.0
element face 0
property list uchar int vertex_indices
element vertex 895
property float x
property float y
property float z
property uchar diffuse_red
property uchar diffuse_green
property uchar diffuse_blue
end_header
3.839197e+000 -2.036901e+000 -1.506726e+001 72 45 28
5.693512e+000 -1.859950e-001 -1.326098e+001 80 54 29
4.576452e+000 1.284322e-001 -1.262110e+001 67 42 22
3.128466e+000 1.890759e+000 -1.212566e+001 166 131 95
4.330340e+000 1.486860e+000 -1.206317e+001 117 86 57
5.411963e+000 2.742997e-003 -1.299861e+001 61 42 18
4.769167e+000 -1.499639e+000 -1.467860e+001 102 78 52
4.769167e+000 -1.499639e+000 -1.467860e+001 102 78 52
5.736311e+000 3.617986e-001 -1.263954e+001 110 80 52
4.794986e+000 4.816102e-002 -1.273169e+001 79 53 30
3.948837e+000 -1.442733e+000 -1.440405e+001 82 55 34
5.440888e+000 -2.413173e-001 -1.328310e+001 87 60 39
4.867516e+000 3.132928e-001 -1.232760e+001 83 57 32
4.578645e+000 5.884253e-001 -1.203766e+001 93 65 43
4.987396e+000 4.408672e-001 -1.224467e+001 64 39 19
5.106319e+000 -7.080546e-001 -1.369325e+001 78 51 29
5.106319e+000 -7.080546e-001 -1.369325e+001 78 51 29
4.665667e+000 4.806583e-001 -1.214478e+001 105 76 50
4.943489e+000 3.806842e-001 -1.229627e+001 61 35 12
4.624544e+000 -1.585654e+000 -1.472365e+001 75 48 27
4.706075e+000 6.490406e-001 -1.201639e+001 73 45 23
5.446219e+000 5.958364e-001 -1.220255e+001 79 49 25
5.676014e+000 -3.487953e-001 -1.351746e+001 70 43 22
2.676018e+000 -1.162327e+000 -1.372981e+001 78 67 49
4.647016e+000 6.960263e-001 -1.196260e+001 97 69 47
5.122089e+000 7.212581e-001 -1.209678e+001 85 52 29
2.263630e+000 -6.598019e-001 -1.323736e+001 164 84 93
5.003975e+000 6.518422e-001 -1.208736e+001 68 43 21
5.298614e+000 4.707440e-001 -1.230075e+001 100 70 44
5.416634e+000 -3.256757e-001 -1.336230e+001 94 70 46
2.313027e+000 -8.767244e-001 -1.328891e+001 182 134 112
4.398352e+000 -1.848111e-001 -1.294332e+001 71 49 29
4.914065e+000 5.178235e-001 -1.215875e+001 109 79 53
5.765322e+000 6.036608e-001 -1.227151e+001 81 51 26
4.462438e+000 -6.770383e-001 -1.353134e+001 106 78 57
2.624467e+000 -1.046802e+000 -1.368554e+001 164 122 109
1.783863e+000 3.781313e-001 -1.286178e+001 155 93 82
5.179033e+000 6.710377e-001 -1.211757e+001 109 77 53
5.529759e+000 7.291427e-001 -1.210668e+001 81 51 27
5.180816e+000 -9.812262e-001 -1.407816e+001 66 41 20
4.696107e+000 -1.064557e+000 -1.406872e+001 91 70 49
4.765490e+000 -3.739558e-001 -1.329360e+001 108 80 52
5.304692e+000 7.734056e-001 -1.207691e+001 92 58 30
4.934038e+000 6.664032e-001 -1.206921e+001 114 83 56
5.251923e+000 4.136009e-001 -1.233672e+001 80 53 29
3.296158e+000 4.632455e-001 -1.176468e+001 118 84 55
5.711757e+000 6.065147e-001 -1.226516e+001 64 35 11
2.899572e+000 9.709577e-001 -1.217514e+001 133 98 67
5.344609e+000 1.026610e+000 -1.206682e+001 95 60 30
2.442300e+000 7.557859e-001 -1.271196e+001 138 61 58
5.361945e+000 -5.778128e-001 -1.360653e+001 89 63 40
2.392393e+000 -3.231028e-001 -1.309501e+001 166 120 97
5.334239e+000 -3.654614e-001 -1.339311e+001 95 71 48
5.503951e+000 8.181612e-002 -1.290547e+001 66 41 19
2.275565e+000 3.834447e-001 -1.297544e+001 145 74 72
5.623403e+000 9.670101e-003 -1.304165e+001 107 79 54
5.462624e+000 7.583332e-001 -1.218030e+001 114 81 49
2.299955e+000 4.458336e-001 -1.291237e+001 140 70 66
1.911968e+000 -4.321703e-001 -1.292264e+001 149 77 80
-1.168307e+000 -8.125182e-001 -1.370101e+001 140 99 78
3.321594e+000 9.507590e-001 -1.163251e+001 113 76 49
5.805686e+000 6.554037e-001 -1.225047e+001 78 46 21
5.402541e+000 1.186906e+000 -1.207630e+001 97 61 29
2.259908e+000 -8.595394e-001 -1.327630e+001 145 66 69
5.198650e+000 -5.418274e-001 -1.353954e+001 74 48 23
3.353929e+000 6.390059e-001 -1.167531e+001 112 84 54
5.384902e+000 8.926709e-001 -1.206495e+001 97 63 33
3.173982e+000 3.000165e-001 -1.204860e+001 122 86 60
5.299715e+000 -8.890344e-001 -1.396107e+001 103 77 52
5.024594e+000 -1.055069e+000 -1.413080e+001 94 70 46
4.300636e+000 -4.573301e-001 -1.325320e+001 103 77 52
3.999702e+000 -1.569062e+000 -1.445179e+001 104 76 54
4.705507e+000 -7.273078e-001 -1.354204e+001 108 80 56
4.193140e+000 -8.019455e-001 -1.358804e+001 101 75 50
5.342072e+000 -1.656400e+000 -1.504027e+001 73 46 25
2.373033e+000 8.795731e-001 -1.256677e+001 165 89 83
2.728871e+000 -1.146397e+000 -1.358356e+001 73 62 44
4.752197e+000 -2.427149e+000 -1.361452e+001 162 136 91
3.522033e+000 2.552942e+000 -1.280154e+001 61 42 24
4.311075e+000 2.393211e+000 -1.290442e+001 113 83 55
2.811614e+000 1.408058e+000 -1.231307e+001 151 122 89
3.561111e+000 6.604635e-001 -1.163257e+001 59 43 24
2.584150e+000 8.693388e-001 -1.251917e+001 216 182 140
2.536502e+000 -3.356909e-001 -1.314565e+001 165 115 98
-4.513912e-001 -5.921108e-001 -1.379745e+001 142 96 62
1.976476e+000 -1.340555e+000 -1.386302e+001 173 111 101
1.976945e+000 -1.348592e+000 -1.389691e+001 173 111 101
2.137230e+000 -1.415416e+000 -1.384406e+001 169 109 98
1.624086e+000 -1.661718e+000 -1.497337e+001 133 72 66
3.511110e+000 2.754755e+000 -1.300245e+001 73 57 42
2.874298e+000 2.291733e+000 -1.283430e+001 122 96 69
4.403493e+000 2.053984e+000 -1.262895e+001 81 49 24
5.229339e+000 1.263558e+000 -1.214080e+001 93 57 25
4.385588e+000 8.398693e-001 -1.188687e+001 89 63 40
2.701132e+000 1.132788e+000 -1.257281e+001 158 113 68
5.050833e+000 4.530165e-001 -1.224169e+001 90 65 41
5.616763e+000 4.259194e-001 -1.254680e+001 80 53 26
3.630276e+000 -2.783933e-003 -1.189225e+001 153 137 104
2.990337e+000 -2.722947e-001 -1.260687e+001 60 52 29
2.895465e+000 -6.309788e-001 -1.296678e+001 61 55 33
3.784500e+000 -6.914741e-001 -1.340030e+001 139 115 95
4.610240e+000 -7.208709e-001 -1.359232e+001 78 52 30
-1.514952e+000 -1.436322e+000 -1.390926e+001 132 87 66
4.935716e+000 2.622415e+000 -1.312455e+001 132 97 70
4.741369e+000 2.004974e+000 -1.259820e+001 133 100 70
5.697231e+000 1.216816e+000 -1.218241e+001 98 59 30
4.711061e+000 1.111623e+000 -1.188689e+001 128 92 61
5.404076e+000 1.187782e+000 -1.208144e+001 97 61 29
2.932146e+000 1.022559e+000 -1.205333e+001 45 39 22
4.610928e+000 -1.895040e-001 -1.300821e+001 66 41 17
5.344601e+000 -9.481489e-002 -1.310002e+001 87 63 40
5.187073e+000 -2.154608e-001 -1.319125e+001 97 72 49
1.961931e+000 -2.816701e-001 -1.285027e+001 160 86 85
4.558195e+000 -8.341360e-001 -1.371889e+001 88 64 41
-1.121588e+000 -8.351828e-001 -1.368173e+001 102 64 45
-4.874386e-001 -1.082131e+000 -1.368013e+001 155 120 98
2.222206e+000 -1.247351e+000 -1.361767e+001 120 66 58
2.604062e+000 -1.204425e+000 -1.375899e+001 60 52 35
4.777873e+000 -1.317663e+000 -1.446989e+001 90 68 46
5.122161e+000 2.325628e+000 -1.293331e+001 95 61 33
4.567964e+000 1.554591e+000 -1.215063e+001 80 50 24
4.450373e+000 1.035713e+000 -1.182980e+001 108 74 47
4.668080e+000 9.943707e-001 -1.194938e+001 81 46 21
5.658014e+000 1.071441e+000 -1.210371e+001 79 45 21
2.821351e+000 1.225760e+000 -1.242628e+001 173 132 88
2.726289e+000 1.213294e+000 -1.252329e+001 185 147 102
5.260797e+000 6.710733e-001 -1.211016e+001 81 51 25
4.689125e+000 3.392544e-001 -1.228318e+001 107 80 53
5.170116e+000 3.899836e-001 -1.235659e+001 55 30 7
3.633435e+000 7.069746e-002 -1.179879e+001 61 52 34
1.535738e+000 5.901566e-002 -1.300044e+001 197 145 124
1.535738e+000 5.901566e-002 -1.300044e+001 197 145 124
2.168896e+000 4.766657e-002 -1.313372e+001 114 49 45
5.302680e+000 -2.720460e-001 -1.326688e+001 100 76 52
1.729667e+000 -2.684293e-001 -1.287283e+001 186 134 114
5.115439e+000 -6.454078e-001 -1.364503e+001 113 83 58
5.537567e+000 -5.200402e-001 -1.359471e+001 100 77 53
4.351376e+000 -1.131908e+000 -1.404479e+001 98 76 53
5.715287e+000 1.359334e+000 -1.222287e+001 127 91 55
5.859537e+000 1.002177e+000 -1.202801e+001 143 106 70
3.014534e+000 8.430357e-001 -1.191807e+001 111 105 76
2.990123e+000 7.031294e-001 -1.197542e+001 56 49 27
5.176875e+000 4.459692e-001 -1.233011e+001 103 74 50
5.332343e+000 3.252760e-001 -1.249891e+001 112 82 58
2.010154e+000 -5.683584e-001 -1.313502e+001 100 26 29
2.729386e+000 -1.000366e+000 -1.355581e+001 44 34 24
-6.833387e-001 -7.699154e-001 -1.377579e+001 164 119 98
4.282788e+000 1.279368e+000 -1.188064e+001 76 48 27
2.399808e+000 1.772174e+000 -1.345258e+001 197 157 120
2.875819e+000 1.044032e+000 -1.225083e+001 180 147 113
5.679039e+000 6.787751e-001 -1.215783e+001 109 72 45
3.233726e+000 4.998938e-001 -1.172245e+001 192 160 129
3.045538e+000 -1.700681e-001 -1.271157e+001 47 35 23
4.969328e+000 -2.190315e-001 -1.310413e+001 103 78 50
1.825652e+000 -2.236554e-001 -1.297510e+001 132 64 56
4.603359e+000 -3.700744e-001 -1.318560e+001 67 42 20
3.100861e+000 -4.903339e-001 -1.285453e+001 132 108 82
-2.550649e-001 -8.289479e-001 -1.391070e+001 123 82 62
4.527649e+000 -2.103302e+000 -1.528917e+001 80 53 34
5.323033e+000 1.120744e+000 -1.207996e+001 124 88 58
3.270003e+000 8.354175e-001 -1.148493e+001 181 150 119
4.716298e+000 9.652271e-001 -1.192418e+001 77 45 22
2.361876e+000 1.031289e+000 -1.265908e+001 169 84 79
2.495385e+000 7.492002e-001 -1.264302e+001 151 72 67
2.049897e+000 8.373040e-002 -1.300732e+001 119 52 49
1.956315e+000 -1.847450e-001 -1.296021e+001 167 97 91
2.724162e+000 -5.849598e-001 -1.308376e+001 154 119 91
4.542341e+000 8.922197e-001 -1.190936e+001 104 72 47
4.601320e+000 -7.549940e-001 -1.366012e+001 86 59 38
3.643213e+000 -8.846977e-001 -1.355749e+001 40 25 12
4.557523e+000 1.223790e+000 -1.193552e+001 121 87 53
1.732864e+000 -4.010389e-001 -1.301150e+001 131 59 57
-4.455093e-001 -9.409086e-001 -1.375801e+001 174 139 113
3.222071e+000 2.563831e+000 -1.277346e+001 66 50 33
3.302030e+000 2.576014e+000 -1.280873e+001 50 32 19
2.670729e+000 2.723843e+000 -1.316421e+001 165 131 94
4.310280e+000 2.439775e+000 -1.294510e+001 84 54 31
5.036103e+000 2.308766e+000 -1.292728e+001 99 64 38
4.649877e+000 1.882684e+000 -1.248303e+001 101 67 39
3.266296e+000 1.285318e+000 -1.158245e+001 124 88 51
4.987160e+000 6.856999e-001 -1.203855e+001 62 38 13
5.688885e+000 3.186696e-002 -1.302380e+001 77 49 25
2.622613e+000 -1.531526e-001 -1.336201e+001 95 43 30
-1.211061e+000 -8.581325e-001 -1.363039e+001 115 77 55
1.663329e+000 -1.669834e+000 -1.499268e+001 170 110 100
4.740561e+000 2.697925e+000 -1.319581e+001 95 64 37
4.892334e+000 2.474432e+000 -1.303252e+001 97 63 35
2.994102e+000 2.113823e+000 -1.248763e+001 128 94 62
4.850381e+000 1.806253e+000 -1.247591e+001 103 67 39
3.298770e+000 1.097264e+000 -1.153131e+001 128 94 59
2.895565e+000 1.276925e+000 -1.230241e+001 147 119 95
3.824826e+000 5.069439e-001 -1.186850e+001 33 23 13
3.861669e+000 5.144485e-001 -1.185706e+001 94 78 56
3.900836e+000 5.266851e-001 -1.188052e+001 47 29 16
1.426501e+000 2.184544e-001 -1.311195e+001 163 113 85
3.348619e+000 -2.248379e-001 -1.276514e+001 38 27 10
4.186925e+000 -9.287594e-001 -1.375569e+001 57 32 11
1.199364e-001 -8.922893e-001 -1.408388e+001 151 114 90
-1.378449e+000 -9.994743e-001 -1.369313e+001 138 94 65
2.002314e+000 -1.365412e+000 -1.380352e+001 138 75 65
4.207433e+000 -2.031023e+000 -1.514225e+001 98 71 50
3.274193e+000 2.369856e+000 -1.264695e+001 64 45 26
2.138304e+000 1.416011e-001 -1.324554e+001 178 122 109
5.401483e+000 -5.191178e-002 -1.306720e+001 92 70 47
2.448606e+000 -2.989452e-001 -1.313894e+001 110 49 45
2.612399e+000 -1.979056e-001 -1.328708e+001 151 99 85
2.612399e+000 -1.979056e-001 -1.328708e+001 151 99 85
3.406389e+000 -3.396266e-001 -1.296377e+001 45 37 15
4.017940e+000 -1.434694e+000 -1.436255e+001 73 46 27
4.015358e+000 -1.430547e+000 -1.434548e+001 73 46 27
4.849620e+000 -1.386894e+000 -1.459822e+001 64 42 19
-1.136332e+000 -1.134033e+000 -1.357140e+001 126 83 58
4.770507e+000 -1.741630e+000 -1.498714e+001 76 49 28
2.933199e+000 -1.843312e+000 -1.454781e+001 113 81 53
2.780490e+000 -2.144938e+000 -1.477771e+001 201 171 142
2.593253e+000 2.327047e+000 -1.333671e+001 185 155 117
2.940546e+000 1.812853e+000 -1.232262e+001 159 132 105
5.611109e+000 3.803624e-001 -1.252842e+001 81 53 30
1.267692e+000 3.755282e-001 -1.329768e+001 143 92 63
1.409333e+000 1.798074e-001 -1.312236e+001 203 156 126
1.535450e+000 -3.725260e-001 -1.289051e+001 165 94 92
3.084754e+000 -4.091619e-001 -1.279276e+001 91 67 41
5.452659e+000 -4.800167e-001 -1.353748e+001 61 37 13
3.357188e+000 -8.067056e-001 -1.330829e+001 80 67 48
5.327120e+000 -1.791526e+000 -1.518690e+001 92 68 44
2.379227e+000 -2.113951e+000 -1.501848e+001 174 135 106
5.116174e+000 2.211888e+000 -1.285263e+001 127 93 65
2.132575e+000 1.992489e+000 -1.418773e+001 189 147 112
2.319785e+000 1.710579e+000 -1.345196e+001 110 80 52
2.343478e+000 1.151734e+000 -1.271956e+001 206 134 120
4.636782e+000 5.345559e-001 -1.209054e+001 74 46 25
2.806767e+000 6.342549e-001 -1.221664e+001 126 82 22
2.461500e+000 -1.122104e-001 -1.312497e+001 119 65 56
4.366093e+000 -5.993467e-001 -1.344694e+001 74 48 26
3.583814e+000 -1.019745e+000 -1.367452e+001 54 39 21
4.590700e+000 -1.674865e+000 -1.486677e+001 73 46 25
2.978263e+000 2.477231e+000 -1.265629e+001 212 178 143
5.287226e+000 2.041373e+000 -1.273880e+001 149 114 76
3.380040e+000 1.049328e+000 -1.141732e+001 58 39 22
3.083681e+000 8.264607e-001 -1.165949e+001 59 51 28
1.852552e+000 9.106025e-001 -1.292974e+001 163 72 72
2.921705e+000 7.370982e-001 -1.203892e+001 172 147 113
4.578645e+000 5.884253e-001 -1.203766e+001 93 65 43
5.266097e+000 5.465193e-001 -1.221324e+001 72 46 25
3.164106e+000 -2.158994e-002 -1.239291e+001 170 139 111
2.424818e+000 -3.565155e-001 -1.311324e+001 152 104 82
4.763626e+000 -5.056313e-001 -1.339414e+001 65 37 16
4.898314e+000 -1.245941e+000 -1.438584e+001 72 44 22
3.009247e+000 2.275152e+000 -1.250938e+001 178 142 105
4.065309e+000 2.502859e+000 -1.291863e+001 97 66 38
6.174236e+000 1.893735e+000 -1.287404e+001 21 16 13
3.753406e+000 1.355911e+000 -1.178422e+001 152 129 96
3.916560e+000 1.408794e+000 -1.190481e+001 65 47 27
4.474733e+000 7.191505e-002 -1.264761e+001 98 73 51
5.664853e+000 -9.436666e-002 -1.309991e+001 89 57 32
2.460044e+000 -7.914114e-001 -1.350072e+001 97 43 41
4.904509e+000 -8.221674e-001 -1.377434e+001 62 37 17
5.036099e+000 -8.058275e-001 -1.381119e+001 105 79 52
-2.582664e-001 -9.666859e-001 -1.388805e+001 79 46 31
4.136832e+000 -1.257535e+000 -1.422383e+001 96 72 48
4.005840e+000 -2.159646e+000 -1.521529e+001 106 79 58
3.101401e+000 1.813722e+000 -1.203469e+001 211 178 145
3.387244e+000 7.471571e-001 -1.154641e+001 39 23 14
3.295581e+000 6.753592e-001 -1.159959e+001 181 152 122
3.114909e+000 3.072277e-001 -1.204443e+001 132 97 68
5.715609e+000 -8.883247e-001 -1.401299e+001 131 100 69
2.121593e+000 -7.508157e-001 -1.306851e+001 122 54 55
2.937063e+000 1.544140e+000 -1.235945e+001 84 71 44
4.682987e+000 2.710169e+000 -1.316592e+001 121 87 60
5.158928e+000 2.884846e+000 -1.339904e+001 109 73 41
5.528593e+000 3.000035e+000 -1.357068e+001 111 75 43
3.301210e+000 2.605595e+000 -1.279687e+001 105 87 59
3.673730e+000 2.425392e+000 -1.272673e+001 81 68 48
2.834165e+000 2.314349e+000 -1.281507e+001 75 58 33
3.578289e+000 2.348116e+000 -1.263539e+001 226 211 173
3.578289e+000 2.348116e+000 -1.263539e+001 226 211 173
5.162752e+000 2.303170e+000 -1.294392e+001 97 63 36
5.162752e+000 2.303170e+000 -1.294392e+001 97 63 36
5.254917e+000 2.403092e+000 -1.300278e+001 125 91 61
5.815626e+000 2.417481e+000 -1.312359e+001 115 85 58
3.059540e+000 2.014115e+000 -1.228647e+001 177 139 105
3.114123e+000 2.038028e+000 -1.231791e+001 140 103 67
3.602498e+000 2.100894e+000 -1.244146e+001 75 53 30
4.480934e+000 2.113945e+000 -1.267822e+001 98 67 39
5.263402e+000 2.172946e+000 -1.286541e+001 116 82 54
3.452229e+000 1.931116e+000 -1.229433e+001 63 46 31
5.194321e+000 1.842957e+000 -1.258013e+001 124 85 49
3.708374e+000 1.530013e+000 -1.193160e+001 253 236 170
3.731706e+000 1.560094e+000 -1.196750e+001 67 45 24
4.267928e+000 1.558027e+000 -1.211969e+001 103 71 46
4.534353e+000 1.753392e+000 -1.234216e+001 132 100 72
2.766914e+000 1.539928e+000 -1.241601e+001 193 157 116
3.479520e+000 1.388746e+000 -1.174901e+001 166 148 115
3.735223e+000 1.408696e+000 -1.182417e+001 247 232 181
5.346048e+000 -3.140862e-001 -1.332343e+001 71 50 26
2.573384e+000 -3.285465e-001 -1.317582e+001 124 68 57
3.305838e+000 -5.685136e-001 -1.311246e+001 37 23 8
1.716131e-001 -8.600790e-001 -1.412089e+001 162 125 98
2.712689e+000 -1.159606e+000 -1.375962e+001 46 33 20
2.815879e+000 -1.795369e+000 -1.451191e+001 215 180 152
2.815879e+000 -1.795369e+000 -1.451191e+001 215 180 152
3.176397e+000 2.837664e+000 -1.301026e+001 70 54 32
5.071566e+000 2.861454e+000 -1.335823e+001 103 66 37
5.911098e+000 2.955834e+000 -1.363367e+001 119 77 42
5.911098e+000 2.955834e+000 -1.363367e+001 119 77 42
4.727312e+000 2.620282e+000 -1.309845e+001 124 89 62
3.076606e+000 2.291604e+000 -1.250493e+001 184 151 113
3.158676e+000 2.045464e+000 -1.235438e+001 142 105 76
3.710590e+000 1.956215e+000 -1.225497e+001 62 47 26
5.080634e+000 2.092710e+000 -1.279629e+001 122 87 59
3.672758e+000 1.754671e+000 -1.208608e+001 76 64 42
4.540727e+000 1.877780e+000 -1.251098e+001 99 64 38
4.821533e+000 1.900445e+000 -1.254404e+001 126 92 64
5.061401e+000 1.792089e+000 -1.249536e+001 102 66 32
3.224057e+000 1.579248e+000 -1.182102e+001 148 110 73
4.995055e+000 1.721847e+000 -1.242228e+001 108 69 36
4.656868e+000 1.529111e+000 -1.215733e+001 97 62 34
2.579917e+000 1.487104e+000 -1.266983e+001 211 173 128
3.253365e+000 1.260929e+000 -1.162263e+001 175 140 102
3.843434e+000 1.249536e+000 -1.171992e+001 128 111 85
2.875582e+000 1.252701e+000 -1.237446e+001 125 86 55
2.889080e+000 7.125294e-001 -1.216692e+001 141 100 50
5.805686e+000 6.554037e-001 -1.225047e+001 78 46 21
1.542160e+000 7.667154e-001 -1.321397e+001 158 100 78
1.761144e+000 7.336168e-001 -1.283635e+001 170 94 86
2.466521e+000 1.079280e-001 -1.328368e+001 135 66 69
3.237429e+000 -3.738740e-003 -1.238933e+001 103 72 43
5.013055e+000 -4.707642e-002 -1.294602e+001 70 46 22
5.271095e+000 -1.238848e-001 -1.314449e+001 54 32 11
5.369831e+000 -7.182724e-002 -1.307860e+001 52 30 8
2.929985e+000 -1.907575e-001 -1.274083e+001 40 31 14
3.041635e+000 -2.336585e-001 -1.265892e+001 98 81 56
3.382511e+000 -1.850813e-001 -1.275925e+001 39 25 17
5.361012e+000 -1.949817e-001 -1.320505e+001 88 65 43
5.600510e+000 -3.275044e-001 -1.344717e+001 55 31 9
-9.987060e-001 -5.141688e-001 -1.415981e+001 92 70 60
-9.987060e-001 -5.141688e-001 -1.415981e+001 92 70 60
4.897321e+000 -6.832600e-001 -1.365319e+001 97 72 49
2.780832e+000 -8.060304e-001 -1.306792e+001 178 146 105
4.354980e+000 -8.817951e-001 -1.373790e+001 66 43 22
-1.424297e+000 -9.472083e-001 -1.380651e+001 141 94 64
2.904537e+000 -1.664050e+000 -1.432338e+001 126 92 65
3.512053e+000 -1.941028e+000 -1.490766e+001 65 46 29
4.303584e+000 2.834947e+000 -1.315963e+001 121 86 59
5.073266e+000 2.748796e+000 -1.324447e+001 131 98 70
5.407994e+000 2.792621e+000 -1.336703e+001 124 91 60
3.242442e+000 2.475175e+000 -1.268680e+001 65 48 28
5.440343e+000 2.630459e+000 -1.324100e+001 117 84 53
3.580722e+000 2.302224e+000 -1.260455e+001 47 33 20
4.174083e+000 2.348959e+000 -1.283229e+001 81 53 29
4.879091e+000 2.272650e+000 -1.286086e+001 137 104 73
3.408706e+000 2.035874e+000 -1.235348e+001 47 35 19
3.613256e+000 2.118816e+000 -1.245408e+001 69 50 35
3.637792e+000 1.928334e+000 -1.224108e+001 77 60 37
4.455146e+000 2.052264e+000 -1.260231e+001 127 96 67
3.983558e+000 1.928977e+000 -1.242170e+001 141 111 83
5.468035e+000 1.760154e+000 -1.251045e+001 108 67 35
5.468035e+000 1.760154e+000 -1.251045e+001 108 67 35
3.821004e+000 1.475744e+000 -1.190010e+001 132 113 80
4.756811e+000 1.528282e+000 -1.218660e+001 140 104 70
5.154858e+000 1.549025e+000 -1.226105e+001 145 107 70
5.572750e+000 1.428579e+000 -1.220615e+001 128 93 61
3.293343e+000 1.216332e+000 -1.161128e+001 135 99 63
2.977746e+000 1.102987e+000 -1.192796e+001 67 60 32
3.370820e+000 1.020649e+000 -1.163571e+001 117 82 49
2.976930e+000 9.773933e-001 -1.198946e+001 94 84 58
3.033258e+000 9.020895e-001 -1.170207e+001 112 102 74
3.055666e+000 9.398647e-001 -1.155190e+001 141 122 89
2.925505e+000 8.041050e-001 -1.210568e+001 156 137 105
3.796898e+000 5.847044e-001 -1.181708e+001 51 39 27
2.720408e+000 3.151196e-001 -1.244599e+001 157 115 73
4.648150e+000 2.954537e-001 -1.234817e+001 71 44 23
2.706302e+000 1.654636e-001 -1.240397e+001 186 152 117
5.702540e+000 6.884232e-002 -1.297482e+001 93 64 40
5.248948e+000 3.324226e-003 -1.298073e+001 62 43 19
5.403933e+000 -3.723928e-001 -1.342556e+001 67 45 22
5.407907e+000 -3.725991e-001 -1.343525e+001 67 45 22
4.609516e+000 -7.933030e-001 -1.366555e+001 70 45 26
4.869581e+000 -7.971095e-001 -1.373690e+001 50 28 6
1.999315e+000 -8.581057e-001 -1.312881e+001 185 144 126
2.638559e+000 -8.513619e-001 -1.349918e+001 92 39 35
2.638559e+000 -8.513619e-001 -1.349918e+001 92 39 35
2.746835e+000 -9.243089e-001 -1.342896e+001 159 116 98
4.751081e+000 -1.039264e+000 -1.405597e+001 73 52 30
2.887408e+000 -1.797385e+000 -1.449648e+001 122 88 62
3.045979e+000 2.875205e+000 -1.301734e+001 56 37 24
5.052143e+000 2.492027e+000 -1.305097e+001 137 104 71
5.206645e+000 2.550472e+000 -1.312807e+001 88 57 28
3.659885e+000 2.005531e+000 -1.240652e+001 69 56 39
2.658340e+000 2.238409e+000 -1.337814e+001 81 63 39
3.101904e+000 1.634948e+000 -1.198528e+001 137 104 71
3.139394e+000 1.494238e+000 -1.188405e+001 136 102 67
4.485864e+000 1.516199e+000 -1.211936e+001 87 55 30
2.959631e+000 1.328810e+000 -1.211818e+001 155 125 95
2.959631e+000 1.328810e+000 -1.211818e+001 155 125 95
3.198804e+000 1.147294e+000 -1.161027e+001 132 96 65
3.362188e+000 8.769383e-001 -1.156011e+001 138 107 76
4.448167e+000 9.787083e-001 -1.185270e+001 81 50 22
2.825854e+000 7.776750e-001 -1.232623e+001 135 86 41
2.839084e+000 4.243481e-001 -1.232635e+001 121 78 36
4.689125e+000 3.392544e-001 -1.228318e+001 107 80 53
5.562263e+000 3.756974e-001 -1.253404e+001 103 75 49
3.507102e+000 2.256796e-001 -1.223832e+001 30 20 12
4.673321e+000 1.712535e-001 -1.257342e+001 72 43 25
4.922017e+000 5.488317e-002 -1.276453e+001 104 77 52
5.411963e+000 2.742997e-003 -1.299861e+001 61 42 18
3.084754e+000 -4.091619e-001 -1.279276e+001 91 67 41
3.151272e+000 -2.677662e-001 -1.269965e+001 186 160 133
3.048314e+000 -7.144712e-001 -1.311630e+001 207 177 151
3.048314e+000 -7.144712e-001 -1.311630e+001 207 177 151
-8.737644e-001 -7.822557e-001 -1.358923e+001 147 107 83
4.392359e+000 -8.644591e-001 -1.370495e+001 65 43 22
2.515018e+000 -1.472284e+000 -1.424527e+001 170 112 99
4.292489e+000 -1.837215e+000 -1.500044e+001 70 47 23
2.609178e+000 -2.017745e+000 -1.475378e+001 186 147 116
3.087581e+000 2.699199e+000 -1.285248e+001 59 38 21
5.547141e+000 2.372276e+000 -1.307969e+001 92 61 33
4.185098e+000 1.743631e+000 -1.227485e+001 89 59 34
3.175290e+000 1.343415e+000 -1.169113e+001 141 103 67
2.916997e+000 1.319034e+000 -1.228004e+001 56 45 27
4.437803e+000 1.344415e+000 -1.197665e+001 93 59 31
5.747135e+000 7.008961e-003 -1.306233e+001 74 44 18
5.112456e+000 -7.896136e-001 -1.378738e+001 109 83 56
2.373428e+000 -9.191844e-001 -1.341332e+001 104 38 38
2.642900e+000 -9.999656e-001 -1.361711e+001 136 92 81
2.606662e+000 -1.497193e+000 -1.430573e+001 106 45 40
2.636630e+000 -1.752487e+000 -1.470623e+001 108 59 42
5.436674e+000 -1.867692e+000 -1.525631e+001 88 58 33
3.114831e+000 -2.334515e+000 -1.476120e+001 80 66 55
3.295174e+000 3.171487e+000 -1.338625e+001 214 198 180
3.163752e+000 2.149386e+000 -1.245217e+001 58 37 23
3.128648e+000 1.382935e+000 -1.198102e+001 173 138 108
3.380040e+000 1.049328e+000 -1.141732e+001 58 39 22
1.749633e+000 9.032226e-001 -1.295268e+001 218 160 140
3.718523e+000 4.906047e-001 -1.175822e+001 24 17 11
5.459627e+000 1.710514e-001 -1.280461e+001 97 73 47
5.843113e+000 7.906854e-002 -1.297684e+001 124 93 64
1.991623e+000 -2.651981e-002 -1.308121e+001 166 106 95
4.772161e+000 -7.796166e-002 -1.288471e+001 106 79 52
5.451591e+000 -8.210563e-002 -1.306007e+001 90 66 42
2.625000e+000 -3.134371e-001 -1.313605e+001 146 107 89
2.985495e+000 -1.957244e+000 -1.476214e+001 54 45 38
3.724394e+000 -2.088792e+000 -1.506177e+001 139 111 89
5.535325e+000 -2.225816e+000 -1.565807e+001 125 98 66
5.784087e+000 1.479883e+000 -1.229363e+001 97 61 29
1.740606e+000 6.863823e-001 -1.275666e+001 183 103 96
2.525383e+000 5.742233e-003 -1.328572e+001 98 40 38
2.417508e+000 -1.970549e-001 -1.313926e+001 94 35 27
4.765490e+000 -3.739558e-001 -1.329360e+001 108 80 52
2.257976e+000 -4.917890e-001 -1.327707e+001 106 41 39
3.700563e+000 -7.383487e-001 -1.348267e+001 44 28 12
1.964669e+000 -7.843144e-001 -1.317501e+001 159 114 94
3.539696e+000 -1.321957e+000 -1.404014e+001 51 39 22
4.178930e+000 -1.468798e+000 -1.448187e+001 73 51 30
5.673240e+000 3.008486e+000 -1.353386e+001 183 140 101
3.659592e+000 2.381387e+000 -1.261824e+001 75 62 46
3.425725e+000 2.005337e+000 -1.223160e+001 71 58 41
3.732492e+000 2.019010e+000 -1.231484e+001 87 70 45
3.536568e+000 1.720747e+000 -1.208552e+001 75 62 40
5.091735e+000 8.294758e-001 -1.204545e+001 73 42 20
5.101452e+000 -4.524537e-001 -1.343090e+001 104 74 48
2.923105e+000 -6.166488e-001 -1.296915e+001 72 67 48
5.981270e+000 -8.383584e-001 -1.411234e+001 99 68 38
2.476514e+000 -1.204601e+000 -1.386500e+001 173 114 108
2.351846e+000 -1.340891e+000 -1.423825e+001 97 32 36
3.119620e+000 3.132588e+000 -1.351947e+001 97 76 57
4.469305e+000 2.533821e+000 -1.301021e+001 106 76 47
4.645985e+000 6.664686e-001 -1.201163e+001 82 54 32
2.928395e+000 6.289985e-001 -1.197719e+001 184 155 119
4.739615e+000 3.873413e-001 -1.221197e+001 112 82 55
1.382204e+000 1.574594e-001 -1.308335e+001 191 135 112
1.808564e+000 -1.877495e-002 -1.308104e+001 130 62 53
3.873705e+000 -9.593406e-001 -1.375972e+001 127 101 76
3.873705e+000 -9.593406e-001 -1.375972e+001 127 101 76
4.093312e+000 -1.071702e+000 -1.398830e+001 66 43 27
5.621647e+000 -1.910749e+000 -1.539744e+001 131 100 69
2.841357e+000 -4.608349e-001 -1.288053e+001 55 41 27
-5.173175e-001 -1.249887e+000 -1.378897e+001 93 67 54
5.476543e+000 2.917193e+000 -1.360241e+001 98 65 30
5.286799e+000 1.811661e+000 -1.255299e+001 152 109 74
2.740916e+000 2.803594e-001 -1.235696e+001 199 161 114
3.020002e+000 9.038621e-001 -1.208422e+001 56 48 28
5.756950e+000 -2.560770e+000 -1.599756e+001 164 135 91
5.356361e+000 -2.665244e-001 -1.324398e+001 77 51 31
5.594421e+000 1.842978e+000 -1.288411e+001 121 82 47
3.088739e+000 3.048213e+000 -1.318850e+001 73 58 36
3.750983e+000 3.194267e+000 -1.364288e+001 172 146 116
3.051369e+000 3.013389e+000 -1.319911e+001 77 51 36
3.564862e+000 2.880098e+000 -1.304558e+001 65 51 32
4.471842e+000 3.034230e+000 -1.342347e+001 106 71 41
2.897813e+000 2.764174e+000 -1.293725e+001 204 171 138
5.109095e+000 2.845090e+000 -1.336133e+001 137 101 69
6.001883e+000 2.900639e+000 -1.364527e+001 146 102 67
2.781372e+000 2.596955e+000 -1.284951e+001 161 134 103
2.785962e+000 2.532169e+000 -1.271245e+001 78 67 35
3.068539e+000 2.500205e+000 -1.268064e+001 145 113 80
3.240697e+000 2.375881e+000 -1.262000e+001 69 53 29
4.386655e+000 2.530049e+000 -1.300220e+001 88 56 34
2.786059e+000 2.351417e+000 -1.273028e+001 90 75 45
3.731218e+000 2.337389e+000 -1.268067e+001 70 53 33
5.364357e+000 2.415603e+000 -1.308325e+001 117 82 54
3.020196e+000 2.113549e+000 -1.238147e+001 209 175 139
3.352986e+000 2.132797e+000 -1.239725e+001 120 103 77
3.503326e+000 2.192220e+000 -1.259831e+001 37 23 12
3.644704e+000 2.158243e+000 -1.247089e+001 136 114 81
3.647109e+000 2.160173e+000 -1.247948e+001 136 114 81
4.796035e+000 2.046965e+000 -1.265663e+001 97 63 35
2.325392e+000 2.159158e+000 -1.404528e+001 198 159 126
2.605637e+000 2.023329e+000 -1.306099e+001 65 59 31
3.047511e+000 1.920469e+000 -1.227533e+001 138 104 69
3.103194e+000 1.836658e+000 -1.210759e+001 229 196 162
3.638549e+000 1.913882e+000 -1.225980e+001 84 62 40
2.198274e+000 2.055825e+000 -1.412829e+001 145 105 69
2.375212e+000 1.844244e+000 -1.340031e+001 93 73 39
3.446935e+000 1.680209e+000 -1.203744e+001 64 47 26
3.723104e+000 1.784728e+000 -1.216752e+001 176 150 105
3.793208e+000 1.649457e+000 -1.201109e+001 67 49 29
4.020139e+000 1.823172e+000 -1.240051e+001 139 108 79
4.512117e+000 1.769186e+000 -1.237769e+001 98 64 37
6.167474e+000 1.717994e+000 -1.277372e+001 95 62 29
2.411067e+000 1.621776e+000 -1.321203e+001 160 116 79
3.075033e+000 1.466418e+000 -1.204017e+001 124 95 71
3.315230e+000 1.365939e+000 -1.178029e+001 169 129 94
3.512503e+000 1.357757e+000 -1.174339e+001 151 129 101
3.488666e+000 1.339489e+000 -1.175297e+001 70 55 29
3.604854e+000 1.339214e+000 -1.181540e+001 79 64 41
3.794926e+000 1.312829e+000 -1.171299e+001 159 136 108
3.042395e+000 1.225697e+000 -1.208753e+001 128 93 65
3.758257e+000 1.129953e+000 -1.170945e+001 146 129 102
3.758257e+000 1.129953e+000 -1.170945e+001 146 129 102
2.912734e+000 1.146995e+000 -1.236544e+001 182 144 111
2.998014e+000 1.092228e+000 -1.179452e+001 105 94 71
2.995940e+000 1.035535e+000 -1.194663e+001 102 95 67
3.015728e+000 1.007111e+000 -1.174424e+001 97 90 62
3.015728e+000 1.007111e+000 -1.174424e+001 97 90 62
3.468737e+000 9.874523e-001 -1.161985e+001 75 53 32
3.579293e+000 1.093313e+000 -1.160061e+001 40 27 12
2.925995e+000 9.595581e-001 -1.212294e+001 139 111 83
3.488485e+000 9.634982e-001 -1.163403e+001 225 198 144
3.502766e+000 9.441101e-001 -1.161168e+001 58 39 23
2.950827e+000 7.926793e-001 -1.202756e+001 85 69 47
3.246414e+000 7.244108e-001 -1.161744e+001 124 93 64
3.541310e+000 7.281016e-001 -1.161761e+001 58 42 27
3.583185e+000 6.678258e-001 -1.162256e+001 116 99 81
3.629410e+000 6.584949e-001 -1.170279e+001 46 31 15
3.750479e+000 4.142363e-001 -1.175932e+001 57 47 33
3.495930e+000 3.518071e-001 -1.182021e+001 78 62 46
4.756949e+000 2.774594e-001 -1.239082e+001 101 77 51
3.397702e+000 6.391739e-002 -1.244668e+001 50 34 21
3.451572e+000 -8.669891e-002 -1.264826e+001 40 28 16
4.347780e+000 -8.179800e-002 -1.281198e+001 51 28 11
1.687131e+000 -2.339580e-001 -1.291687e+001 134 67 51
2.579560e+000 -2.159685e-001 -1.330302e+001 94 40 28
2.852664e+000 -1.794520e-001 -1.277227e+001 54 38 23
3.384611e+000 -2.241170e-001 -1.276097e+001 113 95 68
5.142820e+000 -3.820705e-001 -1.339083e+001 102 80 58
3.327280e+000 -3.880576e-001 -1.293477e+001 43 30 13
4.294556e+000 -5.539005e-001 -1.345148e+001 61 36 14
4.294556e+000 -5.539005e-001 -1.345148e+001 61 36 14
-1.147142e+000 -5.492092e-001 -1.373150e+001 145 106 77
3.063453e+000 -6.298998e-001 -1.294829e+001 151 124 97
3.321962e+000 -5.207434e-001 -1.310018e+001 41 28 14
3.384102e+000 -5.501745e-001 -1.315465e+001 37 24 12
3.414932e+000 -5.652816e-001 -1.317826e+001 102 88 64
4.915892e+000 -7.317733e-001 -1.370887e+001 61 36 14
4.960700e+000 -8.387634e-001 -1.383748e+001 60 34 12
4.934076e+000 -8.995678e-001 -1.388793e+001 63 38 17
2.165147e+000 -1.091178e+000 -1.348819e+001 163 102 97
2.939276e+000 -9.360279e-001 -1.322798e+001 122 88 61
3.225775e+000 -1.093673e+000 -1.366609e+001 49 37 20
3.232525e+000 -1.053288e+000 -1.363036e+001 52 40 18
4.317837e+000 -1.023170e+000 -1.395500e+001 67 45 24
2.646556e+000 -1.306665e+000 -1.378806e+001 54 45 28
2.618270e+000 -1.408678e+000 -1.414140e+001 110 40 39
3.166457e+000 -1.322187e+000 -1.392844e+001 62 47 25
3.199502e+000 -1.189575e+000 -1.378474e+001 63 47 31
3.438935e+000 -1.235992e+000 -1.395441e+001 78 62 44
3.434453e+000 -1.308644e+000 -1.408853e+001 71 56 36
3.492235e+000 -1.262856e+000 -1.395079e+001 40 24 9
2.391689e+000 -1.778432e+000 -1.464340e+001 119 68 49
4.546771e+000 -1.975395e+000 -1.508439e+001 81 54 35
6.133772e+000 -1.813952e+000 -1.310610e+001 113 85 45
2.694361e+000 2.908761e+000 -1.336131e+001 80 72 44
2.948111e+000 2.910341e+000 -1.295943e+001 144 107 80
3.475886e+000 2.954877e+000 -1.317793e+001 82 66 44
4.268511e+000 3.027315e+000 -1.336589e+001 168 132 98
4.700959e+000 3.020916e+000 -1.345192e+001 100 64 30
4.629975e+000 2.962354e+000 -1.338775e+001 100 63 34
5.149430e+000 2.988436e+000 -1.351032e+001 104 65 32
5.955608e+000 3.053138e+000 -1.382529e+001 125 86 45
2.876544e+000 2.788290e+000 -1.306909e+001 145 112 84
2.937658e+000 2.616378e+000 -1.278461e+001 233 201 168
3.488751e+000 2.685532e+000 -1.288162e+001 78 62 47
2.900656e+000 2.415218e+000 -1.262291e+001 138 108 70
3.667763e+000 2.568825e+000 -1.279704e+001 66 49 29
3.581829e+000 2.395547e+000 -1.267320e+001 62 44 22
3.708635e+000 2.391789e+000 -1.268021e+001 63 48 29
4.398438e+000 2.556539e+000 -1.294150e+001 116 84 59
4.296999e+000 2.431293e+000 -1.291009e+001 84 54 31
3.522404e+000 2.048875e+000 -1.245416e+001 28 16 2
3.798763e+000 2.012785e+000 -1.241419e+001 81 60 39
4.945539e+000 2.197703e+000 -1.281917e+001 90 55 29
5.286641e+000 2.114028e+000 -1.289591e+001 111 75 41
3.074699e+000 1.856933e+000 -1.215564e+001 186 154 116
3.238531e+000 1.841014e+000 -1.214607e+001 55 38 20
3.313039e+000 1.964847e+000 -1.222065e+001 33 28 18
3.438445e+000 1.770951e+000 -1.195468e+001 66 51 32
3.818938e+000 1.914936e+000 -1.232938e+001 77 57 33
1.988025e+000 2.172074e+000 -1.439981e+001 216 203 188
2.323454e+000 2.000765e+000 -1.373603e+001 172 147 112
3.125500e+000 1.709418e+000 -1.196701e+001 189 157 119
3.309257e+000 1.548145e+000 -1.184891e+001 53 36 22
3.437688e+000 1.497961e+000 -1.180095e+001 80 59 35
3.747795e+000 1.498543e+000 -1.190783e+001 69 52 31
4.425068e+000 1.592665e+000 -1.213366e+001 148 113 81
2.244573e+000 1.590023e+000 -1.334126e+001 179 114 87
3.262200e+000 1.361772e+000 -1.167361e+001 115 77 40
3.325956e+000 1.172420e+000 -1.154599e+001 143 105 69
3.661833e+000 1.183708e+000 -1.172358e+001 57 46 27
5.610052e+000 1.291389e+000 -1.214449e+001 101 64 32
5.610052e+000 1.291389e+000 -1.214449e+001 101 64 32
2.813825e+000 1.071280e+000 -1.244495e+001 131 88 53
3.063974e+000 1.131662e+000 -1.187743e+001 139 103 71
3.039316e+000 1.036307e+000 -1.164011e+001 128 114 87
3.840020e+000 1.037929e+000 -1.166779e+001 63 46 26
5.567046e+000 1.107724e+000 -1.209778e+001 88 53 26
2.754257e+000 1.025363e+000 -1.253969e+001 161 117 78
2.834143e+000 9.875460e-001 -1.229434e+001 153 111 73
3.006349e+000 8.721039e-001 -1.182443e+001 111 101 75
4.416139e+000 8.474832e-001 -1.187688e+001 70 39 18
1.606862e+000 8.212664e-001 -1.301740e+001 175 98 86
2.516594e+000 8.743544e-001 -1.265895e+001 175 109 93
2.827706e+000 5.647478e-001 -1.234726e+001 135 94 45
3.201053e+000 5.731414e-001 -1.181767e+001 117 84 58
3.237322e+000 6.873885e-001 -1.163487e+001 156 124 95
3.273608e+000 6.838493e-001 -1.159937e+001 155 124 93
3.814897e+000 6.253643e-001 -1.178784e+001 39 25 19
5.716874e+000 6.061193e-001 -1.227541e+001 64 35 11
2.588962e+000 5.320409e-001 -1.269458e+001 95 56 40
3.193457e+000 4.114701e-001 -1.190423e+001 166 131 100
3.377342e+000 4.941399e-001 -1.187354e+001 107 73 46
3.690674e+000 4.451663e-001 -1.179637e+001 62 50 34
3.764496e+000 4.483331e-001 -1.180488e+001 23 14 6
3.063414e+000 3.469975e-001 -1.214443e+001 151 112 80
3.658115e+000 3.481378e-001 -1.168527e+001 67 56 39
3.779840e+000 3.242420e-001 -1.170984e+001 81 66 45
4.188193e+000 2.909799e-001 -1.214952e+001 61 40 23
1.404557e+000 5.707391e-002 -1.306977e+001 159 98 83
3.779701e+000 1.481346e-001 -1.168637e+001 79 63 47
5.558243e+000 1.477678e-001 -1.286085e+001 72 46 23
3.216475e+000 -3.595864e-002 -1.239260e+001 115 81 54
3.306161e+000 -4.681390e-002 -1.251856e+001 49 36 18
4.607241e+000 9.075543e-003 -1.283337e+001 68 41 22
5.083242e+000 -7.051366e-002 -1.303113e+001 93 69 44
5.083242e+000 -7.051366e-002 -1.303113e+001 93 69 44
5.457500e+000 -1.923562e-001 -1.325725e+001 63 38 17
1.620732e+000 -1.520764e-001 -1.299119e+001 195 132 115
3.191423e+000 -2.501276e-001 -1.266187e+001 91 66 39
3.399155e+000 -1.443239e-001 -1.276170e+001 74 63 45
4.242611e+000 -3.437211e-001 -1.315669e+001 56 38 18
2.609036e+000 -4.251412e-001 -1.327652e+001 115 60 46
2.779789e+000 -4.494385e-001 -1.320076e+001 53 41 25
2.750205e+000 -7.134344e-001 -1.326499e+001 119 81 45
2.964381e+000 -5.414809e-001 -1.278490e+001 54 42 20
3.603396e+000 -5.627137e-001 -1.314871e+001 61 46 27
3.671094e+000 -5.411817e-001 -1.312370e+001 37 24 13
3.648630e+000 -6.461027e-001 -1.316529e+001 89 71 50
4.874587e+000 -7.995002e-001 -1.375035e+001 50 28 6
2.792483e+000 -6.969511e-001 -1.292512e+001 162 129 94
3.305237e+000 -7.979970e-001 -1.337989e+001 80 68 48
3.297571e+000 -8.511193e-001 -1.340289e+001 43 30 13
2.109726e+000 -8.897102e-001 -1.310209e+001 115 66 52
2.029840e+000 -1.079254e+000 -1.363222e+001 159 106 92
3.311466e+000 -1.039837e+000 -1.362040e+001 37 27 17
3.218747e+000 -1.142184e+000 -1.373690e+001 47 33 18
4.515806e+000 -1.011072e+000 -1.388423e+001 88 66 47
5.041648e+000 -1.123326e+000 -1.436930e+001 72 47 25
5.041648e+000 -1.123326e+000 -1.436930e+001 72 47 25
-4.604779e-001 -1.114550e+000 -1.361293e+001 97 64 45
3.200971e+000 -1.282229e+000 -1.392781e+001 51 38 24
3.437350e+000 -1.627757e+000 -1.446594e+001 156 136 112
3.437350e+000 -1.627757e+000 -1.446594e+001 156 136 112
2.271005e+000 -1.725071e+000 -1.440100e+001 167 108 100
2.539251e+000 -1.973350e+000 -1.478148e+001 146 105 77
2.628518e+000 -1.928593e+000 -1.462201e+001 143 99 72
-1.259214e+000 -1.905738e+000 -1.397139e+001 149 78 84
2.499133e+000 -2.019976e+000 -1.487194e+001 182 141 109
2.597972e+000 -2.048210e+000 -1.462499e+001 152 113 82
2.911426e+000 3.122455e+000 -1.328046e+001 164 132 101
3.412822e+000 3.203056e+000 -1.347808e+001 162 141 116
2.659745e+000 2.987961e+000 -1.339187e+001 91 83 54
2.839524e+000 2.802261e+000 -1.317641e+001 176 145 116
2.894565e+000 2.623826e+000 -1.276804e+001 137 105 73
3.648048e+000 2.780832e+000 -1.300134e+001 74 58 35
3.656064e+000 2.656798e+000 -1.287056e+001 74 59 40
2.703206e+000 2.485493e+000 -1.301704e+001 188 157 123
2.934619e+000 2.450809e+000 -1.266040e+001 247 219 184
4.533119e+000 2.468240e+000 -1.298616e+001 118 89 59
4.733515e+000 2.623354e+000 -1.311385e+001 124 89 62
5.424563e+000 2.565346e+000 -1.317775e+001 97 63 36
2.953213e+000 2.336870e+000 -1.264590e+001 126 93 61
3.058807e+000 2.149064e+000 -1.244777e+001 120 81 50
3.116377e+000 1.964228e+000 -1.217239e+001 128 93 61
3.365621e+000 2.077903e+000 -1.237555e+001 134 114 78
3.222785e+000 1.975736e+000 -1.235833e+001 56 34 21
3.697191e+000 1.906938e+000 -1.229065e+001 150 126 88
3.758583e+000 1.794878e+000 -1.213188e+001 67 50 30
5.484271e+000 1.963157e+000 -1.270552e+001 111 72 39
2.318933e+000 1.920045e+000 -1.352971e+001 73 65 26
3.155652e+000 1.634763e+000 -1.188976e+001 216 180 145
3.156582e+000 1.635649e+000 -1.189484e+001 216 180 145
3.495071e+000 1.633378e+000 -1.195237e+001 62 46 28
4.566677e+000 1.706603e+000 -1.227689e+001 123 89 61
2.187823e+000 1.718134e+000 -1.378860e+001 194 157 121
3.303340e+000 1.511731e+000 -1.188716e+001 144 110 69
4.760909e+000 1.528775e+000 -1.219041e+001 140 104 70
3.325988e+000 1.312017e+000 -1.169515e+001 143 104 68
3.461370e+000 1.425192e+000 -1.172572e+001 77 61 38
3.770880e+000 1.423731e+000 -1.183375e+001 81 63 43
3.061619e+000 1.183184e+000 -1.201729e+001 175 137 106
3.018332e+000 1.053924e+000 -1.179011e+001 65 59 34
3.871438e+000 1.011415e+000 -1.164350e+001 138 120 96
3.871438e+000 1.011415e+000 -1.164350e+001 138 120 96
1.840092e+000 1.016864e+000 -1.296912e+001 210 132 124
3.040283e+000 8.542751e-001 -1.176011e+001 71 60 38
3.040283e+000 8.542751e-001 -1.176011e+001 71 60 38
3.493668e+000 8.388046e-001 -1.161779e+001 38 24 13
3.646385e+000 9.174245e-001 -1.164219e+001 66 49 32
1.654298e+000 8.944214e-001 -1.312866e+001 164 94 80
3.299835e+000 8.019356e-001 -1.146602e+001 125 91 64
3.486705e+000 7.529140e-001 -1.160927e+001 61 44 24
3.984462e+000 7.861074e-001 -1.178001e+001 60 40 16
3.652016e+000 5.613956e-001 -1.169503e+001 67 53 36
3.847275e+000 6.282031e-001 -1.175381e+001 114 94 68
5.259129e+000 5.227104e-001 -1.222907e+001 61 34 15
5.826517e+000 3.978710e-001 -1.253997e+001 79 48 20
2.622999e+000 3.624282e-001 -1.263466e+001 179 140 109
3.213869e+000 3.497386e-001 -1.187603e+001 195 161 129
3.819808e+000 3.125796e-001 -1.171780e+001 38 25 14
4.527571e+000 3.514114e-001 -1.229886e+001 70 48 25
5.540577e+000 2.747982e-001 -1.263595e+001 76 51 28
3.202365e+000 1.066339e-001 -1.222730e+001 213 182 153
3.278260e+000 2.172477e-001 -1.211904e+001 114 83 55
5.233709e+000 1.739382e-001 -1.261387e+001 87 65 41
5.356198e+000 1.597060e-001 -1.279161e+001 65 42 20
5.356198e+000 1.597060e-001 -1.279161e+001 65 42 20
5.610755e+000 1.134201e-001 -1.292020e+001 94 68 44
1.579654e+000 -4.334190e-003 -1.295117e+001 189 124 112
5.638390e+000 -1.957342e-001 -1.338790e+001 57 31 14
5.497709e+000 -3.855948e-001 -1.348248e+001 64 42 19
2.785441e+000 -3.524763e-001 -1.305201e+001 36 27 12
5.354546e+000 -5.239501e-001 -1.358350e+001 63 36 17
5.476099e+000 -4.310015e-001 -1.352950e+001 91 66 44
-1.429146e+000 -5.902548e-001 -1.382837e+001 178 137 110
5.024524e+000 -7.131036e-001 -1.372147e+001 70 43 22
-7.056614e-001 -7.079454e-001 -1.351666e+001 156 115 90
3.077065e+000 -8.602670e-001 -1.326886e+001 111 77 50
4.859450e+000 -1.046763e+000 -1.413064e+001 61 39 18
4.864825e+000 -1.049394e+000 -1.414972e+001 61 39 18
2.803892e+000 -9.670365e-001 -1.328302e+001 145 114 90
4.489555e+000 -1.190193e+000 -1.419923e+001 97 71 51
4.744019e+000 -1.034437e+000 -1.403206e+001 73 52 30
4.953972e+000 -1.117337e+000 -1.426259e+001 96 72 48
2.534810e+000 -1.183072e+000 -1.373767e+001 122 53 56
4.841585e+000 -1.480477e+000 -1.471860e+001 73 49 25
2.087311e+000 -1.409361e+000 -1.381582e+001 168 115 101
2.524514e+000 -1.704571e+000 -1.460674e+001 163 110 92
2.754512e+000 -1.352215e+000 -1.374939e+001 100 82 63
5.327120e+000 -1.791526e+000 -1.518690e+001 92 68 44
2.807527e+000 -1.952290e+000 -1.456044e+001 203 172 144
4.663706e+000 -2.165785e+000 -1.541947e+001 79 54 32
2.753930e+000 -2.269080e+000 -1.492178e+001 200 168 140
3.017078e+000 3.203156e+000 -1.342222e+001 218 201 183
3.691308e+000 3.217302e+000 -1.369870e+001 214 198 179
5.473972e+000 3.087428e+000 -1.377107e+001 135 97 61
2.603974e+000 2.867060e+000 -1.344287e+001 57 49 26
2.838971e+000 2.652945e+000 -1.289277e+001 167 137 108
4.877687e+000 2.700012e+000 -1.318809e+001 101 67 40
5.285740e+000 2.815198e+000 -1.339732e+001 125 90 60
2.576700e+000 2.719118e+000 -1.346875e+001 90 80 55
2.983373e+000 2.286622e+000 -1.251897e+001 214 180 144
4.175679e+000 2.349874e+000 -1.283765e+001 81 53 29
2.958867e+000 2.066009e+000 -1.267675e+001 157 126 98
3.340075e+000 1.920696e+000 -1.218676e+001 40 27 18
4.327514e+000 1.950699e+000 -1.252581e+001 114 80 53
4.634043e+000 1.840239e+000 -1.247030e+001 130 95 66
2.221648e+000 2.139778e+000 -1.426039e+001 191 151 117
2.966211e+000 1.744393e+000 -1.225630e+001 82 70 42
3.047453e+000 1.769857e+000 -1.212575e+001 139 105 72
3.187528e+000 1.710989e+000 -1.196003e+001 136 98 61
1.930184e+000 1.888649e+000 -1.435268e+001 201 159 109
3.818699e+000 1.164910e+000 -1.160799e+001 128 110 80
2.568937e+000 7.857845e-001 -1.245367e+001 191 154 115
3.231347e+000 7.346248e-001 -1.167978e+001 112 82 57
3.368744e+000 6.828872e-001 -1.157120e+001 107 76 47
3.834030e+000 5.809479e-001 -1.179294e+001 36 23 14
3.372701e+000 5.324956e-001 -1.174188e+001 33 20 12
3.708405e+000 3.555760e-001 -1.172209e+001 34 23 17
5.579587e+000 1.646058e-001 -1.275806e+001 64 42 19
4.707089e-001 -2.224245e-001 -1.357421e+001 201 160 122
2.848715e+000 -2.334578e-001 -1.264133e+001 81 73 52
2.848715e+000 -2.334578e-001 -1.264133e+001 81 73 52
5.565507e+000 -3.941749e-001 -1.349731e+001 96 72 48
2.312750e+000 -3.962813e-001 -1.319477e+001 149 75 76
3.689747e+000 -3.576537e-001 -1.294492e+001 39 24 11
5.310670e+000 -4.125588e-001 -1.344276e+001 68 43 21
5.310993e+000 -4.125865e-001 -1.344307e+001 68 43 21
5.695466e+000 -5.974178e-001 -1.378276e+001 89 59 33
2.938852e+000 -6.001328e-001 -1.287053e+001 56 49 32
4.947068e+000 -6.837343e-001 -1.369865e+001 101 74 49
-1.236740e+000 -8.849801e-001 -1.355770e+001 157 113 84
1.806047e+000 -6.852079e-001 -1.299839e+001 187 135 117
2.875689e+000 -8.420074e-001 -1.310631e+001 130 95 67
2.995104e+000 -1.017955e+000 -1.342531e+001 164 134 108
3.971551e+000 -1.105861e+000 -1.387927e+001 68 42 25
3.575396e+000 -1.190704e+000 -1.388231e+001 47 33 19
3.667977e+000 -1.423643e+000 -1.432237e+001 121 96 76
2.614730e+000 -1.619690e+000 -1.448151e+001 174 128 104
5.224685e+000 -1.768191e+000 -1.507503e+001 69 44 22
2.773417e+000 -1.735983e+000 -1.449904e+001 134 94 69
2.777996e+000 -1.942394e+000 -1.478991e+001 138 99 73
3.627707e+000 -2.110286e+000 -1.503141e+001 98 72 53
4.420609e+000 -2.169386e+000 -1.536941e+001 74 49 27
2.880908e+000 2.964658e+000 -1.306341e+001 242 209 176
3.986556e+000 3.095848e+000 -1.352456e+001 125 90 60
5.089209e+000 3.064997e+000 -1.360825e+001 168 126 88
5.453079e+000 3.057543e+000 -1.351702e+001 134 95 59
5.341723e+000 2.475182e+000 -1.318692e+001 86 55 26
2.523215e+000 2.405945e+000 -1.337340e+001 128 112 78
4.143013e+000 1.989203e+000 -1.253811e+001 79 51 29
3.322311e+000 1.685787e+000 -1.207735e+001 77 61 38
2.428791e+000 1.556655e+000 -1.313074e+001 192 148 111
4.925610e+000 1.420050e+000 -1.211721e+001 95 60 28
3.078681e+000 1.248511e+000 -1.212204e+001 118 82 56
2.761626e+000 1.100769e+000 -1.249172e+001 168 122 79
1.918737e+000 1.055998e+000 -1.301918e+001 184 98 93
6.096562e+000 9.681474e-001 -1.225416e+001 131 93 57
3.546827e+000 7.877467e-001 -1.166789e+001 134 112 76
3.437703e+000 5.990907e-001 -1.170835e+001 52 38 24
3.703174e+000 4.212103e-001 -1.183571e+001 62 48 31
4.583649e+000 5.074255e-001 -1.209389e+001 71 44 23
4.135466e+000 3.205847e-001 -1.211725e+001 105 85 63
2.833898e+000 1.229522e-001 -1.250853e+001 93 62 42
3.612514e+000 -2.651182e-001 -1.295626e+001 79 68 47
2.519475e+000 -4.430079e-001 -1.335771e+001 105 45 36
4.418453e+000 -5.290810e-001 -1.338171e+001 80 52 30
2.009131e+000 -5.647159e-001 -1.311285e+001 100 26 29
4.312377e+000 -8.913197e-001 -1.374396e+001 69 45 27
-2.613693e-001 -1.010599e+000 -1.362291e+001 85 50 37
3.415900e+000 -9.714793e-001 -1.365060e+001 23 14 11
2.221626e+000 -1.334975e+000 -1.374028e+001 171 124 109
2.220870e+000 -1.332490e+000 -1.372584e+001 171 124 109
2.926064e+000 -1.159773e+000 -1.363463e+001 85 58 37
2.972951e+000 -1.262457e+000 -1.369436e+001 118 95 72
2.508214e+000 -1.664986e+000 -1.474322e+001 109 42 40
3.635597e+000 -1.559545e+000 -1.444945e+001 126 100 79
5.077186e+000 -2.328254e+000 -1.573219e+001 93 63 39
2.945040e+000 2.769413e+000 -1.283345e+001 196 163 130
2.575846e+000 2.820411e+000 -1.364390e+001 114 103 75
2.962012e+000 2.640585e+000 -1.276466e+001 199 166 131
3.135546e+000 2.347929e+000 -1.258948e+001 43 29 20
4.972653e+000 2.115421e+000 -1.282860e+001 132 98 70
2.637907e+000 1.989868e+000 -1.305482e+001 75 67 44
2.107344e+000 2.151047e+000 -1.440352e+001 157 109 69
2.069551e+000 1.908160e+000 -1.422085e+001 47 28 23
4.210724e+000 1.624368e+000 -1.213738e+001 95 63 40
2.060866e+000 1.724949e+000 -1.399266e+001 195 155 119
3.903068e+000 1.213013e+000 -1.167864e+001 45 32 16
3.948671e+000 9.903417e-001 -1.166183e+001 67 49 25
2.035324e+000 1.070145e+000 -1.290677e+001 209 141 128
3.079065e+000 5.781410e-001 -1.208514e+001 134 91 61
4.158456e+000 4.598707e-001 -1.196479e+001 118 92 67
5.926860e+000 4.284008e-001 -1.251545e+001 121 90 62
4.217141e+000 2.443803e-001 -1.227192e+001 60 39 20
3.544404e+000 5.003033e-002 -1.252519e+001 20 12 12
2.920378e+000 -1.171785e-001 -1.278601e+001 116 85 60
2.871837e+000 -3.427055e-001 -1.277892e+001 77 70 47
-1.055248e+000 -5.965301e-001 -1.367795e+001 135 94 66
4.971137e+000 -6.219825e-001 -1.366854e+001 107 77 51
5.221168e+000 -1.194329e+000 -1.448979e+001 74 49 27
3.025471e+000 -1.613033e+000 -1.431265e+001 43 32 20
3.999702e+000 -1.569062e+000 -1.445179e+001 104 76 54
2.486287e+000 -1.768959e+000 -1.468404e+001 160 114 92
2.996770e+000 -1.765185e+000 -1.450074e+001 46 36 25
4.107248e+000 -2.330065e+000 -1.543037e+001 88 63 41
5.010572e+000 -2.423697e+000 -1.568901e+001 187 156 110
5.504800e+000 -2.582726e+000 -1.625348e+001 160 131 92
3.543558e+000 2.956214e+000 -1.304748e+001 75 61 42
3.107988e+000 2.576669e+000 -1.276564e+001 50 36 22
3.511667e+000 2.435845e+000 -1.267148e+001 106 83 58
4.705982e+000 2.187205e+000 -1.279965e+001 147 112 79
4.705982e+000 2.187205e+000 -1.279965e+001 147 112 79
2.325158e+000 1.871026e+000 -1.348148e+001 101 83 50
2.325158e+000 1.871026e+000 -1.348148e+001 101 83 50
3.789606e+000 1.762772e+000 -1.207915e+001 82 64 40
