ply
format ascii 1.0
element face 0
property list uchar int vertex_indices
element vertex 897
property float x
property float y
property float z
property uchar diffuse_red
property uchar diffuse_green
property uchar diffuse_blue
end_header
4.467619e+000 2.817196e+000 -1.320378e+001 106 74 49
4.501620e+000 2.794854e+000 -1.319220e+001 124 93 65
4.497660e+000 2.800228e+000 -1.318722e+001 124 93 65
1.874442e+000 1.415581e+000 -1.394328e+001 149 79 60
2.072419e+000 1.569523e+000 -1.375064e+001 160 94 82
2.651514e+000 2.318381e+000 -1.318057e+001 129 106 80
2.940176e+000 2.732269e+000 -1.291931e+001 173 148 117
3.257588e+000 2.799337e+000 -1.292997e+001 42 30 19
3.481506e+000 2.793906e+000 -1.299149e+001 60 49 31
3.517292e+000 2.794493e+000 -1.298075e+001 56 43 31
5.171831e+000 2.737454e+000 -1.321690e+001 79 49 23
5.166352e+000 2.746500e+000 -1.320975e+001 79 49 23
1.387408e+000 1.253767e+000 -1.381385e+001 155 96 80
2.961893e+000 2.618523e+000 -1.277825e+001 231 206 176
3.004981e+000 2.688818e+000 -1.285588e+001 140 105 77
3.529421e+000 2.631359e+000 -1.284700e+001 190 174 124
5.465610e-001 -2.931022e-002 -1.439796e+001 182 124 114
2.467587e+000 1.813564e+000 -1.322394e+001 206 174 135
2.593021e+000 2.014960e+000 -1.310903e+001 62 67 44
2.706534e+000 2.326212e+000 -1.282380e+001 67 66 43
2.957925e+000 2.576265e+000 -1.277523e+001 173 143 116
2.951452e+000 2.579816e+000 -1.273882e+001 244 223 195
3.222121e+000 2.508373e+000 -1.273231e+001 52 35 25
3.405173e+000 2.494258e+000 -1.281259e+001 60 46 36
3.479438e+000 2.515576e+000 -1.279185e+001 45 31 18
4.293711e+000 2.491243e+000 -1.291903e+001 107 83 59
4.293711e+000 2.491243e+000 -1.291903e+001 107 83 59
4.427947e+000 2.529665e+000 -1.297483e+001 101 74 52
4.500938e+000 2.456316e+000 -1.294131e+001 72 46 23
5.065586e+000 2.564402e+000 -1.308472e+001 98 67 38
5.569898e+000 2.553955e+000 -1.317743e+001 68 36 13
2.615052e+000 1.983985e+000 -1.299488e+001 78 77 54
2.726514e+000 2.394319e+000 -1.271116e+001 149 146 112
2.794598e+000 2.435478e+000 -1.266034e+001 80 74 47
3.194792e+000 2.397771e+000 -1.266708e+001 53 37 22
3.245926e+000 2.401686e+000 -1.266390e+001 48 32 19
3.285324e+000 2.408479e+000 -1.266223e+001 53 41 25
4.524396e+000 2.459814e+000 -1.292403e+001 107 81 55
5.702640e+000 2.455146e+000 -1.310024e+001 114 80 52
3.525287e+000 2.289436e+000 -1.263516e+001 51 39 25
3.586768e+000 2.361913e+000 -1.269463e+001 61 48 31
5.221110e+000 2.252056e+000 -1.291344e+001 83 53 27
3.359029e+000 2.258537e+000 -1.249313e+001 40 27 18
3.643628e+000 2.288312e+000 -1.258699e+001 54 43 28
4.973159e+000 2.228118e+000 -1.281894e+001 69 41 17
3.218690e+000 2.145744e+000 -1.249423e+001 118 104 78
3.597205e+000 2.180906e+000 -1.253282e+001 56 41 32
4.927937e+000 2.039121e+000 -1.266571e+001 118 88 62
3.361296e+000 2.061780e+000 -1.238270e+001 184 168 142
3.373166e+000 2.014827e+000 -1.238233e+001 37 23 13
3.672955e+000 2.019676e+000 -1.241936e+001 55 42 24
1.291969e+000 1.058749e-001 -1.319643e+001 184 124 106
3.124578e+000 1.904463e+000 -1.227802e+001 155 121 87
4.475812e+000 1.904201e+000 -1.251934e+001 88 62 37
1.440334e+000 8.679989e-002 -1.313553e+001 216 171 144
2.766536e+000 1.387207e+000 -1.243606e+001 196 168 122
3.777344e+000 1.774720e+000 -1.216972e+001 49 36 20
3.072988e+000 1.390798e+000 -1.216678e+001 85 68 48
3.374105e+000 1.580258e+000 -1.197819e+001 43 31 17
4.518409e+000 1.388099e+000 -1.209990e+001 121 91 63
4.539093e+000 1.486956e+000 -1.209935e+001 111 79 57
3.421208e+000 1.372751e+000 -1.179902e+001 69 53 30
3.488925e+000 1.330293e+000 -1.175760e+001 255 244 203
3.170896e+000 1.186441e+000 -1.167569e+001 207 177 143
2.708072e+000 3.112318e+000 -1.394515e+001 200 175 145
1.663152e+000 1.056273e+000 -1.574941e+001 169 125 108
3.013186e+000 3.208475e+000 -1.359775e+001 58 45 32
3.368608e+000 3.200432e+000 -1.380583e+001 57 48 30
3.305758e+000 3.179341e+000 -1.365983e+001 107 95 73
1.205950e+000 1.136682e+000 -1.529052e+001 153 83 75
2.518424e+000 2.286489e+000 -1.441625e+001 143 103 68
2.770225e+000 3.025911e+000 -1.353059e+001 49 41 30
4.929519e+000 3.218962e+000 -1.390596e+001 106 71 39
5.408567e+000 3.246051e+000 -1.393768e+001 102 67 37
5.393888e+000 3.265258e+000 -1.391739e+001 102 67 37
1.176584e+000 1.292204e+000 -1.486591e+001 171 129 112
1.628796e+000 1.196589e+000 -1.520847e+001 150 92 77
2.856802e+000 3.112144e+000 -1.339977e+001 149 117 92
3.138932e+000 3.173577e+000 -1.335749e+001 65 49 33
4.058929e+000 3.156059e+000 -1.356006e+001 81 53 29
5.562288e+000 3.101129e+000 -1.386788e+001 100 64 34
5.479004e+000 3.187755e+000 -1.371691e+001 125 87 58
2.588425e+000 2.611138e+000 -1.360260e+001 149 132 102
3.073260e+000 3.099358e+000 -1.321439e+001 59 44 28
5.406530e+000 3.163260e+000 -1.364971e+001 88 53 24
5.406530e+000 3.163260e+000 -1.364971e+001 88 53 24
5.593484e+000 3.155213e+000 -1.370808e+001 128 90 54
5.520877e+000 3.084613e+000 -1.361140e+001 96 60 34
1.970702e+000 1.556095e+000 -1.442464e+001 69 44 28
1.184757e+000 1.149264e+000 -1.431797e+001 151 83 67
1.826349e+000 1.271690e+000 -1.436559e+001 146 110 83
3.006208e+000 2.955697e+000 -1.309177e+001 138 105 72
3.097013e+000 2.968173e+000 -1.308309e+001 46 33 18
4.603305e+000 2.961258e+000 -1.333442e+001 117 86 58
2.251483e+000 1.783963e+000 -1.375529e+001 139 102 73
3.253174e+000 2.867396e+000 -1.294050e+001 48 35 23
2.366207e+000 1.943049e+000 -1.346691e+001 104 98 62
2.366207e+000 1.943049e+000 -1.346691e+001 104 98 62
3.044988e+000 2.756389e+000 -1.292683e+001 143 115 76
2.434916e+000 1.749143e+000 -1.339984e+001 162 129 88
2.692256e+000 2.295901e+000 -1.311240e+001 80 72 51
4.552549e+000 2.607299e+000 -1.306771e+001 69 44 22
2.346071e+000 1.661354e+000 -1.338689e+001 169 121 86
2.700573e+000 2.366916e+000 -1.285901e+001 49 47 24
2.917022e+000 2.519940e+000 -1.278950e+001 110 78 47
3.517914e+000 2.594603e+000 -1.283796e+001 49 40 25
3.586705e+000 2.619662e+000 -1.282012e+001 41 27 17
3.822491e+000 2.575178e+000 -1.291151e+001 142 116 91
2.401898e+000 1.614713e+000 -1.329343e+001 176 138 100
2.694452e+000 2.276300e+000 -1.282917e+001 154 134 108
3.563162e+000 2.412362e+000 -1.270956e+001 49 35 24
3.385853e-001 -2.049514e-001 -1.408467e+001 162 117 98
3.049769e+000 2.383926e+000 -1.262742e+001 122 87 55
3.325146e+000 2.320523e+000 -1.259589e+001 104 87 66
5.373917e+000 2.272117e+000 -1.292149e+001 95 64 36
2.506414e+000 1.386286e+000 -1.309448e+001 121 79 51
2.667752e+000 1.513243e+000 -1.298620e+001 126 87 48
4.572752e+000 2.213754e+000 -1.277514e+001 112 83 54
5.247259e+000 2.156193e+000 -1.284652e+001 84 54 26
5.247259e+000 2.156193e+000 -1.284652e+001 84 54 26
1.546182e+000 7.995868e-001 -1.319791e+001 192 129 114
4.672601e+000 2.067228e+000 -1.265566e+001 92 61 32
4.868247e+000 2.098527e+000 -1.269560e+001 95 64 36
3.160364e+000 1.981624e+000 -1.236250e+001 138 104 67
3.278818e+000 1.981309e+000 -1.234514e+001 43 27 19
3.681851e+000 2.102035e+000 -1.243360e+001 62 48 29
5.020289e+000 2.007154e+000 -1.264672e+001 113 82 54
1.381529e+000 9.594823e-002 -1.318413e+001 224 185 156
3.306028e+000 2.000746e+000 -1.230511e+001 121 106 87
4.944359e+000 1.909167e+000 -1.256545e+001 123 92 63
2.636561e+000 1.120661e+000 -1.260498e+001 212 175 133
2.795863e+000 1.548837e+000 -1.236138e+001 107 106 76
2.895945e+000 1.487340e+000 -1.231805e+001 119 113 81
4.896548e+000 1.785753e+000 -1.245475e+001 115 86 56
2.644862e+000 8.714634e-001 -1.259202e+001 191 148 108
2.984384e+000 1.542994e+000 -1.213708e+001 90 84 60
3.740035e+000 1.673998e+000 -1.211970e+001 163 149 125
2.901113e+000 1.036698e+000 -1.219293e+001 195 164 134
2.919207e+000 1.005243e+000 -1.208719e+001 61 51 33
3.551556e+000 1.402758e+000 -1.180730e+001 55 42 33
5.475482e+000 1.169375e+000 -1.210546e+001 119 83 49
6.257978e+000 1.045726e+000 -1.223288e+001 147 109 60
3.493589e+000 1.308352e+000 -1.173031e+001 67 61 42
3.527459e+000 1.140094e+000 -1.169608e+001 72 60 39
4.400786e+000 1.006326e+000 -1.189154e+001 135 104 73
5.209523e+000 9.364505e-001 -1.201873e+001 98 65 33
5.218614e+000 9.193418e-001 -1.202776e+001 98 65 33
3.345062e+000 1.131617e+000 -1.163799e+001 152 118 90
5.813295e+000 3.218360e+000 -1.431415e+001 120 84 44
4.118925e+000 3.185837e+000 -1.384506e+001 120 90 63
5.380012e+000 3.238953e+000 -1.404631e+001 101 66 36
5.278431e+000 3.222882e+000 -1.379614e+001 86 52 24
2.608512e+000 3.028044e+000 -1.348899e+001 119 117 84
2.597015e+000 2.900926e+000 -1.353704e+001 81 80 52
3.038040e+000 3.136696e+000 -1.338550e+001 146 137 106
3.025431e+000 3.166912e+000 -1.335419e+001 146 137 106
3.338256e+000 3.146461e+000 -1.343127e+001 247 227 185
2.309595e+000 2.120961e+000 -1.400498e+001 192 168 137
3.404505e+000 3.117959e+000 -1.336811e+001 61 43 28
3.402347e+000 3.121108e+000 -1.336526e+001 61 43 28
3.495700e+000 3.158416e+000 -1.327864e+001 41 24 16
4.480475e+000 3.103527e+000 -1.345128e+001 104 71 40
4.669333e+000 3.097982e+000 -1.350482e+001 123 92 64
5.182174e+000 3.106387e+000 -1.355377e+001 93 57 31
5.306749e+000 3.124196e+000 -1.362175e+001 95 61 34
5.465336e+000 3.140413e+000 -1.364369e+001 123 86 59
2.508933e+000 2.145898e+000 -1.392597e+001 118 109 78
2.563129e+000 2.520377e+000 -1.355637e+001 179 153 120
2.642794e+000 2.686204e+000 -1.345790e+001 102 91 61
2.944199e+000 3.032673e+000 -1.314473e+001 142 108 80
4.557846e+000 3.060837e+000 -1.333168e+001 120 89 61
2.286854e+000 1.902033e+000 -1.389292e+001 165 146 116
2.309083e+000 1.887678e+000 -1.383720e+001 65 58 39
3.024078e+000 2.842209e+000 -1.297626e+001 137 100 70
4.210528e+000 2.727783e+000 -1.306384e+001 98 66 41
5.805837e+000 2.753450e+000 -1.329321e+001 110 82 60
1.010552e+000 8.501110e-001 -1.400179e+001 195 159 133
1.447051e+000 1.254408e+000 -1.371428e+001 159 92 73
3.056897e+000 2.667269e+000 -1.285219e+001 120 90 62
2.987015e+000 2.650175e+000 -1.280263e+001 156 127 95
3.220018e+000 2.652935e+000 -1.289641e+001 49 36 28
3.294994e+000 2.579461e+000 -1.279296e+001 43 30 21
2.836818e+000 2.424081e+000 -1.265110e+001 168 147 112
3.085021e+000 2.441463e+000 -1.267484e+001 139 106 68
3.715807e+000 2.421338e+000 -1.272349e+001 47 33 19
2.904696e+000 1.676328e+000 -1.278749e+001 130 88 66
3.064491e+000 2.145439e+000 -1.249841e+001 110 74 50
1.836407e+000 1.001737e+000 -1.295480e+001 202 121 120
1.862096e+000 9.123708e-001 -1.293558e+001 203 117 118
2.430116e+000 1.263144e+000 -1.279810e+001 216 173 138
-9.462635e-001 -8.376811e-001 -1.357500e+001 134 96 77
3.676575e+000 1.913719e+000 -1.234786e+001 52 39 24
3.469651e+000 1.811529e+000 -1.223851e+001 46 33 21
3.231708e+000 1.749646e+000 -1.212461e+001 139 103 67
3.719071e+000 1.747089e+000 -1.218358e+001 53 40 25
4.037385e+000 1.672406e+000 -1.221350e+001 138 112 89
3.804902e+000 1.667414e+000 -1.207862e+001 44 30 17
3.163272e+000 1.573793e+000 -1.189793e+001 215 185 157
3.761335e+000 1.563302e+000 -1.202581e+001 37 28 18
3.819771e+000 1.562677e+000 -1.196088e+001 57 45 28
3.802039e+000 1.371717e+000 -1.188114e+001 59 48 37
4.686189e+000 1.393661e+000 -1.206793e+001 126 95 67
5.556887e+000 1.315480e+000 -1.215980e+001 135 100 63
6.159250e+000 1.193025e+000 -1.221306e+001 188 150 106
3.482925e+000 1.404653e+000 -1.181034e+001 52 44 33
3.554202e+000 1.402706e+000 -1.180286e+001 55 43 34
5.696023e+000 1.082744e+000 -1.209101e+001 112 76 42
4.759476e+000 1.063629e+000 -1.192915e+001 164 129 98
5.947644e+000 7.380642e-001 -1.214481e+001 182 150 109
2.709051e+000 3.100758e+000 -1.382441e+001 146 117 84
2.919591e+000 3.185602e+000 -1.364430e+001 48 34 25
5.387268e+000 3.253788e+000 -1.398145e+001 133 98 66
2.466420e+000 2.236084e+000 -1.433886e+001 148 112 78
5.022105e+000 3.231963e+000 -1.386150e+001 94 61 33
2.084776e+000 2.166374e+000 -1.421725e+001 173 132 72
2.522582e+000 2.320251e+000 -1.417736e+001 159 138 103
5.158834e+000 3.198200e+000 -1.371666e+001 128 91 64
2.495144e+000 2.313139e+000 -1.394132e+001 141 137 100
5.707839e+000 3.218213e+000 -1.368016e+001 168 126 88
1.155804e+000 1.291485e+000 -1.446546e+001 178 127 103
2.624549e+000 2.804139e+000 -1.328275e+001 217 196 164
3.156731e+000 2.988895e+000 -1.304402e+001 50 37 27
1.637065e+000 1.123705e+000 -1.423977e+001 175 114 99
1.822690e+000 1.364502e+000 -1.403514e+001 175 118 101
4.787454e+000 2.863887e+000 -1.328426e+001 115 84 55
2.112294e+000 1.576226e+000 -1.380473e+001 168 112 93
2.280322e-001 -1.915639e-001 -1.482401e+001 120 91 67
1.058426e+000 9.956582e-001 -1.400131e+001 199 160 132
1.058426e+000 9.956582e-001 -1.400131e+001 199 160 132
2.300588e+000 1.834265e+000 -1.346719e+001 81 72 41
2.387855e+000 1.901435e+000 -1.341806e+001 36 30 9
2.762523e+000 2.571942e+000 -1.280618e+001 99 97 66
4.747340e+000 2.638800e+000 -1.310440e+001 121 91 67
5.990366e-001 5.944175e-002 -1.439612e+001 129 86 67
5.384982e+000 2.503388e+000 -1.307105e+001 90 60 34
5.376216e+000 2.516222e+000 -1.305917e+001 90 60 34
3.111462e+000 2.280366e+000 -1.260638e+001 137 100 66
2.712483e+000 1.523796e+000 -1.297687e+001 114 75 39
2.470051e+000 1.378077e+000 -1.288921e+001 198 156 126
3.708515e+000 2.058692e+000 -1.237761e+001 45 33 20
2.951771e+000 1.569583e+000 -1.223501e+001 112 108 76
2.951771e+000 1.569583e+000 -1.223501e+001 112 108 76
2.928954e+000 1.245730e+000 -1.226862e+001 174 153 128
5.628596e+000 1.516226e+000 -1.228074e+001 150 114 80
4.463941e+000 1.369490e+000 -1.197450e+001 115 81 53
4.866865e+000 1.380273e+000 -1.207200e+001 93 59 31
5.529605e+000 1.185947e+000 -1.213056e+001 151 115 79
3.079531e+000 1.036573e+000 -1.184794e+001 134 106 84
3.188027e+000 1.310453e+000 -1.177358e+001 152 119 88
3.764182e+000 1.130263e+000 -1.177672e+001 148 134 106
4.705135e+000 9.891624e-001 -1.191571e+001 110 74 42
3.410428e+000 1.074808e+000 -1.168736e+001 48 35 26
4.111793e+000 8.384529e-001 -1.181765e+001 175 149 124
2.749059e+000 3.103972e+000 -1.364170e+001 60 57 50
5.373884e+000 3.222259e+000 -1.413643e+001 145 109 77
2.634414e+000 3.012966e+000 -1.363470e+001 87 87 56
4.587172e+000 3.242506e+000 -1.368454e+001 146 111 79
2.470866e+000 2.203249e+000 -1.417824e+001 135 110 79
3.098109e+000 3.153459e+000 -1.339416e+001 48 29 22
1.287046e+000 1.245736e+000 -1.462923e+001 149 77 65
1.682923e+000 1.239945e+000 -1.469333e+001 153 89 64
2.208276e+000 1.893196e+000 -1.403735e+001 172 140 101
2.214055e+000 1.766221e+000 -1.399767e+001 128 90 60
4.717087e+000 2.845365e+000 -1.328129e+001 120 89 61
4.714919e+000 2.847280e+000 -1.327974e+001 120 89 61
1.737237e+000 1.423838e+000 -1.387398e+001 184 123 110
2.088954e+000 1.530044e+000 -1.353371e+001 172 93 88
2.533382e+000 1.536913e+000 -1.308954e+001 205 172 129
3.069797e+000 2.309289e+000 -1.249381e+001 162 129 96
5.534638e+000 1.740839e+000 -1.250816e+001 99 64 35
5.534638e+000 1.740839e+000 -1.250816e+001 99 64 35
2.696031e+000 8.982777e-001 -1.256440e+001 198 156 116
2.907723e+000 1.050764e+000 -1.228140e+001 191 159 120
3.024735e+000 1.206431e+000 -1.211252e+001 137 99 70
4.555559e+000 1.431194e+000 -1.208099e+001 88 56 33
3.014727e+000 1.067565e+000 -1.189334e+001 76 73 48
5.728786e+000 1.110517e+000 -1.216648e+001 151 117 79
1.464911e+000 1.243727e+000 -1.476444e+001 137 64 55
2.339188e+000 2.012698e+000 -1.388274e+001 163 141 110
1.027987e+000 1.139531e+000 -1.424060e+001 159 86 70
1.368657e+000 1.043316e+000 -1.432222e+001 153 81 67
1.368657e+000 1.043316e+000 -1.432222e+001 153 81 67
2.757732e+000 2.532773e+000 -1.303289e+001 60 54 32
2.889692e+000 2.640871e+000 -1.292883e+001 69 57 41
4.303674e+000 2.699050e+000 -1.307653e+001 133 103 76
2.435117e+000 1.500036e+000 -1.321532e+001 197 162 122
4.634925e+000 1.854251e+000 -1.248543e+001 122 91 62
2.889722e+000 1.500623e+000 -1.234841e+001 120 114 81
4.631126e+000 1.778470e+000 -1.241554e+001 83 55 31
3.141879e+000 1.250437e+000 -1.194723e+001 183 156 129
3.885369e+000 3.208695e+000 -1.379472e+001 83 57 34
4.323178e+000 3.184454e+000 -1.386897e+001 144 111 80
1.509177e+000 1.277951e+000 -1.404683e+001 184 126 112
1.281126e+000 1.175077e+000 -1.402331e+001 189 146 121
3.072449e+000 2.724041e+000 -1.286904e+001 43 26 19
4.029454e+000 2.657380e+000 -1.302417e+001 87 59 35
-7.699236e-001 -3.751894e-001 -1.406250e+001 203 169 142
2.027985e+000 1.083850e+000 -1.333264e+001 128 56 51
3.119027e+000 2.384448e+000 -1.261637e+001 55 33 22
2.241089e+000 1.177997e+000 -1.325612e+001 131 73 62
5.004848e+000 2.207582e+000 -1.280357e+001 84 56 32
5.618700e+000 1.792978e+000 -1.251797e+001 146 110 76
2.768240e+000 1.120535e+000 -1.246642e+001 131 81 50
4.525986e+000 1.563517e+000 -1.223563e+001 122 92 66
3.347507e+000 1.486354e+000 -1.189825e+001 58 41 26
1.738524e+000 1.221251e+000 -1.452344e+001 171 132 103
2.491335e+000 2.542727e+000 -1.337953e+001 212 188 154
3.341750e+000 2.716051e+000 -1.295386e+001 40 30 21
1.415508e+000 1.230312e+000 -1.381189e+001 173 112 94
3.107192e+000 2.547586e+000 -1.273882e+001 45 26 19
5.247599e-001 -2.617931e-002 -1.422350e+001 197 144 128
5.218833e-001 -3.556018e-002 -1.422718e+001 197 144 128
5.492182e+000 2.038029e+000 -1.275042e+001 115 84 53
2.864791e+000 1.133294e+000 -1.232589e+001 181 150 121
3.798098e+000 1.246760e+000 -1.187865e+001 242 226 193
5.871178e+000 9.864385e-001 -1.215855e+001 128 90 53
6.270691e+000 1.002536e+000 -1.216749e+001 148 115 64
4.538278e+000 3.187773e+000 -1.369914e+001 146 110 80
4.281385e+000 3.097105e+000 -1.342127e+001 147 116 86
1.962273e+000 1.785344e+000 -1.426231e+001 109 83 63
2.954090e+000 2.641563e+000 -1.279860e+001 183 159 131
3.556852e+000 1.607900e+000 -1.200690e+001 56 42 31
4.020367e+000 3.081471e+000 -1.350323e+001 92 64 41
2.661723e+000 2.384521e+000 -1.322373e+001 209 185 151
2.662391e+000 2.365925e+000 -1.324032e+001 209 185 151
4.790933e+000 3.204255e+000 -1.364580e+001 74 42 19
5.509228e+000 1.669513e+000 -1.239551e+001 96 59 30
5.184148e+000 1.857721e+000 -1.254445e+001 119 89 55
5.472033e+000 3.159394e+000 -1.368342e+001 97 61 29
3.817661e+000 2.821667e+000 -1.312985e+001 131 100 80
5.814810e+000 1.543765e+000 -1.233457e+001 96 61 33
5.426617e+000 2.413300e+000 -1.304499e+001 79 52 25
4.387324e+000 1.761594e+000 -1.234717e+001 119 89 65
4.766160e+000 3.211300e+000 -1.383966e+001 80 46 18
4.432758e+000 3.039770e+000 -1.336588e+001 129 98 69
3.831952e+000 2.855027e+000 -1.314673e+001 156 130 103
4.370725e+000 2.526730e+000 -1.298151e+001 50 23 4
6.321339e+000 1.998676e+000 -1.195537e+001 152 115 60
4.339236e+000 3.001928e+000 -1.334587e+001 105 74 45
5.253345e+000 2.793994e+000 -1.328689e+001 80 52 30
4.450920e+000 2.445453e+000 -1.293148e+001 60 34 18
4.977800e+000 2.422260e+000 -1.295272e+001 102 70 45
4.661380e+000 3.196321e+000 -1.384591e+001 100 65 36
3.778821e+000 3.063978e+000 -1.336697e+001 121 92 68
5.012799e+000 1.968961e+000 -1.263249e+001 82 52 27
4.652185e+000 1.745508e+000 -1.237396e+001 72 46 23
5.760500e+000 2.889928e+000 -1.330767e+001 103 72 47
4.697545e+000 2.261458e+000 -1.283257e+001 83 52 26
4.410266e+000 1.413581e+000 -1.204571e+001 115 81 54
5.555165e+000 3.230513e+000 -1.386463e+001 124 86 50
3.139633e+000 3.149107e+000 -1.330925e+001 108 90 67
2.290577e+000 2.082060e+000 -1.407313e+001 150 116 85
2.297983e+000 2.009759e+000 -1.392653e+001 124 91 63
3.797593e+000 2.949367e+000 -1.324207e+001 130 103 76
5.200918e+000 2.902044e+000 -1.336260e+001 115 83 55
5.200115e+000 2.630529e+000 -1.312661e+001 84 54 28
4.286505e+000 2.521586e+000 -1.295595e+001 96 70 47
4.283008e+000 2.529976e+000 -1.295017e+001 96 70 47
3.313807e+000 2.241240e+000 -1.253292e+001 184 170 141
4.338855e+000 2.221075e+000 -1.272647e+001 78 50 26
4.897409e+000 1.955005e+000 -1.256538e+001 107 80 52
4.942803e+000 1.708364e+000 -1.240070e+001 97 66 38
4.930121e+000 1.670493e+000 -1.235564e+001 85 54 26
5.553775e+000 3.228512e+000 -1.380222e+001 124 85 52
2.307733e+000 2.139753e+000 -1.410082e+001 161 120 90
4.242040e+000 2.982905e+000 -1.331548e+001 118 86 61
1.976765e+000 1.372411e+000 -1.406512e+001 148 95 64
5.677435e+000 2.883331e+000 -1.340563e+001 148 111 82
2.435039e+000 1.957488e+000 -1.344928e+001 51 45 23
5.234358e+000 2.734664e+000 -1.321892e+001 67 41 18
3.856768e+000 2.600396e+000 -1.295159e+001 126 100 75
4.560044e+000 2.668898e+000 -1.311234e+001 81 55 30
4.624102e+000 2.645983e+000 -1.308593e+001 85 57 33
5.125410e+000 2.414460e+000 -1.298804e+001 88 57 29
3.333275e+000 2.410654e+000 -1.265012e+001 46 32 21
5.237829e+000 2.186085e+000 -1.279504e+001 115 85 59
4.786577e+000 1.970599e+000 -1.257063e+001 88 58 31
4.839187e+000 2.041646e+000 -1.263323e+001 78 48 22
3.819111e+000 1.460761e+000 -1.188720e+001 168 153 123
5.455586e+000 3.237294e+000 -1.391545e+001 133 96 67
5.419323e+000 3.233204e+000 -1.389728e+001 130 95 65
3.210413e+000 3.016739e+000 -1.311884e+001 63 51 36
4.804075e+000 2.965528e+000 -1.332181e+001 136 106 77
3.422833e-001 -3.613117e-002 -1.473438e+001 132 94 71
4.133738e+000 2.531062e+000 -1.294410e+001 73 46 25
4.128549e+000 2.535409e+000 -1.294082e+001 73 46 25
5.367656e+000 2.445686e+000 -1.302452e+001 110 80 56
4.991247e+000 2.179336e+000 -1.278768e+001 69 43 20
1.566576e+000 7.600513e-001 -1.305352e+001 184 100 95
5.264898e+000 1.853966e+000 -1.260019e+001 154 118 84
4.898584e+000 1.418869e+000 -1.212016e+001 127 94 63
3.826780e+000 1.499505e+000 -1.189598e+001 50 37 21
2.179943e+000 2.150526e+000 -1.413961e+001 207 173 145
5.142307e+000 2.893289e+000 -1.336368e+001 90 59 31
4.441047e+000 2.887438e+000 -1.321521e+001 102 71 42
2.403707e+000 1.902398e+000 -1.335186e+001 153 130 98
4.779532e+000 2.576437e+000 -1.303973e+001 120 88 66
4.523455e+000 2.332921e+000 -1.286153e+001 87 55 32
4.532816e+000 2.314368e+000 -1.287432e+001 87 55 32
4.529370e+000 1.811791e+000 -1.243291e+001 105 79 54
4.532608e+000 1.807091e+000 -1.243524e+001 105 79 54
5.466211e+000 1.779947e+000 -1.251867e+001 141 105 71
5.124635e+000 3.202017e+000 -1.404904e+001 138 104 69
4.769849e+000 3.098098e+000 -1.352430e+001 131 97 69
4.788485e+000 2.863170e+000 -1.328473e+001 115 84 55
4.587396e+000 2.626834e+000 -1.308802e+001 76 51 28
1.447033e+000 -7.738421e-002 -1.306001e+001 152 98 88
6.207613e+000 1.369882e+000 -1.231296e+001 117 82 42
1.440680e+000 1.234059e+000 -1.363458e+001 184 144 115
2.179937e+000 1.555885e+000 -1.336241e+001 205 137 128
4.849707e+000 1.972471e+000 -1.258009e+001 92 62 36
4.616729e+000 1.943606e+000 -1.251762e+001 126 97 68
4.886992e+000 2.404321e+000 -1.294882e+001 139 108 79
4.500343e+000 2.612690e+000 -1.306354e+001 75 48 27
1.440822e+000 1.258463e+000 -1.378197e+001 176 114 98
1.074186e-001 -3.207273e-001 -1.417453e+001 207 171 147
4.935966e+000 1.755059e+000 -1.243726e+001 102 71 46
5.808618e+000 3.679255e+000 -1.495687e+001 153 119 73
5.756134e+000 3.064761e+000 -1.500142e+001 123 87 47
5.849906e+000 3.399124e+000 -1.469966e+001 128 97 53
5.822943e+000 3.305608e+000 -1.468233e+001 121 88 47
5.823059e+000 3.160694e+000 -1.468498e+001 154 121 80
5.926522e+000 3.422377e+000 -1.426700e+001 175 137 90
5.907314e+000 3.524781e+000 -1.417105e+001 184 143 92
3.122999e+000 3.270377e+000 -1.361160e+001 92 84 65
3.147464e+000 3.272807e+000 -1.360216e+001 59 52 34
4.188879e+000 3.154239e+000 -1.397769e+001 89 62 33
5.890923e+000 3.261206e+000 -1.418576e+001 113 76 37
5.938201e+000 3.475239e+000 -1.396707e+001 189 148 98
5.989529e+000 3.802763e+000 -1.372125e+001 154 114 63
1.900052e+000 1.927245e+000 -1.445853e+001 173 136 81
5.479210e+000 3.250095e+000 -1.397787e+001 93 59 24
5.906200e+000 3.288395e+000 -1.407111e+001 146 107 64
5.137559e+000 3.237822e+000 -1.381745e+001 107 73 45
5.359659e+000 3.229098e+000 -1.386220e+001 117 84 55
5.377213e+000 3.215094e+000 -1.384894e+001 80 46 19
5.978441e+000 3.539881e+000 -1.360335e+001 171 128 77
5.973563e+000 3.261358e+000 -1.363686e+001 162 120 65
6.013115e+000 3.509943e+000 -1.351183e+001 167 124 73
6.001233e+000 3.548173e+000 -1.344349e+001 163 117 66
4.320624e+000 3.118728e+000 -1.338856e+001 110 79 50
5.208013e+000 3.106494e+000 -1.352760e+001 108 77 48
5.967098e+000 3.065477e+000 -1.368829e+001 162 119 72
6.012556e+000 3.305376e+000 -1.349262e+001 162 119 66
5.998487e+000 3.346912e+000 -1.352886e+001 167 124 71
3.802413e+000 2.893322e+000 -1.317080e+001 134 108 83
4.417157e+000 2.977899e+000 -1.329671e+001 127 98 69
4.472403e+000 2.982760e+000 -1.337218e+001 98 67 39
4.472403e+000 2.982760e+000 -1.337218e+001 98 67 39
4.784930e+000 2.925083e+000 -1.334121e+001 132 103 73
6.017507e+000 3.271040e+000 -1.344515e+001 163 118 68
6.040591e+000 3.295362e+000 -1.334758e+001 172 129 76
6.030400e+000 3.286952e+000 -1.328516e+001 168 123 73
6.030400e+000 3.286952e+000 -1.328516e+001 168 123 73
2.678719e+000 2.529040e+000 -1.311301e+001 171 146 115
3.014373e+000 2.863250e+000 -1.301935e+001 121 87 62
5.194080e+000 2.912701e+000 -1.335574e+001 120 89 61
6.044514e+000 3.275641e+000 -1.326131e+001 193 149 100
2.908100e+000 2.615305e+000 -1.289795e+001 65 55 36
5.213092e+000 2.782192e+000 -1.325333e+001 79 50 26
5.444540e+000 2.760722e+000 -1.327035e+001 108 77 49
2.604350e+000 2.068535e+000 -1.317458e+001 68 70 47
3.322769e+000 2.633692e+000 -1.286917e+001 40 30 15
3.380577e+000 2.588823e+000 -1.285023e+001 54 46 38
3.548162e+000 2.599014e+000 -1.282291e+001 136 126 96
4.448228e+000 2.463240e+000 -1.298346e+001 68 41 20
4.430571e+000 2.472606e+000 -1.294227e+001 91 64 43
4.430571e+000 2.472606e+000 -1.294227e+001 91 64 43
4.542702e+000 2.578338e+000 -1.300806e+001 84 60 36
1.966641e+000 1.012891e+000 -1.335101e+001 139 59 56
3.313196e+000 2.273452e+000 -1.259120e+001 61 48 32
3.613364e+000 2.349358e+000 -1.266173e+001 60 48 31
3.551172e+000 2.282105e+000 -1.262520e+001 182 168 141
3.647569e+000 2.303443e+000 -1.261516e+001 54 40 22
4.828062e+000 2.288754e+000 -1.287754e+001 112 82 56
3.044391e+000 2.141252e+000 -1.242573e+001 129 93 58
3.688001e+000 2.170504e+000 -1.252180e+001 58 45 26
3.622072e+000 2.065075e+000 -1.244884e+001 79 65 36
3.634167e+000 2.001159e+000 -1.238751e+001 62 50 34
4.178283e+000 1.932271e+000 -1.245851e+001 101 76 54
4.642738e+000 1.996534e+000 -1.259457e+001 86 56 28
5.536390e+000 1.944650e+000 -1.270964e+001 109 76 43
6.213606e+000 1.787268e+000 -1.264908e+001 165 130 78
3.435903e+000 1.739432e+000 -1.213659e+001 78 65 46
5.201745e+000 1.746865e+000 -1.245544e+001 145 111 76
6.269028e+000 2.129084e+000 -1.234288e+001 179 146 92
3.477394e+000 1.718830e+000 -1.210299e+001 56 46 31
3.702208e+000 1.725227e+000 -1.214436e+001 47 34 15
3.882917e+000 1.636546e+000 -1.209730e+001 50 34 18
3.882917e+000 1.636546e+000 -1.209730e+001 50 34 18
6.239558e+000 1.856607e+000 -1.238712e+001 200 162 105
6.244514e+000 1.901062e+000 -1.237872e+001 197 163 102
6.285046e+000 2.261284e+000 -1.213289e+001 197 161 108
6.358263e+000 2.461140e+000 -1.202274e+001 131 101 55
3.885810e+000 1.634417e+000 -1.205962e+001 43 26 12
6.272293e+000 1.880834e+000 -1.221944e+001 169 133 73
6.314633e+000 2.164991e+000 -1.202139e+001 190 155 99
6.317553e+000 2.327585e+000 -1.202937e+001 158 124 67
3.834593e+000 1.557010e+000 -1.194080e+001 87 74 54
5.321364e+000 1.371297e+000 -1.218650e+001 112 78 44
6.265470e+000 1.340931e+000 -1.234114e+001 151 115 65
6.336989e+000 2.156224e+000 -1.191406e+001 197 161 109
3.491033e+000 1.319915e+000 -1.176103e+001 255 254 226
3.508351e+000 1.340638e+000 -1.177266e+001 118 104 75
3.820511e+000 1.350455e+000 -1.181333e+001 77 62 35
3.850557e+000 1.404740e+000 -1.181474e+001 50 36 13
6.371216e+000 2.293195e+000 -1.170937e+001 157 120 68
6.393568e+000 2.315084e+000 -1.160230e+001 187 154 101
6.421970e+000 2.114610e+000 -1.150238e+001 184 151 98
6.424828e+000 2.141699e+000 -1.146006e+001 182 149 95
2.764465e+000 3.172910e+000 -1.366980e+001 250 242 212
5.936880e+000 3.506448e+000 -1.412240e+001 170 130 79
5.936880e+000 3.506448e+000 -1.412240e+001 170 130 79
5.943878e+000 3.365496e+000 -1.398648e+001 190 146 97
5.972846e+000 3.583034e+000 -1.374375e+001 169 128 77
1.502907e+000 1.173684e+000 -1.478921e+001 135 65 52
4.642822e+000 3.203581e+000 -1.367450e+001 126 95 66
4.870541e+000 3.178892e+000 -1.369531e+001 82 52 25
2.146931e+000 1.846453e+000 -1.408742e+001 153 117 85
2.949605e+000 3.078333e+000 -1.325423e+001 212 185 163
3.107006e+000 3.127190e+000 -1.331147e+001 78 59 42
4.335580e+000 3.034377e+000 -1.337216e+001 111 80 51
4.335327e+000 3.035723e+000 -1.337220e+001 111 80 51
4.455679e+000 3.080265e+000 -1.345616e+001 125 94 66
5.944239e+000 3.134477e+000 -1.371667e+001 171 127 82
6.011494e+000 3.299038e+000 -1.346192e+001 198 155 104
3.104950e+000 2.938757e+000 -1.305041e+001 53 39 24
3.405907e+000 2.983938e+000 -1.316142e+001 47 37 28
3.405907e+000 2.983938e+000 -1.316142e+001 47 37 28
5.835729e+000 3.094280e+000 -1.355145e+001 155 117 81
1.873899e+000 1.414290e+000 -1.394444e+001 150 78 61
2.073034e+000 1.564009e+000 -1.375189e+001 164 96 82
2.229876e+000 1.713327e+000 -1.377749e+001 137 99 67
2.666257e+000 2.448079e+000 -1.317120e+001 209 184 153
2.933152e+000 2.845340e+000 -1.299250e+001 227 204 170
3.249959e+000 2.882708e+000 -1.300028e+001 40 33 18
5.535508e+000 2.922372e+000 -1.346372e+001 84 50 26
5.522703e+000 2.938714e+000 -1.344861e+001 84 50 26
5.757077e-001 6.720945e-002 -1.437896e+001 127 87 68
2.807882e+000 2.583262e+000 -1.299975e+001 99 92 73
2.805171e+000 2.594482e+000 -1.299062e+001 99 92 73
3.432708e+000 2.782237e+000 -1.298998e+001 72 60 43
3.480587e+000 2.789592e+000 -1.299098e+001 66 52 34
4.680216e+000 2.740924e+000 -1.317845e+001 120 90 65
5.302104e+000 2.733738e+000 -1.326299e+001 79 49 25
2.840441e+000 2.589236e+000 -1.283792e+001 91 74 47
4.349873e+000 2.642239e+000 -1.305482e+001 121 91 65
4.439410e+000 2.628153e+000 -1.308664e+001 102 74 50
5.312324e+000 2.633143e+000 -1.316937e+001 100 64 38
5.389549e+000 2.616484e+000 -1.312452e+001 112 81 52
3.158589e+000 3.445787e+000 -1.204415e+001 50 42 29
3.596657e+000 2.482268e+000 -1.273497e+001 71 55 40
-1.252778e+000 -6.334784e-001 -1.378358e+001 157 126 111
3.520129e+000 2.314149e+000 -1.265938e+001 59 46 30
3.532201e+000 2.260829e+000 -1.261246e+001 53 39 28
5.073473e+000 2.305017e+000 -1.288990e+001 124 90 63
3.750412e+000 2.245453e+000 -1.260882e+001 38 26 9
3.917746e+000 2.137928e+000 -1.259578e+001 143 121 98
3.930875e+000 2.183619e+000 -1.259809e+001 124 100 76
4.559281e+000 2.180888e+000 -1.272682e+001 111 84 57
4.872863e+000 2.178493e+000 -1.279730e+001 78 48 20
3.955478e+000 2.107149e+000 -1.258204e+001 129 105 82
3.070511e+000 1.998584e+000 -1.231378e+001 171 141 105
3.655744e+000 2.067853e+000 -1.242176e+001 216 204 165
3.649632e+000 1.954823e+000 -1.236583e+001 54 43 31
3.792592e+000 2.029833e+000 -1.240144e+001 38 23 10
5.761020e+000 1.977783e+000 -1.271149e+001 126 91 59
3.738545e+000 1.920259e+000 -1.229312e+001 43 27 11
5.438881e+000 1.948843e+000 -1.258557e+001 140 106 71
5.477362e+000 1.818145e+000 -1.257304e+001 143 109 74
6.281770e+000 1.845731e+000 -1.273917e+001 97 79 52
4.789257e+000 1.726297e+000 -1.241423e+001 122 95 68
2.952844e+000 1.286110e+000 -1.221101e+001 142 124 99
4.899210e+000 1.675956e+000 -1.233982e+001 123 92 63
3.433003e+000 1.558431e+000 -1.196218e+001 40 29 17
3.465986e+000 1.542843e+000 -1.195806e+001 201 191 152
5.317699e+000 1.451682e+000 -1.222354e+001 108 73 41
5.701461e+000 1.570737e+000 -1.231430e+001 147 112 77
3.705912e+000 1.491785e+000 -1.193183e+001 55 43 27
3.837126e+000 1.473649e+000 -1.190624e+001 43 34 17
4.536639e+000 1.355250e+000 -1.205059e+001 102 71 42
3.184194e+000 1.449060e+000 -1.175740e+001 243 218 188
3.427800e+000 1.362690e+000 -1.177964e+001 58 44 15
3.480730e+000 1.338298e+000 -1.178311e+001 99 83 58
3.816658e+000 1.354302e+000 -1.184214e+001 246 239 204
4.101998e+000 1.390079e+000 -1.191336e+001 148 122 97
4.873111e+000 1.254338e+000 -1.198316e+001 126 91 58
5.235672e+000 1.114820e+000 -1.206259e+001 156 122 87
6.265285e+000 1.136142e+000 -1.227361e+001 137 101 51
3.255996e+000 1.258479e+000 -1.164351e+001 201 175 144
6.417311e+000 2.207118e+000 -1.147926e+001 183 152 98
6.372005e+000 1.007154e+000 -1.170028e+001 169 139 87
2.801545e+000 3.166586e+000 -1.366421e+001 155 128 101
3.830498e+000 3.164491e+000 -1.389563e+001 102 77 51
1.412552e+000 1.228092e+000 -1.502677e+001 176 126 99
2.085027e+000 2.231245e+000 -1.422769e+001 207 174 137
5.848668e+000 3.233256e+000 -1.387691e+001 99 59 23
1.465532e+000 1.255663e+000 -1.447655e+001 125 43 45
2.307096e+000 2.131510e+000 -1.399795e+001 194 167 137
4.381360e+000 3.110620e+000 -1.353414e+001 110 80 50
4.381360e+000 3.110620e+000 -1.353414e+001 110 80 50
5.367140e+000 3.159133e+000 -1.367559e+001 125 88 61
2.838653e+000 2.974975e+000 -1.314739e+001 155 129 101
3.049296e+000 3.083635e+000 -1.319766e+001 98 84 63
2.051420e+000 1.453090e+000 -1.403657e+001 140 93 60
2.103086e+000 1.615857e+000 -1.397110e+001 154 113 85
3.513784e+000 3.015364e+000 -1.316766e+001 83 66 54
5.173012e+000 2.951840e+000 -1.340364e+001 131 100 69
1.928500e+000 1.448502e+000 -1.391143e+001 179 118 94
2.996571e+000 2.812231e+000 -1.294679e+001 132 103 71
3.473401e+000 2.868807e+000 -1.304948e+001 62 55 38
3.556445e+000 2.788430e+000 -1.296014e+001 39 31 21
4.365406e+000 2.751392e+000 -1.312685e+001 68 40 22
4.365406e+000 2.751392e+000 -1.312685e+001 68 40 22
4.722988e+000 2.754488e+000 -1.317903e+001 76 47 23
5.048493e+000 2.735930e+000 -1.321842e+001 86 56 30
5.405224e+000 2.726650e+000 -1.328518e+001 77 45 20
5.411717e+000 2.790556e+000 -1.327471e+001 82 52 24
4.472435e+000 2.633737e+000 -1.308635e+001 60 33 14
5.531784e+000 2.669284e+000 -1.324397e+001 91 61 34
3.227776e+000 2.560565e+000 -1.282540e+001 46 37 20
4.173516e+000 2.543569e+000 -1.296145e+001 106 78 56
4.255866e+000 2.526462e+000 -1.295035e+001 103 77 54
4.328839e+000 2.513675e+000 -1.297459e+001 81 54 32
4.711198e+000 2.555973e+000 -1.306792e+001 112 85 58
5.226774e+000 2.558264e+000 -1.309276e+001 74 44 18
4.371650e+000 2.346450e+000 -1.287450e+001 87 61 34
4.602463e+000 2.395184e+000 -1.298878e+001 100 70 44
2.491220e+000 1.215564e+000 -1.312518e+001 143 99 73
3.276063e+000 2.270556e+000 -1.257076e+001 58 47 34
4.510621e+000 2.262431e+000 -1.281457e+001 117 87 59
4.510621e+000 2.262431e+000 -1.281457e+001 117 87 59
5.642645e+000 2.244335e+000 -1.303078e+001 116 85 57
3.317550e+000 2.095452e+000 -1.243045e+001 48 38 28
5.511932e+000 2.075436e+000 -1.280531e+001 101 66 34
4.429865e+000 1.953669e+000 -1.258672e+001 105 77 53
4.605142e+000 1.825844e+000 -1.248474e+001 122 95 66
2.981992e+000 1.337038e+000 -1.217570e+001 46 39 31
3.280452e+000 1.600612e+000 -1.190812e+001 121 88 58
4.964436e+000 1.545875e+000 -1.225175e+001 118 84 56
3.199186e+000 1.493490e+000 -1.181781e+001 228 198 170
5.716186e+000 1.311608e+000 -1.217114e+001 152 118 81
3.183679e+000 1.336816e+000 -1.175397e+001 151 121 87
4.782608e+000 1.173625e+000 -1.196718e+001 115 81 46
5.277897e+000 1.093794e+000 -1.206028e+001 125 91 58
3.177083e+000 1.096648e+000 -1.167483e+001 137 109 79
5.547212e+000 1.059704e+000 -1.205158e+001 159 127 89
6.406323e+000 2.038304e+000 -1.167594e+001 189 158 104
4.002360e+000 3.119603e+000 -1.396870e+001 77 53 27
4.035077e+000 3.156008e+000 -1.390069e+001 108 82 56
4.037841e+000 3.150527e+000 -1.390628e+001 108 82 56
4.064538e+000 3.183595e+000 -1.383696e+001 83 57 32
2.323705e+000 2.029890e+000 -1.395303e+001 180 158 126
2.827715e+000 2.852672e+000 -1.327075e+001 156 131 109
2.923664e+000 2.838041e+000 -1.306697e+001 111 85 58
3.465160e+000 2.965731e+000 -1.312669e+001 35 28 20
5.973778e+000 3.010927e+000 -1.358469e+001 188 142 90
5.094956e+000 2.844411e+000 -1.334749e+001 87 55 30
2.261653e+000 1.742766e+000 -1.349753e+001 163 113 76
3.086812e+000 2.699352e+000 -1.293518e+001 40 23 22
3.791104e+000 2.673052e+000 -1.294937e+001 142 116 94
5.080018e+000 2.672891e+000 -1.317742e+001 100 68 43
3.315125e+000 2.503989e+000 -1.273730e+001 42 28 17
3.116236e+000 2.450346e+000 -1.263306e+001 46 26 19
4.174728e+000 2.326662e+000 -1.282735e+001 77 52 30
4.174728e+000 2.326662e+000 -1.282735e+001 77 52 30
5.340566e+000 2.324439e+000 -1.288274e+001 98 65 34
-1.286186e+000 -8.974037e-001 -1.377996e+001 131 95 81
3.132314e+000 1.940145e+000 -1.230211e+001 115 81 54
4.573437e+000 1.922517e+000 -1.256751e+001 96 66 40
3.769346e+000 1.836742e+000 -1.223218e+001 38 31 20
4.550627e+000 1.560163e+000 -1.218609e+001 126 100 71
2.946869e+000 1.081842e+000 -1.206548e+001 199 179 152
3.007795e+000 1.097330e+000 -1.198323e+001 73 57 33
3.069193e+000 9.950837e-001 -1.168686e+001 90 82 51
1.109335e+000 1.204718e+000 -1.490586e+001 138 85 71
1.066400e+000 1.263370e+000 -1.457975e+001 191 120 114
1.147100e+000 1.298988e+000 -1.445771e+001 181 129 108
3.087732e+000 3.112258e+000 -1.331609e+001 72 50 37
3.157014e+000 2.987261e+000 -1.304490e+001 52 40 26
5.117913e+000 2.998704e+000 -1.343450e+001 99 64 36
2.119434e+000 1.539611e+000 -1.391986e+001 142 95 67
3.087958e+000 2.799233e+000 -1.297292e+001 52 31 20
5.754907e+000 2.995933e+000 -1.343481e+001 134 97 68
1.630864e+000 1.383146e+000 -1.373614e+001 200 136 125
2.164260e+000 1.583007e+000 -1.355829e+001 192 129 116
4.905615e+000 2.711646e+000 -1.317303e+001 85 55 29
5.181800e+000 2.826537e+000 -1.328662e+001 76 48 26
5.584980e+000 2.598808e+000 -1.321529e+001 115 80 54
-1.529945e+000 -6.011724e-001 -1.423738e+001 190 162 142
3.844770e-001 -2.007215e-001 -1.416524e+001 180 131 115
2.872852e+000 2.493724e+000 -1.265257e+001 139 110 71
2.626464e+000 1.570120e+000 -1.302383e+001 200 167 126
4.882556e+000 2.312427e+000 -1.292948e+001 85 55 31
5.027824e+000 2.229490e+000 -1.283727e+001 70 42 18
5.037961e+000 2.208997e+000 -1.284834e+001 70 42 18
4.858301e+000 1.717522e+000 -1.248172e+001 117 87 59
3.089827e+000 1.551890e+000 -1.205564e+001 179 153 128
6.386531e+000 2.356953e+000 -1.215384e+001 138 107 64
2.862689e+000 9.905841e-001 -1.225768e+001 165 128 96
3.303084e+000 1.362753e+000 -1.177678e+001 150 117 79
5.537622e+000 1.171015e+000 -1.213635e+001 159 125 88
4.964307e+000 3.235006e+000 -1.399746e+001 111 75 43
3.135652e+000 3.162886e+000 -1.330907e+001 202 188 157
1.598254e+000 1.322378e+000 -1.391113e+001 172 95 85
2.742052e+000 2.615120e+000 -1.307577e+001 180 156 122
9.491267e-001 7.429786e-001 -1.395818e+001 177 118 100
2.089118e+000 1.531707e+000 -1.353552e+001 177 93 87
5.681956e+000 2.498651e+000 -1.312469e+001 117 82 51
5.286234e+000 2.487522e+000 -1.303168e+001 94 64 39
-5.936641e-001 -9.051963e-001 -1.369644e+001 182 150 129
3.448445e+000 1.691863e+000 -1.209073e+001 112 100 76
2.491527e+000 2.235393e+000 -1.467761e+001 164 124 90
4.426834e+000 3.110710e+000 -1.411665e+001 118 87 58
4.513320e+000 3.129376e+000 -1.399880e+001 123 90 59
4.511907e+000 3.130451e+000 -1.399809e+001 123 90 59
2.669401e+000 2.803376e+000 -1.338271e+001 72 64 41
2.886523e-001 -1.609327e-001 -1.493732e+001 175 137 118
1.029391e+000 1.161124e+000 -1.422576e+001 163 90 75
2.047677e+000 1.752116e+000 -1.406344e+001 188 158 122
1.626488e+000 1.183680e+000 -1.431073e+001 124 66 44
5.856352e-001 -1.632209e-001 -1.405579e+001 136 99 72
3.228998e+000 1.197391e+000 -1.168889e+001 197 175 143
5.487663e+000 3.236877e+000 -1.410809e+001 115 80 48
3.362871e+000 3.202572e+000 -1.352198e+001 212 197 168
1.964811e+000 1.784319e+000 -1.426475e+001 118 90 69
4.586929e+000 2.857563e+000 -1.328283e+001 135 104 75
4.518736e+000 1.594698e+000 -1.223954e+001 125 94 66
5.948025e+000 1.615845e+000 -1.236024e+001 200 165 123
6.204203e+000 1.108101e+000 -1.212287e+001 143 111 58
1.071526e+000 9.942503e-001 -1.406374e+001 196 156 131
3.526144e+000 3.195794e+000 -1.317941e+001 74 57 41
6.188826e+000 1.987539e+000 -1.244605e+001 183 147 89
2.405743e+000 2.082652e+000 -1.346316e+001 62 58 36
5.245115e+000 1.925535e+000 -1.247446e+001 157 123 86
5.333666e+000 3.194848e+000 -1.390478e+001 100 69 40
3.261842e+000 2.517653e+000 -1.276782e+001 44 28 12
6.304846e+000 1.971442e+000 -1.288359e+001 24 19 16
6.149109e+000 2.122735e+000 -1.225226e+001 180 144 86
2.505598e+000 1.677667e+000 -1.562029e+001 86 70 53
2.873442e+000 2.304953e+000 -1.487183e+001 79 67 48
4.600412e+000 2.159046e+000 -1.528059e+001 94 66 41
2.563566e+000 2.605445e+000 -1.431053e+001 160 125 91
2.596848e+000 2.763443e+000 -1.419884e+001 170 136 99
3.977224e+000 2.360028e+000 -1.492937e+001 74 52 28
4.169067e+000 2.366768e+000 -1.492744e+001 80 58 34
4.567607e+000 2.256905e+000 -1.516280e+001 130 104 76
3.307141e+000 3.190713e+000 -1.386456e+001 72 64 46
4.212926e+000 2.918104e+000 -1.434905e+001 129 104 75
5.111544e+000 3.060234e+000 -1.439184e+001 119 88 57
1.899184e+000 1.894484e+000 -1.448374e+001 177 139 86
1.963533e+000 1.570463e+000 -1.442403e+001 91 63 43
3.503863e+000 3.054215e+000 -1.317138e+001 69 53 38
2.571647e+000 2.023108e+000 -1.338539e+001 159 130 94
3.800817e+000 2.810926e+000 -1.299707e+001 144 119 97
1.931268e+000 1.104664e+000 -1.338845e+001 197 122 118
3.235976e+000 2.424578e+000 -1.270181e+001 97 79 56
2.665029e+000 1.546085e+000 -1.297050e+001 138 94 57
3.608956e+000 2.269747e+000 -1.258804e+001 85 70 41
3.597216e+000 2.172905e+000 -1.256282e+001 68 56 39
3.661354e+000 2.035662e+000 -1.246299e+001 93 75 53
3.661354e+000 2.035662e+000 -1.246299e+001 93 75 53
3.647810e+000 1.962319e+000 -1.246023e+001 103 82 59
3.672207e+000 2.016080e+000 -1.241637e+001 56 43 28
3.704425e+000 1.864366e+000 -1.230377e+001 82 66 43
3.584892e+000 1.668839e+000 -1.222398e+001 52 43 36
2.840425e+000 8.152183e-001 -1.227406e+001 174 145 113
2.946212e+000 1.097681e+000 -1.220738e+001 167 135 104
2.911514e+000 1.109992e+000 -1.210981e+001 159 129 98
3.388589e+000 1.533388e+000 -1.199376e+001 46 33 16
3.391310e+000 1.038121e+000 -1.170115e+001 130 100 66
5.947767e+000 3.789053e+000 -1.473846e+001 167 129 80
5.924178e+000 3.509201e+000 -1.478851e+001 176 141 95
2.465446e+000 2.040514e+000 -1.517688e+001 200 175 145
3.130115e+000 1.878742e+000 -1.540106e+001 57 45 31
4.536383e+000 7.526050e-001 -1.687789e+001 101 77 51
4.859682e+000 1.780555e+000 -1.585956e+001 107 82 51
5.952155e+000 3.793544e+000 -1.440162e+001 164 127 75
1.878291e+000 2.042819e+000 -1.481166e+001 162 127 89
5.003360e+000 2.489877e+000 -1.499699e+001 105 79 47
5.427144e+000 2.893968e+000 -1.466785e+001 128 96 59
2.543870e+000 2.389292e+000 -1.446086e+001 139 106 75
2.914532e+000 3.169499e+000 -1.384846e+001 97 85 72
2.952118e+000 3.156346e+000 -1.386039e+001 72 59 45
3.274561e+000 3.126873e+000 -1.393108e+001 88 79 63
1.966967e+000 2.179769e+000 -1.431897e+001 210 173 128
3.147202e+000 3.235867e+000 -1.366925e+001 73 65 46
3.329282e+000 3.253057e+000 -1.369556e+001 82 73 47
3.524011e+000 3.091454e+000 -1.395303e+001 89 73 50
3.470934e+000 3.249648e+000 -1.367839e+001 64 49 30
2.025835e+000 1.757972e+000 -1.428531e+001 87 55 35
2.249383e+000 2.000901e+000 -1.409012e+001 192 157 130
3.780242e+000 3.116696e+000 -1.331520e+001 174 148 118
2.329873e+000 2.003111e+000 -1.361328e+001 61 60 30
2.331668e+000 2.001015e+000 -1.361567e+001 61 60 30
3.085329e+000 3.032220e+000 -1.313051e+001 58 45 36
3.233083e+000 2.912837e+000 -1.307213e+001 48 41 31
2.611604e+000 2.335228e+000 -1.319095e+001 201 172 142
3.124126e+000 2.831845e+000 -1.300242e+001 72 50 28
3.207660e+000 2.929574e+000 -1.297868e+001 110 102 81
3.434861e+000 2.797643e+000 -1.307145e+001 110 95 79
2.621287e+000 2.108940e+000 -1.324761e+001 83 80 61
2.815628e+000 2.636919e+000 -1.294505e+001 64 57 41
3.124200e+000 2.759037e+000 -1.288717e+001 94 69 39
2.420001e+000 1.390271e+000 -1.322159e+001 140 92 72
3.398249e+000 2.521311e+000 -1.280093e+001 59 51 39
3.472746e+000 2.557576e+000 -1.280978e+001 63 51 38
3.670339e+000 2.611258e+000 -1.285780e+001 50 37 18
3.702947e+000 2.486674e+000 -1.282034e+001 39 29 14
2.533184e+000 1.471644e+000 -1.308123e+001 145 100 75
3.188843e+000 2.424536e+000 -1.265432e+001 63 46 29
3.494536e+000 2.461952e+000 -1.275886e+001 60 48 35
3.505205e+000 2.407894e+000 -1.274251e+001 68 54 43
3.197542e+000 2.390830e+000 -1.259327e+001 63 48 29
2.528709e+000 1.497145e+000 -1.283529e+001 183 143 104
3.218937e+000 2.262491e+000 -1.253237e+001 52 39 23
2.954583e+000 1.885377e+000 -1.255124e+001 117 89 67
3.395809e+000 2.126456e+000 -1.247357e+001 41 34 25
2.441463e+000 1.066580e+000 -1.268773e+001 188 130 97
2.795289e+000 1.344840e+000 -1.239525e+001 158 142 109
3.060313e+000 1.880869e+000 -1.222758e+001 183 159 126
3.331861e+000 1.868580e+000 -1.228217e+001 255 243 195
3.477099e+000 1.865939e+000 -1.230075e+001 41 31 19
3.621494e+000 1.885016e+000 -1.239282e+001 65 53 38
3.640532e+000 1.894087e+000 -1.236740e+001 254 254 233
3.640532e+000 1.894087e+000 -1.236740e+001 254 254 233
3.650008e+000 1.852056e+000 -1.233281e+001 252 238 199
2.924882e+000 1.208522e+000 -1.233040e+001 158 135 110
3.340924e+000 1.746002e+000 -1.223628e+001 48 38 28
2.903799e+000 1.103021e+000 -1.227909e+001 204 172 138
3.080253e+000 1.523230e+000 -1.211326e+001 179 153 128
3.376807e+000 1.602754e+000 -1.211536e+001 60 45 32
3.668091e+000 1.681797e+000 -1.222326e+001 55 44 27
3.706915e+000 1.624566e+000 -1.218362e+001 253 243 210
2.880809e+000 8.200204e-001 -1.220586e+001 190 168 137
3.194476e+000 1.525402e+000 -1.205947e+001 154 120 83
3.385972e+000 1.552091e+000 -1.204464e+001 59 48 34
3.649924e+000 1.541406e+000 -1.204562e+001 31 26 21
3.708600e+000 1.524136e+000 -1.208012e+001 57 45 29
2.890773e+000 8.407163e-001 -1.216243e+001 126 106 82
3.524748e+000 1.501043e+000 -1.196711e+001 54 46 29
3.223664e+000 1.453237e+000 -1.187000e+001 237 208 176
3.448523e+000 1.384336e+000 -1.191025e+001 204 188 140
3.448523e+000 1.384336e+000 -1.191025e+001 204 188 140
2.549750e+000 2.588341e+000 -1.452009e+001 251 226 195
2.549750e+000 2.588341e+000 -1.452009e+001 251 226 195
3.871373e+000 2.141633e+000 -1.518853e+001 122 98 70
4.353475e+000 2.067300e+000 -1.533226e+001 100 74 47
5.213675e+000 1.914385e+000 -1.577433e+001 118 89 57
2.613625e+000 2.891930e+000 -1.422983e+001 245 221 191
3.278211e+000 2.781306e+000 -1.432785e+001 71 58 48
4.100681e+000 2.339229e+000 -1.495369e+001 87 62 40
4.395350e+000 2.737716e+000 -1.461184e+001 112 86 59
4.395350e+000 2.737716e+000 -1.461184e+001 112 86 59
2.359803e+000 2.200415e+000 -1.444578e+001 155 112 66
2.517355e+000 2.260349e+000 -1.444314e+001 152 113 77
3.311467e+000 3.103964e+000 -1.403777e+001 56 44 32
4.270058e+000 2.848058e+000 -1.444364e+001 80 55 26
5.422505e+000 2.995405e+000 -1.457197e+001 124 90 55
2.947051e+000 3.182232e+000 -1.376560e+001 85 73 47
5.345370e+000 3.177646e+000 -1.419686e+001 130 96 61
2.494696e+000 2.422971e+000 -1.404463e+001 156 142 107
2.494696e+000 2.422971e+000 -1.404463e+001 156 142 107
3.057147e+000 3.255883e+000 -1.358790e+001 80 68 46
3.057147e+000 3.255883e+000 -1.358790e+001 80 68 46
3.097128e+000 3.194987e+000 -1.351445e+001 60 42 30
3.216648e+000 3.214622e+000 -1.356181e+001 68 56 41
3.386393e+000 3.241420e+000 -1.358503e+001 76 65 48
1.534773e+000 1.243236e+000 -1.455284e+001 149 82 63
2.282396e+000 2.007962e+000 -1.399890e+001 144 106 80
2.294785e+000 1.986497e+000 -1.361273e+001 103 98 66
3.520665e+000 2.971169e+000 -1.309374e+001 43 35 23
2.703433e+000 2.606249e+000 -1.303735e+001 140 113 81
2.703433e+000 2.606249e+000 -1.303735e+001 140 113 81
3.165770e+000 2.857671e+000 -1.297417e+001 61 48 34
1.610909e+000 1.194052e+000 -1.351495e+001 178 98 91
3.259166e+000 2.717290e+000 -1.279572e+001 70 59 34
3.519919e+000 2.570948e+000 -1.277230e+001 72 65 49
3.313386e+000 2.424456e+000 -1.271128e+001 59 43 26
3.688847e+000 2.527272e+000 -1.275037e+001 47 35 21
3.025882e+000 2.259994e+000 -1.247603e+001 178 146 110
2.988904e+000 2.087818e+000 -1.246135e+001 153 126 96
2.782547e+000 1.467738e+000 -1.238038e+001 80 80 53
3.373019e+000 1.814518e+000 -1.231848e+001 54 40 27
2.880069e+000 1.287124e+000 -1.239276e+001 138 129 98
3.198365e+000 1.859566e+000 -1.219761e+001 144 114 78
2.944349e+000 1.140423e+000 -1.230986e+001 178 154 127
3.033732e+000 1.333358e+000 -1.222357e+001 95 89 65
2.942672e+000 9.143905e-001 -1.209874e+001 87 74 50
3.498281e+000 1.311975e+000 -1.195347e+001 54 46 34
3.285097e+000 1.301452e+000 -1.190067e+001 136 101 69
3.457708e+000 1.338907e+000 -1.187806e+001 255 244 202
3.457708e+000 1.338907e+000 -1.187806e+001 255 244 202
2.685450e+000 1.875769e+000 -1.543323e+001 80 66 53
3.648065e+000 1.751814e+000 -1.563646e+001 108 84 58
4.958053e+000 2.028603e+000 -1.553487e+001 99 68 40
4.958053e+000 2.028603e+000 -1.553487e+001 99 68 40
