ply
format ascii 1.0
element face 0
property list uchar int vertex_indices
element vertex 896
property float x
property float y
property float z
property uchar diffuse_red
property uchar diffuse_green
property uchar diffuse_blue
end_header
3.184083e+000 1.166685e+000 -1.437735e+001 114 93 72
3.962843e+000 1.213489e+000 -1.447633e+001 100 70 42
4.442127e+000 1.218174e+000 -1.462818e+001 141 104 59
2.891371e+000 1.042259e+000 -1.407138e+001 156 113 75
3.014768e+000 1.219727e+000 -1.424149e+001 152 121 90
3.091372e+000 1.242194e+000 -1.428540e+001 62 45 24
3.395692e+000 1.217542e+000 -1.439165e+001 107 88 63
3.403785e+000 1.259972e+000 -1.435371e+001 76 55 33
3.578727e+000 1.193571e+000 -1.438081e+001 97 65 40
3.578727e+000 1.193571e+000 -1.438081e+001 97 65 40
3.860606e+000 1.245784e+000 -1.439840e+001 83 51 26
3.867738e+000 1.241061e+000 -1.439300e+001 83 51 26
4.192338e+000 1.250877e+000 -1.449888e+001 138 103 73
3.031794e+000 1.239627e+000 -1.418713e+001 183 152 121
3.645323e+000 1.240633e+000 -1.432645e+001 81 50 22
2.835181e+000 9.667316e-001 -1.367233e+001 161 105 79
3.512335e+000 1.338866e+000 -1.421840e+001 122 88 60
4.442559e+000 1.494815e+000 -1.449290e+001 145 106 63
2.731064e+000 9.394003e-001 -1.359945e+001 184 103 86
4.418905e+000 1.571364e+000 -1.452171e+001 151 110 65
3.390979e+000 1.331396e+000 -1.403387e+001 89 72 45
4.475242e+000 1.543964e+000 -1.440420e+001 152 114 69
4.403109e+000 1.685814e+000 -1.457843e+001 149 111 64
4.399606e+000 1.686466e+000 -1.457885e+001 149 111 64
2.834867e+000 1.319062e+000 -1.385764e+001 215 181 137
2.890006e+000 1.331324e+000 -1.377533e+001 205 156 88
3.652520e+000 1.434444e+000 -1.403465e+001 82 52 25
3.768626e+000 1.455859e+000 -1.403524e+001 76 49 22
3.768626e+000 1.455859e+000 -1.403524e+001 76 49 22
3.416411e+000 1.482795e+000 -1.390639e+001 111 93 69
3.718814e+000 1.488430e+000 -1.398730e+001 116 89 60
3.047846e+000 1.152576e+000 -1.327881e+001 238 200 161
3.117710e+000 1.492469e+000 -1.365615e+001 209 178 147
3.403156e+000 1.564319e+000 -1.380354e+001 252 239 213
3.744760e+000 1.623529e+000 -1.386183e+001 126 96 68
3.936037e+000 1.628824e+000 -1.388449e+001 156 126 93
4.063714e+000 1.657449e+000 -1.390264e+001 106 72 44
4.117828e+000 1.660156e+000 -1.392845e+001 137 104 71
4.482991e+000 1.725144e+000 -1.408439e+001 162 121 75
3.116771e+000 1.511473e+000 -1.360110e+001 144 112 81
3.277215e+000 1.601703e+000 -1.372177e+001 64 47 30
3.958235e+000 1.672457e+000 -1.386419e+001 113 79 51
4.499692e+000 1.782650e+000 -1.384700e+001 117 74 39
3.132961e+000 1.723851e+000 -1.361771e+001 207 172 140
4.079975e+000 1.808312e+000 -1.372948e+001 98 59 28
4.518215e+000 1.826164e+000 -1.383615e+001 149 105 61
3.121331e+000 1.745828e+000 -1.357500e+001 228 201 172
3.144640e+000 1.774771e+000 -1.358156e+001 181 149 117
4.241538e+000 1.866173e+000 -1.372118e+001 187 149 110
3.291987e+000 1.809036e+000 -1.350615e+001 56 43 25
3.257407e+000 1.822789e+000 -1.348411e+001 77 61 38
3.257407e+000 1.822789e+000 -1.348411e+001 77 61 38
3.763209e+000 1.849236e+000 -1.350410e+001 157 122 90
3.763209e+000 1.849236e+000 -1.350410e+001 157 122 90
4.176576e+000 2.955861e-001 -1.525008e+001 36 32 24
2.939234e+000 4.630041e-001 -1.500149e+001 149 125 99
3.011011e+000 5.338920e-001 -1.500118e+001 86 69 56
3.169297e+000 5.121570e-001 -1.505310e+001 43 37 32
3.845098e+000 4.658114e-001 -1.522636e+001 95 69 44
2.917279e+000 5.122761e-001 -1.492230e+001 115 86 64
3.206876e+000 5.696317e-001 -1.505498e+001 79 61 47
3.954003e+000 6.277376e-001 -1.518628e+001 94 63 35
1.366523e+000 -3.283594e-001 -1.380623e+001 160 121 105
1.517705e+000 -1.197287e-001 -1.402946e+001 129 104 82
2.575666e+000 2.264895e-001 -1.449106e+001 201 156 133
2.622498e+000 2.745028e-001 -1.453940e+001 193 147 123
3.942678e+000 6.790279e-001 -1.512859e+001 130 101 71
4.008621e+000 6.675778e-001 -1.514423e+001 100 70 42
1.715912e+000 -5.255180e-002 -1.400075e+001 102 67 45
2.952749e+000 1.862399e-001 -1.452222e+001 118 72 55
3.249959e+000 6.954360e-001 -1.486690e+001 200 185 162
3.235829e+000 7.248185e-001 -1.480267e+001 240 236 211
3.235829e+000 7.248185e-001 -1.480267e+001 240 236 211
2.927017e+000 7.906609e-001 -1.465895e+001 179 148 120
4.116904e+000 8.710502e-001 -1.492828e+001 112 76 44
2.147943e+000 2.903748e-001 -1.399349e+001 124 94 68
2.218579e+000 3.288290e-001 -1.403574e+001 108 76 51
3.102505e+000 8.888194e-001 -1.468468e+001 56 38 24
3.581723e+000 8.683021e-001 -1.473383e+001 110 84 56
3.716115e+000 8.709934e-001 -1.478933e+001 121 93 67
2.884119e+000 7.609150e-001 -1.441604e+001 134 97 70
3.152518e+000 8.612547e-001 -1.457104e+001 50 37 28
3.152518e+000 8.612547e-001 -1.457104e+001 50 37 28
3.274480e+000 8.534322e-001 -1.463632e+001 46 36 22
3.646993e+000 8.943937e-001 -1.471835e+001 77 49 26
3.646993e+000 8.943937e-001 -1.471835e+001 77 49 26
3.954293e+000 9.516093e-001 -1.478170e+001 123 92 64
2.298175e+000 4.212811e-001 -1.391257e+001 150 98 80
3.892146e+000 9.620228e-001 -1.471353e+001 120 86 59
4.044833e+000 9.978706e-001 -1.474421e+001 136 102 77
2.990275e+000 9.624416e-001 -1.447588e+001 192 161 133
2.465438e+000 4.207984e-001 -1.369963e+001 198 128 122
4.041460e+000 1.106210e+000 -1.461513e+001 122 91 62
2.463657e+000 4.991676e-001 -1.361753e+001 196 143 125
2.911770e+000 9.367884e-001 -1.423127e+001 157 115 90
3.174932e+000 1.140269e+000 -1.442443e+001 72 52 34
3.727111e+000 1.092068e+000 -1.452360e+001 97 67 39
3.738114e+000 1.083786e+000 -1.451584e+001 97 67 39
2.842231e+000 9.630390e-001 -1.407492e+001 205 151 115
3.235105e+000 1.165196e+000 -1.440012e+001 132 112 79
3.985154e+000 1.216010e+000 -1.452048e+001 106 73 43
2.800372e+000 9.701297e-001 -1.400641e+001 219 166 133
2.927806e+000 1.084451e+000 -1.414745e+001 164 125 94
3.080781e+000 1.216804e+000 -1.429993e+001 81 64 48
3.080781e+000 1.216804e+000 -1.429993e+001 81 64 48
3.119523e+000 1.277192e+000 -1.425943e+001 92 77 56
2.823993e+000 9.438218e-001 -1.370867e+001 204 161 127
3.194726e+000 1.310001e+000 -1.419393e+001 141 126 102
4.162880e+000 1.343094e+000 -1.437309e+001 101 68 37
3.071102e+000 1.392652e+000 -1.396549e+001 254 240 220
3.114948e+000 1.419316e+000 -1.394530e+001 152 114 77
4.023514e+000 1.497054e+000 -1.410230e+001 158 123 91
4.145681e+000 1.535971e+000 -1.408627e+001 114 75 44
3.083308e+000 1.521002e+000 -1.378371e+001 254 244 218
3.393756e+000 1.501329e+000 -1.385534e+001 94 74 50
3.095530e+000 1.573194e+000 -1.372315e+001 226 194 165
4.419458e+000 1.746271e+000 -1.395535e+001 185 145 110
3.141315e+000 1.556533e+000 -1.352337e+001 184 156 132
3.163536e+000 1.687307e+000 -1.364993e+001 135 94 62
3.101259e+000 1.657465e+000 -1.340477e+001 155 149 117
3.101266e+000 1.668150e+000 -1.343694e+001 85 76 47
3.158391e+000 1.775716e+000 -1.349901e+001 159 126 95
3.461809e+000 1.841456e+000 -1.343005e+001 153 142 116
3.445733e+000 1.851421e+000 -1.341441e+001 64 48 31
3.091683e+000 3.237894e-001 -1.498941e+001 60 49 35
3.154156e+000 4.820145e-001 -1.509887e+001 52 49 35
3.057814e+000 5.871124e-001 -1.498812e+001 64 46 33
1.377316e+000 -3.218840e-001 -1.378539e+001 79 42 26
2.591990e+000 2.431381e-001 -1.445628e+001 192 146 122
2.777915e+000 2.524533e-001 -1.454855e+001 185 143 119
2.938555e+000 2.891262e-001 -1.453465e+001 175 134 112
3.077867e+000 6.270054e-001 -1.489817e+001 63 46 26
1.758636e+000 -1.172664e-002 -1.399133e+001 173 141 116
3.089515e+000 6.865102e-001 -1.481816e+001 51 37 25
3.508335e+000 7.788516e-001 -1.484012e+001 90 62 38
3.958655e+000 7.975208e-001 -1.498515e+001 110 77 47
4.112735e+000 8.074342e-001 -1.503035e+001 131 96 64
3.289651e+000 8.260834e-001 -1.470083e+001 58 41 29
3.790100e+000 8.830611e-001 -1.479806e+001 69 43 18
4.081805e+000 8.891904e-001 -1.489215e+001 104 70 42
4.081805e+000 8.891904e-001 -1.489215e+001 104 70 42
3.009817e+000 8.345954e-001 -1.457558e+001 148 114 81
3.504873e+000 8.777233e-001 -1.470129e+001 128 98 72
3.897163e+000 9.579901e-001 -1.476967e+001 136 105 76
4.031281e+000 9.177311e-001 -1.482650e+001 112 78 51
2.551405e+000 8.010114e-001 -1.431030e+001 167 115 102
2.957802e+000 9.080314e-001 -1.444820e+001 161 135 110
2.964458e+000 9.105442e-001 -1.447007e+001 114 80 53
3.537116e+000 9.488968e-001 -1.461322e+001 110 80 52
3.298474e+000 1.006799e+000 -1.453555e+001 50 33 22
3.497439e+000 9.984323e-001 -1.453756e+001 120 86 56
2.724151e+000 8.358236e-001 -1.419352e+001 172 99 93
2.720382e+000 8.410819e-001 -1.419882e+001 172 99 93
2.755504e+000 8.950523e-001 -1.418285e+001 189 134 114
3.960200e+000 1.110643e+000 -1.459264e+001 133 103 75
4.193790e+000 1.113939e+000 -1.465315e+001 108 73 43
2.989604e+000 1.068652e+000 -1.436649e+001 189 157 127
3.552988e+000 1.081034e+000 -1.447714e+001 84 56 28
2.636447e+000 8.709409e-001 -1.399396e+001 164 76 75
3.942230e+000 1.203049e+000 -1.447624e+001 111 79 51
2.849505e+000 9.859513e-001 -1.396321e+001 136 83 41
3.216678e+000 1.214234e+000 -1.432818e+001 254 252 229
3.216678e+000 1.214234e+000 -1.432818e+001 254 252 229
2.681959e+000 9.648055e-001 -1.382093e+001 229 179 157
3.316715e+000 1.262232e+000 -1.431668e+001 255 251 251
4.366547e+000 1.307146e+000 -1.447889e+001 164 129 91
2.875402e+000 1.016798e+000 -1.362480e+001 200 162 123
3.558841e+000 1.334390e+000 -1.415154e+001 110 79 52
3.708532e+000 1.424323e+000 -1.404760e+001 112 82 54
3.266013e+000 1.480479e+000 -1.388227e+001 42 27 6
3.779051e+000 1.525939e+000 -1.397026e+001 123 97 70
3.111739e+000 1.640609e+000 -1.369820e+001 196 162 132
3.120484e+000 1.712856e+000 -1.362407e+001 184 150 114
3.150286e+000 1.606950e+000 -1.329817e+001 99 86 52
3.106533e+000 1.705490e+000 -1.342041e+001 85 83 60
3.734236e+000 1.806268e+000 -1.360891e+001 144 111 79
3.419506e+000 1.850768e+000 -1.353516e+001 127 114 88
3.501443e+000 1.811813e+000 -1.351769e+001 85 65 41
4.218926e+000 1.889661e+000 -1.365064e+001 144 101 66
4.426180e+000 1.930573e+000 -1.358920e+001 210 170 132
3.042050e+000 3.792085e-001 -1.498989e+001 118 99 85
3.012043e+000 -6.908911e-002 -1.451222e+001 157 130 101
1.706637e+000 -1.480575e-001 -1.401644e+001 117 91 68
2.951224e+000 5.922187e-001 -1.491655e+001 156 122 94
3.951155e+000 6.610490e-001 -1.517583e+001 103 71 46
3.095399e+000 6.896557e-001 -1.487818e+001 52 35 25
3.124349e+000 7.331189e-001 -1.482710e+001 64 50 34
1.417845e+000 7.430379e-002 -1.371678e+001 208 173 145
2.792484e+000 7.069657e-001 -1.442388e+001 150 101 80
3.294143e+000 9.893389e-001 -1.452357e+001 70 53 40
3.963191e+000 1.020819e+000 -1.467499e+001 95 66 37
4.012263e+000 1.080030e+000 -1.462999e+001 133 103 74
3.235931e+000 1.166681e+000 -1.437194e+001 57 43 34
3.901953e+000 1.165842e+000 -1.450532e+001 127 96 68
2.682590e+000 9.660814e-001 -1.376900e+001 229 179 157
2.855600e+000 9.836624e-001 -1.361226e+001 176 111 85
3.686942e+000 1.380161e+000 -1.414979e+001 132 100 72
4.302848e+000 1.476587e+000 -1.428372e+001 167 129 92
3.088049e+000 1.399670e+000 -1.390944e+001 239 217 190
3.088891e+000 1.399740e+000 -1.390929e+001 239 217 190
4.064371e+000 1.563160e+000 -1.398286e+001 143 109 81
3.114556e+000 1.567081e+000 -1.373691e+001 190 152 115
3.788864e+000 1.593722e+000 -1.385137e+001 132 103 73
3.163451e+000 1.601613e+000 -1.373860e+001 168 124 90
3.444567e+000 1.606892e+000 -1.378882e+001 68 46 23
3.119012e+000 1.663863e+000 -1.363680e+001 182 144 106
3.123818e+000 1.659791e+000 -1.362941e+001 182 144 106
3.684579e+000 1.798883e+000 -1.359374e+001 101 66 37
3.924723e+000 1.809985e+000 -1.368901e+001 147 109 75
3.223003e+000 1.788807e+000 -1.351607e+001 51 33 20
3.296633e+000 1.836843e+000 -1.350401e+001 142 131 102
3.208718e+000 2.922196e-001 -1.507863e+001 39 35 27
4.171828e+000 4.193382e-001 -1.529076e+001 142 117 86
4.171828e+000 4.193382e-001 -1.529076e+001 142 117 86
4.122612e+000 6.055234e-001 -1.534599e+001 162 128 100
3.464734e+000 5.775794e-001 -1.510735e+001 126 95 69
1.672590e+000 1.165917e-001 -1.358587e+001 111 94 90
2.503645e+000 7.036050e-001 -1.430318e+001 209 160 145
3.905717e+000 9.357590e-001 -1.477436e+001 138 107 78
1.543816e+000 8.768585e-002 -1.349257e+001 124 93 73
3.176019e+000 8.583022e-001 -1.451726e+001 74 62 48
3.244594e+000 9.398075e-001 -1.451250e+001 25 21 12
3.075819e+000 1.202164e+000 -1.431881e+001 147 133 107
3.409344e+000 1.226782e+000 -1.437054e+001 71 52 35
2.525646e+000 9.669321e-001 -1.379323e+001 184 85 80
3.345378e+000 1.297136e+000 -1.432384e+001 83 64 49
2.826725e+000 9.640529e-001 -1.369591e+001 163 112 81
2.851460e+000 1.021212e+000 -1.377340e+001 190 151 93
4.109429e+000 1.365958e+000 -1.435775e+001 160 125 95
3.208872e+000 1.362344e+000 -1.400403e+001 55 42 32
3.070712e+000 1.412421e+000 -1.360975e+001 138 119 86
3.083357e+000 1.534148e+000 -1.371215e+001 200 169 138
3.630147e+000 1.716744e+000 -1.368486e+001 120 85 57
3.753920e+000 1.831961e+000 -1.353896e+001 120 87 56
3.981579e+000 1.871084e+000 -1.355758e+001 193 156 119
3.478802e+000 3.427615e-001 -1.512226e+001 115 87 63
3.427472e+000 4.745150e-001 -1.512919e+001 107 81 56
4.080373e+000 4.624692e-001 -1.525961e+001 127 101 76
3.313356e+000 6.099466e-001 -1.500994e+001 170 144 121
1.846522e+000 6.876761e-003 -1.397882e+001 118 84 55
3.571466e+000 7.096066e-001 -1.497285e+001 132 99 70
3.582682e+000 6.989683e-001 -1.496608e+001 132 99 70
1.383590e+000 4.552548e-002 -1.366420e+001 134 97 71
3.168020e+000 8.030114e-001 -1.456623e+001 51 38 29
3.797536e+000 9.123453e-001 -1.474395e+001 97 70 46
3.135543e+000 1.145241e+000 -1.441217e+001 75 53 40
2.953488e+000 1.075813e+000 -1.417234e+001 184 153 123
2.461006e+000 9.288580e-001 -1.374803e+001 196 119 110
2.870331e+000 1.036352e+000 -1.399425e+001 154 103 60
3.182768e+000 1.554417e+000 -1.377388e+001 60 39 20
4.521073e+000 1.890750e+000 -1.372528e+001 168 123 81
4.040308e+000 1.885253e+000 -1.356915e+001 193 155 118
3.828280e+000 5.311686e-001 -1.521025e+001 132 105 78
4.235351e+000 6.763518e-001 -1.522415e+001 166 132 100
3.182999e+000 7.452950e-001 -1.485716e+001 118 99 72
3.330805e+000 7.033503e-001 -1.488363e+001 197 174 150
2.932139e+000 7.402262e-001 -1.463399e+001 128 86 61
2.934625e+000 7.378879e-001 -1.463215e+001 128 86 61
2.300958e+000 3.671756e-001 -1.366483e+001 228 176 160
2.554127e+000 8.974452e-001 -1.416563e+001 157 84 67
2.861852e+000 1.007453e+000 -1.403618e+001 200 161 118
3.158922e+000 1.430434e+000 -1.390232e+001 70 44 31
4.228081e+000 1.610835e+000 -1.401472e+001 157 121 85
4.227923e+000 1.611479e+000 -1.401620e+001 157 121 85
3.851489e+000 1.609467e+000 -1.387244e+001 110 79 51
3.855674e+000 1.608250e+000 -1.386995e+001 110 79 51
3.657038e+000 6.976183e-001 -1.505080e+001 109 77 52
2.820793e+000 1.346799e+000 -1.389672e+001 212 177 133
4.051623e+000 1.858275e+000 -1.370256e+001 186 148 111
3.716872e+000 1.829235e+000 -1.345036e+001 124 93 64
2.121458e+000 2.683450e-001 -1.400247e+001 120 93 70
2.121458e+000 2.683450e-001 -1.400247e+001 120 93 70
2.835703e+000 1.081505e+000 -1.390088e+001 101 63 40
2.780072e+000 1.270575e+000 -1.383760e+001 221 183 127
3.117412e+000 1.766180e+000 -1.359558e+001 223 197 167
3.275939e+000 1.117356e+000 -1.450806e+001 61 43 30
3.702014e+000 1.195569e+000 -1.439290e+001 144 116 86
2.989680e+000 1.272002e+000 -1.405083e+001 157 112 81
4.202657e+000 1.549520e+000 -1.408756e+001 143 105 69
3.871905e+000 7.408108e-001 -1.503861e+001 142 107 75
3.075556e+000 2.368939e-001 -1.507407e+001 103 96 78
3.191061e+000 -4.499708e-001 -1.447925e+001 77 63 50
3.076453e+000 3.692491e-001 -1.509679e+001 247 237 204
3.187318e+000 3.370168e-001 -1.507327e+001 27 24 15
3.240365e+000 3.824234e-001 -1.508166e+001 90 73 53
3.230243e+000 4.153000e-001 -1.507997e+001 74 61 42
3.230243e+000 4.153000e-001 -1.507997e+001 74 61 42
3.061281e+000 4.762335e-001 -1.505476e+001 76 62 44
3.076894e+000 4.953666e-001 -1.507161e+001 243 225 186
3.416127e+000 4.449495e-001 -1.506268e+001 127 101 78
3.220019e+000 5.107251e-001 -1.503189e+001 72 58 41
3.830878e+000 6.194620e-001 -1.516758e+001 84 52 29
2.594928e+000 2.305666e-001 -1.452575e+001 166 121 105
2.648667e+000 2.716677e-001 -1.453254e+001 151 103 81
2.643287e+000 2.791161e-001 -1.453925e+001 151 103 81
3.166925e+000 5.841958e-001 -1.490778e+001 71 54 42
3.230100e+000 5.544681e-001 -1.497565e+001 96 76 54
3.230100e+000 5.544681e-001 -1.497565e+001 96 76 54
3.068333e+000 6.444511e-001 -1.486281e+001 245 228 183
3.214211e+000 6.141072e-001 -1.488561e+001 58 46 31
3.254262e+000 6.449110e-001 -1.488209e+001 83 62 45
2.905634e+000 6.315257e-001 -1.472876e+001 109 94 71
3.203448e+000 6.759023e-001 -1.488850e+001 116 93 69
3.127949e+000 7.418564e-001 -1.477354e+001 65 52 39
3.238468e+000 6.996127e-001 -1.479808e+001 89 65 45
3.266241e+000 7.364818e-001 -1.481114e+001 48 32 17
4.118717e+000 8.143872e-001 -1.501388e+001 86 51 23
4.118717e+000 8.143872e-001 -1.501388e+001 86 51 23
2.964869e+000 7.872964e-001 -1.468724e+001 140 105 77
3.265021e+000 7.471044e-001 -1.475540e+001 67 50 34
3.519861e+000 8.245902e-001 -1.479698e+001 95 67 46
2.444932e+000 6.904024e-001 -1.440032e+001 175 125 102
3.139082e+000 8.270487e-001 -1.467114e+001 60 42 26
3.260392e+000 8.222926e-001 -1.467391e+001 224 210 164
3.507128e+000 8.113230e-001 -1.477969e+001 74 49 25
3.282662e+000 8.814229e-001 -1.461274e+001 62 44 31
3.813283e+000 9.151716e-001 -1.474530e+001 77 48 25
4.042321e+000 9.171769e-001 -1.479114e+001 106 75 46
4.400999e+000 9.171342e-001 -1.488040e+001 108 72 36
2.531502e+000 7.998824e-001 -1.435178e+001 151 96 81
3.768366e+000 9.301384e-001 -1.472414e+001 116 89 62
2.891350e+000 8.495625e-001 -1.438913e+001 62 56 32
4.102043e+000 1.006739e+000 -1.475168e+001 87 55 30
2.483271e+000 3.961574e-001 -1.364714e+001 138 74 62
2.926782e+000 9.378514e-001 -1.434928e+001 56 49 26
2.934690e+000 9.844355e-001 -1.436283e+001 164 140 106
2.985836e+000 9.970320e-001 -1.445453e+001 164 132 107
4.375642e+000 1.212851e+000 -1.489649e+001 130 90 50
2.399558e+000 5.187142e-001 -1.356054e+001 164 103 82
2.922204e+000 9.367445e-001 -1.420638e+001 182 148 120
3.390257e+000 1.034229e+000 -1.445022e+001 57 35 21
2.990176e+000 1.107583e+000 -1.432551e+001 187 157 125
3.000577e+000 1.125497e+000 -1.433954e+001 194 163 134
3.866643e+000 1.164335e+000 -1.450329e+001 112 81 55
4.378737e+000 1.240538e+000 -1.468820e+001 127 90 48
3.183213e+000 1.219407e+000 -1.432225e+001 61 45 27
4.102429e+000 1.229831e+000 -1.454660e+001 86 55 26
4.404794e+000 1.244061e+000 -1.453280e+001 96 60 27
2.463211e+000 8.678329e-001 -1.364764e+001 221 185 159
2.696871e+000 9.622217e-001 -1.387137e+001 172 105 90
3.008278e+000 1.223749e+000 -1.421182e+001 192 161 130
3.210760e+000 1.327733e+000 -1.422087e+001 151 136 115
2.836210e+000 1.255364e+000 -1.399086e+001 171 130 76
2.750097e+000 9.918535e-001 -1.346048e+001 179 114 92
3.065199e+000 1.367038e+000 -1.399676e+001 254 233 208
3.325375e+000 1.357280e+000 -1.402030e+001 67 55 36
3.600534e+000 1.362216e+000 -1.404588e+001 104 74 48
3.369727e+000 1.390687e+000 -1.403445e+001 204 186 167
3.090419e+000 1.442278e+000 -1.390609e+001 245 230 213
3.090419e+000 1.442278e+000 -1.390609e+001 245 230 213
3.380870e+000 1.443832e+000 -1.395389e+001 221 205 180
3.256724e+000 1.501119e+000 -1.385356e+001 153 138 111
3.097629e+000 1.540413e+000 -1.380614e+001 230 198 170
4.449046e+000 1.830105e+000 -1.428012e+001 145 103 63
4.112787e+000 1.677435e+000 -1.393272e+001 100 66 39
3.276653e+000 1.652478e+000 -1.371278e+001 78 57 36
3.296669e+000 1.654250e+000 -1.367484e+001 67 44 30
3.375452e+000 1.659212e+000 -1.368051e+001 237 221 189
3.650126e+000 1.692268e+000 -1.370604e+001 124 90 63
3.145871e+000 1.732082e+000 -1.360330e+001 158 125 94
3.430885e+000 1.698762e+000 -1.365158e+001 164 147 122
3.420806e+000 1.748242e+000 -1.360999e+001 67 51 29
3.170091e+000 1.709743e+000 -1.348003e+001 171 139 114
3.426416e+000 1.774888e+000 -1.359592e+001 158 143 120
3.273898e+000 1.799386e+000 -1.348206e+001 75 57 40
3.430683e+000 1.817822e+000 -1.344880e+001 108 93 69
4.473651e+000 -3.916970e-001 -1.486671e+001 174 149 107
3.156217e+000 4.012597e-001 -1.508895e+001 28 23 17
4.121164e+000 4.534022e-001 -1.528247e+001 67 42 18
3.085798e+000 5.057553e-001 -1.506041e+001 52 37 25
1.496672e+000 -3.406445e-001 -1.388374e+001 112 88 66
3.182643e+000 5.280506e-001 -1.497181e+001 32 23 19
3.182643e+000 5.280506e-001 -1.497181e+001 32 23 19
2.877261e+000 5.623844e-001 -1.484761e+001 139 115 87
4.116412e+000 7.390428e-001 -1.513387e+001 99 63 36
2.350534e+000 3.534495e-001 -1.426288e+001 213 174 145
2.604985e+000 6.576481e-001 -1.451046e+001 133 81 64
2.976812e+000 7.789097e-001 -1.469966e+001 151 118 86
2.441938e+000 6.634092e-001 -1.438246e+001 213 173 148
2.704976e+000 6.980702e-001 -1.447797e+001 170 117 99
2.741172e+000 6.881868e-001 -1.445039e+001 106 43 35
3.706004e+000 8.573440e-001 -1.479836e+001 77 47 23
3.712691e+000 8.732460e-001 -1.479155e+001 114 88 64
3.083547e+000 8.658786e-001 -1.460052e+001 249 239 192
2.532209e+000 7.715124e-001 -1.427722e+001 116 70 62
2.678997e+000 8.029959e-001 -1.425974e+001 137 66 62
3.006612e+000 1.022448e+000 -1.442000e+001 165 134 105
3.611556e+000 1.073389e+000 -1.455654e+001 85 55 31
2.678340e+000 8.837518e-001 -1.410276e+001 156 77 71
2.929036e+000 9.918683e-001 -1.416835e+001 172 135 106
3.518688e+000 1.098623e+000 -1.442657e+001 102 72 46
2.326184e+000 8.098495e-001 -1.371054e+001 185 102 104
2.504305e+000 9.466954e-001 -1.376338e+001 178 93 88
2.627530e+000 9.178372e-001 -1.377113e+001 218 167 130
3.611605e+000 1.275167e+000 -1.430978e+001 115 83 58
3.247885e+000 1.314966e+000 -1.422892e+001 77 63 50
2.852685e+000 1.005473e+000 -1.362996e+001 165 109 85
2.919633e+000 1.311020e+000 -1.393376e+001 151 104 58
3.286033e+000 1.374347e+000 -1.401047e+001 82 65 48
3.910104e+000 1.452914e+000 -1.412812e+001 117 88 57
4.427546e+000 1.576017e+000 -1.440201e+001 141 100 56
4.412510e+000 1.582376e+000 -1.441266e+001 141 100 56
3.370638e+000 1.454190e+000 -1.394589e+001 83 67 43
3.103138e+000 1.448245e+000 -1.373889e+001 189 154 120
3.232666e+000 1.481161e+000 -1.386259e+001 65 49 29
3.249437e+000 1.525179e+000 -1.386099e+001 80 67 42
3.258110e+000 1.584325e+000 -1.379552e+001 79 60 42
3.413028e+000 1.587557e+000 -1.375194e+001 65 49 33
4.470146e+000 1.801138e+000 -1.406410e+001 147 106 62
3.182882e+000 1.658523e+000 -1.367329e+001 159 116 81
3.116486e+000 1.531379e+000 -1.333047e+001 169 134 106
3.422598e+000 1.817484e+000 -1.351501e+001 71 56 35
4.264541e+000 1.897623e+000 -1.366469e+001 136 93 59
4.474708e+000 1.912304e+000 -1.342654e+001 237 195 152
3.273458e+000 1.557269e-001 -1.509720e+001 80 75 56
3.143890e+000 -3.394471e-001 -1.452856e+001 136 119 96
3.123638e+000 3.610050e-001 -1.509118e+001 61 49 33
3.265776e+000 3.877811e-001 -1.513273e+001 63 50 33
2.941031e+000 2.447181e-001 -1.484610e+001 131 115 89
2.991892e+000 3.203026e-001 -1.499527e+001 94 69 48
2.888603e+000 3.476275e-001 -1.488341e+001 69 54 35
3.071071e+000 4.995665e-001 -1.504837e+001 54 37 22
2.637121e+000 6.731293e-002 -1.449470e+001 135 75 68
2.853874e+000 7.293007e-002 -1.451894e+001 120 74 58
2.895899e+000 2.581599e-001 -1.473030e+001 135 99 41
2.912713e+000 3.069224e-001 -1.472708e+001 132 96 48
3.104121e+000 5.655292e-001 -1.500747e+001 63 47 29
4.326962e+000 6.062516e-001 -1.527019e+001 130 92 56
2.985487e+000 6.264962e-001 -1.483150e+001 136 101 73
2.958602e+000 7.282336e-001 -1.471830e+001 159 128 99
2.987326e+000 7.036540e-001 -1.477406e+001 141 108 77
2.712445e+000 6.161744e-001 -1.446639e+001 139 91 74
2.828623e+000 6.002584e-001 -1.439457e+001 111 64 46
2.333719e+000 4.386610e-001 -1.382860e+001 121 67 55
3.613673e+000 9.322164e-001 -1.465915e+001 81 53 31
2.867145e+000 8.168896e-001 -1.424265e+001 109 46 38
2.870147e+000 8.793290e-001 -1.432873e+001 73 67 41
3.285129e+000 9.511985e-001 -1.455846e+001 56 42 29
3.898523e+000 1.065308e+000 -1.460679e+001 81 51 27
2.714094e+000 9.298285e-001 -1.417802e+001 183 132 111
3.991008e+000 1.105585e+000 -1.459501e+001 71 45 22
2.951850e+000 1.062968e+000 -1.421702e+001 144 109 81
3.286304e+000 1.182647e+000 -1.439780e+001 255 254 247
2.863661e+000 9.700401e-001 -1.394410e+001 123 72 38
2.501022e+000 7.424978e-001 -1.347178e+001 152 96 69
2.493280e+000 9.514147e-001 -1.380217e+001 195 127 112
2.834024e+000 1.138789e+000 -1.394844e+001 83 52 33
3.438512e+000 1.271187e+000 -1.424931e+001 133 106 83
3.715600e+000 1.303538e+000 -1.429505e+001 143 112 84
3.330596e+000 1.326782e+000 -1.411992e+001 71 56 35
3.347798e+000 1.316809e+000 -1.413575e+001 40 30 12
3.111832e+000 1.370787e+000 -1.399957e+001 143 106 71
2.973598e+000 1.420622e+000 -1.391249e+001 201 165 131
2.980188e+000 1.425431e+000 -1.385427e+001 192 160 121
3.106850e+000 1.515114e+000 -1.385869e+001 136 92 65
3.395044e+000 1.616593e+000 -1.373195e+001 62 48 29
4.213560e+000 1.762183e+000 -1.384538e+001 143 107 75
3.736182e+000 1.805704e+000 -1.360637e+001 132 99 66
3.063519e+000 4.546939e-001 -1.507860e+001 62 48 37
3.479923e+000 5.197937e-001 -1.512363e+001 89 61 37
2.901725e+000 1.332061e-003 -1.450319e+001 150 113 95
2.895113e+000 7.210291e-002 -1.451610e+001 141 105 85
3.193597e+000 5.026566e-001 -1.501833e+001 35 27 23
3.219206e+000 6.317001e-001 -1.493648e+001 73 58 45
2.892455e+000 4.982489e-001 -1.464812e+001 168 139 111
3.081992e+000 6.668219e-001 -1.485820e+001 54 38 28
3.232761e+000 6.797378e-001 -1.485986e+001 62 46 33
3.549568e+000 7.620800e-001 -1.487847e+001 76 50 27
4.045738e+000 1.001739e+000 -1.472144e+001 70 40 16
3.269614e+000 1.047092e+000 -1.445061e+001 35 25 18
3.288840e+000 1.180996e+000 -1.439535e+001 255 254 247
2.669623e+000 9.422346e-001 -1.378534e+001 175 96 91
2.858933e+000 1.044956e+000 -1.394937e+001 172 128 67
2.831837e+000 1.137727e+000 -1.390777e+001 173 126 57
3.526876e+000 1.336253e+000 -1.420274e+001 112 78 51
3.689344e+000 1.379170e+000 -1.414976e+001 116 87 60
3.997815e+000 1.508742e+000 -1.407596e+001 129 98 67
3.297741e+000 1.521100e+000 -1.382330e+001 89 71 45
3.025390e+000 -1.964125e-001 -1.454512e+001 148 123 97
3.087130e+000 -2.203583e-001 -1.455620e+001 117 97 73
2.968968e+000 4.423650e-001 -1.500797e+001 99 72 55
4.310307e+000 5.400870e-001 -1.532677e+001 132 96 60
1.421863e+000 -3.626218e-001 -1.380413e+001 75 53 42
2.724908e+000 1.732727e-001 -1.455339e+001 162 124 101
2.724908e+000 1.732727e-001 -1.455339e+001 162 124 101
3.994111e+000 6.685783e-001 -1.517579e+001 124 92 67
2.867024e+000 6.543681e-001 -1.458459e+001 148 106 78
2.468712e+000 6.856164e-001 -1.439424e+001 164 108 85
3.091661e+000 8.289226e-001 -1.468210e+001 51 38 22
2.212707e+000 3.273240e-001 -1.376153e+001 138 95 76
2.706096e+000 8.201761e-001 -1.435322e+001 177 120 108
3.204446e+000 1.105007e+000 -1.445239e+001 47 33 25
2.599597e+000 9.305040e-001 -1.385578e+001 166 96 88
3.216331e+000 1.284901e+000 -1.423961e+001 67 51 38
4.052885e+000 1.450269e+000 -1.419898e+001 146 111 81
4.052885e+000 1.450269e+000 -1.419898e+001 146 111 81
3.968512e+000 1.524483e+000 -1.403673e+001 137 106 78
3.150989e+000 1.500611e+000 -1.331436e+001 126 90 59
4.317316e+000 1.787992e+000 -1.391858e+001 173 135 99
3.452064e+000 1.750959e+000 -1.365806e+001 83 58 36
4.430215e+000 1.922261e+000 -1.370721e+001 199 159 123
2.907656e+000 -4.434534e-002 -1.452420e+001 103 57 41
2.877176e+000 2.472868e-001 -1.477650e+001 145 110 53
1.606005e+000 -2.141017e-001 -1.398947e+001 79 55 43
2.744481e+000 6.881543e-002 -1.453359e+001 163 114 99
3.225090e+000 7.622597e-001 -1.476159e+001 148 126 95
3.248650e+000 8.266516e-001 -1.467259e+001 136 117 88
2.507491e+000 7.769849e-001 -1.432516e+001 172 120 107
3.258583e+000 9.670682e-001 -1.453841e+001 98 78 46
3.234268e+000 1.216546e+000 -1.426322e+001 45 29 19
3.996575e+000 1.581836e+000 -1.398184e+001 131 99 74
3.996982e+000 1.581568e+000 -1.398112e+001 131 99 74
4.417440e+000 1.676845e+000 -1.399999e+001 171 133 97
3.204830e+000 1.611107e+000 -1.370793e+001 61 40 29
3.329630e+000 1.609218e+000 -1.381886e+001 132 110 78
4.492504e+000 1.725593e+000 -1.393392e+001 135 95 56
3.188820e+000 1.686546e+000 -1.367140e+001 61 38 22
3.656623e+000 1.794473e+000 -1.357790e+001 101 67 40
3.352121e+000 3.721042e-001 -1.505800e+001 70 51 36
3.247096e+000 6.243623e-001 -1.486952e+001 157 133 103
2.830315e+000 3.540675e-001 -1.447836e+001 118 73 52
1.788516e+000 2.710512e-001 -1.370725e+001 98 43 43
1.788516e+000 2.710512e-001 -1.370725e+001 98 43 43
2.978330e+000 8.607589e-001 -1.457456e+001 188 157 128
3.766329e+000 9.480654e-001 -1.470861e+001 123 93 67
2.393741e+000 3.954426e-001 -1.369271e+001 193 131 120
2.623908e+000 8.969517e-001 -1.414764e+001 187 131 114
2.957190e+000 1.013048e+000 -1.425058e+001 128 91 64
4.168584e+000 1.551966e+000 -1.409302e+001 120 84 52
3.174124e+000 1.486788e+000 -1.383702e+001 60 35 23
2.925342e+000 4.890823e-001 -1.497017e+001 186 160 133
2.942644e+000 4.304227e-001 -1.487343e+001 120 93 72
1.432708e+000 -1.557087e-001 -1.391020e+001 124 94 65
2.985510e+000 2.295506e-001 -1.454363e+001 94 59 37
3.008218e+000 6.669543e-001 -1.482769e+001 65 39 22
3.612401e+000 8.772768e-001 -1.472810e+001 89 64 43
3.813443e+000 1.113373e+000 -1.453033e+001 129 100 70
3.718083e+000 1.265415e+000 -1.430480e+001 136 105 77
2.640618e+000 8.984693e-001 -1.344531e+001 174 120 92
3.023224e+000 1.335552e+000 -1.398458e+001 138 94 65
3.012251e+000 1.342960e+000 -1.399671e+001 138 94 65
3.408602e+000 1.621357e+000 -1.379889e+001 89 71 49
3.391639e+000 1.715027e+000 -1.374980e+001 88 67 46
2.891502e+000 5.900570e-001 -1.473844e+001 78 76 55
2.891502e+000 5.900570e-001 -1.473844e+001 78 76 55
3.100475e+000 7.789277e-001 -1.484854e+001 36 24 19
3.037486e+000 9.657486e-001 -1.450713e+001 82 58 45
2.944369e+000 1.018865e+000 -1.407477e+001 112 67 40
3.838030e+000 1.534307e+000 -1.392231e+001 110 84 59
2.559727e+000 7.386004e-001 -1.418262e+001 110 52 42
1.971172e+000 1.020430e-001 -1.377466e+001 134 90 63
1.969299e+000 1.105923e-001 -1.378395e+001 134 90 63
1.763180e+000 2.485170e-001 -1.387657e+001 173 137 104
2.129742e+000 2.583099e-001 -1.377261e+001 214 178 152
2.461549e+000 8.485123e-001 -1.415108e+001 176 114 105
2.887227e+000 9.414069e-001 -1.420797e+001 152 102 74
2.725422e+000 8.570500e-001 -1.389194e+001 148 72 63
2.825254e+000 9.608851e-001 -1.397489e+001 178 128 86
3.886471e+000 1.384701e+000 -1.427560e+001 145 110 78
2.947013e+000 1.228899e+000 -1.473010e+001 49 32 26
3.102753e+000 6.316774e-001 -1.478109e+001 55 39 26
3.838345e+000 1.006313e+000 -1.464642e+001 96 74 50
3.765193e+000 9.583312e-001 -1.468811e+001 98 72 49
1.694157e+000 1.258953e-001 -1.389675e+001 145 112 92
3.516727e+000 8.892800e-001 -1.469487e+001 89 62 41
3.756638e+000 1.270034e+000 -1.433389e+001 95 67 45
3.671237e+000 9.109389e-001 -1.469869e+001 117 90 70
3.905201e+000 1.423967e+000 -1.417437e+001 111 80 52
3.951539e+000 1.265025e+000 -1.441139e+001 123 93 69
3.505654e+000 7.633110e-001 -1.485311e+001 124 96 72
3.698827e+000 8.855101e-001 -1.474427e+001 75 49 26
4.059823e+000 1.134733e+000 -1.458517e+001 75 44 23
4.059823e+000 1.134733e+000 -1.458517e+001 75 44 23
3.880470e+000 1.172548e+000 -1.449347e+001 95 64 36
3.880470e+000 1.172548e+000 -1.449347e+001 95 64 36
3.989375e+000 1.226189e+000 -1.445994e+001 110 79 51
3.824280e+000 1.470098e+000 -1.406488e+001 111 80 54
4.011270e+000 7.317433e-001 -1.510482e+001 98 68 43
2.475145e+000 4.436086e-001 -1.391399e+001 219 141 139
2.475145e+000 4.436086e-001 -1.391399e+001 219 141 139
3.880892e+000 1.061405e+000 -1.459333e+001 91 56 36
4.178266e+000 1.442111e+000 -1.423425e+001 166 130 95
4.178266e+000 1.442111e+000 -1.423425e+001 166 130 95
3.972705e+000 1.005596e+000 -1.469441e+001 126 96 70
4.018743e+000 1.029669e+000 -1.468675e+001 141 113 87
4.300991e+000 1.536269e+000 -1.422165e+001 173 137 103
3.152514e+000 1.602395e+000 -1.329488e+001 115 103 71
3.821758e+000 9.093785e-001 -1.473946e+001 89 59 35
3.997018e+000 9.497505e-001 -1.478308e+001 134 103 75
3.587521e+000 9.379908e-001 -1.464926e+001 91 64 40
3.788940e+000 9.963002e-001 -1.464313e+001 94 64 39
3.334035e+000 2.475174e-001 -1.486944e+001 68 51 39
4.185680e+000 8.882060e-001 -1.494856e+001 170 135 105
4.025331e+000 1.641198e+000 -1.393115e+001 148 114 86
3.008719e+000 5.294141e-001 -1.492988e+001 101 75 57
2.910008e+000 5.904223e-001 -1.492568e+001 186 155 127
3.204589e+000 6.222293e-001 -1.494454e+001 94 76 53
1.518590e+000 -1.111870e-002 -1.397278e+001 97 65 37
3.924986e+000 8.518636e-001 -1.488775e+001 125 94 67
3.814752e+000 9.044957e-001 -1.476040e+001 116 87 61
3.869962e+000 9.360007e-001 -1.475206e+001 83 51 28
2.374021e+000 5.101238e-001 -1.352015e+001 213 155 127
3.399571e+000 1.214563e+000 -1.440864e+001 71 50 29
3.003464e+000 1.242723e+000 -1.416268e+001 193 158 126
4.427079e+000 1.501880e+000 -1.450274e+001 135 97 51
3.740442e+000 1.493744e+000 -1.400200e+001 67 41 19
2.907178e+000 6.638175e-001 -1.480361e+001 178 152 123
2.960653e+000 6.673991e-001 -1.482058e+001 119 85 57
2.606907e+000 7.095732e-001 -1.450430e+001 183 121 112
2.857673e+000 7.987686e-001 -1.436635e+001 83 72 44
3.641402e+000 1.092313e+000 -1.449438e+001 71 45 22
3.313960e+000 5.404490e-001 -1.505957e+001 148 122 99
1.715280e+000 1.377982e-001 -1.384534e+001 163 132 113
2.950153e+000 7.788280e-001 -1.468155e+001 189 158 129
2.911149e+000 8.927821e-001 -1.439126e+001 45 39 15
3.838105e+000 1.031323e+000 -1.460495e+001 114 88 63
4.080885e+000 1.874561e+000 -1.361539e+001 169 131 95
3.764299e+000 6.663037e-001 -1.509387e+001 90 59 31
3.761677e+000 7.528090e-001 -1.498396e+001 105 72 41
3.656260e+000 7.762664e-001 -1.491205e+001 107 73 45
3.915543e+000 8.110857e-001 -1.494975e+001 105 70 39
2.953476e+000 8.102924e-001 -1.459552e+001 131 91 55
2.877317e+000 7.464426e-001 -1.441839e+001 126 86 61
3.794801e+000 1.014079e+000 -1.462696e+001 116 90 65
3.779591e+000 1.281428e+000 -1.435038e+001 110 80 52
4.034061e+000 1.400261e+000 -1.429120e+001 147 112 82
2.071477e+000 1.484707e-001 -1.398602e+001 73 51 36
4.091657e+000 1.632498e+000 -1.395018e+001 137 106 77
3.277069e+000 6.189827e-001 -1.496267e+001 68 49 32
2.709217e+000 8.059804e-001 -1.430985e+001 172 103 99
2.959958e+000 1.591107e-001 -1.487867e+001 99 81 57
4.019214e+000 5.799430e-001 -1.523869e+001 96 65 37
4.155273e+000 8.270894e-001 -1.499347e+001 102 66 33
2.250711e+000 4.059859e-001 -1.387621e+001 102 61 39
3.376252e+000 8.681335e-001 -1.462907e+001 128 95 72
2.863776e+000 8.592425e-001 -1.436767e+001 55 51 26
2.622610e+000 8.682783e-001 -1.412909e+001 157 97 77
4.378580e+000 1.195667e+000 -1.493874e+001 128 91 46
4.056357e+000 1.119014e+000 -1.460847e+001 78 43 21
4.411495e+000 1.221026e+000 -1.474689e+001 127 90 46
2.376588e+000 9.028385e-001 -1.386024e+001 162 99 82
2.699526e+000 9.703806e-001 -1.385669e+001 206 158 131
3.557079e+000 1.244604e+000 -1.429585e+001 102 68 40
4.237658e+000 1.375816e+000 -1.434836e+001 93 57 24
4.413383e+000 1.493369e+000 -1.455549e+001 129 92 47
3.840409e+000 1.410764e+000 -1.410686e+001 95 64 34
4.439672e+000 1.832419e+000 -1.428597e+001 134 96 51
3.392027e+000 1.674737e+000 -1.371076e+001 46 31 10
1.443947e+000 -3.258719e-001 -1.386500e+001 71 48 34
3.198663e+000 5.624111e-001 -1.507240e+001 65 50 31
1.393590e+000 9.370530e-002 -1.388676e+001 100 69 48
3.530404e+000 8.226443e-001 -1.481259e+001 97 71 48
2.961927e+000 9.846375e-001 -1.443844e+001 155 126 96
3.776127e+000 9.918287e-001 -1.463203e+001 60 32 10
3.972638e+000 1.022097e+000 -1.467668e+001 81 50 22
4.219231e+000 1.164924e+000 -1.464216e+001 147 112 74
3.127890e+000 1.162478e+000 -1.438899e+001 57 40 27
3.196738e+000 1.234784e+000 -1.426080e+001 71 54 38
3.832883e+000 1.249735e+000 -1.438508e+001 74 47 20
3.661105e+000 1.465478e+000 -1.404999e+001 102 75 48
3.841418e+000 1.443622e+000 -1.409104e+001 83 53 26
3.843412e+000 1.443045e+000 -1.408946e+001 83 53 26
3.982774e+000 1.530524e+000 -1.405858e+001 98 67 37
4.451425e+000 1.544165e+000 -1.413472e+001 166 128 90
3.977787e+000 1.585618e+000 -1.396249e+001 97 67 39
4.064568e+000 1.659492e+000 -1.390489e+001 92 60 32
4.214007e+000 1.728208e+000 -1.388500e+001 130 95 63
3.127793e+000 1.709771e+000 -1.361422e+001 165 130 100
3.890004e+000 1.771071e+000 -1.374903e+001 115 82 49
4.217410e+000 1.889357e+000 -1.365080e+001 124 86 49
3.944141e+000 5.647545e-001 -1.522833e+001 88 61 32
2.444176e+000 7.524224e-001 -1.442448e+001 154 97 73
3.645134e+000 8.842268e-001 -1.473262e+001 103 77 51
2.971119e+000 1.006973e+000 -1.444274e+001 188 159 127
3.288145e+000 1.028861e+000 -1.449629e+001 43 29 16
2.488157e+000 9.568266e-001 -1.381272e+001 191 126 108
2.671343e+000 9.531413e-001 -1.373467e+001 193 140 108
4.435000e+000 1.350651e+000 -1.438622e+001 124 86 49
3.156246e+000 1.332005e+000 -1.405972e+001 190 172 140
2.932708e+000 1.098739e+000 -1.344272e+001 179 106 89
2.932708e+000 1.098739e+000 -1.344272e+001 179 106 89
3.356265e+000 1.371957e+000 -1.402802e+001 51 36 16
3.786449e+000 1.413251e+000 -1.412108e+001 111 82 52
3.713916e+000 1.484463e+000 -1.404005e+001 114 87 60
3.274632e+000 1.475671e+000 -1.390972e+001 96 75 50
4.182136e+000 1.532027e+000 -1.410923e+001 112 74 41
3.845474e+000 1.847712e+000 -1.359129e+001 123 84 51
4.024008e+000 1.866400e+000 -1.347516e+001 143 106 65
2.889254e+000 4.094973e-001 -1.486836e+001 96 80 54
2.956541e+000 2.617902e-001 -1.451482e+001 151 114 88
3.220431e+000 6.909457e-001 -1.487036e+001 54 40 25
3.747959e+000 9.045555e-001 -1.473997e+001 99 71 47
2.373671e+000 8.979963e-001 -1.411615e+001 158 96 81
2.386571e+000 5.786570e-001 -1.347232e+001 153 104 77
2.954567e+000 1.027316e+000 -1.432353e+001 180 147 116
3.048313e+000 1.266301e+000 -1.416693e+001 132 97 66
3.070848e+000 1.379996e+000 -1.391573e+001 171 126 92
3.886717e+000 1.487783e+000 -1.404983e+001 84 54 27
3.118856e+000 1.441484e+000 -1.365442e+001 151 117 79
3.322281e+000 1.594305e+000 -1.372234e+001 84 68 45
3.780399e+000 1.593979e+000 -1.387873e+001 115 85 57
3.254781e+000 1.684045e+000 -1.367540e+001 48 32 16
4.427634e+000 1.922635e+000 -1.343230e+001 127 116 114
3.060193e+000 2.744269e-001 -1.497736e+001 97 79 61
2.869297e+000 3.336277e-001 -1.486730e+001 160 135 100
2.762512e+000 1.848507e-001 -1.456277e+001 109 64 42
3.814968e+000 7.534591e-001 -1.496931e+001 131 99 66
3.814968e+000 7.534591e-001 -1.496931e+001 131 99 66
1.548083e+000 6.851857e-002 -1.347229e+001 110 74 58
2.986795e+000 1.044583e+000 -1.432661e+001 103 60 25
3.249861e+000 1.206842e+000 -1.439777e+001 44 33 19
3.997732e+000 1.216588e+000 -1.448195e+001 116 89 60
3.600504e+000 1.306072e+000 -1.424438e+001 126 95 66
3.963715e+000 1.419120e+000 -1.419830e+001 143 110 75
3.487853e+000 1.829065e+000 -1.349600e+001 64 51 29
3.426797e+000 4.710820e-001 -1.512829e+001 90 64 39
4.053204e+000 4.813738e-001 -1.527495e+001 110 84 61
2.894463e+000 3.795185e-001 -1.454670e+001 101 60 40
3.575699e+000 7.041504e-001 -1.497130e+001 116 85 56
3.281927e+000 1.008610e+000 -1.446075e+001 65 47 23
3.885009e+000 1.231796e+000 -1.442812e+001 119 88 59
3.945763e+000 1.359356e+000 -1.426082e+001 145 111 76
3.371948e+000 1.736854e+000 -1.365239e+001 102 85 47
2.926594e+000 4.066672e-001 -1.501256e+001 157 132 104
2.927136e+000 4.061041e-001 -1.501193e+001 157 132 104
3.895975e+000 5.253262e-001 -1.522192e+001 63 42 21
2.930088e+000 7.483710e-001 -1.450882e+001 124 81 49
2.338205e+000 4.320997e-001 -1.388664e+001 178 120 106
2.837356e+000 7.811850e-001 -1.440310e+001 146 105 83
2.607750e+000 8.234610e-001 -1.423723e+001 125 74 58
2.444745e+000 5.157363e-001 -1.361187e+001 161 112 87
4.281952e+000 1.408810e+000 -1.431984e+001 158 123 83
3.140645e+000 1.393487e+000 -1.397426e+001 51 32 18
3.104340e+000 1.543341e+000 -1.379232e+001 199 171 134
3.114961e+000 1.673927e+000 -1.358250e+001 190 161 131
3.956777e+000 1.728469e+000 -1.377960e+001 141 107 75
3.682846e+000 6.802999e-001 -1.504762e+001 94 59 33
3.188517e+000 1.170502e+000 -1.435942e+001 59 41 27
3.926707e+000 1.845604e+000 -1.352256e+001 147 111 75
3.220059e+000 5.826774e-001 -1.509403e+001 61 46 31
2.428488e+000 3.475906e-001 -1.408374e+001 146 80 64
2.529948e+000 9.262157e-001 -1.400720e+001 140 68 58
4.172449e+000 5.468994e-001 -1.529836e+001 143 109 76
3.996207e+000 6.052898e-001 -1.522185e+001 118 87 56
2.592037e+000 7.532541e-001 -1.434481e+001 123 55 44
2.821812e+000 9.633626e-001 -1.397851e+001 173 122 78
2.917533e+000 4.435821e-001 -1.468287e+001 83 66 48
3.703170e+000 1.510975e+000 -1.395535e+001 103 75 51
4.022026e+000 8.636144e-001 -1.490071e+001 113 80 54
3.254211e+000 1.565207e+000 -1.376463e+001 88 64 48
3.447329e+000 5.567438e-001 -1.510499e+001 103 74 49
1.518964e+000 6.184276e-002 -1.395852e+001 147 112 75
2.393377e+000 9.028308e-001 -1.403317e+001 188 130 116
3.516324e+000 1.146927e+000 -1.439221e+001 107 73 48
3.889540e+000 7.946436e-001 -1.495783e+001 141 106 75
4.002618e+000 1.490936e+000 -1.409576e+001 120 85 55
3.812189e+000 4.757511e-001 -1.521610e+001 86 58 35
3.448672e+000 5.592657e-001 -1.509364e+001 90 60 36
3.084614e+000 6.410232e-001 -1.492593e+001 182 165 142
3.084614e+000 6.410232e-001 -1.492593e+001 182 165 142
3.704289e+000 8.812447e-001 -1.477116e+001 87 61 36
3.970694e+000 1.158626e+000 -1.453369e+001 90 58 32
3.843552e+000 1.259586e+000 -1.438972e+001 101 69 48
4.017916e+000 8.659385e-001 -1.490176e+001 109 74 44
4.283285e+000 1.726242e+000 -1.390739e+001 112 76 43
4.283285e+000 1.726242e+000 -1.390739e+001 112 76 43
3.432192e+000 5.586700e-001 -1.507362e+001 89 59 31
3.671794e+000 7.077902e-001 -1.502033e+001 127 93 66
3.241994e+000 7.301404e-001 -1.478981e+001 46 30 16
3.583981e+000 8.569953e-001 -1.475692e+001 106 80 53
3.587906e+000 8.648116e-001 -1.474673e+001 62 37 14
2.423507e+000 5.188527e-001 -1.357002e+001 160 104 79
3.360036e+000 4.807331e-001 -1.510742e+001 122 93 69
1.421859e+000 -7.882302e-002 -1.390809e+001 87 56 35
3.980564e+000 8.082275e-001 -1.497549e+001 127 94 61
2.380059e+000 8.073909e-001 -1.384800e+001 147 90 71
3.770628e+000 1.457256e+000 -1.403762e+001 74 47 20
3.770628e+000 1.457256e+000 -1.403762e+001 74 47 20
3.746828e+000 1.611650e+000 -1.382260e+001 118 86 61
3.929363e+000 1.074555e+000 -1.459944e+001 75 46 22
4.003232e+000 1.200947e+000 -1.450838e+001 90 56 31
3.599119e+000 1.263277e+000 -1.429470e+001 115 83 58
3.732461e+000 1.269837e+000 -1.433729e+001 118 89 59
3.350543e+000 1.363843e+000 -1.399730e+001 145 128 101
3.966759e+000 8.687368e-001 -1.488311e+001 112 81 53
3.251093e+000 1.469362e+000 -1.385445e+001 62 45 30
3.516847e+000 1.736604e+000 -1.362373e+001 158 127 101
4.043502e+000 5.524087e-001 -1.525487e+001 92 58 32
4.032632e+000 5.586296e-001 -1.526150e+001 92 58 32
3.473452e+000 7.931601e-001 -1.480678e+001 76 48 26
3.737137e+000 1.198300e+000 -1.442102e+001 107 76 47
4.048249e+000 1.198834e+000 -1.452154e+001 132 101 72
4.320731e+000 1.202131e+000 -1.460268e+001 159 125 88
1.390301e+000 -3.056682e-001 -1.381798e+001 113 81 66
2.604400e+000 2.672406e-001 -1.452190e+001 173 128 99
1.692360e+000 1.231251e-001 -1.386987e+001 149 119 95
3.848153e+000 8.423461e-001 -1.488763e+001 125 92 61
3.707021e+000 8.802505e-001 -1.476803e+001 88 61 36
2.966947e+000 8.418354e-001 -1.453512e+001 161 126 91
3.752416e+000 9.820788e-001 -1.464871e+001 101 74 45
3.765276e+000 9.743319e-001 -1.465524e+001 70 44 17
2.369300e+000 7.935248e-001 -1.383262e+001 176 126 103
4.055596e+000 1.119509e+000 -1.461003e+001 79 49 25
3.144902e+000 1.112249e+000 -1.443267e+001 191 176 133
3.015683e+000 1.256171e+000 -1.414753e+001 178 143 105
3.627439e+000 1.282909e+000 -1.426992e+001 119 87 59
3.627439e+000 1.282909e+000 -1.426992e+001 119 87 59
3.374718e+000 1.391716e+000 -1.400359e+001 80 65 41
4.448238e+000 1.612047e+000 -1.428915e+001 140 99 55
3.922878e+000 1.636378e+000 -1.387941e+001 98 67 38
4.440755e+000 1.779673e+000 -1.429428e+001 135 97 52
4.450486e+000 1.786884e+000 -1.426398e+001 137 99 52
4.144342e+000 1.854271e+000 -1.368173e+001 107 71 37
3.257159e+000 -5.294762e-001 -1.453233e+001 64 59 40
1.371566e+000 -3.234821e-001 -1.381825e+001 143 106 91
3.215868e+000 4.395785e-001 -1.512803e+001 212 192 137
2.929159e+000 4.420798e-001 -1.491054e+001 112 86 59
2.930065e+000 5.291710e-001 -1.494010e+001 125 93 65
2.881490e+000 6.063174e-001 -1.479580e+001 77 65 39
2.937984e+000 6.372337e-001 -1.484331e+001 186 156 121
2.148494e+000 2.953836e-001 -1.400456e+001 110 82 59
3.095477e+000 6.927635e-001 -1.484824e+001 222 206 141
3.096112e+000 6.927519e-001 -1.484822e+001 222 206 141
3.775642e+000 9.079955e-001 -1.474816e+001 64 38 14
2.967963e+000 8.789666e-001 -1.444227e+001 129 102 75
4.016689e+000 1.121475e+000 -1.459117e+001 99 73 50
3.162553e+000 1.132155e+000 -1.443800e+001 82 66 45
3.010809e+000 1.139366e+000 -1.428955e+001 181 149 112
3.867475e+000 1.261544e+000 -1.439019e+001 111 80 52
3.979602e+000 1.267514e+000 -1.442959e+001 99 68 39
3.041380e+000 1.251557e+000 -1.413817e+001 165 132 97
2.844281e+000 1.237016e+000 -1.390844e+001 139 92 39
2.941388e+000 1.337550e+000 -1.385905e+001 166 123 70
2.941388e+000 1.337550e+000 -1.385905e+001 166 123 70
3.607523e+000 1.389898e+000 -1.406109e+001 92 62 34
3.607523e+000 1.389898e+000 -1.406109e+001 92 62 34
4.124770e+000 1.478491e+000 -1.415935e+001 121 87 50
3.293823e+000 1.530037e+000 -1.378516e+001 49 31 17
4.020579e+000 1.609204e+000 -1.393734e+001 80 49 20
4.020579e+000 1.609204e+000 -1.393734e+001 80 49 20
4.124482e+000 1.672736e+000 -1.392472e+001 99 67 38
3.933679e+000 1.763472e+000 -1.373373e+001 135 100 68
3.894119e+000 4.780123e-001 -1.523997e+001 101 75 48
1.469862e+000 9.459204e-002 -1.388191e+001 113 76 50
2.919768e+000 6.035252e-001 -1.489427e+001 217 193 159
3.250662e+000 6.951558e-001 -1.486606e+001 148 133 108
3.561438e+000 8.972257e-001 -1.468973e+001 103 74 49
3.710111e+000 9.465028e-001 -1.467684e+001 117 90 61
3.888205e+000 9.526200e-001 -1.473903e+001 121 87 59
3.211838e+000 1.125176e+000 -1.443779e+001 68 54 43
3.001572e+000 1.122662e+000 -1.427773e+001 123 89 54
3.103127e+000 1.182240e+000 -1.433938e+001 197 181 142
3.114492e+000 1.198910e+000 -1.432912e+001 88 73 51
3.825178e+000 1.234711e+000 -1.442176e+001 119 88 57
3.992191e+000 1.286945e+000 -1.443096e+001 124 93 63
4.050249e+000 1.291866e+000 -1.440207e+001 88 57 28
4.050249e+000 1.291866e+000 -1.440207e+001 88 57 28
3.610046e+000 1.289447e+000 -1.427096e+001 122 91 62
3.785015e+000 1.280211e+000 -1.434694e+001 112 84 54
4.171015e+000 1.360813e+000 -1.437590e+001 134 100 63
3.099908e+000 1.435388e+000 -1.389353e+001 212 180 149
3.380772e+000 1.423476e+000 -1.393195e+001 59 43 28
4.225903e+000 1.513045e+000 -1.413987e+001 153 118 80
4.144853e+000 1.534670e+000 -1.408730e+001 101 66 34
3.946507e+000 1.644477e+000 -1.387268e+001 106 74 43
4.001697e+000 1.688517e+000 -1.384967e+001 94 64 32
4.118030e+000 1.657245e+000 -1.390054e+001 95 64 36
3.160619e+000 1.631158e+000 -1.325617e+001 104 91 57
4.367570e+000 -2.290503e-001 -1.486961e+001 95 74 47
1.708610e+000 -1.561827e-001 -1.400705e+001 102 74 52
3.956084e+000 6.287984e-001 -1.518341e+001 90 59 30
4.020975e+000 6.650049e-001 -1.518799e+001 100 66 38
3.828018e+000 8.442235e-001 -1.486552e+001 95 64 35
3.497147e+000 1.028029e+000 -1.451566e+001 111 79 48
3.206108e+000 1.050526e+000 -1.443642e+001 65 47 33
3.895734e+000 1.167375e+000 -1.450861e+001 114 83 55
3.011604e+000 1.166770e+000 -1.425586e+001 212 180 148
3.928781e+000 1.234313e+000 -1.444061e+001 102 68 40
3.720397e+000 1.554062e+000 -1.387986e+001 85 59 32
2.922140e+000 5.000283e-001 -1.491526e+001 101 74 46
2.066762e+000 1.538452e-001 -1.399861e+001 77 53 34
2.889845e+000 4.946582e-001 -1.463983e+001 164 134 106
3.836885e+000 7.680771e-001 -1.500655e+001 144 109 76
3.951917e+000 1.200025e+000 -1.450916e+001 124 93 64
3.220893e+000 1.343756e+000 -1.399710e+001 86 73 54
4.162508e+000 1.500814e+000 -1.415350e+001 120 84 48
3.109014e+000 1.470825e+000 -1.376635e+001 166 130 93
3.747202e+000 1.724176e+000 -1.370195e+001 146 112 79
2.898470e+000 5.335061e-001 -1.487023e+001 110 83 54
2.884187e+000 6.014386e-001 -1.480132e+001 90 78 51
3.958995e+000 7.594574e-001 -1.504997e+001 107 73 38
3.214843e+000 7.706490e-001 -1.476780e+001 238 216 159
4.125276e+000 1.295431e+000 -1.445717e+001 141 107 70
2.993774e+000 1.201001e+000 -1.408661e+001 168 132 90
3.714511e+000 1.355460e+000 -1.419039e+001 143 113 79
3.649856e+000 1.420053e+000 -1.407575e+001 125 99 65
