ply
format ascii 1.0
element face 0
property list uchar int vertex_indices
element vertex 896
property float x
property float y
property float z
property uchar diffuse_red
property uchar diffuse_green
property uchar diffuse_blue
end_header
4.862985e+000 7.454288e-001 -1.196574e+001 119 87 59
3.397974e+000 -8.037235e-001 -1.330171e+001 23 16 16
4.336284e+000 -2.097598e+000 -1.576548e+001 87 60 40
-7.342296e-001 -1.501837e+000 -1.378522e+001 78 50 40
5.112660e+000 2.722315e+000 -1.320511e+001 103 68 40
5.686839e+000 9.905300e-001 -1.210015e+001 124 89 61
-1.112379e+000 -1.323897e+000 -1.373016e+001 150 105 81
4.290557e+000 5.221094e-001 -1.204807e+001 69 42 23
4.263081e+000 4.116215e-001 -1.209219e+001 57 34 16
3.099001e+000 -9.647865e-002 -1.249766e+001 118 87 59
5.480433e+000 1.260995e+000 -1.209578e+001 132 96 62
3.391389e-002 -8.163161e-001 -1.417592e+001 171 134 107
5.108719e+000 2.430720e+000 -1.298579e+001 116 83 52
2.663605e+000 1.880155e+000 -1.299496e+001 155 113 74
2.434082e+000 1.144036e+000 -1.272255e+001 214 164 123
5.869076e+000 9.447215e-001 -1.212508e+001 88 51 28
4.610006e+000 6.421942e-001 -1.199423e+001 69 38 18
2.192714e+000 1.124113e-001 -1.325070e+001 172 114 102
4.510946e+000 1.835151e+000 -1.243336e+001 112 81 52
5.560232e+000 2.387758e+000 -1.302771e+001 100 65 34
-1.701956e+000 -1.247763e+000 -1.411159e+001 255 254 253
4.804629e+000 2.102705e+000 -1.268120e+001 127 94 63
4.711739e+000 1.355977e+000 -1.204844e+001 96 61 32
4.973972e+000 2.017207e+000 -1.265116e+001 91 57 29
4.786733e+000 5.700274e-001 -1.206170e+001 113 83 55
5.561357e+000 1.102499e+000 -1.210320e+001 69 38 11
5.379784e+000 2.203717e-001 -1.261378e+001 90 65 43
4.589681e+000 1.316591e-001 -1.258824e+001 76 54 33
6.046595e+000 -4.534850e-002 -1.325487e+001 147 122 92
5.541429e+000 -1.821473e-001 -1.322371e+001 82 57 35
4.275595e+000 -6.388914e-001 -1.346255e+001 74 47 26
4.263850e+000 -6.975670e-001 -1.346969e+001 68 42 19
4.577799e+000 -7.518962e-001 -1.365044e+001 90 68 44
4.774695e+000 -1.213554e+000 -1.429272e+001 88 64 41
4.100802e+000 -1.990837e+000 -1.506603e+001 99 72 53
4.100802e+000 -1.990837e+000 -1.506603e+001 99 72 53
4.167955e+000 8.243220e-003 -1.262373e+001 58 35 19
3.179211e+000 -1.836111e-001 -1.257857e+001 121 91 63
5.263477e+000 -3.066687e-001 -1.328229e+001 69 44 24
4.599516e+000 -2.073520e+000 -1.523755e+001 81 56 33
4.673835e+000 1.432988e+000 -1.209694e+001 106 70 36
4.778608e+000 4.772313e-001 -1.213106e+001 84 56 32
5.613842e+000 -1.645034e-001 -1.317923e+001 99 73 50
4.413712e+000 -1.523113e+000 -1.459833e+001 89 63 40
5.353327e+000 2.223493e-001 -1.264005e+001 91 68 45
5.377955e+000 -4.282652e-001 -1.344590e+001 68 43 23
4.235688e+000 -6.811548e-001 -1.347414e+001 66 40 18
5.855242e+000 -1.276588e+000 -1.472049e+001 92 66 31
5.164579e+000 -6.117709e-001 -1.355558e+001 99 72 42
4.405227e+000 -1.329880e+000 -1.434730e+001 104 77 58
2.251301e+000 8.678645e-001 -1.273834e+001 156 75 69
4.034433e+000 -1.336265e+000 -1.429304e+001 100 72 51
2.590899e+000 6.348315e-001 -1.261063e+001 172 129 79
4.598122e+000 2.549622e-001 -1.497942e+001 75 55 34
2.923603e+000 2.782512e+000 -1.296551e+001 187 153 126
2.924215e+000 2.249338e+000 -1.270566e+001 121 91 68
3.715481e+000 1.301466e+000 -1.179668e+001 182 163 134
2.838635e+000 1.368945e+000 -1.241758e+001 127 96 67
2.760774e+000 9.587823e-001 -1.240144e+001 142 98 63
3.560471e+000 7.046311e-001 -1.169190e+001 44 31 19
3.900332e+000 1.843682e-001 -1.166725e+001 81 65 49
3.795691e+000 1.337889e-001 -1.164475e+001 85 73 57
4.208222e+000 3.438095e-001 -1.214070e+001 90 69 47
5.299667e+000 3.047660e-001 -1.251819e+001 56 37 22
4.820715e+000 1.872211e-001 -1.254095e+001 45 28 12
4.990524e+000 1.214357e-001 -1.267154e+001 47 26 7
5.516647e+000 2.151382e-001 -1.269809e+001 38 19 4
5.607934e+000 1.610475e-001 -1.286932e+001 51 29 15
5.279678e+000 1.019226e-001 -1.281616e+001 69 50 36
5.405588e+000 1.021176e-002 -1.297267e+001 33 13 2
4.743051e+000 -1.486087e-001 -1.293403e+001 85 63 45
5.647733e+000 -6.036606e-002 -1.311155e+001 58 37 20
3.338336e+000 -2.002085e-001 -1.273138e+001 101 89 73
1.589643e+000 -2.959400e-001 -1.294232e+001 175 118 105
5.397474e+000 -5.418375e-001 -1.353626e+001 50 30 19
5.400027e+000 -5.706361e-001 -1.357676e+001 77 58 43
1.600863e+000 -6.450274e-001 -1.306313e+001 143 80 76
2.573315e+000 -6.512716e-001 -1.335101e+001 139 74 80
3.030342e+000 -6.744030e-001 -1.309338e+001 103 78 56
4.324827e+000 -6.186694e-001 -1.343088e+001 52 30 16
3.314540e+000 -8.105430e-001 -1.333913e+001 36 24 10
3.228594e+000 -8.294034e-001 -1.334409e+001 74 61 44
4.850320e+000 -1.009855e+000 -1.402529e+001 76 59 41
-1.485357e+000 -8.284136e-001 -1.395146e+001 140 96 71
-6.070228e-001 -8.844293e-001 -1.378938e+001 167 125 103
3.204103e+000 -1.091940e+000 -1.370132e+001 108 96 80
3.204103e+000 -1.091940e+000 -1.370132e+001 108 96 80
3.541006e+000 -1.105808e+000 -1.379770e+001 44 31 15
3.651367e+000 -1.104146e+000 -1.375387e+001 64 47 31
2.104929e+000 -1.284558e+000 -1.381955e+001 124 76 64
2.539552e+000 -1.213559e+000 -1.379826e+001 111 52 55
1.878808e+000 -1.367407e+000 -1.396607e+001 183 126 117
2.212403e+000 -1.343540e+000 -1.378667e+001 164 122 109
2.564515e+000 -1.393117e+000 -1.408762e+001 143 87 86
2.820735e+000 -1.723347e+000 -1.438650e+001 128 93 74
1.779023e+000 -1.692880e+000 -1.488282e+001 162 98 98
1.815033e+000 -1.705604e+000 -1.486400e+001 126 56 58
1.948051e+000 -1.790996e+000 -1.490239e+001 159 97 92
2.414727e+000 -1.754782e+000 -1.474539e+001 112 62 51
3.348534e+000 -1.919255e+000 -1.480755e+001 43 30 22
2.313561e+000 -1.907724e+000 -1.470891e+001 168 122 106
2.853691e+000 -2.212713e+000 -1.485386e+001 82 59 41
2.940131e+000 2.598572e+000 -1.278891e+001 176 145 116
4.553168e+000 2.625207e+000 -1.308116e+001 97 65 41
4.761240e+000 2.509347e+000 -1.303043e+001 114 79 52
4.473541e+000 2.092132e+000 -1.268139e+001 146 110 86
5.217725e+000 2.280218e+000 -1.288960e+001 118 81 54
5.274807e+000 2.118607e+000 -1.279563e+001 123 86 57
2.881858e+000 1.819333e+000 -1.237782e+001 119 105 78
3.843821e+000 1.231245e+000 -1.170193e+001 143 123 99
4.773084e+000 9.329027e-001 -1.194692e+001 72 42 19
3.082552e+000 7.630847e-001 -1.171771e+001 97 85 66
2.108868e+000 1.133182e+000 -1.289216e+001 227 151 145
3.265706e+000 5.700562e-001 -1.168925e+001 140 110 84
4.305709e+000 5.349914e-001 -1.211683e+001 60 37 21
3.181153e+000 4.381597e-001 -1.179941e+001 169 139 111
5.467083e+000 3.140458e-001 -1.258379e+001 69 47 27
3.862105e+000 1.442382e-002 -1.191970e+001 82 65 49
5.001965e+000 1.623306e-001 -1.266917e+001 90 68 47
5.286157e+000 2.375977e-001 -1.262968e+001 43 26 10
5.476341e+000 7.991697e-002 -1.288125e+001 44 25 10
3.369739e+000 -1.124120e-001 -1.261796e+001 47 37 22
5.089072e+000 -3.069681e-002 -1.293559e+001 48 29 14
5.438814e+000 -9.920383e-002 -1.311459e+001 49 30 16
2.982786e+000 -2.522831e-001 -1.263741e+001 78 70 47
5.414159e+000 -2.257257e-001 -1.323933e+001 45 27 13
5.407701e+000 -4.644242e-001 -1.345872e+001 46 31 20
5.407701e+000 -4.644242e-001 -1.345872e+001 46 31 20
3.122112e+000 -4.934680e-001 -1.287492e+001 97 76 55
3.590892e+000 -5.806574e-001 -1.315059e+001 49 37 23
4.284260e+000 -5.912510e-001 -1.337941e+001 73 54 37
4.792778e+000 -5.510482e-001 -1.345862e+001 50 32 12
4.911456e+000 -4.782630e-001 -1.339487e+001 76 55 38
4.911456e+000 -4.782630e-001 -1.339487e+001 76 55 38
3.566310e+000 -7.408339e-001 -1.332282e+001 38 25 16
3.604574e+000 -6.529710e-001 -1.314356e+001 46 34 18
3.298830e+000 -8.679785e-001 -1.343570e+001 37 25 10
4.952023e+000 -8.330905e-001 -1.381578e+001 46 27 10
4.859125e+000 -8.840960e-001 -1.380219e+001 55 36 19
2.351192e+000 -8.906018e-001 -1.334575e+001 86 35 31
3.261806e+000 -9.654127e-001 -1.351888e+001 25 15 5
3.532655e+000 -9.050197e-001 -1.348910e+001 44 32 18
4.731203e+000 -9.699429e-001 -1.391522e+001 80 62 42
-1.490947e+000 -8.738225e-001 -1.393087e+001 169 125 100
2.635360e+000 -1.145009e+000 -1.376725e+001 42 34 23
-1.436935e+000 -9.662301e-001 -1.387135e+001 137 93 67
-1.395927e+000 -9.855284e-001 -1.384632e+001 164 120 91
2.589735e+000 -1.337983e+000 -1.410802e+001 118 56 60
2.645137e+000 -1.330496e+000 -1.389748e+001 44 35 26
2.999771e+000 -1.299507e+000 -1.381478e+001 114 96 77
3.232558e+000 -1.333189e+000 -1.392891e+001 38 27 22
5.072040e+000 -1.429284e+000 -1.460711e+001 71 48 30
2.461489e+000 -1.667384e+000 -1.455717e+001 109 51 50
2.519555e+000 -1.682897e+000 -1.463859e+001 151 101 92
2.887460e+000 -1.642883e+000 -1.425167e+001 111 85 64
3.089364e+000 -1.696019e+000 -1.456332e+001 41 31 19
3.142398e+000 -1.699718e+000 -1.458127e+001 40 31 24
3.434550e+000 -1.731754e+000 -1.457716e+001 47 32 22
3.481060e+000 -1.709603e+000 -1.440247e+001 70 52 38
2.806588e+000 -1.757695e+000 -1.443436e+001 190 158 139
3.275395e+000 -1.795582e+000 -1.472183e+001 60 51 40
2.799597e+000 -2.235109e+000 -1.489694e+001 127 99 77
4.546858e+000 -2.232034e+000 -1.540798e+001 70 45 28
3.067724e+000 -2.450234e+000 -1.480747e+001 59 51 40
3.468656e+000 2.940868e+000 -1.310911e+001 91 76 61
2.807187e+000 2.363154e+000 -1.281595e+001 121 95 70
4.741040e+000 2.305692e+000 -1.286435e+001 131 97 69
4.656016e+000 1.436063e+000 -1.210694e+001 112 77 47
5.925541e+000 1.042289e+000 -1.194202e+001 139 103 71
5.925541e+000 1.042289e+000 -1.194202e+001 139 103 71
2.388077e+000 1.548929e+000 -1.322964e+001 204 160 124
3.367734e+000 8.539617e-001 -1.157191e+001 139 108 85
5.250117e+000 9.667493e-001 -1.196958e+001 111 76 52
2.977549e+000 9.877955e-001 -1.209462e+001 95 87 68
4.690811e+000 8.618499e-001 -1.194091e+001 75 48 21
5.599600e+000 7.624617e-001 -1.211130e+001 84 53 32
5.869923e+000 8.624619e-001 -1.215756e+001 86 54 31
1.872210e+000 8.949136e-001 -1.286440e+001 187 97 99
2.810259e+000 5.542296e-001 -1.240801e+001 132 90 42
3.815752e+000 2.790153e-001 -1.169480e+001 32 22 10
5.384900e+000 1.093036e-001 -1.287805e+001 68 49 32
3.423322e+000 -1.654287e-001 -1.270834e+001 47 37 24
5.139066e+000 -3.089421e-001 -1.323330e+001 77 59 41
5.481048e+000 -3.609682e-001 -1.334483e+001 47 29 15
5.537097e+000 -4.482255e-001 -1.354578e+001 43 22 12
4.267831e+000 -5.532299e-001 -1.332458e+001 54 35 20
5.189794e+000 -9.118331e-001 -1.392269e+001 57 38 22
-1.362111e+000 -7.602850e-001 -1.382918e+001 107 68 51
-1.362111e+000 -7.602850e-001 -1.382918e+001 107 68 51
2.813294e+000 -1.024826e+000 -1.343888e+001 55 37 27
3.596591e+000 -1.045856e+000 -1.368782e+001 47 35 21
4.384914e+000 -9.314640e-001 -1.377745e+001 78 59 44
4.514893e+000 -1.020261e+000 -1.391247e+001 77 60 42
2.768173e+000 -1.287325e+000 -1.359235e+001 60 53 40
1.916618e+000 -1.338725e+000 -1.390940e+001 134 69 67
2.683410e+000 -1.607537e+000 -1.450422e+001 100 57 46
2.787522e+000 -1.591965e+000 -1.430649e+001 129 89 72
4.178834e+000 -1.649191e+000 -1.478672e+001 72 49 33
5.207554e+000 -1.675018e+000 -1.502596e+001 58 37 21
3.387337e+000 -1.849013e+000 -1.477284e+001 53 40 31
4.620382e+000 -1.974583e+000 -1.516002e+001 95 74 55
2.267031e+000 -1.899944e+000 -1.477038e+001 140 71 73
2.741980e+000 -1.987513e+000 -1.470003e+001 133 97 73
5.010640e+000 -2.117777e+000 -1.536593e+001 104 78 58
3.092240e+000 -2.487317e+000 -1.475092e+001 66 53 44
4.647030e+000 2.557786e+000 -1.308434e+001 107 75 50
4.679661e+000 2.469302e+000 -1.299021e+001 141 107 80
5.032685e+000 1.866881e+000 -1.256091e+001 115 78 50
2.610456e+000 1.916892e+000 -1.316848e+001 209 173 137
3.884725e+000 9.997170e-001 -1.165575e+001 146 128 104
5.377605e+000 1.012706e+000 -1.206231e+001 100 65 38
5.604336e+000 1.088852e+000 -1.209710e+001 86 52 27
4.218356e+000 1.388570e-001 -1.252461e+001 53 33 21
5.271275e+000 2.061340e-001 -1.247730e+001 78 55 38
5.271275e+000 2.061340e-001 -1.247730e+001 78 55 38
5.390080e+000 2.253072e-001 -1.257280e+001 48 26 15
5.491912e+000 2.478401e-001 -1.264017e+001 86 65 45
5.545283e+000 1.820808e-001 -1.279655e+001 82 61 44
5.574577e+000 2.499690e-001 -1.265873e+001 62 41 24
5.314302e+000 -2.800320e-001 -1.326877e+001 77 56 37
3.139791e+000 -3.041408e-001 -1.272830e+001 159 137 116
5.144246e+000 -3.488371e-001 -1.329730e+001 42 25 10
5.445673e+000 -4.295149e-001 -1.344661e+001 72 55 37
5.561067e+000 -3.907634e-001 -1.346327e+001 73 54 37
5.347164e+000 -5.265072e-001 -1.355929e+001 46 28 16
4.892255e+000 -6.889837e-001 -1.356032e+001 84 63 44
2.629713e+000 -7.778005e-001 -1.347339e+001 102 47 42
2.629713e+000 -7.778005e-001 -1.347339e+001 102 47 42
2.727121e+000 -7.305289e-001 -1.309487e+001 115 73 49
4.599782e+000 -1.001009e+000 -1.394070e+001 47 28 13
-9.972428e-002 -9.685875e-001 -1.407795e+001 130 93 79
2.759981e+000 -1.353176e+000 -1.382259e+001 94 83 63
2.066092e+000 -1.354178e+000 -1.385587e+001 138 79 75
2.959339e+000 -1.729911e+000 -1.441731e+001 70 57 45
3.412143e+000 -1.678955e+000 -1.458893e+001 45 33 24
2.553254e+000 -2.137188e+000 -1.487900e+001 172 138 113
4.153161e+000 3.030485e+000 -1.338567e+001 146 113 82
4.822357e+000 2.783964e+000 -1.323699e+001 156 119 89
4.866030e+000 2.697635e+000 -1.316409e+001 106 70 44
5.150634e+000 2.357796e+000 -1.295360e+001 108 74 46
4.562664e+000 2.043517e+000 -1.262723e+001 153 118 89
4.703095e+000 1.671125e+000 -1.230701e+001 147 110 81
2.396295e+000 2.081318e+000 -1.366927e+001 198 186 166
2.369436e+000 1.952001e+000 -1.355849e+001 114 99 66
2.910003e+000 1.317084e+000 -1.233178e+001 61 50 40
4.494313e+000 9.666098e-001 -1.187473e+001 87 54 32
4.696705e+000 7.963724e-001 -1.193582e+001 105 75 51
3.216156e+000 7.035654e-001 -1.161743e+001 110 79 58
2.884848e+000 4.398029e-001 -1.213912e+001 154 106 47
5.108169e+000 2.793068e-001 -1.243516e+001 89 67 46
4.929692e+000 3.082922e-002 -1.278006e+001 86 63 45
5.447056e+000 2.804147e-002 -1.291625e+001 78 61 43
5.751814e+000 -1.271654e-002 -1.303401e+001 58 40 18
1.891875e+000 -8.258798e-002 -1.311900e+001 140 73 66
3.090118e+000 -2.465160e-001 -1.268320e+001 66 48 28
3.090118e+000 -2.465160e-001 -1.268320e+001 66 48 28
4.811991e+000 -1.754466e-001 -1.301628e+001 59 37 24
4.919213e+000 -5.142957e-001 -1.339149e+001 57 36 18
3.564046e+000 -8.239437e-001 -1.334315e+001 44 32 26
2.977865e+000 -1.033967e+000 -1.339588e+001 152 126 103
4.057386e+000 -1.180093e+000 -1.396448e+001 78 58 44
4.168285e+000 -1.196579e+000 -1.407120e+001 56 36 24
2.501355e+000 -1.452408e+000 -1.414286e+001 150 97 91
3.871168e+000 -1.573313e+000 -1.455175e+001 81 55 38
5.439707e+000 -1.657115e+000 -1.508726e+001 70 48 27
2.615040e+000 -1.594608e+000 -1.447870e+001 174 131 114
2.750200e+000 -1.854414e+000 -1.454381e+001 119 87 64
2.683202e+000 -2.158314e+000 -1.485006e+001 131 96 74
2.723122e+000 2.713709e+000 -1.316999e+001 198 168 134
4.418445e+000 1.404650e+000 -1.202058e+001 149 115 87
5.000888e+000 1.346933e+000 -1.205864e+001 155 118 84
3.734392e+000 4.609356e-001 -1.181143e+001 21 14 9
5.631813e+000 -6.929502e-003 -1.302060e+001 88 67 48
1.384366e+000 1.324787e-001 -1.310189e+001 209 161 139
2.125593e+000 -3.903471e-001 -1.295982e+001 148 78 81
5.608203e+000 -5.772739e-001 -1.354834e+001 66 45 26
4.893530e-001 -9.912926e-001 -1.403745e+001 149 116 97
5.136941e+000 -1.133731e+000 -1.428905e+001 52 34 20
3.343670e+000 -1.562721e+000 -1.434923e+001 113 101 86
2.624838e+000 -1.715747e+000 -1.469258e+001 90 51 34
3.852331e+000 -1.682288e+000 -1.462356e+001 71 48 30
5.389687e+000 -1.819212e+000 -1.519178e+001 71 50 30
2.810411e+000 -1.943305e+000 -1.458781e+001 180 149 129
2.959405e+000 1.229394e+000 -1.209546e+001 194 160 132
2.770389e+000 8.735780e-001 -1.229875e+001 208 171 142
5.843550e+000 3.729790e-001 -1.255964e+001 73 48 26
5.472316e+000 1.548355e-001 -1.276404e+001 76 57 40
5.776418e+000 1.564539e-001 -1.283305e+001 51 33 16
4.560537e+000 -3.797330e-002 -1.276210e+001 59 37 23
2.917055e+000 -1.304868e-001 -1.276190e+001 106 79 60
2.603005e+000 -3.238992e-001 -1.314468e+001 138 99 87
4.431993e+000 -6.847873e-001 -1.350289e+001 88 68 46
3.668998e+000 -7.433389e-001 -1.334806e+001 39 27 13
2.323311e+000 -1.127675e+000 -1.367856e+001 108 47 52
2.323311e+000 -1.127675e+000 -1.367856e+001 108 47 52
-1.248640e+000 -1.741336e+000 -1.394811e+001 167 97 105
3.405697e+000 -1.976336e+000 -1.480826e+001 42 33 28
2.774659e+000 -2.139409e+000 -1.471965e+001 151 123 104
3.136529e+000 -2.375886e+000 -1.456245e+001 109 97 83
3.959453e+000 9.282236e-001 -1.175540e+001 58 42 23
1.331557e+000 1.512235e-001 -1.313964e+001 201 153 132
3.666458e+000 -2.965638e-001 -1.250220e+001 47 35 23
4.776080e+000 -8.398530e-001 -1.384103e+001 91 70 53
4.776080e+000 -8.398530e-001 -1.384103e+001 91 70 53
4.158304e+000 2.311155e+000 -1.275044e+001 101 69 47
5.322330e+000 1.776234e+000 -1.248339e+001 163 126 90
1.419410e+000 7.856854e-001 -1.324209e+001 167 106 77
5.042896e+000 2.301601e-001 -1.259152e+001 96 69 50
4.180182e+000 -3.187576e-001 -1.307065e+001 48 30 19
9.500932e-001 -5.953521e-001 -1.398570e+001 58 33 31
3.957168e+000 -2.252227e+000 -1.550868e+001 102 76 59
4.862764e+000 7.428838e-001 -1.196051e+001 117 85 60
2.829979e+000 -4.511445e-001 -1.303611e+001 49 39 29
3.015704e+000 8.611062e-001 -1.198845e+001 116 110 78
3.401717e+000 3.895265e-002 -1.187105e+001 37 27 17
2.882700e+000 -8.364608e-001 -1.316770e+001 119 85 58
4.410536e+000 2.551486e+000 -1.303376e+001 114 83 57
3.852907e+000 8.080284e-001 -1.245901e+001 41 30 22
6.160268e+000 3.716228e+000 -1.267385e+001 117 82 47
6.146031e+000 3.610507e+000 -1.282257e+001 120 82 46
2.739565e+000 3.097409e+000 -1.365349e+001 64 49 28
3.398422e+000 3.249368e+000 -1.363846e+001 110 92 69
4.709762e+000 3.194709e+000 -1.379094e+001 133 97 61
3.087640e+000 3.025067e+000 -1.319544e+001 70 51 27
3.137164e+000 3.026193e+000 -1.314874e+001 70 54 36
3.093311e+000 2.975127e+000 -1.310342e+001 61 44 20
4.324988e+000 3.047890e+000 -1.335721e+001 133 94 61
4.659548e+000 3.041781e+000 -1.342838e+001 133 98 66
5.595257e+000 3.153229e+000 -1.374374e+001 140 97 55
2.803611e+000 2.798647e+000 -1.327622e+001 118 91 64
4.307436e+000 2.982808e+000 -1.334714e+001 147 112 82
5.222277e+000 2.867919e+000 -1.334710e+001 100 63 37
5.222277e+000 2.867919e+000 -1.334710e+001 100 63 37
2.841844e+000 2.650680e+000 -1.307546e+001 80 62 36
3.275660e+000 2.641532e+000 -1.279704e+001 49 37 15
3.638740e+000 2.649403e+000 -1.292168e+001 79 62 42
3.638740e+000 2.649403e+000 -1.292168e+001 79 62 42
5.580252e+000 2.862730e+000 -1.343426e+001 82 49 18
2.789824e+000 2.443742e+000 -1.264143e+001 89 72 42
2.938417e+000 2.554038e+000 -1.276822e+001 213 180 149
3.174414e+000 2.546693e+000 -1.280996e+001 65 47 25
3.287768e+000 2.585999e+000 -1.279741e+001 47 33 21
3.407250e+000 2.467460e+000 -1.278197e+001 68 54 39
5.523640e+000 2.659909e+000 -1.324068e+001 101 66 36
3.561427e+000 2.330728e+000 -1.263886e+001 70 50 25
3.521080e+000 2.316534e+000 -1.267841e+001 72 55 32
4.386554e+000 2.474896e+000 -1.294279e+001 74 44 20
4.975940e+000 2.390279e+000 -1.293351e+001 127 92 62
3.217682e+000 2.272822e+000 -1.257649e+001 61 41 19
4.724170e+000 2.264353e+000 -1.283843e+001 110 77 46
4.758351e+000 2.274366e+000 -1.283261e+001 101 68 37
5.259320e+000 2.248734e+000 -1.289139e+001 108 73 45
3.084702e+000 2.000508e+000 -1.232436e+001 156 121 83
3.622901e+000 2.063213e+000 -1.244302e+001 77 58 27
4.442942e+000 2.002580e+000 -1.257955e+001 91 58 31
1.929965e+000 1.676643e+000 -1.444553e+001 91 60 40
3.763568e+000 1.856496e+000 -1.223384e+001 68 50 28
4.968969e+000 1.931641e+000 -1.260449e+001 97 64 33
5.911039e+000 1.998439e+000 -1.271120e+001 111 74 45
2.315610e+000 1.563748e+000 -1.334314e+001 201 156 115
3.129434e+000 1.823381e+000 -1.207270e+001 170 135 97
3.698586e+000 1.706354e+000 -1.210388e+001 82 62 42
4.814720e+000 1.837072e+000 -1.249248e+001 113 79 52
5.213994e+000 1.815768e+000 -1.253323e+001 119 79 43
3.680097e+000 1.618246e+000 -1.205625e+001 71 54 33
3.781319e+000 1.615905e+000 -1.204726e+001 111 93 73
4.055796e+000 1.499129e+000 -1.195525e+001 148 117 88
5.246427e+000 1.491200e+000 -1.231943e+001 120 81 43
2.653191e+000 1.202416e+000 -1.259144e+001 181 138 93
3.655543e+000 1.347710e+000 -1.183282e+001 74 62 44
6.081300e+000 1.379318e+000 -1.214362e+001 146 107 69
1.540393e+000 7.993099e-001 -1.322990e+001 201 129 115
1.544077e+000 8.210680e-001 -1.313921e+001 201 129 115
3.188994e+000 1.176581e+000 -1.162884e+001 193 157 120
3.885556e+000 1.260166e+000 -1.174545e+001 54 36 22
1.327898e+000 5.858714e-001 -1.331948e+001 164 111 80
3.890481e+000 1.064523e+000 -1.167502e+001 53 34 19
3.980382e+000 1.013949e+000 -1.174048e+001 95 70 44
3.839853e+000 8.994351e-001 -1.201447e+001 240 215 157
3.878481e+000 9.399513e-001 -1.164592e+001 61 44 24
1.288725e+000 1.670607e-001 -1.317540e+001 178 118 98
3.307371e+000 7.891457e-001 -1.156013e+001 141 106 74
3.820238e-001 -1.536099e-001 -1.411465e+001 178 126 102
2.619217e+000 2.690011e-001 -1.262625e+001 203 164 130
1.872773e+000 1.168218e-002 -1.305795e+001 168 100 88
2.911601e+000 1.928734e-001 -1.225231e+001 181 145 111
3.062003e+000 -1.232256e-001 -1.260838e+001 139 104 80
6.268848e+000 3.903482e+000 -1.247424e+001 106 80 51
3.412040e+000 3.183938e+000 -1.350136e+001 90 74 53
2.893946e+000 3.068542e+000 -1.328119e+001 208 175 144
3.151725e+000 2.977664e+000 -1.313299e+001 68 56 38
4.466834e+000 3.042331e+000 -1.338465e+001 106 72 42
5.245418e+000 3.122456e+000 -1.363815e+001 145 108 71
4.361641e+000 2.831715e+000 -1.315591e+001 112 76 49
5.508327e+000 2.990147e+000 -1.351654e+001 125 89 57
2.874674e+000 2.734780e+000 -1.302157e+001 152 118 89
3.059936e+000 2.602130e+000 -1.278620e+001 122 88 63
4.786914e+000 2.767590e+000 -1.325033e+001 136 104 75
5.164694e+000 2.818611e+000 -1.328567e+001 86 52 24
2.921282e+000 2.525554e+000 -1.277872e+001 138 105 74
2.988478e+000 2.436131e+000 -1.266770e+001 223 190 157
3.531060e+000 2.576682e+000 -1.287520e+001 60 42 25
4.283259e+000 2.638593e+000 -1.303591e+001 111 78 50
4.454233e+000 2.633233e+000 -1.306321e+001 83 51 26
4.913877e+000 2.571163e+000 -1.308621e+001 98 65 38
3.006142e+000 2.374073e+000 -1.261793e+001 200 166 131
3.023642e+000 2.302832e+000 -1.251435e+001 167 131 96
3.316546e+000 2.336166e+000 -1.258455e+001 112 94 70
3.316546e+000 2.336166e+000 -1.258455e+001 112 94 70
4.965592e+000 2.448851e+000 -1.297383e+001 145 110 80
2.158123e+000 2.010312e+000 -1.417726e+001 192 155 113
2.241163e+000 2.033522e+000 -1.400845e+001 183 143 107
3.019601e+000 2.122742e+000 -1.239976e+001 226 191 155
3.020599e+000 2.119954e+000 -1.241709e+001 226 191 155
5.655818e+000 2.279770e+000 -1.301022e+001 92 56 34
2.139705e+000 1.864088e+000 -1.412433e+001 133 91 53
2.989747e+000 2.039694e+000 -1.248185e+001 171 138 103
4.442495e+000 2.104432e+000 -1.267381e+001 84 53 27
5.046070e+000 2.093434e+000 -1.273893e+001 98 64 36
5.268831e+000 2.114885e+000 -1.278943e+001 113 77 45
5.518655e+000 2.035599e+000 -1.277189e+001 108 70 39
3.990808e+000 1.942934e+000 -1.245842e+001 138 106 83
4.601454e+000 1.959940e+000 -1.256678e+001 95 60 32
5.486519e+000 2.004994e+000 -1.273255e+001 133 97 63
2.930972e+000 1.680737e+000 -1.217736e+001 109 100 69
3.065423e+000 1.764997e+000 -1.217346e+001 145 111 76
3.424527e+000 1.816185e+000 -1.220654e+001 104 83 56
3.474308e+000 1.778553e+000 -1.213169e+001 64 48 30
5.218759e+000 1.849262e+000 -1.257611e+001 123 85 49
3.171432e+000 1.559496e+000 -1.185999e+001 251 219 180
3.416402e+000 1.663843e+000 -1.204282e+001 76 62 37
3.212445e+000 1.422663e+000 -1.173420e+001 193 153 117
4.100292e+000 1.428330e+000 -1.201426e+001 145 111 83
5.581818e+000 1.490019e+000 -1.227761e+001 113 74 43
3.560160e+000 1.366309e+000 -1.171143e+001 55 42 23
3.213781e+000 1.253423e+000 -1.165895e+001 176 141 103
4.919140e+000 1.278242e+000 -1.198523e+001 108 72 39
1.401793e+000 6.617652e-001 -1.328669e+001 174 121 89
3.260813e+000 1.043715e+000 -1.157969e+001 206 172 137
2.795902e+000 7.006242e-001 -1.229836e+001 192 150 84
2.808778e+000 6.013708e-001 -1.239417e+001 133 85 29
3.228096e-001 -1.603882e-001 -1.415358e+001 131 94 66
3.810149e+000 6.073784e-001 -1.174422e+001 54 40 25
4.589975e+000 4.852705e-001 -1.209127e+001 74 46 22
5.023595e+000 4.970578e-001 -1.215959e+001 66 40 15
1.602710e+000 -6.828614e-002 -1.295572e+001 193 125 116
1.599996e+000 -1.903767e-001 -1.302428e+001 203 140 124
3.816871e+000 2.969291e-001 -1.170452e+001 36 24 10
2.732532e+000 -9.341333e-001 -1.345067e+001 176 131 112
2.659517e+000 3.008998e+000 -1.346877e+001 88 83 53
4.802054e+000 3.164213e+000 -1.366176e+001 100 65 33
2.923882e+000 2.816701e+000 -1.297842e+001 212 179 144
3.201374e+000 2.771282e+000 -1.298484e+001 65 49 32
4.461159e+000 2.915494e+000 -1.334253e+001 124 85 56
4.638962e+000 2.986353e+000 -1.338544e+001 95 60 28
5.054687e+000 2.873694e+000 -1.327516e+001 93 59 29
5.121537e+000 2.859842e+000 -1.331988e+001 132 97 68
5.265524e+000 2.885835e+000 -1.334609e+001 97 62 33
2.900839e+000 2.653183e+000 -1.288879e+001 115 83 60
5.079233e+000 2.829623e+000 -1.331111e+001 94 61 32
2.831856e+000 2.439091e+000 -1.263238e+001 175 146 112
2.888564e+000 2.436779e+000 -1.267857e+001 141 107 72
3.065327e+000 2.506715e+000 -1.272486e+001 136 100 62
5.548995e+000 2.548757e+000 -1.317578e+001 92 57 29
3.052307e+000 2.376911e+000 -1.263758e+001 123 87 55
3.587236e+000 2.314667e+000 -1.262225e+001 49 35 22
3.586917e+000 2.315428e+000 -1.262055e+001 49 35 22
4.945110e+000 2.357820e+000 -1.290832e+001 102 69 38
4.945110e+000 2.357820e+000 -1.290832e+001 102 69 38
5.005476e+000 2.475060e+000 -1.301678e+001 100 65 38
5.005476e+000 2.475060e+000 -1.301678e+001 100 65 38
5.171242e+000 2.450505e+000 -1.301449e+001 123 90 57
2.074848e+000 1.981339e+000 -1.411429e+001 196 159 116
2.198636e+000 2.040380e+000 -1.406050e+001 157 114 81
5.050905e+000 2.327371e+000 -1.290220e+001 99 63 36
5.050905e+000 2.327371e+000 -1.290220e+001 99 63 36
3.625282e+000 2.121181e+000 -1.248699e+001 71 56 38
5.101798e+000 2.102395e+000 -1.278472e+001 122 89 56
3.427826e+000 1.955137e+000 -1.225744e+001 62 50 30
4.005604e+000 1.835343e+000 -1.234821e+001 132 105 77
5.531493e+000 1.996451e+000 -1.274688e+001 103 66 37
5.591810e+000 1.929373e+000 -1.270903e+001 110 69 39
2.234353e+000 1.602249e+000 -1.347582e+001 175 106 79
2.960770e+000 1.704698e+000 -1.215930e+001 77 69 38
3.132744e+000 1.717996e+000 -1.201266e+001 203 169 131
3.186154e+000 1.726307e+000 -1.208250e+001 145 108 66
3.480936e+000 1.688529e+000 -1.206411e+001 50 37 21
3.157781e+000 1.624844e+000 -1.195624e+001 230 194 157
3.798453e+000 1.608374e+000 -1.198856e+001 65 53 31
5.008391e+000 1.686820e+000 -1.244383e+001 106 69 40
5.310105e+000 1.582873e+000 -1.231626e+001 150 112 76
3.466807e+000 1.491796e+000 -1.188989e+001 69 55 41
1.580012e+000 7.852780e-001 -1.319135e+001 173 92 83
2.742330e+000 1.020111e+000 -1.259954e+001 171 124 81
3.237620e+000 1.223961e+000 -1.164017e+001 197 162 124
3.287749e+000 1.180251e+000 -1.158580e+001 144 106 69
5.462731e+000 1.178701e+000 -1.209734e+001 97 57 32
2.498988e+000 8.537101e-001 -1.269518e+001 190 123 107
2.563875e+000 8.514437e-001 -1.252620e+001 223 185 144
2.796958e+000 7.621750e-001 -1.233163e+001 143 96 49
1.396207e+000 1.613696e-001 -1.312743e+001 210 162 130
4.685316e+000 7.308349e-001 -1.196201e+001 89 60 30
4.612372e+000 7.037884e-001 -1.194283e+001 81 51 27
4.612372e+000 7.037884e-001 -1.194283e+001 81 51 27
2.119558e+000 1.307379e-001 -1.322844e+001 179 122 107
-1.249616e+000 -6.021145e-001 -1.386336e+001 99 68 52
3.023543e+000 -2.576618e-001 -1.257969e+001 111 88 60
4.607616e+000 -3.724608e-001 -1.314321e+001 77 49 25
5.614146e+000 3.938759e+000 -1.671615e+001 168 134 87
3.520874e+000 2.992710e+000 -1.311802e+001 68 53 34
4.774082e+000 3.111822e+000 -1.355991e+001 154 115 84
5.800995e+000 3.174004e+000 -1.375313e+001 204 160 117
4.238810e+000 2.734272e+000 -1.311444e+001 102 69 40
4.964090e+000 2.743342e+000 -1.320712e+001 122 87 57
2.520184e+000 2.476727e+000 -1.336428e+001 208 174 136
2.793130e+000 2.506724e+000 -1.272590e+001 146 130 91
5.025366e+000 2.660747e+000 -1.314359e+001 96 62 34
5.289240e+000 2.542796e+000 -1.308605e+001 124 90 63
2.323256e+000 2.245293e+000 -1.414511e+001 181 137 98
5.173765e+000 2.401015e+000 -1.297928e+001 95 60 30
5.176219e+000 2.399791e+000 -1.298798e+001 95 60 30
3.321838e+000 2.272433e+000 -1.254209e+001 122 103 72
4.868695e+000 2.212634e+000 -1.280648e+001 93 61 33
2.941076e+000 2.076468e+000 -1.267614e+001 161 127 99
3.359168e+000 2.087542e+000 -1.237993e+001 134 115 86
2.897125e+000 1.902704e+000 -1.258636e+001 159 126 101
3.077835e+000 1.953013e+000 -1.232026e+001 216 182 145
3.389281e+000 1.833239e+000 -1.223444e+001 67 49 29
3.698849e+000 1.839500e+000 -1.226641e+001 73 52 32
4.309170e+000 1.878717e+000 -1.245716e+001 82 50 25
4.800310e+000 1.870017e+000 -1.251279e+001 90 56 29
2.399662e+000 1.484332e+000 -1.322915e+001 155 105 72
4.979056e+000 1.813355e+000 -1.247905e+001 99 65 34
5.705105e+000 1.817655e+000 -1.260643e+001 113 74 41
3.317712e+000 1.537548e+000 -1.189382e+001 49 30 21
3.780122e+000 1.479392e+000 -1.192491e+001 71 54 27
4.633794e+000 1.420152e+000 -1.209693e+001 94 60 33
4.777356e+000 1.524404e+000 -1.217712e+001 139 103 71
5.673848e+000 1.455939e+000 -1.223260e+001 107 71 38
5.673794e+000 1.455160e+000 -1.223380e+001 107 71 38
1.806161e+000 9.245450e-001 -1.293589e+001 184 88 89
3.050851e+000 1.165554e+000 -1.203915e+001 177 141 107
3.326302e+000 1.257641e+000 -1.161076e+001 133 95 57
3.111934e+000 1.071172e+000 -1.176190e+001 152 118 91
3.244042e+000 4.588539e-001 -1.175787e+001 252 218 183
-1.281383e+000 -6.324189e-001 -1.381166e+001 137 101 79
-8.943649e-001 -7.998993e-001 -1.361834e+001 148 110 88
4.811133e+000 -1.605251e+000 -1.474520e+001 79 51 27
2.715092e+000 2.967331e+000 -1.332683e+001 127 112 89
2.953722e+000 2.720416e+000 -1.287914e+001 193 160 127
5.272257e+000 2.825333e+000 -1.333450e+001 123 90 59
2.947505e+000 2.351820e+000 -1.268151e+001 136 103 72
3.072768e+000 2.297656e+000 -1.253986e+001 183 145 108
4.537636e+000 2.401348e+000 -1.292925e+001 92 60 32
5.075803e+000 2.509363e+000 -1.303653e+001 140 105 76
4.913673e+000 2.289316e+000 -1.284815e+001 134 100 72
4.917215e+000 2.287709e+000 -1.286070e+001 134 100 72
2.057392e+000 1.914480e+000 -1.417978e+001 55 33 30
2.927787e+000 1.810847e+000 -1.233618e+001 161 140 107
4.671348e+000 1.985411e+000 -1.259464e+001 92 57 29
2.302089e+000 1.613259e+000 -1.337267e+001 206 159 118
4.477424e+000 1.760175e+000 -1.237723e+001 83 51 26
2.283972e+000 1.243050e+000 -1.297468e+001 205 133 121
2.810630e+000 1.211852e+000 -1.246504e+001 193 150 103
2.337726e+000 1.004831e+000 -1.269012e+001 165 80 77
2.482154e+000 1.037561e+000 -1.263975e+001 195 142 102
2.774132e+000 9.566416e-001 -1.260298e+001 130 79 50
3.187674e+000 1.107963e+000 -1.165533e+001 136 101 69
2.860651e+000 9.849858e-001 -1.215608e+001 192 158 126
3.043912e+000 1.052804e+000 -1.176189e+001 70 64 39
2.907634e+000 7.139118e-001 -1.201379e+001 176 144 108
3.171094e+000 4.180960e-001 -1.198470e+001 169 134 104
5.799179e+000 5.929608e-001 -1.224705e+001 87 53 25
3.580830e+000 3.816493e-001 -1.171017e+001 50 35 20
3.709931e+000 3.834550e-001 -1.176000e+001 70 53 37
5.444333e+000 -9.105038e-002 -1.304280e+001 102 75 51
2.395626e+000 -3.655195e-001 -1.310209e+001 162 114 90
2.953108e+000 -3.168852e-001 -1.261434e+001 63 55 34
2.069807e+000 -5.883506e-001 -1.306845e+001 157 86 85
3.509245e+000 3.138757e+000 -1.330553e+001 82 69 52
5.418339e+000 3.072288e+000 -1.361472e+001 135 96 63
3.035512e+000 2.896592e+000 -1.305005e+001 51 31 20
3.435468e+000 2.825201e+000 -1.305915e+001 156 140 107
3.082778e+000 2.715264e+000 -1.289343e+001 48 28 18
4.961559e+000 2.840105e+000 -1.328521e+001 143 106 76
5.129310e+000 2.225396e+000 -1.284494e+001 128 94 66
2.302537e+000 1.702991e+000 -1.349057e+001 128 95 65
3.243755e+000 1.839175e+000 -1.216013e+001 50 32 19
1.666657e+000 1.227897e+000 -1.351504e+001 207 127 118
3.302567e+000 1.664006e+000 -1.203113e+001 58 40 23
3.113211e+000 1.388131e+000 -1.202221e+001 180 147 112
3.399564e+000 9.145293e-001 -1.164680e+001 57 35 22
4.054236e+000 5.112689e-001 -1.199065e+001 111 89 65
5.275193e+000 5.409495e-001 -1.216254e+001 78 48 24
4.173109e+000 4.302030e-001 -1.198525e+001 127 101 74
1.521388e-001 -5.645634e-001 -1.396487e+001 108 77 54
2.234627e+000 -4.718295e-001 -1.316045e+001 112 44 39
3.445772e+000 3.001340e+000 -1.329460e+001 152 125 96
2.774631e+000 2.895603e+000 -1.331563e+001 45 40 21
2.789899e+000 2.095671e+000 -1.300515e+001 136 105 77
4.706497e+000 2.193949e+000 -1.275596e+001 147 113 79
5.280903e+000 2.221310e+000 -1.292012e+001 87 53 27
4.536496e+000 2.040923e+000 -1.263036e+001 134 101 70
4.536496e+000 2.040923e+000 -1.263036e+001 134 101 70
5.314245e+000 2.053073e+000 -1.273836e+001 153 114 81
5.314245e+000 2.053073e+000 -1.273836e+001 153 114 81
4.677093e+000 1.753354e+000 -1.244464e+001 80 49 21
3.338130e+000 1.528396e+000 -1.192429e+001 58 40 17
4.259170e+000 1.498519e+000 -1.204069e+001 74 48 25
4.428131e+000 1.388829e+000 -1.207919e+001 128 97 67
3.927930e+000 1.220790e+000 -1.169878e+001 58 36 22
2.721166e+000 7.094109e-001 -1.242909e+001 160 111 50
2.778549e+000 5.821834e-001 -1.229237e+001 154 107 51
2.940442e+000 5.822715e-001 -1.201792e+001 190 155 125
-1.084882e+000 -6.292959e-001 -1.382754e+001 132 91 62
2.400924e+000 -1.848235e-001 -1.301241e+001 112 49 40
5.033935e+000 3.068071e+000 -1.351014e+001 161 123 86
2.948056e+000 2.781993e+000 -1.297879e+001 191 158 123
4.569771e+000 2.852886e+000 -1.327006e+001 141 106 74
5.546404e+000 2.917946e+000 -1.339161e+001 103 68 40
2.956636e+000 2.660614e+000 -1.276484e+001 203 170 139
2.973771e+000 2.489395e+000 -1.271450e+001 229 194 162
3.093410e+000 2.587773e+000 -1.270460e+001 50 32 26
4.366875e+000 1.785023e+000 -1.241131e+001 123 89 61
1.441747e+000 1.052573e+000 -1.331533e+001 190 145 111
3.353963e+000 1.368715e+000 -1.171304e+001 58 34 21
6.292022e+000 1.373448e+000 -1.224534e+001 165 122 67
3.433809e+000 1.061463e+000 -1.168768e+001 85 68 49
3.427568e+000 7.073864e-001 -1.165032e+001 60 43 28
3.569570e+000 4.680570e-001 -1.167532e+001 41 28 17
3.631479e+000 2.781071e+000 -1.301523e+001 66 51 30
3.369313e+000 2.558549e+000 -1.282029e+001 54 40 29
3.664657e+000 2.591340e+000 -1.287588e+001 60 45 24
3.109496e+000 1.813966e+000 -1.211448e+001 204 172 135
3.395828e+000 1.248428e+000 -1.168110e+001 77 55 40
2.664167e+000 8.266586e-001 -1.248007e+001 207 169 131
5.534878e+000 2.025891e+000 -1.257500e+001 123 87 55
2.996329e+000 9.017457e-001 -1.208598e+001 72 61 43
3.370580e+000 1.969925e+000 -1.234692e+001 72 56 40
2.910994e+000 1.564405e+000 -1.239524e+001 93 80 49
2.614880e+000 1.392580e+000 -1.253828e+001 207 169 122
5.792089e+000 2.553199e+000 -1.313186e+001 119 79 57
2.421853e+000 1.799822e+000 -1.334180e+001 161 122 85
5.365546e+000 9.413313e-001 -1.200838e+001 131 97 62
4.972883e+000 7.139588e-001 -1.203045e+001 126 88 59
4.534202e+000 2.042746e+000 -1.262189e+001 138 103 71
5.200672e+000 2.456584e+000 -1.302582e+001 117 82 53
6.105989e+000 3.630123e+000 -1.277338e+001 169 126 83
2.765085e+000 3.039470e+000 -1.346021e+001 74 61 40
4.456234e+000 2.991758e+000 -1.334267e+001 114 79 49
4.456234e+000 2.991758e+000 -1.334267e+001 114 79 49
4.846663e+000 2.814476e+000 -1.326932e+001 106 71 41
3.233563e+000 2.499182e+000 -1.276364e+001 62 41 21
4.357187e+000 2.497927e+000 -1.297254e+001 105 75 51
4.243189e+000 2.459906e+000 -1.290859e+001 104 74 49
4.712122e+000 1.864079e+000 -1.248716e+001 99 65 37
4.819915e+000 1.867698e+000 -1.251875e+001 86 55 26
1.678273e+000 7.996244e-001 -1.294431e+001 173 100 87
2.485653e+000 9.706672e-001 -1.267464e+001 196 135 107
3.275887e+000 9.242274e-001 -1.157190e+001 158 122 86
1.682212e+000 -2.016253e-001 -1.296703e+001 185 116 107
4.463465e+000 2.835734e+000 -1.322772e+001 120 85 52
4.695827e+000 2.725550e+000 -1.316802e+001 120 86 59
4.873230e+000 2.567056e+000 -1.310352e+001 123 89 62
5.041656e+000 2.098839e+000 -1.273040e+001 98 64 36
5.223934e+000 1.891012e+000 -1.255873e+001 150 112 74
4.458682e+000 1.595301e+000 -1.217918e+001 145 112 81
4.831260e+000 1.353617e+000 -1.207074e+001 81 49 26
3.093140e+000 1.179927e+000 -1.205384e+001 141 104 72
4.285351e+000 2.933577e+000 -1.326259e+001 112 77 47
5.932623e+000 3.064164e+000 -1.372697e+001 118 74 36
5.925613e+000 3.065101e+000 -1.370531e+001 118 74 36
4.489620e+000 2.507134e+000 -1.297290e+001 83 53 29
4.417875e+000 2.055600e+000 -1.264218e+001 80 49 22
5.601189e+000 1.353271e+000 -1.221182e+001 123 86 54
5.360014e+000 3.077395e+000 -1.362525e+001 139 100 66
4.717124e+000 2.550240e+000 -1.301943e+001 92 59 33
5.224902e+000 2.564524e+000 -1.310779e+001 92 58 30
5.718523e+000 2.355049e+000 -1.306978e+001 119 85 48
4.512628e+000 1.726290e+000 -1.233546e+001 140 106 71
5.467430e+000 1.232938e+000 -1.204338e+001 127 89 58
5.618857e+000 1.010328e+000 -1.206063e+001 92 55 28
3.371283e+000 8.458138e-001 -1.158656e+001 136 102 66
4.721976e+000 6.332235e-001 -1.199312e+001 82 54 30
-1.004607e+000 -4.727884e-001 -1.425137e+001 178 139 110
4.393153e+000 1.752170e+000 -1.234903e+001 127 94 63
2.483210e+000 1.033408e+000 -1.264506e+001 195 142 102
-3.267798e-001 -1.096758e+000 -1.374806e+001 82 53 42
5.212494e+000 3.047661e+000 -1.350676e+001 97 62 31
5.873755e+000 3.240696e+000 -1.386807e+001 168 126 78
5.873755e+000 3.240696e+000 -1.386807e+001 168 126 78
4.896152e+000 2.415987e+000 -1.294513e+001 142 109 77
4.917556e+000 2.288388e+000 -1.285352e+001 129 95 67
5.254093e+000 1.764858e+000 -1.244645e+001 156 117 78
4.394557e+000 1.559896e+000 -1.212615e+001 95 62 36
4.950746e+000 1.421586e+000 -1.210268e+001 97 62 32
-9.357263e-001 -5.073252e-001 -1.411637e+001 102 85 74
6.240541e+000 3.775711e+000 -1.259283e+001 93 67 41
2.778572e+000 3.002315e+000 -1.336143e+001 64 51 34
3.755179e+000 3.071055e+000 -1.327959e+001 145 114 88
4.648943e+000 3.150750e+000 -1.348573e+001 114 79 49
2.930826e+000 2.985639e+000 -1.307788e+001 173 140 109
3.187721e+000 2.971228e+000 -1.307509e+001 45 35 16
3.305969e+000 3.028918e+000 -1.315233e+001 70 58 45
3.381126e+000 2.935325e+000 -1.308021e+001 151 136 107
4.308280e+000 3.050946e+000 -1.329802e+001 122 87 57
5.461673e+000 3.078719e+000 -1.355835e+001 125 89 54
5.936949e+000 3.110219e+000 -1.371378e+001 172 126 76
5.153653e+000 2.949056e+000 -1.337660e+001 137 100 72
3.375982e+000 2.627508e+000 -1.287086e+001 75 67 54
3.836442e+000 2.690186e+000 -1.299589e+001 137 112 83
4.892403e+000 2.761897e+000 -1.320703e+001 74 44 18
4.892403e+000 2.761897e+000 -1.320703e+001 74 44 18
3.335570e+000 2.581578e+000 -1.285007e+001 64 55 36
3.388915e+000 2.514903e+000 -1.277171e+001 66 55 41
4.064457e+000 2.550564e+000 -1.290787e+001 79 48 27
4.831046e+000 2.546868e+000 -1.304306e+001 93 61 36
5.525331e+000 2.658851e+000 -1.324596e+001 85 54 26
3.194095e+000 2.427063e+000 -1.271430e+001 70 53 28
3.204122e+000 2.374877e+000 -1.266046e+001 59 43 19
3.565865e+000 2.328749e+000 -1.264569e+001 71 54 39
3.882962e+000 2.410597e+000 -1.280009e+001 134 100 73
4.551246e+000 2.380648e+000 -1.287702e+001 108 78 50
3.067274e+000 2.302376e+000 -1.252612e+001 189 158 127
3.510656e+000 2.327995e+000 -1.260552e+001 68 51 33
1.942660e+000 1.631880e+000 -1.441855e+001 134 102 81
2.464165e+000 1.919391e+000 -1.341970e+001 62 49 22
2.510017e+000 1.866642e+000 -1.337114e+001 183 150 111
3.185880e+000 1.953374e+000 -1.228873e+001 76 46 25
3.363271e+000 2.019971e+000 -1.233234e+001 87 76 52
3.721639e+000 1.959055e+000 -1.231381e+001 49 35 21
2.282318e+000 1.457085e+000 -1.333768e+001 178 116 88
3.126702e+000 1.826625e+000 -1.206433e+001 167 131 95
4.437190e+000 1.922720e+000 -1.250740e+001 104 77 48
4.710078e+000 1.867460e+000 -1.248047e+001 93 61 35
3.442670e+000 1.682214e+000 -1.206032e+001 53 40 23
3.991435e+000 1.730570e+000 -1.225316e+001 141 115 92
4.685376e+000 1.763283e+000 -1.243121e+001 96 65 42
5.161903e+000 1.698830e+000 -1.238769e+001 124 89 57
2.361204e+000 1.263663e+000 -1.284461e+001 172 99 84
3.680268e+000 1.619573e+000 -1.205139e+001 64 52 30
2.444394e+000 1.119532e+000 -1.272689e+001 209 164 122
3.176379e+000 1.469494e+000 -1.176031e+001 202 167 129
3.223031e+000 1.334012e+000 -1.172222e+001 191 156 119
6.333762e+000 1.527417e+000 -1.183228e+001 150 110 59
4.124882e-001 -2.724820e-002 -1.437646e+001 148 99 82
4.213344e+000 1.287987e+000 -1.177848e+001 122 91 62
5.799077e+000 1.134473e+000 -1.217622e+001 73 41 14
3.847956e+000 1.134896e+000 -1.169063e+001 135 120 86
2.878958e+000 7.039441e-001 -1.218236e+001 139 101 55
3.903541e+000 9.936126e-001 -1.164806e+001 66 50 29
5.956481e+000 8.645735e-001 -1.219533e+001 106 69 40
2.256186e+000 6.687471e-002 -1.323088e+001 149 87 78
2.256186e+000 6.687471e-002 -1.323088e+001 149 87 78
3.235150e+000 7.353603e-001 -1.160013e+001 164 133 104
3.524922e+000 7.637915e-001 -1.164488e+001 243 222 180
3.565469e+000 7.630715e-001 -1.163400e+001 208 188 153
3.541517e+000 7.363325e-001 -1.163635e+001 82 65 45
2.518521e+000 -3.760141e-001 -1.319079e+001 159 101 89
6.164061e+000 4.073798e+000 -1.229899e+001 121 85 49
6.275637e+000 4.057092e+000 -1.227545e+001 103 76 49
2.846235e+000 3.127755e+000 -1.332310e+001 211 182 150
4.397856e+000 3.132180e+000 -1.348442e+001 153 119 84
5.454612e+000 3.209956e+000 -1.381324e+001 137 99 63
2.942006e+000 2.951105e+000 -1.302287e+001 127 93 65
3.158825e+000 2.931031e+000 -1.304400e+001 68 56 41
4.460986e+000 3.043305e+000 -1.336250e+001 102 68 40
5.460747e+000 3.128286e+000 -1.364039e+001 135 94 59
2.701585e+000 2.740855e+000 -1.315972e+001 151 117 80
3.033197e+000 2.820334e+000 -1.296473e+001 130 99 69
3.039574e+000 2.773603e+000 -1.289910e+001 116 87 57
5.966181e+000 2.989576e+000 -1.360834e+001 166 120 70
4.334752e+000 2.759843e+000 -1.312116e+001 79 47 24
4.724369e+000 2.755122e+000 -1.316848e+001 85 55 31
5.111867e+000 2.723725e+000 -1.319876e+001 97 63 36
3.877621e+000 2.509314e+000 -1.289671e+001 132 100 75
4.101585e+000 2.481190e+000 -1.290073e+001 75 49 27
4.711964e+000 2.540096e+000 -1.305131e+001 84 52 27
4.779265e+000 2.564754e+000 -1.304152e+001 112 82 58
3.890003e+000 2.450981e+000 -1.287379e+001 128 100 71
4.198338e+000 2.467639e+000 -1.292220e+001 72 44 22
4.297152e+000 2.487008e+000 -1.291088e+001 100 74 51
4.827646e+000 2.389351e+000 -1.295272e+001 82 53 27
3.281801e+000 2.239659e+000 -1.254583e+001 82 67 46
2.630274e+000 1.945782e+000 -1.298394e+001 72 66 41
5.048842e+000 2.196668e+000 -1.283616e+001 74 43 23
5.076206e+000 2.161975e+000 -1.279424e+001 85 53 30
3.326535e+000 1.972090e+000 -1.228969e+001 36 23 14
3.326535e+000 1.972090e+000 -1.228969e+001 36 23 14
3.406095e+000 2.036955e+000 -1.238390e+001 39 30 13
4.870972e+000 2.010699e+000 -1.259239e+001 102 74 46
3.970222e+000 1.814175e+000 -1.229429e+001 146 120 95
3.442291e+000 1.757554e+000 -1.207602e+001 119 104 77
3.740735e+000 1.750738e+000 -1.211844e+001 138 121 95
2.360852e+000 1.287046e+000 -1.304173e+001 176 115 95
3.171938e+000 1.561221e+000 -1.185512e+001 247 222 187
3.398180e+000 1.521849e+000 -1.197750e+001 70 53 35
5.648106e+000 1.564518e+000 -1.231156e+001 113 76 46
5.823705e+000 1.430972e+000 -1.227386e+001 80 46 19
2.772000e+000 1.078095e+000 -1.257906e+001 181 138 94
4.856179e+000 1.299915e+000 -1.203749e+001 87 53 24
5.529570e+000 1.339190e+000 -1.214468e+001 99 64 36
3.224818e+000 1.183783e+000 -1.162222e+001 166 132 95
5.259559e+000 1.122962e+000 -1.208280e+001 79 47 21
3.866858e+000 1.174068e+000 -1.164894e+001 56 41 22
5.783188e+000 1.106091e+000 -1.215939e+001 94 63 33
2.766177e+000 6.787613e-001 -1.234584e+001 150 103 36
2.966183e+000 7.207774e-001 -1.206798e+001 74 63 36
3.192731e+000 1.008687e+000 -1.155572e+001 208 174 137
3.270386e+000 9.322992e-001 -1.156321e+001 150 115 85
5.155746e+000 7.823537e-001 -1.205736e+001 77 45 20
-9.337157e-001 -7.718295e-001 -1.367717e+001 114 77 55
5.496385e+000 -4.343232e-001 -1.346655e+001 66 42 18
6.261896e+000 4.014854e+000 -1.232337e+001 104 72 44
3.082506e+000 3.135780e+000 -1.338469e+001 70 60 47
4.630330e+000 3.137132e+000 -1.356670e+001 140 107 73
2.905151e+000 2.937329e+000 -1.307552e+001 173 141 111
2.905151e+000 2.937329e+000 -1.307552e+001 173 141 111
4.639227e+000 2.987993e+000 -1.338177e+001 89 55 28
5.488888e+000 3.107304e+000 -1.358548e+001 104 68 36
2.615955e+000 2.806149e+000 -1.326696e+001 194 170 132
2.746744e+000 2.757510e+000 -1.320617e+001 162 130 99
4.299054e+000 2.885453e+000 -1.312661e+001 102 68 41
5.205079e+000 2.703477e+000 -1.320892e+001 113 82 54
4.072570e+000 2.583966e+000 -1.295695e+001 101 73 49
2.201792e+000 2.023892e+000 -1.414800e+001 146 106 75
2.951126e+000 2.302204e+000 -1.272856e+001 110 82 57
4.583646e+000 2.471171e+000 -1.297310e+001 89 59 35
4.577676e+000 2.410075e+000 -1.299741e+001 80 53 26
4.913723e+000 2.490210e+000 -1.301225e+001 85 53 28
2.352905e+000 1.937723e+000 -1.352103e+001 109 102 61
2.352905e+000 1.937723e+000 -1.352103e+001 109 102 61
3.913546e+000 2.280961e+000 -1.271203e+001 127 100 73
4.397789e+000 2.327231e+000 -1.284143e+001 92 62 37
4.853142e+000 2.098554e+000 -1.267627e+001 92 61 32
6.306347e+000 2.468978e+000 -1.197143e+001 174 136 82
3.355956e+000 1.931248e+000 -1.227565e+001 39 26 16
2.723388e+000 1.622396e+000 -1.283821e+001 139 93 57
3.216123e+000 1.791589e+000 -1.209882e+001 141 105 69
3.442766e+000 1.895745e+000 -1.221893e+001 49 40 23
4.917127e+000 1.807969e+000 -1.248753e+001 83 51 26
6.628151e+000 1.677469e+000 -1.395251e+001 96 68 46
4.567679e+000 1.734878e+000 -1.222070e+001 111 79 54
5.022342e+000 1.733493e+000 -1.241906e+001 95 65 34
1.286781e+000 5.229405e-001 -1.327065e+001 141 87 61
2.688646e+000 9.249557e-001 -1.255500e+001 194 152 117
2.812044e+000 1.004264e+000 -1.237260e+001 198 162 126
2.918550e+000 1.007752e+000 -1.210604e+001 51 40 22
3.170185e+000 1.226459e+000 -1.165423e+001 185 151 114
3.064234e+000 1.026935e+000 -1.167421e+001 77 66 38
5.163258e+000 1.003167e+000 -1.200883e+001 79 48 27
3.305846e+000 9.360713e-001 -1.157376e+001 109 74 44
3.271102e+000 7.881834e-001 -1.155976e+001 213 182 153
3.611467e+000 7.065641e-001 -1.169160e+001 37 27 15
4.688642e+000 6.667215e-001 -1.200284e+001 101 73 49
2.596722e+000 -2.124334e-001 -1.327270e+001 148 94 82
3.392766e+000 6.426951e-001 -1.165547e+001 107 71 39
1.550257e+000 -3.287694e-001 -1.293724e+001 186 129 110
3.001504e+000 3.077771e+000 -1.321347e+001 47 35 28
3.233097e+000 2.991374e+000 -1.310776e+001 47 35 23
4.677918e+000 2.982283e+000 -1.331066e+001 143 110 79
4.353442e+000 2.932652e+000 -1.326349e+001 139 102 72
4.836486e+000 2.914575e+000 -1.331123e+001 96 61 33
5.084086e+000 2.778984e+000 -1.320714e+001 129 99 70
5.789339e+000 2.771899e+000 -1.332337e+001 128 93 65
2.686248e+000 2.378375e+000 -1.308147e+001 191 164 130
4.732720e+000 2.647835e+000 -1.308093e+001 115 88 61
4.303639e+000 2.399690e+000 -1.288033e+001 100 74 49
4.532683e+000 2.482387e+000 -1.295580e+001 107 81 56
3.367972e+000 2.255745e+000 -1.250131e+001 47 35 20
2.358749e+000 1.770506e+000 -1.344050e+001 177 140 99
2.143029e+000 1.612752e+000 -1.382615e+001 144 98 70
3.105984e+000 2.005256e+000 -1.237750e+001 143 108 73
2.323353e+000 1.492523e+000 -1.329793e+001 203 152 117
3.740865e+000 1.821892e+000 -1.221991e+001 102 86 59
2.489858e+000 1.318106e+000 -1.297495e+001 203 160 119
6.231720e+000 1.586092e+000 -1.247566e+001 157 117 65
3.142024e+000 1.500674e+000 -1.187257e+001 147 114 83
4.711400e+000 1.510357e+000 -1.223942e+001 86 55 27
3.317046e+000 1.295106e+000 -1.168588e+001 131 95 59
2.815754e+000 9.566625e-001 -1.232756e+001 169 127 90
6.484547e+000 6.972629e-001 -1.288867e+001 131 99 60
4.044312e+000 7.735776e-001 -1.179888e+001 107 82 60
4.478012e+000 6.328850e-001 -1.198243e+001 80 52 28
-1.279016e+000 -7.145471e-001 -1.380581e+001 114 77 61
2.473598e+000 -8.054887e-001 -1.346959e+001 105 44 42
5.574089e+000 3.802539e+000 -1.680628e+001 160 123 85
6.210301e+000 3.836754e+000 -1.249924e+001 118 84 57
2.794363e+000 2.508181e+000 -1.272293e+001 139 125 88
5.210812e+000 2.574492e+000 -1.307175e+001 87 55 28
5.557578e+000 2.390258e+000 -1.301812e+001 78 49 22
5.717105e+000 2.169718e+000 -1.290490e+001 90 56 28
2.164244e+000 1.592197e+000 -1.364050e+001 189 124 104
4.762608e+000 2.017342e+000 -1.260925e+001 122 95 65
2.263816e+000 1.518666e+000 -1.338023e+001 174 109 79
2.751911e+000 1.657698e+000 -1.256609e+001 188 151 107
