ply
format ascii 1.0
element face 0
property list uchar int vertex_indices
element vertex 898
property float x
property float y
property float z
property uchar diffuse_red
property uchar diffuse_green
property uchar diffuse_blue
end_header
3.499726e+000 1.658080e+000 -1.315351e+001 156 140 107
3.353038e+000 1.598782e+000 -1.307879e+001 48 28 18
4.155342e+000 1.710325e+000 -1.327224e+001 143 106 76
4.250967e+000 1.443997e+000 -1.309172e+001 128 94 66
3.034800e+000 1.147867e+000 -1.334245e+001 128 95 65
3.457085e+000 1.216209e+000 -1.277459e+001 50 32 19
2.773579e+000 9.265883e-001 -1.334774e+001 207 127 118
3.487280e+000 1.142578e+000 -1.271111e+001 58 40 23
3.414566e+000 1.017842e+000 -1.271362e+001 180 147 112
3.556821e+000 8.158726e-001 -1.256523e+001 57 35 22
3.844839e+000 6.644256e-001 -1.272831e+001 111 89 65
4.369398e+000 7.126681e-001 -1.281883e+001 78 48 24
3.898406e+000 6.326027e-001 -1.272891e+001 127 101 74
2.162855e+000 1.190811e-001 -1.354429e+001 108 77 54
3.069254e+000 2.064699e-001 -1.322394e+001 112 44 39
3.495872e+000 1.737344e+000 -1.325325e+001 152 125 96
3.208061e+000 1.673321e+000 -1.325131e+001 45 40 21
3.241646e+000 1.324629e+000 -1.313200e+001 136 105 77
4.069421e+000 1.417934e+000 -1.304570e+001 147 113 79
4.314737e+000 1.448255e+000 -1.312161e+001 87 53 27
4.000053e+000 1.345270e+000 -1.298830e+001 134 101 70
3.999229e+000 1.346054e+000 -1.298739e+001 134 101 70
4.336872e+000 1.374354e+000 -1.304934e+001 153 114 81
4.337837e+000 1.373624e+000 -1.305114e+001 153 114 81
4.073901e+000 1.222568e+000 -1.291821e+001 80 49 21
3.509601e+000 1.082038e+000 -1.267700e+001 58 40 17
3.906322e+000 1.096012e+000 -1.274063e+001 74 48 25
3.981658e+000 1.053872e+000 -1.276101e+001 128 97 67
3.775919e+000 9.629194e-001 -1.259111e+001 58 36 22
3.258165e+000 7.191164e-001 -1.289712e+001 160 111 50
3.288129e+000 6.638313e-001 -1.284172e+001 154 107 51
3.362002e+000 6.652127e-001 -1.272333e+001 190 155 125
1.636419e+000 5.725710e-002 -1.346102e+001 132 91 62
3.135085e+000 3.327969e-001 -1.315805e+001 112 49 40
4.177360e+000 1.813766e+000 -1.336813e+001 161 123 86
3.291848e+000 1.624905e+000 -1.311313e+001 191 158 123
3.987034e+000 1.704650e+000 -1.326386e+001 141 106 74
4.410296e+000 1.761235e+000 -1.333636e+001 103 68 40
3.302063e+000 1.570096e+000 -1.302108e+001 203 170 139
3.314775e+000 1.496033e+000 -1.300282e+001 229 194 162
3.365621e+000 1.541431e+000 -1.299811e+001 50 32 26
3.934875e+000 1.231081e+000 -1.288494e+001 123 89 61
2.684573e+000 8.430588e-001 -1.325590e+001 190 145 111
3.524010e+000 1.011041e+000 -1.258770e+001 58 34 21
4.787168e+000 1.101321e+000 -1.285630e+001 165 122 67
3.567090e+000 8.805105e-001 -1.258197e+001 85 68 49
3.574361e+000 7.275365e-001 -1.256955e+001 60 43 28
3.641637e+000 6.286897e-001 -1.258523e+001 41 28 17
3.586215e+000 1.643985e+000 -1.313824e+001 66 51 30
3.482627e+000 1.538168e+000 -1.305468e+001 54 40 29
3.607609e+000 1.561245e+000 -1.308023e+001 60 45 24
3.400556e+000 1.201082e+000 -1.275319e+001 204 172 135
3.545797e+000 9.599463e-001 -1.257609e+001 77 55 40
3.229444e+000 7.681846e-001 -1.291885e+001 207 169 131
4.436560e+000 1.365985e+000 -1.298274e+001 123 87 55
3.376497e+000 8.049416e-001 -1.275011e+001 72 61 43
3.505463e+000 1.278363e+000 -1.285596e+001 72 56 40
3.317494e+000 1.089424e+000 -1.288403e+001 93 80 49
3.191075e+000 1.005420e+000 -1.295785e+001 207 169 122
4.524537e+000 1.608725e+000 -1.321355e+001 119 79 57
3.085879e+000 1.191447e+000 -1.327448e+001 161 122 85
4.400472e+000 8.857838e-001 -1.274814e+001 131 97 62
4.236012e+000 7.770861e-001 -1.275587e+001 126 88 59
4.001780e+000 1.345705e+000 -1.298946e+001 138 103 71
4.272927e+000 1.548150e+000 -1.316807e+001 117 82 53
4.642413e+000 2.080379e+000 -1.305793e+001 169 126 83
3.198548e+000 1.736855e+000 -1.331478e+001 74 61 40
3.933055e+000 1.762208e+000 -1.329339e+001 114 79 49
3.933055e+000 1.762208e+000 -1.329339e+001 114 79 49
4.104105e+000 1.696274e+000 -1.325759e+001 106 71 41
3.425831e+000 1.508084e+000 -1.302763e+001 62 41 21
3.907790e+000 1.541522e+000 -1.313333e+001 105 75 51
3.863546e+000 1.522039e+000 -1.310643e+001 104 74 49
4.083698e+000 1.271965e+000 -1.293353e+001 99 65 37
4.131320e+000 1.277333e+000 -1.294809e+001 86 55 26
2.798672e+000 7.357202e-001 -1.310495e+001 173 100 87
3.145579e+000 8.279744e-001 -1.299725e+001 196 135 107
3.504221e+000 8.159529e-001 -1.252963e+001 158 122 86
2.827669e+000 3.089415e-001 -1.311784e+001 185 116 107
3.940916e+000 1.693620e+000 -1.324091e+001 120 85 52
4.041562e+000 1.653351e+000 -1.321468e+001 120 86 59
4.120317e+000 1.591475e+000 -1.317458e+001 123 89 62
4.223529e+000 1.382245e+000 -1.305584e+001 98 64 36
4.304773e+000 1.299241e+000 -1.297149e+001 150 112 74
3.988264e+000 1.143788e+000 -1.280223e+001 145 112 81
4.157141e+000 1.049808e+000 -1.276273e+001 81 49 26
3.411299e+000 9.269380e-001 -1.273262e+001 141 104 72
3.860808e+000 1.731329e+000 -1.325224e+001 112 77 47
4.563775e+000 1.840802e+000 -1.347324e+001 118 74 36
4.564849e+000 1.840866e+000 -1.347248e+001 118 74 36
3.966329e+000 1.549007e+000 -1.314016e+001 83 53 29
3.948491e+000 1.349019e+000 -1.299094e+001 80 49 22
4.484695e+000 1.074767e+000 -1.282463e+001 123 86 54
4.316405e+000 1.828474e+000 -1.342217e+001 139 100 66
4.063094e+000 1.575731e+000 -1.315772e+001 92 59 33
4.279340e+000 1.596503e+000 -1.320250e+001 92 58 30
4.497644e+000 1.520732e+000 -1.319057e+001 119 85 48
4.005621e+000 1.206480e+000 -1.286819e+001 140 106 71
4.444673e+000 1.011900e+000 -1.277789e+001 127 89 58
4.507656e+000 9.233969e-001 -1.277271e+001 92 55 28
3.546921e+000 7.850048e-001 -1.253784e+001 136 102 66
4.130205e+000 7.351735e-001 -1.273678e+001 82 54 30
1.656307e+000 1.409985e-001 -1.362175e+001 178 139 110
3.952740e+000 1.212942e+000 -1.287307e+001 127 94 63
3.143402e+000 8.544080e-001 -1.298407e+001 195 142 102
1.972302e+000 -1.290616e-001 -1.345544e+001 82 53 42
4.255246e+000 1.810040e+000 -1.336926e+001 97 62 31
4.535865e+000 1.915897e+000 -1.355337e+001 168 126 78
4.540701e+000 1.914953e+000 -1.356164e+001 168 126 78
4.142366e+000 1.520842e+000 -1.312943e+001 142 109 77
4.155968e+000 1.464416e+000 -1.309166e+001 129 95 67
4.323662e+000 1.243773e+000 -1.292662e+001 156 117 78
3.961834e+000 1.127361e+000 -1.277837e+001 95 62 36
4.212258e+000 1.077594e+000 -1.279132e+001 97 62 32
1.686515e+000 1.168070e-001 -1.359020e+001 102 85 74
4.700318e+000 2.144771e+000 -1.297975e+001 93 67 41
3.205733e+000 1.721529e+000 -1.326418e+001 64 51 34
3.634179e+000 1.771351e+000 -1.327638e+001 145 114 88
4.015521e+000 1.837034e+000 -1.337177e+001 114 79 49
3.277449e+000 1.713511e+000 -1.315399e+001 173 140 109
3.388771e+000 1.714375e+000 -1.315659e+001 45 35 16
3.437105e+000 1.743564e+000 -1.319085e+001 70 58 45
3.473132e+000 1.704326e+000 -1.316179e+001 151 136 107
3.867282e+000 1.783066e+000 -1.326693e+001 122 87 57
4.368099e+000 1.830220e+000 -1.340662e+001 125 89 54
4.564737e+000 1.860388e+000 -1.346850e+001 172 126 76
4.234438e+000 1.763975e+000 -1.331351e+001 137 100 72
3.482269e+000 1.568648e+000 -1.307489e+001 75 67 54
3.677443e+000 1.610128e+000 -1.313418e+001 137 112 83
4.128846e+000 1.673507e+000 -1.323903e+001 74 44 18
4.128846e+000 1.673507e+000 -1.323903e+001 74 44 18
3.466363e+000 1.547442e+000 -1.306588e+001 64 55 36
3.492199e+000 1.519159e+000 -1.303285e+001 66 55 41
3.783746e+000 1.554093e+000 -1.310945e+001 79 48 27
4.109499e+000 1.577199e+000 -1.316259e+001 93 61 36
4.404989e+000 1.647475e+000 -1.326534e+001 85 54 26
3.411475e+000 1.475172e+000 -1.300693e+001 70 53 28
3.418003e+000 1.452280e+000 -1.298433e+001 59 43 19
3.575588e+000 1.442222e+000 -1.298358e+001 71 54 39
3.710878e+000 1.486564e+000 -1.306367e+001 134 100 73
3.996346e+000 1.495120e+000 -1.309627e+001 108 78 50
3.362917e+000 1.415568e+000 -1.292501e+001 189 158 127
3.552379e+000 1.439876e+000 -1.296535e+001 68 51 33
2.869174e+000 1.117166e+000 -1.374700e+001 134 102 81
3.098019e+000 1.246212e+000 -1.330322e+001 62 49 22
3.121251e+000 1.223372e+000 -1.328647e+001 183 150 111
3.426979e+000 1.265512e+000 -1.282776e+001 76 46 25
3.500120e+000 1.299095e+000 -1.284928e+001 87 76 52
3.657713e+000 1.283009e+000 -1.284628e+001 49 35 21
3.035622e+000 1.043167e+000 -1.326725e+001 178 116 88
3.408052e+000 1.206359e+000 -1.273093e+001 167 131 95
3.962542e+000 1.290868e+000 -1.293417e+001 104 77 48
4.084762e+000 1.273087e+000 -1.293306e+001 93 61 35
3.548477e+000 1.152932e+000 -1.273548e+001 53 40 23
3.780554e+000 1.192859e+000 -1.282114e+001 141 115 92
4.077511e+000 1.226965e+000 -1.291235e+001 96 65 42
4.287440e+000 1.210679e+000 -1.290433e+001 124 89 57
3.082794e+000 9.530838e-001 -1.306485e+001 172 99 84
3.652846e+000 1.132369e+000 -1.273570e+001 64 52 30
3.122338e+000 8.972991e-001 -1.300418e+001 209 164 122
3.443696e+000 1.050095e+000 -1.260408e+001 202 167 129
3.468053e+000 9.930091e-001 -1.258896e+001 191 156 119
4.807649e+000 1.165151e+000 -1.267197e+001 150 110 59
2.248851e+000 3.534145e-001 -1.374032e+001 148 99 82
3.896139e+000 1.000820e+000 -1.262823e+001 122 91 62
4.578328e+000 9.854629e-001 -1.281828e+001 73 41 14
3.743620e+000 9.238840e-001 -1.258658e+001 135 120 86
3.329741e+000 7.177390e-001 -1.279281e+001 139 101 55
3.772038e+000 8.640720e-001 -1.257042e+001 66 50 29
4.656090e+000 8.713359e-001 -1.283788e+001 106 69 40
3.063215e+000 4.396844e-001 -1.324801e+001 149 87 78
3.063215e+000 4.396844e-001 -1.324801e+001 149 87 78
3.491122e+000 7.344968e-001 -1.254251e+001 164 133 104
3.614727e+000 7.549755e-001 -1.256614e+001 243 222 180
3.632409e+000 7.556254e-001 -1.256199e+001 208 188 153
3.622751e+000 7.435116e-001 -1.256297e+001 82 65 45
3.188760e+000 2.563450e-001 -1.323917e+001 159 101 89
4.665426e+000 2.269021e+000 -1.284858e+001 121 85 49
4.714980e+000 2.264759e+000 -1.284003e+001 103 76 49
3.233442e+000 1.775614e+000 -1.325721e+001 211 182 150
3.903693e+000 1.822662e+000 -1.335869e+001 153 119 84
4.351267e+000 1.890790e+000 -1.350405e+001 137 99 63
3.284029e+000 1.698217e+000 -1.313077e+001 127 93 65
3.377832e+000 1.695827e+000 -1.314314e+001 68 56 41
3.933160e+000 1.784491e+000 -1.330183e+001 102 68 40
4.359809e+000 1.853178e+000 -1.343282e+001 135 94 59
3.183893e+000 1.602469e+000 -1.318922e+001 151 117 80
3.327768e+000 1.643533e+000 -1.310851e+001 130 99 69
3.332748e+000 1.622738e+000 -1.308060e+001 116 87 57
4.581883e+000 1.807661e+000 -1.342390e+001 166 120 70
3.888640e+000 1.659053e+000 -1.318459e+001 79 47 24
4.056925e+000 1.665332e+000 -1.322024e+001 85 55 31
4.221906e+000 1.662747e+000 -1.323537e+001 97 63 36
3.701182e+000 1.531677e+000 -1.309494e+001 132 100 75
3.798704e+000 1.527546e+000 -1.309494e+001 75 49 27
4.056740e+000 1.572294e+000 -1.316200e+001 84 52 27
4.087844e+000 1.583818e+000 -1.317008e+001 112 82 58
3.707996e+000 1.508595e+000 -1.308073e+001 128 100 71
3.840838e+000 1.523251e+000 -1.311029e+001 72 44 22
3.885634e+000 1.533584e+000 -1.311254e+001 100 74 51
4.114659e+000 1.507416e+000 -1.313475e+001 82 53 27
3.456859e+000 1.394700e+000 -1.293735e+001 82 67 46
3.178110e+000 1.257843e+000 -1.311716e+001 72 66 41
4.217148e+000 1.429202e+000 -1.308754e+001 74 43 23
4.232041e+000 1.413514e+000 -1.307478e+001 85 53 30
3.487168e+000 1.277432e+000 -1.283006e+001 36 23 14
3.487168e+000 1.277432e+000 -1.283006e+001 36 23 14
3.518357e+000 1.308732e+000 -1.287136e+001 39 30 13
4.148846e+000 1.340896e+000 -1.298171e+001 102 74 46
3.770641e+000 1.226510e+000 -1.285001e+001 146 120 95
3.546064e+000 1.185574e+000 -1.274136e+001 119 104 77
3.674464e+000 1.191346e+000 -1.276418e+001 138 121 95
3.077904e+000 9.657866e-001 -1.314943e+001 176 115 95
3.437946e+000 1.090989e+000 -1.264350e+001 247 222 187
3.534797e+000 1.081660e+000 -1.270068e+001 70 53 35
4.501895e+000 1.166449e+000 -1.287560e+001 113 76 46
4.577421e+000 1.115552e+000 -1.285433e+001 80 46 19
3.267650e+000 8.808469e-001 -1.295887e+001 181 138 94
4.166597e+000 1.029725e+000 -1.274085e+001 87 53 24
4.459083e+000 1.063772e+000 -1.280436e+001 99 64 36
3.474323e+000 9.272788e-001 -1.254698e+001 166 132 95
4.346082e+000 9.648878e-001 -1.276919e+001 79 47 21
3.751373e+000 9.407571e-001 -1.256820e+001 56 41 22
4.567843e+000 9.757455e-001 -1.280245e+001 94 63 33
3.279430e+000 7.062811e-001 -1.286182e+001 150 103 36
3.367677e+000 7.277860e-001 -1.273949e+001 74 63 36
3.466155e+000 8.503529e-001 -1.251939e+001 208 174 137
3.501993e+000 8.187301e-001 -1.252654e+001 150 115 85
4.312314e+000 8.132171e-001 -1.276607e+001 77 45 20
1.710172e+000 4.832572e-003 -1.338933e+001 114 77 55
4.471414e+000 3.138681e-001 -1.340409e+001 66 42 18
4.709051e+000 2.246478e+000 -1.286099e+001 104 72 44
3.331544e+000 1.788584e+000 -1.326388e+001 70 60 47
4.000091e+000 1.832735e+000 -1.338666e+001 140 107 73
3.267707e+000 1.691881e+000 -1.315333e+001 173 141 111
3.267707e+000 1.691881e+000 -1.315333e+001 173 141 111
4.017773e+000 1.770986e+000 -1.331375e+001 89 55 28
4.374840e+000 1.843501e+000 -1.341587e+001 104 68 36
3.143475e+000 1.629556e+000 -1.323244e+001 194 170 132
3.202806e+000 1.613501e+000 -1.320358e+001 162 130 99
3.879745e+000 1.706825e+000 -1.322712e+001 102 68 41
4.266018e+000 1.657195e+000 -1.324532e+001 113 82 54
3.784261e+000 1.570298e+000 -1.312319e+001 101 73 49
2.973223e+000 1.297244e+000 -1.358949e+001 146 106 75
3.309772e+000 1.414808e+000 -1.301113e+001 110 82 57
4.006511e+000 1.536251e+000 -1.313737e+001 89 59 35
4.002997e+000 1.512489e+000 -1.313561e+001 80 53 26
4.149400e+000 1.554351e+000 -1.315841e+001 85 53 28
3.049647e+000 1.250247e+000 -1.335379e+001 109 102 61
3.049647e+000 1.250247e+000 -1.335379e+001 109 102 61
3.726902e+000 1.430168e+000 -1.302415e+001 127 100 73
3.932632e+000 1.465265e+000 -1.307906e+001 92 62 37
4.137639e+000 1.379208e+000 -1.301732e+001 92 61 32
4.771087e+000 1.571896e+000 -1.272502e+001 174 136 82
3.501164e+000 1.260474e+000 -1.282486e+001 39 26 16
3.226698e+000 1.114046e+000 -1.307227e+001 139 93 57
3.447215e+000 1.194298e+000 -1.274766e+001 141 105 69
3.540432e+000 1.246870e+000 -1.280187e+001 49 40 23
4.173928e+000 1.253712e+000 -1.293730e+001 83 51 26
4.901434e+000 1.260316e+000 -1.361151e+001 96 68 46
4.039554e+000 1.197083e+000 -1.285522e+001 111 79 54
4.226621e+000 1.222469e+000 -1.291663e+001 95 65 34
2.632977e+000 6.105711e-001 -1.324330e+001 141 87 61
3.236480e+000 8.129130e-001 -1.294799e+001 194 152 117
3.290017e+000 8.478549e-001 -1.287018e+001 198 162 126
3.339986e+000 8.483001e-001 -1.275715e+001 51 40 22
3.449142e+000 9.445216e-001 -1.255969e+001 185 151 114
3.409093e+000 8.542420e-001 -1.257320e+001 77 66 38
4.311180e+000 9.071707e-001 -1.274433e+001 79 48 27
3.516626e+000 8.218381e-001 -1.253074e+001 109 74 44
3.505813e+000 7.576951e-001 -1.252482e+001 213 182 153
3.652920e+000 7.332237e-001 -1.258851e+001 37 27 15
4.114692e+000 7.490108e-001 -1.273985e+001 101 73 49
3.216762e+000 3.300091e-001 -1.327355e+001 148 94 82
3.560784e+000 6.994953e-001 -1.257015e+001 107 71 39
2.774115e+000 2.444835e-001 -1.311920e+001 186 129 110
3.303449e+000 1.756957e+000 -1.321258e+001 47 35 28
3.407333e+000 1.724740e+000 -1.317117e+001 47 35 23
4.031786e+000 1.762429e+000 -1.328963e+001 143 110 79
3.886635e+000 1.733064e+000 -1.323995e+001 139 102 72
4.102320e+000 1.739207e+000 -1.328740e+001 96 61 33
4.214688e+000 1.685469e+000 -1.325018e+001 129 99 70
4.515383e+000 1.704877e+000 -1.330094e+001 128 93 65
3.188216e+000 1.444738e+000 -1.315937e+001 191 164 130
4.066588e+000 1.617393e+000 -1.318882e+001 115 88 61
3.887085e+000 1.497581e+000 -1.308844e+001 100 74 49
3.982021e+000 1.538560e+000 -1.312708e+001 107 81 56
3.494296e+000 1.403464e+000 -1.291907e+001 47 35 20
3.058186e+000 1.178354e+000 -1.331781e+001 177 140 99
2.964899e+000 1.108868e+000 -1.348507e+001 144 98 70
3.389800e+000 1.286734e+000 -1.286466e+001 143 108 73
3.052578e+000 1.055903e+000 -1.325923e+001 203 152 117
3.671093e+000 1.223252e+000 -1.280747e+001 102 86 59
3.133797e+000 9.814549e-001 -1.312351e+001 203 160 119
4.752126e+000 1.194756e+000 -1.295294e+001 157 117 65
3.426394e+000 1.064349e+000 -1.265131e+001 147 114 83
4.096266e+000 1.121612e+000 -1.281636e+001 86 55 27
3.510200e+000 9.783846e-001 -1.257494e+001 131 95 59
3.293568e+000 8.269396e-001 -1.285119e+001 169 127 90
4.878197e+000 8.225727e-001 -1.314837e+001 131 99 60
3.836459e+000 7.749646e-001 -1.264087e+001 107 82 60
4.024905e+000 7.283328e-001 -1.272871e+001 80 52 28
1.549234e+000 1.109523e-002 -1.345648e+001 114 77 61
3.176926e+000 7.216252e-002 -1.336816e+001 105 44 42
4.338307e+000 2.186480e+000 -1.478573e+001 160 123 85
4.687377e+000 2.169369e+000 -1.293816e+001 118 84 57
3.236702e+000 1.499245e+000 -1.300393e+001 139 125 88
4.273707e+000 1.599886e+000 -1.318692e+001 87 55 28
4.434163e+000 1.529081e+000 -1.317876e+001 78 49 22
4.505713e+000 1.436790e+000 -1.312409e+001 90 56 28
2.976283e+000 1.098608e+000 -1.340455e+001 189 124 104
4.101983e+000 1.340421e+000 -1.298898e+001 122 95 65
3.023985e+000 1.068593e+000 -1.328837e+001 174 109 79
3.242522e+000 1.127153e+000 -1.295252e+001 188 151 107
4.046277e+000 1.290057e+000 -1.295411e+001 117 84 57
2.784668e+000 8.306693e-001 -1.328215e+001 178 105 97
2.805057e+000 8.073584e-001 -1.324989e+001 140 73 64
2.881804e+000 8.347720e-001 -1.314841e+001 172 81 80
4.064306e+000 1.095534e+000 -1.278020e+001 111 79 54
3.258719e+000 8.766761e-001 -1.296332e+001 183 140 97
3.466401e+000 9.779990e-001 -1.255605e+001 223 193 158
4.182894e+000 1.043878e+000 -1.274886e+001 127 93 62
3.298056e+000 7.263068e-001 -1.281830e+001 169 125 61
3.653385e+000 8.332505e-001 -1.258010e+001 41 24 14
3.847518e+000 8.396946e-001 -1.264076e+001 124 98 75
3.331277e+000 6.025319e-001 -1.284317e+001 118 77 28
3.541934e+000 7.858344e-001 -1.252890e+001 132 101 72
2.851706e+000 2.266207e-001 -1.311747e+001 132 64 59
3.984090e+000 1.781385e+000 -1.333173e+001 138 104 73
3.542419e+000 1.637410e+000 -1.311160e+001 72 61 43
4.255133e+000 1.492314e+000 -1.312337e+001 87 56 30
4.296620e+000 1.513538e+000 -1.313709e+001 131 97 69
2.976773e+000 1.150787e+000 -1.350792e+001 188 152 116
3.235469e+000 1.262501e+000 -1.313649e+001 152 116 82
3.581321e+000 1.357944e+000 -1.293940e+001 78 62 39
4.195007e+000 1.433028e+000 -1.307181e+001 82 53 28
2.890469e+000 8.899409e-001 -1.330745e+001 187 106 103
2.770508e+000 7.451193e-001 -1.315089e+001 181 103 91
3.204726e+000 8.008611e-001 -1.300849e+001 128 70 46
2.825291e+000 5.972720e-001 -1.307080e+001 167 97 88
3.558197e+000 8.135077e-001 -1.257224e+001 54 31 18
4.617983e+000 8.689658e-001 -1.279752e+001 107 74 43
3.068737e+000 2.101924e-001 -1.321705e+001 106 40 41
4.212851e+000 1.884055e+000 -1.347509e+001 103 67 37
3.195167e+000 1.559360e+000 -1.314989e+001 185 154 118
4.395359e+000 1.452348e+000 -1.311626e+001 125 90 60
4.074786e+000 1.221254e+000 -1.292475e+001 90 60 36
2.744675e+000 8.747600e-001 -1.332302e+001 156 83 65
2.947224e+000 8.903655e-001 -1.324522e+001 148 72 65
2.936828e+000 8.587543e-001 -1.311984e+001 201 132 117
2.621159e+000 5.973686e-001 -1.325339e+001 160 104 77
1.693984e+000 1.195802e-001 -1.357753e+001 88 75 67
1.693984e+000 1.195802e-001 -1.357753e+001 88 75 67
3.038738e+000 3.097783e-001 -1.318252e+001 127 58 51
3.258134e+000 1.716199e+000 -1.317420e+001 232 203 171
4.069337e+000 1.418125e+000 -1.304567e+001 137 103 75
3.432073e+000 1.285869e+000 -1.281478e+001 58 35 19
3.961459e+000 8.089614e-001 -1.268036e+001 64 37 18
3.807345e+000 7.836474e-001 -1.263156e+001 35 22 8
3.453783e+000 5.012449e-001 -1.285318e+001 124 88 62
3.657207e+000 1.747287e+000 -1.326090e+001 172 143 113
3.241380e+000 1.530001e+000 -1.312061e+001 79 69 46
3.107621e+000 9.950957e-001 -1.318967e+001 137 91 67
3.331986e+000 8.902549e-001 -1.279883e+001 182 147 113
1.778840e+000 7.933319e-002 -1.350490e+001 178 142 114
4.576311e+000 1.868180e+000 -1.328856e+001 176 129 81
3.151686e+000 1.165218e+000 -1.320185e+001 192 153 112
4.247958e+000 2.168827e+000 -1.404586e+001 159 126 84
4.672803e+000 1.703612e+000 -1.332693e+001 18 13 10
4.642997e+000 2.183810e+000 -1.294708e+001 140 98 50
4.631420e+000 2.070526e+000 -1.306921e+001 186 141 90
3.310780e+000 1.785528e+000 -1.324856e+001 144 133 107
3.988937e+000 1.813567e+000 -1.336023e+001 98 64 36
3.638397e+000 1.754916e+000 -1.325582e+001 135 105 79
4.247091e+000 1.675327e+000 -1.323001e+001 81 51 27
3.069276e+000 1.237195e+000 -1.330803e+001 50 42 19
4.111020e+000 1.315744e+000 -1.297549e+001 84 51 24
3.250907e+000 1.130068e+000 -1.286683e+001 59 57 27
3.779212e+000 1.204092e+000 -1.283250e+001 134 107 85
4.569972e+000 1.194020e+000 -1.291472e+001 114 77 44
3.380242e+000 9.033413e-001 -1.272190e+001 110 75 43
3.172820e+000 1.754753e+000 -1.337902e+001 112 100 78
3.135029e+000 1.691867e+000 -1.332473e+001 102 98 69
3.832883e+000 1.838476e+000 -1.341399e+001 131 101 70
3.827185e+000 1.801938e+000 -1.332739e+001 117 83 55
4.166897e+000 1.867784e+000 -1.344405e+001 90 56 28
4.277522e+000 1.862833e+000 -1.344394e+001 103 68 39
4.241203e+000 1.829951e+000 -1.339098e+001 104 68 36
3.225870e+000 1.610559e+000 -1.322770e+001 97 68 42
3.149729e+000 1.515962e+000 -1.326812e+001 191 158 123
3.250516e+000 1.563400e+000 -1.316510e+001 62 50 29
3.526253e+000 1.538830e+000 -1.305321e+001 46 31 15
4.263080e+000 1.610091e+000 -1.320086e+001 109 77 52
3.799263e+000 1.527171e+000 -1.309597e+001 68 42 20
4.192079e+000 1.487994e+000 -1.311438e+001 111 82 52
4.249476e+000 1.410292e+000 -1.306913e+001 73 42 16
2.534060e+000 8.534775e-001 -1.366149e+001 188 123 105
3.383791e+000 1.250269e+000 -1.279869e+001 213 183 147
4.296786e+000 1.318252e+000 -1.300702e+001 101 64 36
3.326536e+000 1.140243e+000 -1.277799e+001 104 102 71
2.863395e+000 8.364574e-001 -1.321188e+001 176 95 88
3.279445e+000 8.426873e-001 -1.290252e+001 116 72 43
4.404717e+000 1.042715e+000 -1.280080e+001 105 66 32
3.034321e+000 4.590913e-001 -1.325235e+001 178 114 104
3.630518e+000 8.362551e-001 -1.253920e+001 111 96 67
4.047189e+000 1.868189e+000 -1.349672e+001 97 64 36
4.197428e+000 1.872092e+000 -1.347533e+001 84 50 22
4.194544e+000 1.871681e+000 -1.346863e+001 84 50 22
4.349598e+000 1.890544e+000 -1.350214e+001 128 92 59
3.307510e+000 1.701311e+000 -1.316457e+001 131 99 69
3.262343e+000 1.568384e+000 -1.314443e+001 135 112 88
3.548232e+000 1.551517e+000 -1.306816e+001 39 25 13
2.893527e+000 1.215517e+000 -1.368916e+001 152 110 68
3.965374e+000 1.549478e+000 -1.313863e+001 67 40 22
3.204009e+000 1.337120e+000 -1.311360e+001 90 83 51
4.300430e+000 1.442339e+000 -1.311164e+001 65 37 11
3.399994e+000 1.320742e+000 -1.286935e+001 127 88 55
3.096966e+000 1.075418e+000 -1.321426e+001 197 158 116
3.191347e+000 1.092476e+000 -1.312600e+001 193 150 105
4.303996e+000 1.223017e+000 -1.291710e+001 111 74 45
2.720401e+000 4.650680e-001 -1.317870e+001 187 136 107
3.003353e+000 4.680673e-001 -1.323666e+001 184 124 113
3.359497e+000 7.423627e-001 -1.275667e+001 83 73 48
4.112070e+000 1.637741e+000 -1.320857e+001 73 46 20
4.260813e+000 1.543770e+000 -1.316536e+001 119 86 59
4.040375e+000 1.397036e+000 -1.302599e+001 132 99 70
2.744266e+000 9.743890e-001 -1.345783e+001 196 130 114
4.070084e+000 1.111732e+000 -1.279881e+001 78 46 21
3.997217e+000 1.079032e+000 -1.274288e+001 108 78 54
4.114353e+000 1.089075e+000 -1.278178e+001 93 59 32
4.706230e+000 1.140055e+000 -1.288646e+001 149 109 66
3.274561e+000 7.515380e-001 -1.285329e+001 167 125 66
3.352640e+000 8.178374e-001 -1.276421e+001 44 34 19
3.343039e+000 7.469044e-001 -1.277458e+001 154 135 106
4.239101e+000 1.796741e+000 -1.335405e+001 84 50 24
4.001412e+000 1.636775e+000 -1.319265e+001 121 94 66
2.975561e+000 1.236145e+000 -1.357022e+001 173 138 98
3.004624e+000 1.261966e+000 -1.355118e+001 143 106 74
3.050476e+000 1.150069e+000 -1.330653e+001 137 100 66
3.318513e+000 1.196283e+000 -1.284506e+001 150 128 99
3.554404e+000 8.964856e-001 -1.258816e+001 48 29 14
4.297127e+000 8.210524e-001 -1.275659e+001 83 52 24
2.939401e+000 1.767181e-001 -1.317057e+001 176 100 102
3.997658e+000 1.840876e+000 -1.343840e+001 142 109 76
4.331520e+000 1.544942e+000 -1.322370e+001 83 53 27
3.041521e+000 1.106194e+000 -1.329272e+001 200 154 113
4.062501e+000 1.325950e+000 -1.297810e+001 81 51 25
3.555435e+000 1.096717e+000 -1.266608e+001 99 83 53
3.340223e+000 9.703186e-001 -1.280133e+001 162 138 107
3.954115e+000 1.094016e+000 -1.275939e+001 105 75 51
4.610172e+000 1.084450e+000 -1.283911e+001 106 67 34
3.301825e+000 8.670824e-001 -1.288228e+001 202 168 133
2.632607e+000 4.938216e-001 -1.324712e+001 169 118 91
3.315037e+000 8.331577e-001 -1.277717e+001 201 175 142
2.759633e+000 4.361602e-001 -1.316060e+001 175 106 91
3.346621e+000 7.062650e-001 -1.275031e+001 184 159 129
4.327980e+000 1.827924e+000 -1.339887e+001 126 91 61
4.043974e+000 1.674582e+000 -1.323012e+001 98 68 42
4.225477e+000 1.633793e+000 -1.320447e+001 128 94 67
3.280828e+000 1.262237e+000 -1.309191e+001 141 105 81
4.174779e+000 1.283302e+000 -1.295506e+001 118 84 57
4.328454e+000 8.851363e-001 -1.274844e+001 83 53 27
4.355474e+000 8.105599e-001 -1.277097e+001 143 112 81
3.385035e+000 1.451531e+000 -1.296651e+001 31 20 12
3.025958e+000 1.139408e+000 -1.339440e+001 127 94 63
2.995282e+000 9.015298e-001 -1.311993e+001 201 128 120
3.281663e+000 1.396619e+000 -1.300770e+001 119 92 65
3.132293e+000 1.216910e+000 -1.325028e+001 194 162 123
2.986977e+000 4.717846e-001 -1.312344e+001 124 46 44
4.058353e+000 9.796522e-001 -1.271350e+001 128 91 62
4.337715e+000 1.870768e+000 -1.353731e+001 122 86 56
4.823928e+000 9.184418e-001 -1.272584e+001 177 141 83
4.697578e+000 1.468242e+000 -1.302234e+001 22 17 14
4.521971e+000 2.055187e+000 -1.323620e+001 188 147 95
4.483592e+000 1.734700e+000 -1.329259e+001 169 130 96
4.115165e+000 1.503425e+000 -1.312809e+001 90 56 28
4.448361e+000 1.166195e+000 -1.288748e+001 101 62 27
4.118324e+000 1.427401e+000 -1.306669e+001 131 97 69
3.705484e+000 1.534805e+000 -1.313363e+001 139 107 80
3.892664e+000 1.549263e+000 -1.312854e+001 72 44 22
3.600560e+000 1.595905e+000 -1.233283e+001 134 105 75
4.136530e+000 1.421176e+000 -1.306388e+001 76 46 20
4.300797e+000 1.198344e+000 -1.289951e+001 96 62 26
2.248260e+000 3.549173e-001 -1.374001e+001 148 99 82
3.688050e+000 1.569076e+000 -1.311233e+001 131 101 73
4.609749e+000 1.450593e+000 -1.307485e+001 16 12 9
3.792439e+000 1.197154e+000 -1.282713e+001 126 96 70
3.466046e+000 8.465258e-001 -1.253008e+001 208 174 137
3.649424e+000 7.580312e-001 -1.256308e+001 33 22 15
3.027561e+000 1.305219e+000 -1.352461e+001 179 152 119
4.695424e+000 1.276586e+000 -1.307540e+001 114 80 53
1.502067e+000 5.661103e-002 -1.348267e+001 112 80 64
2.941724e+000 1.318527e+000 -1.365785e+001 155 111 74
3.936328e+000 1.162251e+000 -1.281689e+001 109 78 52
4.412932e+000 9.203403e-001 -1.277099e+001 98 63 35
4.668836e+000 1.129341e+000 -1.286149e+001 132 95 50
4.572907e+000 2.350373e+000 -1.343339e+001 166 128 79
3.469073e+000 1.853482e+000 -1.343133e+001 191 182 172
3.133631e+000 1.748154e+000 -1.338107e+001 94 87 61
3.195368e+000 1.779760e+000 -1.340727e+001 150 126 92
3.195368e+000 1.779760e+000 -1.340727e+001 150 126 92
3.199452e+000 1.755799e+000 -1.340433e+001 149 122 91
3.301497e+000 1.803260e+000 -1.330607e+001 105 94 77
3.301497e+000 1.803260e+000 -1.330607e+001 105 94 77
4.003370e+000 1.862929e+000 -1.350198e+001 124 88 57
3.140736e+000 1.736872e+000 -1.333703e+001 90 85 56
4.237070e+000 1.877176e+000 -1.348933e+001 87 54 24
4.392467e+000 1.857210e+000 -1.346283e+001 106 70 40
3.340957e+000 1.699456e+000 -1.315171e+001 96 78 59
3.351047e+000 1.697127e+000 -1.314112e+001 50 32 20
3.387441e+000 1.713437e+000 -1.315097e+001 39 27 13
3.446174e+000 1.719727e+000 -1.319993e+001 64 48 33
3.465109e+000 1.735379e+000 -1.321211e+001 150 134 111
3.358017e+000 1.671999e+000 -1.313579e+001 53 35 20
4.274177e+000 1.732891e+000 -1.330087e+001 82 50 25
4.451908e+000 1.759706e+000 -1.334178e+001 115 76 41
3.405758e+000 1.631109e+000 -1.310506e+001 40 28 14
3.508155e+000 1.610901e+000 -1.311500e+001 46 29 16
4.606753e+000 1.748168e+000 -1.340482e+001 122 88 58
3.166983e+000 1.471031e+000 -1.323237e+001 183 154 120
3.170604e+000 1.489494e+000 -1.317387e+001 207 178 146
3.519543e+000 1.560156e+000 -1.307192e+001 57 41 28
3.867324e+000 1.601974e+000 -1.315511e+001 94 64 36
3.892131e+000 1.597989e+000 -1.315527e+001 73 43 17
4.030560e+000 1.619621e+000 -1.318277e+001 68 40 16
4.032348e+000 1.618457e+000 -1.318681e+001 68 40 16
3.316320e+000 1.513004e+000 -1.300330e+001 164 130 102
3.410540e+000 1.471628e+000 -1.300354e+001 52 33 19
3.501170e+000 1.499508e+000 -1.302971e+001 56 40 30
3.516976e+000 1.527448e+000 -1.305295e+001 94 81 64
3.557710e+000 1.510220e+000 -1.303173e+001 71 56 35
3.854272e+000 1.561281e+000 -1.313121e+001 79 51 27
3.970914e+000 1.525375e+000 -1.311868e+001 73 47 24
4.247846e+000 1.601512e+000 -1.319517e+001 92 61 33
3.440411e+000 1.469319e+000 -1.300270e+001 203 188 154
3.168150e+000 1.238170e+000 -1.315181e+001 189 161 122
3.294815e+000 1.290046e+000 -1.310615e+001 150 118 93
3.395435e+000 1.350636e+000 -1.294003e+001 74 43 22
3.291595e+000 1.203297e+000 -1.311114e+001 125 89 63
3.741785e+000 1.383074e+000 -1.298949e+001 118 91 70
4.039697e+000 1.371832e+000 -1.301567e+001 94 63 35
3.120411e+000 1.069158e+000 -1.319931e+001 193 149 110
3.289114e+000 1.186109e+000 -1.310924e+001 122 86 64
3.628587e+000 1.330191e+000 -1.289185e+001 206 186 144
4.061603e+000 1.359649e+000 -1.299973e+001 89 57 32
4.207614e+000 1.331850e+000 -1.298870e+001 87 57 31
4.531446e+000 1.350303e+000 -1.304877e+001 111 77 49
3.242407e+000 1.105887e+000 -1.308059e+001 120 76 41
4.035855e+000 1.247673e+000 -1.292039e+001 69 39 15
3.147094e+000 1.020206e+000 -1.312214e+001 195 158 114
3.249631e+000 1.102298e+000 -1.285460e+001 98 94 56
3.551059e+000 1.201952e+000 -1.273972e+001 42 25 14
4.070816e+000 1.231921e+000 -1.289879e+001 97 67 43
3.546749e+000 1.154009e+000 -1.272878e+001 54 35 20
3.790283e+000 1.160113e+000 -1.273389e+001 118 92 69
4.454190e+000 1.176215e+000 -1.292386e+001 97 60 33
3.307006e+000 9.977974e-001 -1.286504e+001 127 107 76
3.554169e+000 1.099023e+000 -1.268474e+001 232 217 168
3.976863e+000 1.138660e+000 -1.280542e+001 79 49 23
4.332643e+000 1.158766e+000 -1.283560e+001 109 73 41
3.326080e+000 9.050323e-001 -1.285821e+001 191 158 120
3.687933e+000 1.046976e+000 -1.265974e+001 86 70 54
3.340882e+000 9.385968e-001 -1.272531e+001 195 161 131
3.370555e+000 9.156267e-001 -1.271828e+001 166 132 99
3.541230e+000 1.002934e+000 -1.260513e+001 76 60 45
3.303877e+000 7.886255e-001 -1.282489e+001 158 123 93
3.327817e+000 8.504306e-001 -1.276263e+001 170 146 118
3.337615e+000 8.195102e-001 -1.277172e+001 166 138 108
3.343134e+000 7.969926e-001 -1.276838e+001 127 117 90
3.343134e+000 7.969926e-001 -1.276838e+001 127 117 90
3.336731e+000 7.830401e-001 -1.278055e+001 56 46 27
4.595266e+000 9.572668e-001 -1.280295e+001 114 79 49
4.778726e+000 9.590493e-001 -1.288888e+001 103 65 26
3.387472e+000 8.325967e-001 -1.261728e+001 108 98 73
3.459043e+000 9.219433e-001 -1.255302e+001 202 168 132
3.292797e+000 6.122581e-001 -1.287304e+001 189 147 87
3.413063e+000 8.354637e-001 -1.253268e+001 143 121 90
3.467099e+000 8.508711e-001 -1.255319e+001 159 125 90
3.588752e+000 8.193566e-001 -1.256594e+001 69 50 18
3.683493e+000 8.132633e-001 -1.258928e+001 25 18 11
4.824329e+000 9.405464e-001 -1.260694e+001 183 148 94
4.084150e+000 1.875854e+000 -1.350140e+001 109 74 44
4.249987e+000 1.890755e+000 -1.355599e+001 98 63 35
4.157093e+000 1.859191e+000 -1.345188e+001 87 53 25
4.207510e+000 1.838608e+000 -1.343078e+001 148 114 79
3.237365e+000 1.701861e+000 -1.323478e+001 124 94 65
3.346486e+000 1.712545e+000 -1.315449e+001 48 30 15
3.503774e+000 1.721840e+000 -1.318223e+001 46 27 19
4.286589e+000 1.799277e+000 -1.339613e+001 119 85 57
3.360304e+000 1.657845e+000 -1.310830e+001 51 30 21
4.623510e+000 1.813706e+000 -1.333454e+001 130 92 54
4.633870e+000 1.799000e+000 -1.333651e+001 109 81 50
4.053946e+000 1.666537e+000 -1.321764e+001 76 46 20
2.949816e+000 1.292687e+000 -1.362382e+001 185 146 110
3.019155e+000 1.340968e+000 -1.356082e+001 189 160 126
2.993269e+000 1.291937e+000 -1.359452e+001 178 142 110
3.239385e+000 1.521719e+000 -1.301342e+001 65 59 30
3.816175e+000 1.569719e+000 -1.313645e+001 81 50 29
4.047647e+000 1.605146e+000 -1.317792e+001 85 57 33
4.263639e+000 1.609539e+000 -1.320126e+001 109 77 52
3.196087e+000 1.438428e+000 -1.305413e+001 54 50 26
3.233715e+000 1.451231e+000 -1.298565e+001 137 122 89
3.544629e+000 1.523067e+000 -1.306808e+001 82 69 52
3.826370e+000 1.557103e+000 -1.312819e+001 98 71 46
3.842197e+000 1.553026e+000 -1.312637e+001 98 71 50
3.839751e+000 1.524086e+000 -1.310456e+001 64 37 16
3.863861e+000 1.546012e+000 -1.312320e+001 93 67 44
3.892695e+000 1.527535e+000 -1.313143e+001 97 69 48
4.291182e+000 1.564155e+000 -1.318399e+001 77 45 20
3.026939e+000 1.239397e+000 -1.349222e+001 87 79 43
3.332634e+000 1.436165e+000 -1.293365e+001 141 104 69
3.454800e+000 1.461897e+000 -1.299892e+001 50 37 20
3.547543e+000 1.464885e+000 -1.300121e+001 44 26 12
3.058665e+000 1.173887e+000 -1.331161e+001 183 146 110
3.058665e+000 1.173887e+000 -1.331161e+001 183 146 110
3.108792e+000 1.216918e+000 -1.330393e+001 119 86 54
3.187096e+000 1.288372e+000 -1.311261e+001 97 89 60
3.382237e+000 1.396646e+000 -1.292235e+001 137 102 65
3.428375e+000 1.404051e+000 -1.295374e+001 46 30 15
3.432497e+000 1.388490e+000 -1.293803e+001 46 28 16
3.421854e+000 1.342432e+000 -1.289849e+001 53 34 20
3.444300e+000 1.349227e+000 -1.289673e+001 47 30 15
3.449954e+000 1.329315e+000 -1.289041e+001 49 33 18
3.450652e+000 1.322459e+000 -1.286819e+001 44 28 15
3.491244e+000 1.360537e+000 -1.288741e+001 105 88 70
3.634149e+000 1.343747e+000 -1.288973e+001 57 40 23
3.464162e+000 1.287574e+000 -1.285300e+001 30 17 10
3.464162e+000 1.287574e+000 -1.285300e+001 30 17 10
4.122818e+000 1.362208e+000 -1.301220e+001 76 44 21
4.135570e+000 1.348402e+000 -1.300281e+001 76 44 19
4.307807e+000 1.366510e+000 -1.305025e+001 108 71 42
3.376207e+000 1.221482e+000 -1.278879e+001 173 143 107
3.610462e+000 1.259604e+000 -1.284997e+001 47 31 16
3.640209e+000 1.271271e+000 -1.284898e+001 61 44 25
3.617039e+000 1.240173e+000 -1.285082e+001 52 34 20
4.134021e+000 1.261161e+000 -1.294817e+001 100 70 44
4.280212e+000 1.281327e+000 -1.294838e+001 130 95 63
3.638327e+000 1.177886e+000 -1.279528e+001 49 33 23
3.683040e+000 1.204987e+000 -1.276630e+001 50 33 18
3.469022e+000 1.150191e+000 -1.272470e+001 120 83 54
2.785075e+000 7.451961e-001 -1.317276e+001 171 91 81
3.709024e+000 1.113712e+000 -1.268711e+001 61 44 25
3.675241e+000 1.057784e+000 -1.267564e+001 61 44 28
4.537401e+000 1.130727e+000 -1.285250e+001 118 82 50
3.124301e+000 7.242080e-001 -1.303587e+001 154 70 68
3.471964e+000 9.864002e-001 -1.258004e+001 134 95 62
3.845150e+000 1.035589e+000 -1.268656e+001 133 104 76
4.164508e+000 1.029582e+000 -1.273984e+001 85 54 26
4.200733e+000 1.020392e+000 -1.273256e+001 106 72 37
4.467950e+000 1.052929e+000 -1.281307e+001 108 71 42
3.729911e+000 9.727576e-001 -1.260420e+001 49 32 16
3.754739e+000 9.805725e-001 -1.261558e+001 38 24 11
4.568815e+000 9.951059e-001 -1.280305e+001 75 39 12
4.757053e+000 1.016587e+000 -1.286359e+001 96 62 22
3.321311e+000 7.449056e-001 -1.280672e+001 48 41 25
3.354602e+000 7.824420e-001 -1.276518e+001 56 48 28
3.385286e+000 8.107839e-001 -1.264393e+001 56 50 29
3.385286e+000 8.107839e-001 -1.264393e+001 56 50 29
3.484790e+000 9.197889e-001 -1.253788e+001 249 222 193
3.588325e+000 9.161563e-001 -1.257077e+001 254 253 239
3.746192e+000 9.083357e-001 -1.258763e+001 60 45 26
4.008631e+000 8.697066e-001 -1.267215e+001 93 59 33
4.071909e+000 8.967812e-001 -1.269847e+001 102 67 39
3.015340e+000 3.928913e-001 -1.318320e+001 137 63 58
3.397335e+000 8.379664e-001 -1.256985e+001 122 108 81
3.505209e+000 8.849688e-001 -1.251203e+001 127 94 61
3.602065e+000 8.236485e-001 -1.255653e+001 73 55 31
4.324253e+000 8.442792e-001 -1.276361e+001 103 72 43
3.360486e+000 5.402555e-001 -1.280319e+001 178 142 106
3.750868e+000 6.077092e-001 -1.269174e+001 36 23 16
3.323284e+000 1.831054e+000 -1.347204e+001 75 63 45
3.448652e+000 1.835384e+000 -1.350296e+001 59 50 36
3.580102e+000 1.795741e+000 -1.332734e+001 135 110 88
4.658319e+000 1.973990e+000 -1.314495e+001 143 108 70
3.288332e+000 1.688589e+000 -1.313906e+001 120 86 56
3.412380e+000 1.716557e+000 -1.318190e+001 37 24 14
3.519100e+000 1.678677e+000 -1.315390e+001 59 43 28
4.168865e+000 1.739544e+000 -1.328903e+001 92 58 30
3.332224e+000 1.615114e+000 -1.309040e+001 128 96 66
3.318155e+000 1.602786e+000 -1.307740e+001 112 78 49
4.099876e+000 1.697490e+000 -1.325234e+001 88 57 29
3.205514e+000 1.460794e+000 -1.313690e+001 61 55 37
3.244035e+000 1.534070e+000 -1.305803e+001 76 64 40
3.321544e+000 1.551988e+000 -1.307127e+001 145 109 80
3.962010e+000 1.619060e+000 -1.318957e+001 103 75 51
4.047096e+000 1.585294e+000 -1.316958e+001 101 74 47
4.517333e+000 1.661456e+000 -1.324778e+001 108 77 53
3.119422e+000 1.266677e+000 -1.350694e+001 47 39 20
4.277447e+000 1.593407e+000 -1.319456e+001 77 45 20
4.366061e+000 1.607803e+000 -1.320418e+001 83 50 25
3.125490e+000 1.242805e+000 -1.335925e+001 97 75 50
3.577128e+000 1.476557e+000 -1.300218e+001 52 37 23
3.070940e+000 1.154096e+000 -1.329269e+001 196 158 119
3.488159e+000 1.377272e+000 -1.289960e+001 93 77 57
3.959829e+000 1.374288e+000 -1.300399e+001 77 46 26
4.318381e+000 1.433572e+000 -1.309721e+001 106 75 47
2.727635e+000 9.270450e-001 -1.345719e+001 200 133 116
4.595425e+000 1.370155e+000 -1.303499e+001 101 67 42
3.432297e+000 1.235027e+000 -1.278496e+001 130 96 62
3.542341e+000 1.244472e+000 -1.281868e+001 43 27 17
3.665235e+000 1.263581e+000 -1.283098e+001 49 34 16
4.033999e+000 1.262194e+000 -1.292855e+001 115 85 60
2.954531e+000 8.728294e-001 -1.326914e+001 121 50 44
3.342609e+000 1.141514e+000 -1.278820e+001 74 69 40
3.805800e+000 1.177171e+000 -1.285432e+001 119 90 69
4.080369e+000 1.243457e+000 -1.290639e+001 74 44 20
4.635076e+000 1.280797e+000 -1.297187e+001 125 89 50
3.406928e+000 1.103589e+000 -1.275455e+001 166 132 104
2.754078e+000 7.314157e-001 -1.317599e+001 179 96 88
3.703110e+000 1.133429e+000 -1.270245e+001 52 34 20
4.527783e+000 1.151184e+000 -1.286826e+001 123 88 58
2.648459e+000 4.764701e-001 -1.321961e+001 203 160 125
3.282273e+000 7.554726e-001 -1.283225e+001 154 114 59
3.340432e+000 8.470572e-001 -1.275909e+001 53 45 25
3.481472e+000 9.402472e-001 -1.256292e+001 188 154 120
3.492707e+000 9.608296e-001 -1.255119e+001 119 84 52
3.659334e+000 9.614947e-001 -1.261654e+001 76 60 34
4.434056e+000 9.945499e-001 -1.278291e+001 97 61 29
4.462722e+000 9.936606e-001 -1.280735e+001 129 93 59
2.668746e+000 4.419424e-001 -1.319697e+001 189 128 106
2.692938e+000 4.304630e-001 -1.318844e+001 189 129 105
3.144849e+000 4.594521e-001 -1.326992e+001 153 77 79
3.474136e+000 9.311578e-001 -1.254410e+001 167 133 98
3.503619e+000 9.139884e-001 -1.253950e+001 138 103 72
4.061847e+000 8.702373e-001 -1.271402e+001 106 72 44
3.255428e+000 5.829630e-001 -1.295067e+001 193 153 101
3.496326e+000 8.650383e-001 -1.253657e+001 226 195 166
3.546890e+000 8.321911e-001 -1.257503e+001 141 107 77
3.506352e+000 7.555345e-001 -1.253176e+001 221 196 165
3.755407e+000 7.415909e-001 -1.261414e+001 84 72 50
2.827805e+000 2.581340e-001 -1.308971e+001 197 143 127
2.846173e+000 2.402473e-001 -1.310367e+001 161 87 88
4.698816e+000 2.169384e+000 -1.294950e+001 146 109 74
3.185646e+000 1.758558e+000 -1.341040e+001 47 39 24
3.157234e+000 1.717946e+000 -1.331410e+001 81 81 57
3.157234e+000 1.717946e+000 -1.331410e+001 81 81 57
3.527339e+000 1.770760e+000 -1.320917e+001 45 33 19
4.499750e+000 1.902866e+000 -1.354239e+001 185 143 105
4.502549e+000 1.888000e+000 -1.346360e+001 185 143 99
3.380905e+000 1.705433e+000 -1.316922e+001 58 40 30
3.283293e+000 1.634398e+000 -1.312088e+001 213 185 152
3.334457e+000 1.579013e+000 -1.305474e+001 129 94 64
3.530829e+000 1.636040e+000 -1.312097e+001 56 40 26
3.554092e+000 1.644155e+000 -1.311467e+001 42 25 15
3.425088e+000 1.574542e+000 -1.305840e+001 155 140 119
3.541004e+000 1.591353e+000 -1.308497e+001 169 153 120
3.541004e+000 1.591353e+000 -1.308497e+001 169 153 120
4.067571e+000 1.616490e+000 -1.319035e+001 112 82 58
3.280876e+000 1.469920e+000 -1.299396e+001 141 108 72
3.362276e+000 1.472184e+000 -1.298762e+001 125 91 53
4.552609e+000 1.580571e+000 -1.324287e+001 107 73 48
2.994873e+000 1.178920e+000 -1.353593e+001 124 89 58
3.031771e+000 1.236418e+000 -1.335865e+001 54 45 17
3.585508e+000 1.435110e+000 -1.297651e+001 48 29 24
2.533522e+000 9.445732e-001 -1.377219e+001 177 119 98
2.687880e+000 9.568419e-001 -1.376669e+001 187 136 109
3.341088e+000 1.413612e+000 -1.290655e+001 153 117 85
3.307665e+000 1.214720e+000 -1.310179e+001 154 123 95
3.361977e+000 1.351979e+000 -1.291269e+001 101 65 40
3.465667e+000 1.373323e+000 -1.288491e+001 58 41 23
4.274247e+000 1.412842e+000 -1.307383e+001 79 47 22
4.458500e+000 1.358283e+000 -1.304478e+001 119 84 54
3.072490e+000 9.985726e-001 -1.324999e+001 156 95 74
4.473945e+000 1.339489e+000 -1.302152e+001 121 86 55
3.451905e+000 1.176108e+000 -1.270679e+001 140 102 62
3.450448e+000 1.140926e+000 -1.271232e+001 124 89 49
2.850447e+000 7.943538e-001 -1.309345e+001 177 81 82
3.473095e+000 1.105891e+000 -1.266080e+001 141 108 65
3.432595e+000 1.046129e+000 -1.268590e+001 134 102 71
3.486785e+000 1.068836e+000 -1.262711e+001 131 95 61
1.695929e+000 1.532014e-001 -1.368408e+001 166 127 96
3.326066e+000 8.837122e-001 -1.280841e+001 197 164 124
3.483469e+000 9.948662e-001 -1.258722e+001 105 68 41
3.491316e+000 9.884831e-001 -1.260038e+001 105 68 41
3.557351e+000 1.012199e+000 -1.261681e+001 75 60 43
3.738833e+000 1.046936e+000 -1.264804e+001 50 34 19
3.383335e+000 8.811733e-001 -1.265535e+001 73 59 33
3.383397e+000 8.807056e-001 -1.265565e+001 73 59 33
3.518880e+000 9.453814e-001 -1.256213e+001 133 97 63
3.343183e+000 7.462061e-001 -1.277546e+001 154 135 106
3.662470e+000 8.819422e-001 -1.259272e+001 72 58 32
3.969218e+000 9.172240e-001 -1.267356e+001 115 82 51
4.010368e+000 8.912839e-001 -1.267580e+001 119 88 59
4.495441e+000 9.447786e-001 -1.275858e+001 99 66 35
4.495441e+000 9.447786e-001 -1.275858e+001 99 66 35
3.261626e+000 5.312920e-001 -1.295828e+001 172 129 87
4.439376e+000 7.840100e-001 -1.280520e+001 141 108 73
4.621754e+000 8.207113e-001 -1.281120e+001 127 88 51
4.640035e+000 8.245467e-001 -1.280066e+001 159 126 87
1.913263e+000 -1.059968e-001 -1.339319e+001 155 123 100
3.509542e+000 7.046677e-001 -1.254715e+001 235 213 186
3.746807e+000 5.373103e-001 -1.259777e+001 37 24 16
3.303340e+000 1.753566e+000 -1.321643e+001 44 25 18
4.670009e+000 1.998420e+000 -1.313807e+001 134 101 59
3.227283e+000 1.584679e+000 -1.319368e+001 118 83 55
4.215766e+000 1.684731e+000 -1.325206e+001 125 92 66
3.126289e+000 1.447699e+000 -1.330419e+001 107 95 71
3.126289e+000 1.447699e+000 -1.330419e+001 107 95 71
4.420853e+000 1.629975e+000 -1.324094e+001 109 76 47
3.004647e+000 1.263920e+000 -1.354883e+001 143 106 74
3.314169e+000 1.414420e+000 -1.301146e+001 101 70 44
3.323812e+000 1.410300e+000 -1.294530e+001 209 180 146
3.467253e+000 1.413116e+000 -1.291723e+001 112 96 74
3.492274e+000 1.406673e+000 -1.290479e+001 41 27 14
2.693632e+000 9.670529e-001 -1.353955e+001 185 123 108
2.979906e+000 1.088334e+000 -1.333603e+001 192 126 108
2.979906e+000 1.088334e+000 -1.333603e+001 192 126 108
3.478919e+000 1.358757e+000 -1.295239e+001 59 41 26
2.608865e+000 8.818108e-001 -1.365349e+001 163 90 73
3.052744e+000 1.062398e+000 -1.324640e+001 201 156 118
2.937195e+000 9.081553e-001 -1.327903e+001 158 78 71
3.239954e+000 1.077973e+000 -1.288129e+001 197 162 120
2.274288e+000 3.702939e-001 -1.374493e+001 145 91 75
3.159587e+000 7.757523e-001 -1.300876e+001 189 124 106
3.169700e+000 7.232430e-001 -1.301114e+001 114 67 44
3.510747e+000 9.764584e-001 -1.258005e+001 127 92 58
3.755264e+000 9.884688e-001 -1.263523e+001 46 32 21
3.795269e+000 9.114354e-001 -1.267590e+001 51 33 21
3.795269e+000 9.114354e-001 -1.267590e+001 51 33 21
4.081320e+000 8.716946e-001 -1.269025e+001 123 89 61
4.603048e+000 9.225748e-001 -1.279764e+001 81 47 19
4.603048e+000 9.225748e-001 -1.279764e+001 81 47 19
4.467288e+000 8.137509e-001 -1.280097e+001 145 110 73
4.608054e+000 8.321524e-001 -1.282671e+001 156 118 83
3.708875e+000 5.660958e-001 -1.261107e+001 38 27 21
3.149884e+000 1.614126e+000 -1.325673e+001 195 171 137
4.202572e+000 1.648576e+000 -1.323781e+001 100 69 41
3.442741e+000 1.479938e+000 -1.299844e+001 92 73 51
3.443140e+000 1.479363e+000 -1.300003e+001 92 73 51
4.044689e+000 1.541369e+000 -1.313138e+001 114 82 57
4.387040e+000 1.454665e+000 -1.310866e+001 126 91 63
2.588421e+000 8.996543e-001 -1.368719e+001 199 151 114
2.872827e+000 1.048680e+000 -1.339419e+001 165 80 73
2.913543e+000 1.064570e+000 -1.334812e+001 194 121 112
2.976954e+000 1.102451e+000 -1.340461e+001 181 120 101
2.950543e+000 1.038223e+000 -1.343637e+001 181 92 88
2.950543e+000 1.038223e+000 -1.343637e+001 181 92 88
3.321452e+000 1.281231e+000 -1.289835e+001 135 106 74
4.128956e+000 1.364246e+000 -1.300478e+001 91 59 36
2.701463e+000 9.145612e-001 -1.332511e+001 183 137 105
3.518092e+000 1.249024e+000 -1.280430e+001 101 86 63
2.784103e+000 8.314109e-001 -1.331327e+001 185 110 103
2.964364e+000 9.221611e-001 -1.327667e+001 180 101 96
3.292331e+000 1.082107e+000 -1.285685e+001 109 100 64
3.667294e+000 1.181199e+000 -1.276034e+001 91 77 51
3.045742e+000 7.750343e-001 -1.303245e+001 169 85 83
3.045852e+000 7.750026e-001 -1.303368e+001 169 85 83
3.299561e+000 8.950249e-001 -1.292079e+001 113 69 42
3.299561e+000 8.950249e-001 -1.292079e+001 113 69 42
3.346223e+000 8.962252e-001 -1.273537e+001 198 167 136
2.759752e+000 4.357012e-001 -1.316053e+001 175 106 91
3.323090e+000 7.626117e-001 -1.279519e+001 54 49 28
2.132855e+000 6.507695e-002 -1.352405e+001 182 146 121
3.338444e+000 6.037137e-001 -1.284886e+001 147 102 46
3.134089e+000 3.033334e-001 -1.320159e+001 117 49 38
4.456378e+000 1.794000e+000 -1.334313e+001 196 162 125
3.037035e+000 1.275832e+000 -1.351172e+001 156 132 98
4.398758e+000 1.556661e+000 -1.318354e+001 110 76 50
3.180189e+000 1.264538e+000 -1.317024e+001 100 94 67
4.312678e+000 1.450180e+000 -1.311728e+001 82 52 26
3.279481e+000 1.262464e+000 -1.308594e+001 141 105 81
2.809838e+000 9.727247e-001 -1.335230e+001 192 107 102
2.838053e+000 1.018887e+000 -1.338695e+001 203 137 123
2.892304e+000 8.920833e-001 -1.330758e+001 191 107 105
4.068268e+000 1.228546e+000 -1.291003e+001 93 63 39
2.765180e+000 7.385724e-001 -1.315154e+001 194 111 103
3.027843e+000 8.714023e-001 -1.304049e+001 203 130 117
4.051692e+000 1.125075e+000 -1.279751e+001 80 52 28
4.051406e+000 1.125381e+000 -1.279721e+001 80 52 28
4.759350e+000 1.174770e+000 -1.289843e+001 168 129 67
3.378325e+000 9.952043e-001 -1.278232e+001 42 34 20
4.469794e+000 1.103473e+000 -1.283983e+001 108 73 43
3.288292e+000 6.469428e-001 -1.288741e+001 158 112 58
2.882947e+000 2.843445e-001 -1.316126e+001 148 73 67
2.936460e+000 3.054740e-001 -1.314736e+001 180 108 103
4.064167e+000 1.854112e+000 -1.347129e+001 95 65 37
3.450139e+000 1.695746e+000 -1.324525e+001 38 25 16
3.097577e+000 1.516818e+000 -1.326530e+001 198 167 134
3.352298e+000 1.603124e+000 -1.305992e+001 39 22 10
3.230100e+000 1.347974e+000 -1.305004e+001 150 120 94
3.028596e+000 9.934054e-001 -1.325110e+001 183 113 101
2.783771e+000 7.603255e-001 -1.330633e+001 142 67 61
3.508583e+000 1.088704e+000 -1.265631e+001 54 38 25
3.630034e+000 1.085991e+000 -1.272004e+001 51 37 26
3.735005e+000 1.133218e+000 -1.271145e+001 48 32 18
2.280610e+000 3.422951e-001 -1.366852e+001 192 137 117
2.284857e+000 3.574099e-001 -1.363998e+001 192 137 117
3.275439e+000 8.268428e-001 -1.298050e+001 119 71 48
3.275439e+000 8.268428e-001 -1.298050e+001 119 71 48
3.967625e+000 1.066678e+000 -1.271959e+001 117 87 61
4.412647e+000 1.093253e+000 -1.282116e+001 137 102 68
4.583336e+000 1.128846e+000 -1.286406e+001 100 65 37
2.809310e+000 6.679351e-001 -1.309391e+001 190 105 102
3.940677e+000 9.954666e-001 -1.270185e+001 69 43 20
3.293753e+000 1.611835e+000 -1.310863e+001 204 175 145
3.586949e+000 1.634600e+000 -1.311360e+001 56 39 22
3.301678e+000 1.558286e+000 -1.302041e+001 167 142 111
3.318467e+000 1.485300e+000 -1.301079e+001 185 160 126
