ply
format ascii 1.0
element face 0
property list uchar int vertex_indices
element vertex 899
property float x
property float y
property float z
property uchar diffuse_red
property uchar diffuse_green
property uchar diffuse_blue
end_header
2.870140e+000 2.444499e-001 -1.478355e+001 145 110 53
1.589012e+000 -2.196618e-001 -1.399064e+001 79 55 43
2.735579e+000 6.608128e-002 -1.453989e+001 163 114 99
3.220227e+000 7.629653e-001 -1.476922e+001 148 126 95
3.244087e+000 8.277520e-001 -1.467965e+001 136 117 88
2.498216e+000 7.784601e-001 -1.433007e+001 172 120 107
3.254309e+000 9.691080e-001 -1.454467e+001 98 78 46
3.229829e+000 1.220700e+000 -1.426815e+001 45 29 19
3.998757e+000 1.589047e+000 -1.398477e+001 131 99 74
3.999249e+000 1.588743e+000 -1.398395e+001 131 99 74
4.425379e+000 1.685115e+000 -1.400241e+001 171 133 97
3.199873e+000 1.619313e+000 -1.371029e+001 61 40 29
3.325029e+000 1.617418e+000 -1.382252e+001 132 110 78
4.501852e+000 1.734538e+000 -1.393559e+001 135 95 56
3.183732e+000 1.695341e+000 -1.367370e+001 61 38 22
3.654564e+000 1.804759e+000 -1.357997e+001 101 67 40
3.348076e+000 3.698906e-001 -1.506727e+001 70 51 36
3.242183e+000 6.242237e-001 -1.487780e+001 157 133 103
2.822277e+000 3.528981e-001 -1.448430e+001 118 73 52
1.773240e+000 2.693925e-001 -1.370659e+001 98 43 43
1.773240e+000 2.693925e-001 -1.370659e+001 98 43 43
2.972192e+000 8.622038e-001 -1.458098e+001 188 157 128
3.766361e+000 9.491272e-001 -1.471550e+001 123 93 67
2.383160e+000 3.941432e-001 -1.369146e+001 193 131 120
2.615202e+000 8.995967e-001 -1.415174e+001 187 131 114
2.950974e+000 1.015921e+000 -1.425510e+001 128 91 64
4.172534e+000 1.558833e+000 -1.409664e+001 120 84 52
3.168638e+000 1.494063e+000 -1.384042e+001 60 35 23
2.919071e+000 4.874080e-001 -1.497821e+001 186 160 133
2.935236e+000 4.298780e-001 -1.488203e+001 120 93 72
1.414455e+000 -1.610916e-001 -1.391051e+001 124 94 65
2.978533e+000 2.274394e-001 -1.454982e+001 94 59 37
3.002184e+000 6.668494e-001 -1.483537e+001 65 39 22
3.611104e+000 8.779292e-001 -1.473502e+001 89 64 43
3.813601e+000 1.116065e+000 -1.453651e+001 129 100 70
3.717627e+000 1.269525e+000 -1.430959e+001 136 105 77
2.631560e+000 9.021812e-001 -1.344383e+001 174 120 92
3.017101e+000 1.341299e+000 -1.398831e+001 138 94 65
3.005855e+000 1.348901e+000 -1.400083e+001 138 94 65
3.404570e+000 1.629704e+000 -1.380237e+001 89 71 49
3.387347e+000 1.724177e+000 -1.375334e+001 88 67 46
2.884756e+000 5.895875e-001 -1.474554e+001 78 76 55
2.884756e+000 5.895875e-001 -1.474554e+001 78 76 55
3.094644e+000 7.798620e-001 -1.485679e+001 36 24 19
3.031705e+000 9.679545e-001 -1.451328e+001 82 58 45
2.937593e+000 1.022569e+000 -1.407882e+001 112 67 40
3.838957e+000 1.541107e+000 -1.392457e+001 110 84 59
2.550658e+000 7.399770e-001 -1.418652e+001 110 52 42
1.957098e+000 9.866551e-002 -1.377400e+001 134 90 63
1.955095e+000 1.076679e-001 -1.378380e+001 134 90 63
1.747949e+000 2.468404e-001 -1.387755e+001 173 137 104
2.116956e+000 2.563308e-001 -1.377234e+001 214 178 152
2.451948e+000 8.506866e-001 -1.415493e+001 176 114 105
2.880548e+000 9.438691e-001 -1.421207e+001 152 102 74
2.717529e+000 8.593997e-001 -1.389356e+001 148 72 63
2.818067e+000 9.639022e-001 -1.397741e+001 178 128 86
3.887338e+000 1.389798e+000 -1.428046e+001 145 110 78
2.940763e+000 1.232270e+000 -1.473782e+001 49 32 26
3.097498e+000 6.312156e-001 -1.478837e+001 55 39 26
3.838958e+000 1.007885e+000 -1.465302e+001 96 74 50
3.765128e+000 9.596469e-001 -1.469499e+001 98 72 49
1.678078e+000 1.235484e-001 -1.389797e+001 145 112 92
3.514507e+000 8.903118e-001 -1.470178e+001 89 62 41
3.756415e+000 1.274162e+000 -1.433894e+001 95 67 45
3.670358e+000 9.119637e-001 -1.470558e+001 117 90 70
3.906452e+000 1.429473e+000 -1.417844e+001 111 80 52
3.953162e+000 1.268940e+000 -1.441686e+001 123 93 69
3.503062e+000 7.634879e-001 -1.486111e+001 124 96 72
3.697952e+000 8.864075e-001 -1.475162e+001 75 49 26
4.062542e+000 1.137409e+000 -1.459172e+001 75 44 23
4.062542e+000 1.137409e+000 -1.459172e+001 75 44 23
3.881318e+000 1.175681e+000 -1.449943e+001 95 64 36
3.881318e+000 1.175681e+000 -1.449943e+001 95 64 36
3.991339e+000 1.229738e+000 -1.446570e+001 110 79 51
3.824748e+000 1.476164e+000 -1.406833e+001 111 80 54
4.014523e+000 7.304253e-001 -1.511482e+001 98 68 43
2.465340e+000 4.426012e-001 -1.391487e+001 219 141 139
2.465340e+000 4.426012e-001 -1.391487e+001 219 141 139
3.881751e+000 1.063589e+000 -1.459982e+001 91 56 36
4.182492e+000 1.447718e+000 -1.423856e+001 166 130 95
4.182492e+000 1.447718e+000 -1.423856e+001 166 130 95
3.974531e+000 1.007138e+000 -1.470149e+001 126 96 70
4.021158e+000 1.031326e+000 -1.469379e+001 141 113 87
4.306781e+000 1.542857e+000 -1.422608e+001 173 137 103
3.147315e+000 1.611558e+000 -1.329393e+001 115 103 71
3.821993e+000 9.103436e-001 -1.474681e+001 89 59 35
3.999056e+000 9.508398e-001 -1.479088e+001 134 103 75
3.585703e+000 9.394439e-001 -1.465606e+001 91 64 40
3.788970e+000 9.979242e-001 -1.464981e+001 94 64 39
3.330122e+000 2.442531e-001 -1.487716e+001 68 51 39
4.190414e+000 8.884332e-001 -1.495784e+001 170 135 105
4.028173e+000 1.648865e+000 -1.393350e+001 148 114 86
3.002368e+000 5.285862e-001 -1.493831e+001 101 75 57
2.903202e+000 5.899080e-001 -1.493395e+001 186 155 127
3.199635e+000 6.217165e-001 -1.495300e+001 94 76 53
1.502920e+000 -1.165514e-002 -1.397716e+001 97 65 37
3.926190e+000 8.522198e-001 -1.489625e+001 125 94 67
3.814839e+000 9.054378e-001 -1.476794e+001 116 87 61
3.870988e+000 9.368456e-001 -1.475923e+001 83 51 28
2.363127e+000 5.101454e-001 -1.351783e+001 213 155 127
3.396183e+000 1.218440e+000 -1.441451e+001 71 50 29
2.997114e+000 1.247651e+000 -1.416760e+001 193 158 126
4.434288e+000 1.508386e+000 -1.451020e+001 135 97 51
3.740207e+000 1.500118e+000 -1.400509e+001 67 41 19
2.900515e+000 6.637558e-001 -1.481117e+001 178 152 123
2.954579e+000 6.671396e-001 -1.482810e+001 119 85 57
2.598396e+000 7.102160e-001 -1.451012e+001 183 121 112
2.850805e+000 8.000673e-001 -1.437135e+001 83 72 44
3.640071e+000 1.095001e+000 -1.450034e+001 71 45 22
3.309596e+000 5.393359e-001 -1.506881e+001 148 122 99
1.699369e+000 1.354615e-001 -1.384608e+001 163 132 113
2.943828e+000 7.796013e-001 -1.468851e+001 189 158 129
2.904572e+000 8.947558e-001 -1.439665e+001 45 39 15
3.838482e+000 1.033313e+000 -1.461152e+001 114 88 63
4.085605e+000 1.884844e+000 -1.361466e+001 169 131 95
3.763974e+000 6.653072e-001 -1.510366e+001 90 59 31
3.761222e+000 7.525468e-001 -1.499298e+001 105 72 41
3.654826e+000 7.763376e-001 -1.492050e+001 107 73 45
3.916689e+000 8.110909e-001 -1.495869e+001 105 70 39
2.947204e+000 8.113625e-001 -1.460200e+001 131 91 55
2.870621e+000 7.472445e-001 -1.442360e+001 126 86 61
3.795061e+000 1.015736e+000 -1.463338e+001 116 90 65
3.779482e+000 1.285619e+000 -1.435560e+001 110 80 52
4.036535e+000 1.405417e+000 -1.429603e+001 147 112 82
2.057367e+000 1.479903e-001 -1.399004e+001 73 51 36
4.094930e+000 1.640227e+000 -1.395281e+001 137 106 77
3.272597e+000 6.183813e-001 -1.497126e+001 68 49 32
2.701290e+000 8.075363e-001 -1.431461e+001 172 103 99
2.953655e+000 1.552731e-001 -1.488603e+001 99 81 57
4.022783e+000 5.773260e-001 -1.525018e+001 96 65 37
4.158560e+000 8.274028e-001 -1.500379e+001 102 66 33
2.239279e+000 4.047121e-001 -1.387656e+001 102 61 39
3.372970e+000 8.691837e-001 -1.463556e+001 128 95 72
2.856886e+000 8.610303e-001 -1.437285e+001 55 51 26
2.613418e+000 8.712198e-001 -1.413375e+001 157 97 77
4.383885e+000 1.199763e+000 -1.495085e+001 128 91 46
4.058925e+000 1.121552e+000 -1.461524e+001 78 43 21
4.417081e+000 1.225215e+000 -1.475684e+001 127 90 46
2.365664e+000 9.064242e-001 -1.386301e+001 162 99 82
2.690883e+000 9.742500e-001 -1.385929e+001 206 158 131
3.555202e+000 1.248714e+000 -1.430075e+001 102 68 40
4.242060e+000 1.380924e+000 -1.435387e+001 93 57 24
4.418060e+000 1.500413e+000 -1.456506e+001 129 92 47
3.841525e+000 1.416141e+000 -1.411002e+001 95 64 34
4.443087e+000 1.843494e+000 -1.429582e+001 134 96 51
3.389484e+000 1.682971e+000 -1.371182e+001 46 31 10
1.423393e+000 -3.257787e-001 -1.387277e+001 71 48 34
3.193660e+000 5.613850e-001 -1.508149e+001 65 50 31
1.375240e+000 9.270317e-002 -1.388969e+001 100 69 48
3.527987e+000 8.231896e-001 -1.482034e+001 97 71 48
2.955495e+000 9.872794e-001 -1.444447e+001 155 126 96
3.775835e+000 9.935799e-001 -1.463880e+001 60 32 10
3.974012e+000 1.024024e+000 -1.468403e+001 81 50 22
4.223588e+000 1.167881e+000 -1.464957e+001 147 112 74
3.122280e+000 1.166422e+000 -1.439521e+001 57 40 27
3.191644e+000 1.239371e+000 -1.426627e+001 71 54 38
3.833310e+000 1.253608e+000 -1.439042e+001 74 47 20
3.660443e+000 1.471469e+000 -1.405318e+001 102 75 48
3.842089e+000 1.449473e+000 -1.409459e+001 83 53 26
3.844031e+000 1.448920e+000 -1.409306e+001 83 53 26
3.985401e+000 1.536923e+000 -1.406143e+001 98 67 37
4.458747e+000 1.551248e+000 -1.413873e+001 166 128 90
3.979802e+000 1.592887e+000 -1.396527e+001 97 67 39
4.067594e+000 1.667521e+000 -1.390722e+001 92 60 32
4.218506e+000 1.737101e+000 -1.388744e+001 130 95 63
3.122877e+000 1.718642e+000 -1.361532e+001 165 130 100
3.892656e+000 1.779878e+000 -1.374925e+001 115 82 49
4.224014e+000 1.899860e+000 -1.364991e+001 124 86 49
3.942656e+000 5.637821e-001 -1.524170e+001 88 61 32
2.434643e+000 7.535473e-001 -1.442988e+001 154 97 73
3.643651e+000 8.852098e-001 -1.473995e+001 103 77 51
2.964687e+000 1.009795e+000 -1.444890e+001 188 159 127
3.284004e+000 1.031412e+000 -1.450245e+001 43 29 16
2.477927e+000 9.608638e-001 -1.381527e+001 191 126 108
2.662541e+000 9.569880e-001 -1.373611e+001 193 140 108
4.441516e+000 1.355817e+000 -1.439238e+001 124 86 49
3.150913e+000 1.337638e+000 -1.406407e+001 190 172 140
2.926148e+000 1.103791e+000 -1.344125e+001 179 106 89
2.926148e+000 1.103791e+000 -1.344125e+001 179 106 89
3.352724e+000 1.377652e+000 -1.403165e+001 51 36 16
3.786565e+000 1.418835e+000 -1.412487e+001 111 82 52
3.713823e+000 1.490567e+000 -1.404305e+001 114 87 60
3.270457e+000 1.482369e+000 -1.391283e+001 96 75 50
4.186086e+000 1.538734e+000 -1.411304e+001 112 74 41
3.848367e+000 1.857408e+000 -1.358975e+001 123 84 51
4.029722e+000 1.876537e+000 -1.347145e+001 143 106 65
2.882856e+000 4.072207e-001 -1.487552e+001 96 80 54
2.951017e+000 2.579872e-001 -1.451907e+001 151 114 88
3.215941e+000 6.906496e-001 -1.487812e+001 54 40 25
3.747839e+000 9.052779e-001 -1.474697e+001 99 71 47
2.363018e+000 9.011359e-001 -1.412066e+001 158 96 81
2.375715e+000 5.793527e-001 -1.346974e+001 153 104 77
2.948069e+000 1.030490e+000 -1.432902e+001 180 147 116
3.042037e+000 1.271471e+000 -1.417220e+001 132 97 66
3.065070e+000 1.386253e+000 -1.391916e+001 171 126 92
3.888417e+000 1.493826e+000 -1.405256e+001 84 54 27
3.113659e+000 1.448568e+000 -1.365554e+001 151 117 79
3.318996e+000 1.602031e+000 -1.372362e+001 84 68 45
3.781472e+000 1.601108e+000 -1.388016e+001 115 85 57
3.250981e+000 1.692508e+000 -1.367658e+001 48 32 16
4.438530e+000 1.934056e+000 -1.342765e+001 127 116 114
3.054402e+000 2.714999e-001 -1.498558e+001 97 79 61
2.862731e+000 3.308363e-001 -1.487441e+001 160 135 100
2.753719e+000 1.826653e-001 -1.456928e+001 109 64 42
3.814585e+000 7.534184e-001 -1.497859e+001 131 99 66
3.814585e+000 7.534184e-001 -1.497859e+001 131 99 66
1.529997e+000 6.624176e-002 -1.347039e+001 110 74 58
2.980403e+000 1.047883e+000 -1.433220e+001 103 60 25
3.245132e+000 1.210932e+000 -1.440396e+001 44 33 19
3.999544e+000 1.220127e+000 -1.448805e+001 116 89 60
3.599111e+000 1.310646e+000 -1.424890e+001 126 95 66
3.965374e+000 1.424626e+000 -1.420262e+001 143 110 75
3.487163e+000 1.838744e+000 -1.349429e+001 64 51 29
3.425807e+000 4.674330e-001 -1.513659e+001 90 64 39
4.057466e+000 4.777942e-001 -1.528695e+001 110 84 61
2.888434e+000 3.767930e-001 -1.455144e+001 101 60 40
3.573370e+000 7.038767e-001 -1.498018e+001 116 85 56
3.277823e+000 1.011049e+000 -1.446660e+001 65 47 23
3.886079e+000 1.235385e+000 -1.443358e+001 119 88 59
3.947519e+000 1.364167e+000 -1.426523e+001 145 111 76
3.369431e+000 1.745622e+000 -1.365292e+001 102 85 47
2.920328e+000 4.043680e-001 -1.502067e+001 157 132 104
2.920931e+000 4.037400e-001 -1.501997e+001 157 132 104
3.898056e+000 5.223127e-001 -1.523258e+001 63 42 21
2.923936e+000 7.488857e-001 -1.451434e+001 124 81 49
2.327484e+000 4.309341e-001 -1.388703e+001 178 120 106
2.830474e+000 7.822132e-001 -1.440815e+001 146 105 83
2.599008e+000 8.254109e-001 -1.424173e+001 125 74 58
2.434515e+000 5.156067e-001 -1.361023e+001 161 112 87
4.286866e+000 1.414284e+000 -1.432522e+001 158 123 83
3.135182e+000 1.399720e+000 -1.397819e+001 51 32 18
3.098767e+000 1.550889e+000 -1.379510e+001 199 171 134
3.110026e+000 1.682615e+000 -1.358317e+001 190 161 131
3.960098e+000 1.736879e+000 -1.377990e+001 141 107 75
3.682520e+000 6.788969e-001 -1.505634e+001 94 59 33
3.183878e+000 1.174251e+000 -1.436499e+001 59 41 27
3.930976e+000 1.855406e+000 -1.351975e+001 147 111 75
3.215165e+000 5.817730e-001 -1.510330e+001 61 46 31
2.418850e+000 3.451155e-001 -1.408504e+001 146 80 64
2.520268e+000 9.295853e-001 -1.401086e+001 140 68 58
4.178875e+000 5.435727e-001 -1.531124e+001 143 109 76
4.002009e+000 6.018594e-001 -1.523176e+001 118 87 56
2.583430e+000 7.543563e-001 -1.434960e+001 123 55 44
2.814273e+000 9.667484e-001 -1.398163e+001 173 122 78
2.910635e+000 4.423086e-001 -1.468964e+001 83 66 48
3.703220e+000 1.517392e+000 -1.395757e+001 103 75 51
4.024578e+000 8.637555e-001 -1.490923e+001 113 80 54
3.249825e+000 1.572877e+000 -1.376723e+001 88 64 48
3.444567e+000 5.549233e-001 -1.511428e+001 103 74 49
1.501427e+000 6.339037e-002 -1.396550e+001 147 112 75
2.382779e+000 9.063443e-001 -1.403720e+001 188 130 116
3.514059e+000 1.150210e+000 -1.439765e+001 107 73 48
3.890947e+000 7.941049e-001 -1.496641e+001 141 106 75
4.004776e+000 1.497194e+000 -1.409932e+001 120 85 55
3.814655e+000 4.719607e-001 -1.522550e+001 86 58 35
3.446004e+000 5.574136e-001 -1.510274e+001 90 60 36
3.079392e+000 6.402752e-001 -1.493396e+001 182 165 142
3.079392e+000 6.402752e-001 -1.493396e+001 182 165 142
3.703630e+000 8.818722e-001 -1.477851e+001 87 61 36
3.972536e+000 1.161492e+000 -1.453980e+001 90 58 32
3.844097e+000 1.263508e+000 -1.439509e+001 101 69 48
4.020637e+000 8.659735e-001 -1.491015e+001 109 74 44
4.288887e+000 1.735195e+000 -1.390966e+001 112 76 43
4.288887e+000 1.735195e+000 -1.390966e+001 112 76 43
3.429489e+000 5.568048e-001 -1.508245e+001 89 59 31
3.671039e+000 7.068136e-001 -1.502915e+001 127 93 66
3.237860e+000 7.300505e-001 -1.479702e+001 46 30 16
3.582335e+000 8.575553e-001 -1.476410e+001 106 80 53
3.586309e+000 8.654291e-001 -1.475384e+001 62 37 14
2.411783e+000 5.208361e-001 -1.357092e+001 160 104 79
3.356720e+000 4.784084e-001 -1.511641e+001 122 93 69
1.403226e+000 -7.767880e-002 -1.391579e+001 87 56 35
3.982653e+000 8.079013e-001 -1.498462e+001 127 94 61
2.368769e+000 8.109508e-001 -1.385152e+001 147 90 71
3.770701e+000 1.463347e+000 -1.404083e+001 74 47 20
3.770701e+000 1.463347e+000 -1.404083e+001 74 47 20
3.746817e+000 1.619403e+000 -1.382453e+001 118 86 61
3.930841e+000 1.076654e+000 -1.460581e+001 75 46 22
4.005484e+000 1.204147e+000 -1.451434e+001 90 56 31
3.597553e+000 1.267512e+000 -1.429963e+001 115 83 58
3.732036e+000 1.273967e+000 -1.434238e+001 118 89 59
3.346963e+000 1.369589e+000 -1.400077e+001 145 128 101
3.968686e+000 8.689247e-001 -1.489144e+001 112 81 53
3.246899e+000 1.476176e+000 -1.385717e+001 62 45 30
3.514883e+000 1.745827e+000 -1.362481e+001 158 127 101
4.047389e+000 5.494760e-001 -1.526666e+001 92 58 32
4.038501e+000 5.546245e-001 -1.527160e+001 92 58 32
3.471134e+000 7.931729e-001 -1.481402e+001 76 48 26
3.736738e+000 1.201756e+000 -1.442655e+001 107 76 47
4.050918e+000 1.202017e+000 -1.452764e+001 132 101 72
4.326299e+000 1.205491e+000 -1.460999e+001 159 125 88
1.370456e+000 -3.074240e-001 -1.382259e+001 113 81 66
2.594353e+000 2.660846e-001 -1.452896e+001 173 128 99
1.675440e+000 1.236996e-001 -1.387484e+001 149 119 95
3.849164e+000 8.423282e-001 -1.489555e+001 125 92 61
3.706601e+000 8.807880e-001 -1.477511e+001 88 61 36
2.960633e+000 8.433526e-001 -1.454153e+001 161 126 91
3.752258e+000 9.835483e-001 -1.465525e+001 101 74 45
3.765193e+000 9.757418e-001 -1.466183e+001 70 44 17
2.357713e+000 7.970097e-001 -1.383626e+001 176 126 103
4.058251e+000 1.122027e+000 -1.461672e+001 79 49 25
3.140052e+000 1.115496e+000 -1.443852e+001 191 176 133
3.009734e+000 1.261126e+000 -1.415215e+001 178 143 105
3.626121e+000 1.287317e+000 -1.427469e+001 119 87 59
3.626121e+000 1.287317e+000 -1.427469e+001 119 87 59
3.371334e+000 1.397627e+000 -1.400718e+001 80 65 41
4.455629e+000 1.619892e+000 -1.429515e+001 140 99 55
3.924098e+000 1.644230e+000 -1.388207e+001 98 67 38
4.448278e+000 1.789566e+000 -1.430142e+001 135 97 52
4.458079e+000 1.796877e+000 -1.427085e+001 137 99 52
4.147874e+000 1.864638e+000 -1.368327e+001 107 71 37
3.247343e+000 -5.332200e-001 -1.454204e+001 64 59 40
1.351537e+000 -3.254336e-001 -1.382276e+001 143 106 91
3.211845e+000 4.368461e-001 -1.513660e+001 212 192 137
2.922781e+000 4.401940e-001 -1.491819e+001 112 86 59
2.923883e+000 5.277847e-001 -1.494796e+001 125 93 65
2.874835e+000 6.057528e-001 -1.480309e+001 77 65 39
2.931912e+000 6.366338e-001 -1.485067e+001 186 156 121
2.134717e+000 2.960592e-001 -1.400981e+001 110 82 59
3.090499e+000 6.923982e-001 -1.485566e+001 222 206 141
3.091119e+000 6.923750e-001 -1.485563e+001 222 206 141
3.775942e+000 9.086524e-001 -1.475503e+001 64 38 14
2.961565e+000 8.809382e-001 -1.444828e+001 129 102 75
4.019149e+000 1.123955e+000 -1.459751e+001 99 73 50
3.157939e+000 1.135489e+000 -1.444384e+001 82 66 45
3.004946e+000 1.143269e+000 -1.429487e+001 181 149 112
3.868408e+000 1.265430e+000 -1.439542e+001 111 80 52
3.981443e+000 1.271433e+000 -1.443523e+001 99 68 39
3.035583e+000 1.256490e+000 -1.414273e+001 165 132 97
2.836879e+000 1.242607e+000 -1.391201e+001 139 92 39
2.934702e+000 1.343767e+000 -1.386214e+001 166 123 70
2.934702e+000 1.343767e+000 -1.386214e+001 166 123 70
3.606007e+000 1.395523e+000 -1.406475e+001 92 62 34
3.606007e+000 1.395523e+000 -1.406475e+001 92 62 34
4.127945e+000 1.484621e+000 -1.416355e+001 121 87 50
3.289791e+000 1.537445e+000 -1.378766e+001 49 31 17
4.022735e+000 1.616756e+000 -1.394025e+001 80 49 20
4.022735e+000 1.616756e+000 -1.394025e+001 80 49 20
4.127692e+000 1.680948e+000 -1.392767e+001 99 67 38
3.935052e+000 1.772700e+000 -1.373563e+001 135 100 68
3.898518e+000 4.740726e-001 -1.524884e+001 101 75 48
1.451616e+000 9.527129e-002 -1.388717e+001 113 76 50
2.913552e+000 6.027208e-001 -1.490201e+001 217 193 159
3.246779e+000 6.945986e-001 -1.487346e+001 148 133 108
3.559884e+000 8.980719e-001 -1.469624e+001 103 74 49
3.709773e+000 9.476154e-001 -1.468332e+001 117 90 61
3.889622e+000 9.535531e-001 -1.474591e+001 121 87 59
3.207547e+000 1.128425e+000 -1.444359e+001 68 54 43
2.995575e+000 1.126486e+000 -1.428296e+001 123 89 54
3.098042e+000 1.186203e+000 -1.434491e+001 197 181 142
3.109517e+000 1.202987e+000 -1.433456e+001 88 73 51
3.825523e+000 1.238413e+000 -1.442734e+001 119 88 57
3.994469e+000 1.290948e+000 -1.443643e+001 124 93 63
4.052721e+000 1.296051e+000 -1.440762e+001 88 57 28
4.052721e+000 1.296051e+000 -1.440762e+001 88 57 28
3.608758e+000 1.293853e+000 -1.427562e+001 122 91 62
3.785281e+000 1.284318e+000 -1.435190e+001 112 84 54
4.174874e+000 1.365652e+000 -1.438139e+001 134 100 63
3.094532e+000 1.442052e+000 -1.389690e+001 212 180 149
3.377438e+000 1.429760e+000 -1.393510e+001 59 43 28
4.230253e+000 1.519575e+000 -1.414393e+001 153 118 80
4.148214e+000 1.541414e+000 -1.409112e+001 101 66 34
3.947915e+000 1.652423e+000 -1.387533e+001 106 74 43
4.004046e+000 1.696847e+000 -1.385179e+001 94 64 32
4.121120e+000 1.665356e+000 -1.390329e+001 95 64 36
3.155430e+000 1.640644e+000 -1.325516e+001 104 91 57
4.370820e+000 -2.364614e-001 -1.487954e+001 95 74 47
1.690274e+000 -1.534931e-001 -1.402335e+001 102 74 52
3.959197e+000 6.265122e-001 -1.519370e+001 90 59 30
4.025018e+000 6.629642e-001 -1.519863e+001 100 66 38
3.831175e+000 8.442739e-001 -1.487388e+001 95 64 35
3.494859e+000 1.030250e+000 -1.452158e+001 111 79 48
3.201692e+000 1.053305e+000 -1.444215e+001 65 47 33
3.897057e+000 1.170316e+000 -1.451435e+001 114 83 55
3.005721e+000 1.170905e+000 -1.426098e+001 212 180 148
3.930366e+000 1.237882e+000 -1.444605e+001 102 68 40
3.719789e+000 1.561253e+000 -1.388255e+001 85 59 32
2.915862e+000 4.984520e-001 -1.492290e+001 101 74 46
2.052210e+000 1.539443e-001 -1.400404e+001 77 53 34
2.882491e+000 4.940100e-001 -1.464684e+001 164 134 106
3.838076e+000 7.672920e-001 -1.501519e+001 144 109 76
3.953589e+000 1.203274e+000 -1.451515e+001 124 93 64
3.216516e+000 1.349421e+000 -1.400055e+001 86 73 54
4.166312e+000 1.507124e+000 -1.415752e+001 120 84 48
3.103545e+000 1.478005e+000 -1.376888e+001 166 130 93
3.747077e+000 1.733038e+000 -1.370352e+001 146 112 79
2.891919e+000 5.323672e-001 -1.487787e+001 110 83 54
2.877521e+000 6.008999e-001 -1.480874e+001 90 78 51
3.961804e+000 7.584013e-001 -1.505909e+001 107 73 38
3.210618e+000 7.708497e-001 -1.477486e+001 238 216 159
4.128901e+000 1.299519e+000 -1.446293e+001 141 107 70
2.987618e+000 1.205790e+000 -1.409092e+001 168 132 90
3.714102e+000 1.360459e+000 -1.419454e+001 143 113 79
3.648861e+000 1.425797e+000 -1.407938e+001 125 99 65
3.072527e+000 1.412287e+000 -1.386356e+001 155 110 69
3.727314e+000 1.599211e+000 -1.380012e+001 126 97 67
3.463188e+000 3.614946e-001 -1.513550e+001 97 70 43
2.719844e+000 7.886956e-002 -1.454720e+001 152 105 85
1.551243e+000 -1.054954e-002 -1.399664e+001 128 97 68
2.906955e+000 4.336000e-001 -1.490155e+001 102 78 54
3.472428e+000 7.134000e-001 -1.490340e+001 106 75 46
3.616925e+000 8.775136e-001 -1.473237e+001 92 66 41
3.892393e+000 1.030549e+000 -1.468227e+001 123 92 63
3.161318e+000 1.428706e+000 -1.389846e+001 53 33 21
3.667655e+000 4.419288e-001 -1.518890e+001 89 59 35
3.551552e+000 1.172314e+000 -1.437765e+001 104 74 47
2.960009e+000 1.161268e+000 -1.409463e+001 168 130 93
3.065554e+000 9.485578e-001 -1.447577e+001 80 57 41
3.824269e+000 1.047788e+000 -1.457360e+001 98 67 39
4.287386e+000 1.120163e+000 -1.468440e+001 166 126 90
2.887548e+000 9.214405e-001 -1.417645e+001 142 88 56
3.583969e+000 9.469470e-001 -1.464343e+001 102 72 48
4.168402e+000 1.145256e+000 -1.463367e+001 125 91 65
4.168402e+000 1.145256e+000 -1.463367e+001 125 91 65
1.727186e+000 -2.954054e-002 -1.399702e+001 148 114 87
2.775070e+000 2.367702e-001 -1.454481e+001 169 123 97
3.068944e+000 6.904191e-001 -1.481443e+001 254 246 199
2.863956e+000 5.737424e-001 -1.459861e+001 154 118 86
4.181213e+000 1.540335e+000 -1.411878e+001 112 75 41
2.411906e+000 4.182036e-001 -1.397342e+001 185 119 100
3.965116e+000 1.078386e+000 -1.462600e+001 112 83 53
4.320549e+000 1.503297e-001 -1.515446e+001 25 19 14
3.436526e+000 6.604781e-001 -1.499179e+001 109 79 48
3.863475e+000 1.275620e+000 -1.438178e+001 76 46 21
3.533770e+000 1.261662e+000 -1.427031e+001 120 89 60
3.826865e+000 4.636031e-001 -1.522729e+001 83 57 34
3.845475e+000 9.865668e-001 -1.467314e+001 67 40 13
3.871972e+000 1.051249e+000 -1.461640e+001 115 85 57
4.161528e+000 1.121326e+000 -1.465631e+001 113 79 51
3.565760e+000 1.266324e+000 -1.429540e+001 133 100 69
3.721100e+000 1.385195e+000 -1.416196e+001 95 64 35
3.610183e+000 1.193951e+000 -1.438536e+001 121 90 62
3.019881e+000 1.219921e+000 -1.420336e+001 188 158 124
3.661470e+000 1.602098e+000 -1.381874e+001 105 71 43
4.356277e+000 1.139367e-001 -1.523773e+001 106 80 50
3.621692e+000 1.126672e+000 -1.444251e+001 116 88 59
3.973530e+000 5.845482e-001 -1.524986e+001 127 94 63
3.845124e+000 8.741250e-001 -1.484652e+001 136 103 72
7.817301e+000 -1.124975e+001 1.101044e+001 30 29 35
3.239654e+000 1.056054e+000 -1.441835e+001 57 40 30
3.165040e+000 -3.813315e-001 -1.451128e+001 83 60 39
3.165997e+000 -2.441121e-001 -1.470142e+001 63 48 31
3.324497e+000 -7.739186e-002 -1.488985e+001 57 50 31
3.128114e+000 1.797583e-002 -1.493961e+001 56 51 32
3.208069e+000 1.611922e-001 -1.506785e+001 74 68 54
2.696855e+000 -6.363979e-002 -1.444234e+001 132 80 67
1.452003e+000 -6.502643e-002 -1.396665e+001 108 75 50
1.422322e+000 7.043535e-002 -1.392568e+001 95 63 41
1.376966e+000 7.006548e-002 -1.386978e+001 94 62 49
3.586642e+000 5.322077e-001 -1.516565e+001 111 84 54
4.144142e+000 8.216903e-001 -1.502872e+001 91 56 17
4.145671e+000 8.349345e-001 -1.502925e+001 152 113 74
2.894424e+000 7.870493e-001 -1.441152e+001 149 111 78
3.616430e+000 8.867027e-001 -1.472307e+001 80 50 26
3.819445e+000 9.133065e-001 -1.474586e+001 78 49 21
3.512743e+000 9.690814e-001 -1.459269e+001 68 37 17
3.532230e+000 9.648437e-001 -1.459561e+001 65 38 11
3.737657e+000 9.458785e-001 -1.468442e+001 73 43 17
2.319272e+000 8.031428e-001 -1.379405e+001 151 98 75
2.979253e+000 1.012810e+000 -1.447013e+001 177 144 109
3.627544e+000 1.109885e+000 -1.446876e+001 85 58 31
4.362911e+000 1.306768e+000 -1.500150e+001 134 96 51
3.583328e+000 1.193235e+000 -1.438056e+001 97 66 37
3.985591e+000 1.233549e+000 -1.446805e+001 97 65 36
4.380170e+000 1.379310e+000 -1.490551e+001 167 129 82
4.422817e+000 1.501534e+000 -1.456667e+001 132 91 45
3.637908e+000 1.437544e+000 -1.404704e+001 82 52 26
3.135108e+000 1.553342e+000 -1.356477e+001 141 112 80
4.326730e+000 -3.650361e-001 -1.470755e+001 84 63 34
4.389406e+000 -3.002627e-002 -1.533707e+001 155 124 80
1.497274e+000 -3.831733e-001 -1.388655e+001 71 47 33
3.249955e+000 6.511757e-002 -1.499299e+001 39 33 22
3.792761e+000 -1.448923e-001 -1.479126e+001 86 70 47
2.952349e+000 -1.599763e-001 -1.450182e+001 108 74 48
2.999243e+000 -1.695692e-001 -1.448488e+001 124 91 62
3.219406e+000 1.480230e-001 -1.506709e+001 34 28 16
2.685556e+000 -7.794346e-002 -1.441708e+001 147 91 75
4.366450e+000 3.167421e-001 -1.531326e+001 105 78 41
1.391831e+000 -2.544258e-002 -1.389700e+001 105 70 50
1.621646e+000 8.524762e-003 -1.403513e+001 97 65 44
1.621646e+000 8.524762e-003 -1.403513e+001 97 65 44
2.937909e+000 3.876610e-001 -1.502312e+001 147 117 89
3.050689e+000 3.872969e-001 -1.511860e+001 214 195 136
3.053373e+000 3.988693e-001 -1.511131e+001 60 38 27
1.472250e+000 8.548923e-002 -1.398080e+001 119 82 56
1.505421e+000 8.490340e-002 -1.397475e+001 137 100 71
1.830334e+000 3.265840e-002 -1.400530e+001 109 72 45
1.830334e+000 3.265840e-002 -1.400530e+001 109 72 45
2.068324e+000 6.878910e-002 -1.403836e+001 152 123 95
3.683938e+000 4.448910e-001 -1.519231e+001 76 52 28
3.176322e+000 5.462009e-001 -1.497634e+001 23 19 11
3.060066e+000 5.750594e-001 -1.484453e+001 88 70 52
3.196294e+000 5.906905e-001 -1.488586e+001 24 18 15
2.164956e+000 3.160973e-001 -1.403354e+001 103 79 53
2.878253e+000 5.208310e-001 -1.463588e+001 148 113 77
2.876732e+000 5.206389e-001 -1.463610e+001 148 113 77
3.217407e+000 6.412629e-001 -1.492161e+001 253 239 184
3.231174e+000 6.461467e-001 -1.495698e+001 120 105 83
3.249023e+000 6.247540e-001 -1.497048e+001 50 35 12
3.642766e+000 6.582677e-001 -1.506530e+001 94 60 32
3.716281e+000 6.945233e-001 -1.505258e+001 134 99 67
3.081300e+000 6.726580e-001 -1.483421e+001 58 46 29
3.217546e+000 6.766221e-001 -1.483516e+001 165 149 115
2.715681e+000 6.555657e-001 -1.449094e+001 154 112 87
2.930168e+000 6.847486e-001 -1.471326e+001 118 87 56
3.501667e+000 7.652498e-001 -1.486029e+001 112 83 53
3.901847e+000 7.966068e-001 -1.497474e+001 137 103 65
3.266754e+000 7.644689e-001 -1.478608e+001 61 46 27
3.555266e+000 7.984996e-001 -1.483962e+001 93 62 34
4.136278e+000 8.418896e-001 -1.499163e+001 117 82 44
2.886737e+000 7.393044e-001 -1.447563e+001 189 155 118
3.120963e+000 8.086019e-001 -1.470263e+001 157 138 99
3.275907e+000 8.973039e-001 -1.461104e+001 65 52 37
3.942660e+000 9.072136e-001 -1.478655e+001 113 82 50
2.958175e+000 9.234561e-001 -1.444245e+001 122 88 57
2.959245e+000 9.097080e-001 -1.447887e+001 110 78 49
3.172093e+000 9.349771e-001 -1.454375e+001 62 49 28
3.839713e+000 7.734367e-001 -1.388647e+001 245 230 182
3.256549e+000 9.162655e-001 -1.462277e+001 62 53 29
3.383350e+000 9.256993e-001 -1.455197e+001 76 46 20
3.379507e+000 9.042548e-001 -1.457397e+001 71 43 13
3.489919e+000 9.720030e-001 -1.458510e+001 110 77 44
3.933713e+000 9.745405e-001 -1.473234e+001 119 88 59
3.925728e+000 9.784323e-001 -1.469211e+001 127 98 66
4.371402e+000 1.046888e+000 -1.505678e+001 132 93 42
3.641840e+000 1.034058e+000 -1.453994e+001 114 85 53
2.969389e+000 1.002947e+000 -1.444714e+001 186 157 123
3.072046e+000 1.041945e+000 -1.439322e+001 75 50 33
3.224095e+000 1.071433e+000 -1.445670e+001 73 60 48
4.372867e+000 1.199549e+000 -1.498446e+001 132 90 48
4.006375e+000 1.160735e+000 -1.455303e+001 82 51 22
4.006375e+000 1.160735e+000 -1.455303e+001 82 51 22
2.823444e+000 1.054889e+000 -1.382993e+001 148 112 79
2.942287e+000 1.100469e+000 -1.424729e+001 133 92 60
3.160035e+000 1.182361e+000 -1.438563e+001 51 36 17
3.200626e+000 1.172344e+000 -1.438832e+001 50 32 17
4.199699e+000 1.253197e+000 -1.452121e+001 93 59 23
3.095551e+000 1.227145e+000 -1.429395e+001 164 145 106
3.879381e+000 1.301978e+000 -1.435632e+001 100 69 38
3.904603e+000 1.261012e+000 -1.440241e+001 96 66 32
4.371135e+000 1.409744e+000 -1.493697e+001 135 97 50
3.013555e+000 1.212945e+000 -1.410044e+001 166 130 92
3.124828e+000 1.267536e+000 -1.427175e+001 83 70 54
3.371310e+000 1.288037e+000 -1.432797e+001 145 121 87
3.087765e+000 1.330851e+000 -1.409232e+001 138 104 66
3.234268e+000 1.403419e+000 -1.394291e+001 91 76 53
3.689354e+000 1.466910e+000 -1.402977e+001 108 80 51
3.824747e+000 1.476302e+000 -1.407234e+001 92 63 33
4.380182e+000 1.571664e+000 -1.486294e+001 135 94 47
4.380182e+000 1.571664e+000 -1.486294e+001 135 94 47
4.385297e+000 1.610702e+000 -1.481137e+001 147 109 62
4.385297e+000 1.610702e+000 -1.481137e+001 147 109 62
3.212322e+000 1.426604e+000 -1.395211e+001 75 61 35
3.913027e+000 1.545298e+000 -1.400124e+001 91 60 31
3.130586e+000 1.567398e+000 -1.354245e+001 170 143 111
3.095387e+000 1.537728e+000 -1.373704e+001 167 128 94
3.881497e+000 1.641494e+000 -1.389602e+001 102 72 39
3.970889e+000 1.692262e+000 -1.384049e+001 131 97 64
3.108201e+000 -4.637189e-001 -1.429966e+001 128 101 71
3.085207e+000 -3.877829e-001 -1.437510e+001 109 102 74
4.174261e+000 -3.022455e-001 -1.471999e+001 79 57 33
1.455746e+000 -3.540523e-001 -1.388106e+001 88 61 48
3.080797e+000 -1.584085e-001 -1.464564e+001 130 109 81
4.224659e+000 6.569564e-002 -1.502049e+001 54 36 12
2.636701e+000 3.699731e-002 -1.451934e+001 153 104 83
2.621344e+000 7.610579e-002 -1.450673e+001 131 68 59
1.598339e+000 6.034774e-003 -1.403278e+001 91 59 36
2.891257e+000 3.418557e-001 -1.502354e+001 115 110 78
2.886290e+000 3.589659e-001 -1.496720e+001 54 50 24
3.188481e+000 4.260697e-001 -1.514237e+001 76 59 43
3.796804e+000 4.615828e-001 -1.522702e+001 99 73 46
2.890849e+000 4.125277e-001 -1.477076e+001 70 58 30
3.607644e+000 5.172377e-001 -1.516294e+001 82 55 26
3.413331e+000 5.550152e-001 -1.512654e+001 112 82 49
3.066523e+000 6.114551e-001 -1.493606e+001 38 29 19
3.071242e+000 6.021230e-001 -1.500714e+001 75 61 39
3.619364e+000 6.865557e-001 -1.502859e+001 118 85 54
3.957982e+000 6.750666e-001 -1.514723e+001 103 70 37
4.061963e+000 6.966591e-001 -1.516071e+001 106 74 41
3.329470e+000 6.959354e-001 -1.488871e+001 189 165 131
2.441837e+000 6.320551e-001 -1.449505e+001 136 90 64
2.634842e+000 6.065791e-001 -1.449615e+001 109 58 41
3.454270e+000 7.575324e-001 -1.486765e+001 93 62 31
3.715521e+000 7.792307e-001 -1.496082e+001 139 107 69
3.768579e+000 7.674069e-001 -1.497997e+001 142 108 70
3.875579e+000 7.785485e-001 -1.497571e+001 119 83 46
2.870774e+000 7.191620e-001 -1.445633e+001 109 69 38
2.951890e+000 7.862080e-001 -1.466503e+001 163 131 99
3.266729e+000 7.506677e-001 -1.475723e+001 57 44 25
3.544590e+000 7.827104e-001 -1.486562e+001 119 94 63
4.102972e+000 8.445429e-001 -1.497304e+001 120 81 48
2.883714e+000 7.489283e-001 -1.441543e+001 121 82 51
2.861153e+000 7.621860e-001 -1.440838e+001 160 124 92
4.115527e+000 8.996913e-001 -1.489323e+001 140 106 71
2.684579e+000 8.299932e-001 -1.438923e+001 188 137 116
2.922168e+000 8.321632e-001 -1.444314e+001 39 31 8
2.958007e+000 8.572989e-001 -1.449223e+001 107 73 38
3.263650e+000 8.604087e-001 -1.464072e+001 59 43 29
3.275255e+000 8.832615e-001 -1.462845e+001 57 51 29
3.485608e+000 8.828634e-001 -1.468728e+001 103 72 43
3.589473e+000 9.122961e-001 -1.467307e+001 73 45 20
3.687883e+000 8.999729e-001 -1.474341e+001 110 85 54
3.687883e+000 8.999729e-001 -1.474341e+001 110 85 54
2.704250e+000 8.421550e-001 -1.421530e+001 173 104 96
2.703176e+000 8.426451e-001 -1.421748e+001 173 104 96
2.702686e+000 8.296514e-001 -1.425246e+001 130 51 46
3.550036e+000 9.659046e-001 -1.460654e+001 61 35 8
3.977372e+000 1.007215e+000 -1.469935e+001 117 88 54
4.053796e+000 9.900409e-001 -1.474181e+001 118 87 59
2.884686e+000 9.551507e-001 -1.431937e+001 65 58 29
3.650600e+000 1.020704e+000 -1.456446e+001 84 56 26
2.760937e+000 9.651025e-001 -1.403043e+001 159 104 73
2.920448e+000 9.788466e-001 -1.434702e+001 103 89 54
2.921490e+000 9.973422e-001 -1.434165e+001 177 144 111
3.616331e+000 1.051043e+000 -1.452228e+001 121 92 62
3.646755e+000 1.097052e+000 -1.449613e+001 74 47 22
3.646755e+000 1.097052e+000 -1.449613e+001 74 47 22
3.775920e+000 1.057222e+000 -1.453527e+001 129 99 68
3.147370e+000 1.137220e+000 -1.445875e+001 79 64 42
3.708816e+000 1.125535e+000 -1.448033e+001 56 29 8
3.857937e+000 1.153190e+000 -1.450354e+001 91 60 28
3.900890e+000 1.170389e+000 -1.451098e+001 120 89 60
3.006388e+000 1.161106e+000 -1.429712e+001 141 111 73
3.028293e+000 1.126102e+000 -1.435342e+001 136 103 69
3.035216e+000 1.172096e+000 -1.429557e+001 128 95 60
3.122969e+000 1.168876e+000 -1.439950e+001 65 51 33
3.280111e+000 1.186521e+000 -1.442881e+001 254 252 232
3.280111e+000 1.186521e+000 -1.442881e+001 254 252 232
3.301664e+000 1.203792e+000 -1.440290e+001 80 64 42
3.311778e+000 1.248474e+000 -1.434968e+001 62 49 27
3.000394e+000 1.237501e+000 -1.408350e+001 139 96 62
3.917026e+000 1.424471e+000 -1.417042e+001 114 81 46
4.362449e+000 1.626765e+000 -1.487526e+001 144 106 57
4.002944e+000 1.558571e+000 -1.402560e+001 100 66 36
4.085811e+000 1.555521e+000 -1.401244e+001 133 103 67
3.231528e+000 1.506754e+000 -1.384712e+001 68 53 37
3.153110e+000 1.719666e+000 -1.346120e+001 149 123 88
3.473084e+000 -5.993841e-001 -1.447576e+001 78 72 48
3.441767e+000 -5.411825e-001 -1.449930e+001 95 89 71
3.635140e+000 -3.234659e-001 -1.464159e+001 76 58 34
2.891108e+000 -5.954938e-002 -1.449114e+001 139 99 79
3.238728e+000 3.497042e-001 -1.515100e+001 63 44 29
3.836678e+000 4.380141e-001 -1.522309e+001 100 74 47
3.836678e+000 4.380141e-001 -1.522309e+001 100 74 47
2.894326e+000 4.707945e-001 -1.488815e+001 102 79 53
3.591369e+000 5.122096e-001 -1.515779e+001 86 56 28
3.911083e+000 5.511536e-001 -1.524514e+001 102 75 46
2.861685e+000 4.738608e-001 -1.486950e+001 67 62 33
2.870136e+000 5.295626e-001 -1.470859e+001 64 62 39
3.058328e+000 5.861245e-001 -1.502057e+001 152 137 83
2.860800e+000 5.149388e-001 -1.461771e+001 153 120 85
2.924670e+000 6.259086e-001 -1.489593e+001 138 103 71
3.639744e+000 6.683945e-001 -1.505086e+001 126 93 62
3.637883e+000 6.688013e-001 -1.505161e+001 126 93 62
3.944297e+000 6.809987e-001 -1.513562e+001 131 96 63
4.101821e+000 7.104967e-001 -1.525633e+001 170 129 89
4.085106e+000 8.227470e-001 -1.499037e+001 132 96 60
3.482963e+000 8.641084e-001 -1.471704e+001 105 74 46
4.158040e+000 9.005367e-001 -1.491285e+001 94 56 23
2.910375e+000 8.703285e-001 -1.445689e+001 99 88 58
2.965061e+000 8.989587e-001 -1.443502e+001 151 126 96
3.009945e+000 9.206180e-001 -1.452899e+001 133 103 67
3.566128e+000 9.268700e-001 -1.465683e+001 112 85 57
2.879291e+000 9.292171e-001 -1.430600e+001 146 114 76
2.718292e+000 9.357320e-001 -1.406752e+001 159 91 70
2.977472e+000 1.021692e+000 -1.441648e+001 153 119 84
3.632479e+000 1.054825e+000 -1.453584e+001 82 52 24
3.757422e+000 1.079068e+000 -1.453705e+001 92 58 30
3.757422e+000 1.079068e+000 -1.453705e+001 92 58 30
2.913651e+000 1.034903e+000 -1.405429e+001 121 72 39
3.010384e+000 1.077252e+000 -1.437143e+001 108 67 37
2.873141e+000 1.045314e+000 -1.392854e+001 166 125 61
3.643127e+000 1.194768e+000 -1.440870e+001 133 103 69
3.551693e+000 1.265687e+000 -1.429018e+001 141 109 75
2.995909e+000 1.239510e+000 -1.414049e+001 141 103 67
3.860976e+000 1.315190e+000 -1.432858e+001 131 101 64
3.195676e+000 1.345259e+000 -1.420675e+001 40 28 18
4.201469e+000 1.460729e+000 -1.424201e+001 151 116 76
3.265976e+000 1.605176e+000 -1.372189e+001 51 36 16
3.265976e+000 1.605176e+000 -1.372189e+001 51 36 16
3.273693e+000 1.682737e+000 -1.365278e+001 49 36 20
3.087990e+000 1.682502e+000 -1.370237e+001 158 120 81
3.649380e+000 1.806500e+000 -1.359076e+001 99 69 36
4.186712e+000 1.877720e+000 -1.370406e+001 152 117 75
2.953621e+000 -1.023045e-001 -1.451927e+001 130 95 72
2.889353e+000 -3.691148e-004 -1.451127e+001 134 98 74
2.956927e+000 1.679903e-001 -1.489544e+001 107 85 58
2.883706e+000 8.198845e-002 -1.452308e+001 135 97 77
2.889976e+000 3.678054e-001 -1.501590e+001 72 69 39
3.715249e+000 4.701265e-001 -1.520250e+001 107 80 51
3.892624e+000 4.345142e-001 -1.523082e+001 102 76 49
4.078525e+000 5.631780e-001 -1.527467e+001 125 90 55
2.863306e+000 5.743360e-001 -1.460143e+001 159 124 86
3.659494e+000 6.946152e-001 -1.502471e+001 86 56 29
3.493587e+000 7.277745e-001 -1.484920e+001 108 77 46
2.511910e+000 5.638725e-001 -1.378670e+001 110 62 50
2.915314e+000 8.079672e-001 -1.459405e+001 170 136 98
2.924409e+000 8.704921e-001 -1.449149e+001 64 56 35
2.721233e+000 8.429150e-001 -1.436671e+001 121 56 44
3.601808e+000 9.796351e-001 -1.461752e+001 121 91 63
2.781604e+000 8.861847e-001 -1.427713e+001 143 67 55
3.649731e+000 9.900321e-001 -1.461090e+001 111 80 52
3.185257e+000 1.143440e+000 -1.444033e+001 129 116 81
2.857449e+000 1.062094e+000 -1.405549e+001 129 86 46
3.138010e+000 1.144277e+000 -1.440901e+001 80 65 42
2.996416e+000 1.173139e+000 -1.422001e+001 129 93 61
3.204957e+000 1.226364e+000 -1.434279e+001 231 212 169
3.400636e+000 1.236669e+000 -1.437988e+001 77 60 37
3.346597e+000 1.295058e+000 -1.432252e+001 86 73 51
4.152222e+000 1.352692e+000 -1.436877e+001 114 80 45
3.109963e+000 1.299587e+000 -1.412049e+001 49 28 20
3.082438e+000 1.404653e+000 -1.392093e+001 237 214 192
4.014905e+000 1.546256e+000 -1.404436e+001 94 63 32
3.936431e+000 1.581003e+000 -1.396716e+001 133 102 71
4.098074e+000 1.640470e+000 -1.394949e+001 138 107 76
4.080593e+000 1.585482e+000 -1.401047e+001 94 63 33
4.146776e+000 1.641940e+000 -1.399255e+001 140 107 70
3.108452e+000 1.535396e+000 -1.343959e+001 152 135 99
3.089339e+000 1.545858e+000 -1.381594e+001 217 185 147
3.089339e+000 1.545858e+000 -1.381594e+001 217 185 147
4.188799e+000 1.698782e+000 -1.392947e+001 141 108 71
3.207256e+000 1.686266e+000 -1.365427e+001 63 45 22
4.010832e+000 1.803011e+000 -1.375513e+001 90 56 21
3.701617e+000 1.833498e+000 -1.356012e+001 136 108 75
2.984828e+000 -2.199475e-001 -1.447552e+001 128 100 78
3.014206e+000 -1.937924e-001 -1.454939e+001 144 119 86
2.765380e+000 -4.496783e-002 -1.453593e+001 156 113 92
2.891624e+000 2.972110e-001 -1.498209e+001 72 69 41
2.713001e+000 1.715465e-001 -1.456091e+001 157 118 89
2.713001e+000 1.715465e-001 -1.456091e+001 157 118 89
3.829943e+000 4.071301e-001 -1.521439e+001 82 56 31
4.120840e+000 4.623413e-001 -1.529869e+001 72 47 24
3.472628e+000 5.670295e-001 -1.511161e+001 114 83 54
4.105997e+000 5.862552e-001 -1.527811e+001 107 72 39
4.113630e+000 6.965599e-001 -1.518076e+001 98 61 34
3.572766e+000 7.059430e-001 -1.498220e+001 128 95 62
3.944985e+000 7.726224e-001 -1.502111e+001 153 119 81
2.907451e+000 7.455540e-001 -1.452762e+001 119 72 40
4.420758e+000 8.325596e-001 -1.496847e+001 127 87 47
3.498037e+000 8.311138e-001 -1.474284e+001 58 32 19
3.012153e+000 8.929727e-001 -1.456258e+001 100 67 44
2.934142e+000 1.023906e+000 -1.428570e+001 126 90 58
2.614285e+000 9.580642e-001 -1.386661e+001 213 175 137
2.969764e+000 1.098115e+000 -1.430142e+001 205 175 138
3.884244e+000 1.236485e+000 -1.443807e+001 128 97 66
4.315811e+000 1.274271e+000 -1.455383e+001 166 131 89
2.898228e+000 1.260292e+000 -1.401182e+001 187 149 102
3.227929e+000 1.263077e+000 -1.430056e+001 60 41 26
3.780851e+000 1.354465e+000 -1.424191e+001 135 103 68
4.513556e+000 1.388316e+000 -1.424693e+001 171 136 94
2.871871e+000 1.294696e+000 -1.391647e+001 158 108 49
3.595810e+000 1.406758e+000 -1.406534e+001 99 69 40
4.454670e+000 1.496590e+000 -1.423754e+001 138 99 56
3.354623e+000 1.450734e+000 -1.391836e+001 139 120 90
3.807267e+000 1.482915e+000 -1.404269e+001 136 106 79
3.351096e+000 1.509575e+000 -1.386736e+001 115 99 74
4.097856e+000 1.674511e+000 -1.391941e+001 97 66 35
3.082300e+000 -2.459672e-001 -1.454760e+001 103 80 56
3.111575e+000 -4.295937e-002 -1.485296e+001 86 77 60
3.007944e+000 -1.350981e-001 -1.452304e+001 104 73 39
2.973101e+000 3.262488e-001 -1.501374e+001 86 59 32
2.915156e+000 4.103788e-001 -1.477037e+001 76 64 38
3.638178e+000 5.268862e-001 -1.515920e+001 88 58 30
2.500779e+000 4.748164e-001 -1.427371e+001 124 78 60
3.486064e+000 6.926347e-001 -1.497387e+001 139 107 73
3.986838e+000 8.208256e-001 -1.495477e+001 140 106 69
3.912826e+000 8.476469e-001 -1.489051e+001 139 106 73
2.838751e+000 9.077078e-001 -1.418593e+001 202 156 119
2.854767e+000 1.017880e+000 -1.406102e+001 178 140 95
2.854767e+000 1.017880e+000 -1.406102e+001 178 140 95
3.194960e+000 1.097598e+000 -1.444678e+001 43 29 21
2.995356e+000 1.119836e+000 -1.434533e+001 165 137 98
4.046686e+000 1.201912e+000 -1.453101e+001 141 108 74
4.441529e+000 1.313738e+000 -1.447002e+001 128 91 49
2.949549e+000 1.220644e+000 -1.406565e+001 143 96 50
2.913718e+000 1.296958e+000 -1.395260e+001 149 106 55
3.972940e+000 1.474913e+000 -1.409402e+001 97 66 35
3.879281e+000 1.531960e+000 -1.399165e+001 141 107 79
3.140530e+000 1.473202e+000 -1.379078e+001 184 149 110
4.274371e+000 1.656956e+000 -1.399269e+001 107 73 38
3.992658e+000 1.666220e+000 -1.390859e+001 144 113 80
4.200064e+000 -1.328533e-001 -1.488198e+001 73 52 31
2.943932e+000 -4.252133e-002 -1.449920e+001 93 55 32
2.909381e+000 1.808302e-001 -1.482363e+001 47 41 28
3.530261e+000 3.241480e-001 -1.514622e+001 111 86 57
3.751731e+000 3.860283e-001 -1.520572e+001 112 86 59
2.848216e+000 2.892156e-001 -1.451055e+001 178 140 97
1.426675e+000 1.067461e-001 -1.375656e+001 189 155 127
1.658619e+000 1.387731e-001 -1.384854e+001 81 69 68
2.865126e+000 6.588532e-001 -1.438524e+001 100 58 36
2.937223e+000 7.331695e-001 -1.463194e+001 112 67 36
2.438286e+000 5.160134e-001 -1.361060e+001 156 109 83
2.843191e+000 7.708893e-001 -1.438512e+001 153 113 83
2.635717e+000 9.429490e-001 -1.405963e+001 150 71 58
3.232546e+000 1.197356e+000 -1.439468e+001 54 36 22
3.370268e+000 1.183586e+000 -1.443299e+001 59 42 26
3.404659e+000 1.246112e+000 -1.429252e+001 69 52 36
3.120210e+000 1.258879e+000 -1.415466e+001 43 24 10
4.537248e+000 -4.061410e-001 -1.473374e+001 102 82 47
2.811061e+000 2.004370e-001 -1.456465e+001 104 57 39
3.587679e+000 4.293462e-001 -1.518278e+001 115 88 59
2.962380e+000 5.525983e-001 -1.499195e+001 90 65 43
2.114381e+000 2.714242e-001 -1.401449e+001 103 78 55
2.875584e+000 7.047227e-001 -1.451445e+001 188 153 117
3.307504e+000 7.950083e-001 -1.473834e+001 53 36 16
2.783799e+000 8.159506e-001 -1.434330e+001 101 38 29
2.476136e+000 8.393063e-001 -1.432093e+001 131 64 47
3.318999e+000 9.230453e-001 -1.459783e+001 75 59 34
2.604226e+000 8.837440e-001 -1.418288e+001 168 111 87
2.901370e+000 9.334643e-001 -1.435121e+001 61 55 26
4.154601e+000 1.096840e+000 -1.468444e+001 116 81 49
2.938513e+000 1.139772e+000 -1.425424e+001 132 89 57
3.872701e+000 1.271669e+000 -1.436414e+001 64 38 9
3.035088e+000 1.256466e+000 -1.415814e+001 158 126 91
3.438077e+000 1.306940e+000 -1.428937e+001 161 132 98
4.153560e+000 1.774957e+000 -1.384544e+001 155 120 80
4.514045e+000 1.852247e+000 -1.383710e+001 155 114 68
2.631413e+000 1.442784e-001 -1.450767e+001 120 61 47
2.453555e+000 4.359426e-001 -1.388915e+001 175 106 95
2.937467e+000 6.952304e-001 -1.461627e+001 121 76 46
2.552386e+000 7.712127e-001 -1.439224e+001 135 62 52
3.101354e+000 1.106376e+000 -1.432171e+001 56 37 23
2.962702e+000 1.275808e+000 -1.407385e+001 143 102 64
3.488595e+000 9.822388e-001 -1.450188e+001 157 128 96
3.926818e+000 1.211190e+000 -1.450412e+001 109 76 45
2.901918e+000 8.751366e-001 -1.438570e+001 87 81 49
2.901918e+000 8.751366e-001 -1.438570e+001 87 81 49
3.925922e+000 1.397961e+000 -1.429583e+001 142 110 72
3.683321e+000 1.517793e+000 -1.397756e+001 112 85 56
3.115887e+000 6.972084e-001 -1.484839e+001 79 67 43
3.021712e+000 7.341047e-001 -1.495755e+001 79 67 43
4.451599e+000 -4.609228e-001 -1.510381e+001 125 97 49
3.272026e+000 -5.923089e-001 -1.438459e+001 56 44 28
4.500023e+000 -4.623255e-001 -1.480645e+001 224 193 136
3.118492e+000 -3.502299e-001 -1.448849e+001 86 66 42
3.129123e+000 -2.305957e-001 -1.462251e+001 66 45 26
3.129123e+000 -2.305957e-001 -1.462251e+001 66 45 26
3.199948e+000 -2.416251e-001 -1.475354e+001 43 35 20
3.057599e+000 -1.266277e-001 -1.464109e+001 134 110 84
2.972486e+000 -1.001941e-001 -1.452567e+001 130 94 68
3.041803e+000 -6.892072e-002 -1.456887e+001 152 121 92
3.032734e+000 -4.280435e-002 -1.471337e+001 132 110 82
3.258819e+000 1.455205e-002 -1.495421e+001 117 112 92
3.015772e+000 -3.429448e-002 -1.456654e+001 133 102 76
3.215021e+000 1.494135e-001 -1.507154e+001 25 18 8
1.578588e+000 -1.132549e-002 -1.402196e+001 101 69 44
3.970923e+000 2.506719e-001 -1.515248e+001 72 48 24
1.369590e+000 9.604294e-003 -1.382219e+001 99 70 52
2.855571e+000 2.128808e-001 -1.480987e+001 129 101 56
2.561628e+000 2.338561e-001 -1.450200e+001 185 139 116
2.893195e+000 3.185350e-001 -1.493633e+001 89 82 53
2.638935e+000 2.756311e-001 -1.453727e+001 147 101 75
2.929584e+000 4.565409e-001 -1.500781e+001 167 139 103
3.185880e+000 4.327417e-001 -1.511858e+001 58 42 26
3.185880e+000 4.327417e-001 -1.511858e+001 58 42 26
2.848664e+000 5.030677e-001 -1.487284e+001 75 70 40
3.042582e+000 5.036506e-001 -1.508845e+001 253 254 224
3.042582e+000 5.036506e-001 -1.508845e+001 253 254 224
3.208157e+000 5.326752e-001 -1.503880e+001 99 83 50
4.330940e+000 5.481036e-001 -1.535062e+001 124 86 41
4.330940e+000 5.481036e-001 -1.535062e+001 124 86 41
4.342120e+000 5.532364e-001 -1.532138e+001 126 89 47
2.280368e+000 3.516943e-001 -1.417610e+001 161 95 76
3.034228e+000 5.760901e-001 -1.497725e+001 57 43 23
3.034228e+000 5.760901e-001 -1.497725e+001 57 43 23
3.172564e+000 5.560175e-001 -1.504280e+001 170 157 122
3.183668e+000 5.556899e-001 -1.505097e+001 108 91 65
3.050036e+000 6.269009e-001 -1.493250e+001 64 52 28
3.253490e+000 6.234017e-001 -1.496509e+001 42 27 4
2.882905e+000 6.212286e-001 -1.455858e+001 129 88 56
2.823241e+000 6.484091e-001 -1.439807e+001 130 85 65
3.089838e+000 7.167078e-001 -1.475485e+001 154 140 112
4.342138e+000 8.464881e-001 -1.524381e+001 142 104 57
2.635497e+000 7.157117e-001 -1.435501e+001 137 74 59
2.904510e+000 7.499771e-001 -1.459613e+001 126 88 50
3.140478e+000 7.778086e-001 -1.471282e+001 37 26 8
4.353529e+000 9.271390e-001 -1.517088e+001 139 96 53
2.925752e+000 8.304943e-001 -1.446329e+001 148 119 85
3.785497e+000 8.773734e-001 -1.481465e+001 63 35 8
4.397921e+000 9.281052e-001 -1.489671e+001 118 81 37
4.320603e+000 1.038124e+000 -1.529398e+001 131 95 48
2.384398e+000 8.679059e-001 -1.410582e+001 157 100 83
4.320039e+000 1.161120e+000 -1.530068e+001 121 84 40
4.373592e+000 1.178763e+000 -1.496879e+001 138 100 57
3.583281e+000 1.193298e+000 -1.438105e+001 96 67 37
4.059120e+000 1.356081e+000 -1.435765e+001 107 78 44
4.352873e+000 1.411269e+000 -1.505718e+001 136 99 54
4.177351e+000 1.439310e+000 -1.425893e+001 124 92 53
3.278012e+000 1.481115e+000 -1.386548e+001 53 38 17
4.381031e+000 1.614432e+000 -1.485196e+001 173 135 88
3.259451e+000 -4.527404e-001 -1.458538e+001 64 56 40
3.392709e+000 -2.832176e-001 -1.473609e+001 55 43 25
3.047550e+000 -3.228226e-001 -1.449852e+001 56 50 26
3.082324e+000 -2.234027e-001 -1.458607e+001 92 70 47
3.161202e+000 -2.591321e-001 -1.468606e+001 96 79 59
3.646430e+000 -2.566734e-001 -1.471110e+001 71 53 29
3.646430e+000 -2.566734e-001 -1.471110e+001 71 53 29
4.073690e+000 -2.942772e-001 -1.473766e+001 94 76 54
4.073690e+000 -2.942772e-001 -1.473766e+001 94 76 54
