ply
format ascii 1.0
element face 0
property list uchar int vertex_indices
element vertex 880
property float x
property float y
property float z
property uchar diffuse_red
property uchar diffuse_green
property uchar diffuse_blue
end_header
4.254766e+000 -6.552578e-001 -1.380648e+001 115 88 67
4.182369e+000 -7.321907e-001 -1.391604e+001 118 93 71
4.414697e+000 -7.666471e-001 -1.406867e+001 111 84 63
4.685841e+000 -7.740621e-001 -1.415198e+001 89 61 37
4.874793e+000 -7.411902e-001 -1.413749e+001 126 98 74
5.918468e-002 -6.903225e-001 -1.348906e+001 125 84 59
2.402247e+000 -8.642420e-001 -1.371626e+001 175 92 102
-8.710850e-002 -8.872890e-001 -1.351823e+001 159 115 84
3.053538e-001 -9.670472e-001 -1.357459e+001 87 50 32
4.145012e+000 -9.238899e-001 -1.414870e+001 93 66 45
4.531357e+000 -9.232635e-001 -1.429143e+001 125 97 73
2.710293e+000 -1.014516e+000 -1.407709e+001 182 98 114
4.019463e+000 -1.084025e+000 -1.431005e+001 100 72 51
4.474393e+000 -1.068917e+000 -1.453227e+001 92 63 45
4.486459e+000 -1.043860e+000 -1.444829e+001 120 92 71
4.559120e+000 -1.008360e+000 -1.440228e+001 133 105 81
4.590691e+000 -1.008965e+000 -1.440335e+001 108 78 54
4.584519e+000 -1.018156e+000 -1.438381e+001 108 78 54
2.507341e+000 -1.209623e+000 -1.403000e+001 196 129 139
3.737992e+000 -1.132348e+000 -1.434873e+001 145 118 101
3.723934e+000 -1.203394e+000 -1.442273e+001 153 128 108
4.592191e+000 -1.149021e+000 -1.460888e+001 130 100 79
4.502264e+000 -1.250213e+000 -1.466503e+001 125 99 74
4.502264e+000 -1.250213e+000 -1.466503e+001 125 99 74
4.620855e+000 -1.218307e+000 -1.469275e+001 127 100 73
4.720427e+000 -1.267820e+000 -1.478090e+001 128 97 71
5.403015e+000 -1.189269e+000 -1.492366e+001 153 121 74
3.985426e+000 -1.400331e+000 -1.465102e+001 112 87 67
3.985426e+000 -1.400331e+000 -1.465102e+001 112 87 67
4.308520e+000 -1.409480e+000 -1.475917e+001 100 72 50
4.549773e+000 -1.350803e+000 -1.478475e+001 134 107 78
4.553843e+000 -1.385141e+000 -1.480553e+001 103 73 48
4.533030e+000 -1.406195e+000 -1.483798e+001 128 99 74
4.826120e+000 -1.397494e+000 -1.491508e+001 108 77 57
2.438431e+000 -1.391471e+000 -1.460839e+001 185 128 121
4.464794e+000 -1.469273e+000 -1.487719e+001 97 69 46
4.947903e+000 -1.474436e+000 -1.503533e+001 125 95 69
2.601552e+000 -1.557559e+000 -1.460824e+001 214 185 159
4.231862e+000 -1.621328e+000 -1.500101e+001 88 64 44
4.946263e+000 -1.631611e+000 -1.530479e+001 95 71 47
4.270860e+000 5.685800e-001 -1.229076e+001 121 89 64
4.458115e+000 4.885499e-001 -1.241606e+001 107 76 53
4.613745e+000 5.702616e-001 -1.238542e+001 144 105 75
3.411253e+000 3.032717e-001 -1.227308e+001 140 108 81
4.894345e+000 4.781464e-001 -1.256113e+001 147 113 83
5.008201e+000 4.919114e-001 -1.260477e+001 149 115 88
4.977799e+000 4.055384e-001 -1.275672e+001 141 107 80
2.646537e+000 5.768435e-001 -1.290731e+001 171 75 84
5.245392e+000 3.227524e-001 -1.295848e+001 101 65 42
5.724541e+000 4.227435e-001 -1.309664e+001 157 124 76
2.476080e+000 4.286090e-001 -1.293742e+001 190 87 108
2.673726e+000 5.536204e-001 -1.295635e+001 163 73 76
4.618667e+000 9.133844e-002 -1.303864e+001 157 123 96
3.298134e+000 -9.420939e-002 -1.280355e+001 234 212 189
4.393144e+000 -1.212041e-001 -1.321234e+001 119 88 61
2.585981e+000 -1.878513e-001 -1.312152e+001 206 121 135
5.016921e+000 -1.474114e-001 -1.345358e+001 102 71 43
5.541836e+000 3.024467e-002 -1.363230e+001 155 119 83
5.725021e+000 2.541449e-001 -1.414090e+001 149 112 76
4.632844e+000 -2.218266e-001 -1.342448e+001 131 101 72
4.082010e+000 -4.380521e-001 -1.349105e+001 135 102 83
4.640557e+000 -3.667266e-001 -1.356115e+001 98 66 43
5.607806e+000 -2.446387e-001 -1.379159e+001 168 134 86
4.242872e+000 -4.828855e-001 -1.362900e+001 130 104 77
5.195647e+000 -4.042538e-001 -1.382339e+001 101 68 41
4.894443e+000 -5.294424e-001 -1.387968e+001 120 92 68
4.894443e+000 -5.294424e-001 -1.387968e+001 120 92 68
4.250884e+000 -7.496168e-001 -1.392233e+001 118 91 69
4.250884e+000 -7.496168e-001 -1.392233e+001 118 91 69
4.518979e+000 -7.476522e-001 -1.405750e+001 87 60 39
4.601579e+000 -7.684198e-001 -1.413435e+001 118 90 68
5.171333e+000 -7.705196e-001 -1.416352e+001 124 91 60
-2.304652e-002 -7.048254e-001 -1.351072e+001 141 94 66
9.397878e-001 -7.080445e-001 -1.377928e+001 188 153 131
3.134887e+000 -9.387029e-001 -1.374884e+001 120 89 63
4.379275e+000 -9.395310e-001 -1.425851e+001 115 87 65
4.882753e+000 -9.500020e-001 -1.445634e+001 135 105 77
1.554498e+000 -2.718563e-001 -1.518685e+001 165 120 105
4.131182e+000 -1.025484e+000 -1.427353e+001 84 57 36
4.218974e+000 -1.102484e+000 -1.444417e+001 105 77 53
1.992163e-001 -1.255403e+000 -1.364297e+001 128 90 69
2.722524e+000 -1.180705e+000 -1.408153e+001 167 104 108
2.688093e+000 -1.173277e+000 -1.413933e+001 137 75 78
4.970560e+000 -1.141662e+000 -1.473527e+001 127 96 68
5.425986e+000 -1.063208e+000 -1.479998e+001 153 122 76
2.791819e+000 -1.226268e+000 -1.432737e+001 202 156 141
4.090273e+000 -1.262742e+000 -1.457797e+001 136 109 88
4.514459e+000 -1.276817e+000 -1.471356e+001 103 74 50
4.487789e+000 -1.315090e+000 -1.473925e+001 136 106 82
4.664051e+000 -1.213022e+000 -1.472069e+001 106 76 52
6.062732e-002 -1.378639e+000 -1.369939e+001 129 93 69
3.030094e+000 -1.471689e+000 -1.436837e+001 200 172 148
3.855888e+000 -1.390065e+000 -1.462140e+001 105 78 59
4.149779e+000 -1.347971e+000 -1.465813e+001 123 99 76
4.149779e+000 -1.347971e+000 -1.465813e+001 123 99 76
4.252350e+000 -1.334728e+000 -1.468559e+001 124 95 74
4.252350e+000 -1.334728e+000 -1.468559e+001 124 95 74
4.575864e+000 -1.437147e+000 -1.488282e+001 133 104 80
4.658765e+000 -1.402330e+000 -1.487097e+001 135 105 79
4.890933e+000 -1.342750e+000 -1.491804e+001 126 98 76
4.844708e+000 -1.424177e+000 -1.495347e+001 131 103 79
2.930036e+000 -1.490525e+000 -1.446725e+001 192 157 135
4.032534e+000 -1.636389e+000 -1.493755e+001 122 95 76
5.302221e+000 4.085375e-001 -1.284225e+001 146 111 81
4.260363e+000 2.553288e-001 -1.282532e+001 83 55 36
4.632869e+000 1.763772e-001 -1.293910e+001 158 124 96
4.373059e+000 -2.646515e-001 -1.340075e+001 150 119 90
5.026279e+000 -3.661499e-001 -1.366546e+001 145 111 83
4.471921e+000 -8.286599e-001 -1.412259e+001 134 108 85
4.871298e+000 -8.576886e-001 -1.426986e+001 147 116 88
6.708881e-001 -7.392296e-001 -1.385788e+001 158 117 99
4.382556e+000 -9.690927e-001 -1.429827e+001 95 69 46
5.197158e+000 -9.235398e-001 -1.448645e+001 167 132 100
2.827453e+000 -1.034949e+000 -1.400632e+001 142 71 73
5.718159e+000 -6.255015e-001 -1.534505e+001 156 126 78
4.717480e+000 -1.112693e+000 -1.454125e+001 130 99 74
3.999479e+000 -1.283548e+000 -1.456132e+001 123 95 74
-6.848412e-002 -1.446637e+000 -1.378935e+001 134 89 69
4.241180e+000 -1.508013e+000 -1.489140e+001 119 93 69
4.214447e+000 -1.559266e+000 -1.491793e+001 84 59 39
4.361740e+000 -1.447323e+000 -1.483820e+001 93 65 43
4.648734e+000 -1.471277e+000 -1.494416e+001 137 107 81
3.966617e+000 -1.580844e+000 -1.484778e+001 79 59 45
4.633743e+000 -1.597946e+000 -1.509394e+001 140 114 89
4.633743e+000 -1.597946e+000 -1.509394e+001 140 114 89
4.461125e+000 1.951377e-001 -1.282899e+001 114 82 57
4.725657e+000 -2.082867e-001 -1.342651e+001 113 79 52
4.725657e+000 -2.082867e-001 -1.342651e+001 113 79 52
5.096938e+000 -2.786778e-001 -1.361266e+001 113 79 52
2.403267e+000 -4.261201e-001 -1.310742e+001 195 118 124
2.403943e+000 -4.275138e-001 -1.310603e+001 195 118 124
2.821643e+000 -4.566109e-001 -1.334390e+001 191 116 127
4.521508e+000 -5.447404e-001 -1.375004e+001 133 107 82
4.036388e+000 -7.562823e-001 -1.391115e+001 121 94 73
4.345533e+000 -7.479540e-001 -1.399882e+001 130 103 82
2.598019e+000 -1.257584e+000 -1.426098e+001 210 156 150
-3.354481e-002 -1.466156e+000 -1.384199e+001 112 69 52
3.332963e+000 3.777717e-001 -1.229456e+001 173 138 110
4.906937e+000 -2.832185e-001 -1.356444e+001 157 123 96
2.313829e+000 -4.294595e-001 -1.312971e+001 162 74 73
5.017259e+000 -7.205216e-001 -1.417398e+001 121 90 65
5.016503e+000 -7.217591e-001 -1.417226e+001 121 90 65
3.937071e+000 -1.129598e+000 -1.431997e+001 133 101 78
4.677914e+000 -1.137008e+000 -1.463368e+001 96 66 42
3.814388e+000 -1.533731e+000 -1.474598e+001 86 58 44
5.181440e+000 3.384972e-001 -1.292440e+001 154 120 92
3.274497e+000 -7.405438e-001 -1.351742e+001 51 40 33
4.125158e+000 -1.019232e+000 -1.423495e+001 88 61 40
4.125158e+000 -1.019232e+000 -1.423495e+001 88 61 40
3.047369e+000 -1.293316e+000 -1.422605e+001 228 200 181
1.500759e+000 -4.026075e-001 -1.377385e+001 79 45 42
4.621119e+000 -6.911433e-001 -1.402434e+001 123 96 73
1.129485e+000 -7.289694e-001 -1.378527e+001 181 149 128
2.621017e+000 -1.323082e+000 -1.437771e+001 143 66 70
2.492246e+000 -5.174902e-001 -1.313571e+001 155 69 73
4.979820e+000 1.454767e-001 -1.307503e+001 103 75 51
5.509947e+000 6.563472e-001 -1.248381e+001 172 132 96
4.528522e+000 4.407308e-001 -1.251428e+001 127 95 72
4.610559e+000 3.715939e-001 -1.262497e+001 134 106 79
5.680587e+000 4.059602e-001 -1.309988e+001 101 68 37
4.753873e+000 1.209635e-001 -1.300058e+001 133 104 80
4.557542e+000 7.471568e-002 -1.301712e+001 123 91 66
5.042826e+000 4.072540e-002 -1.323326e+001 95 65 41
4.993180e+000 -1.368572e-001 -1.341727e+001 116 86 60
4.523537e+000 -3.274396e-001 -1.349254e+001 92 62 38
4.961928e+000 -3.211247e-001 -1.357628e+001 110 78 53
4.992647e+000 -3.170886e-001 -1.360660e+001 137 108 82
5.556162e+000 -3.368189e-001 -1.389119e+001 86 57 25
4.845096e+000 -4.944887e-001 -1.379239e+001 95 68 47
4.948985e+000 -5.295031e-001 -1.387310e+001 92 65 44
4.418320e+000 -5.961763e-001 -1.377158e+001 116 91 68
4.880560e+000 -5.949568e-001 -1.388455e+001 81 54 33
4.953516e+000 -7.564031e-001 -1.421794e+001 93 65 41
4.060833e+000 -1.026514e+000 -1.428316e+001 95 67 45
4.491925e+000 -9.692722e-001 -1.433148e+001 96 68 46
2.055187e-001 -1.207121e+000 -1.364246e+001 133 98 79
5.340458e+000 -1.084143e+000 -1.475475e+001 158 129 94
3.723896e+000 -1.204228e+000 -1.442054e+001 153 129 109
4.265783e+000 7.070877e-001 -1.221144e+001 155 121 94
5.007463e+000 6.574684e-001 -1.236671e+001 163 127 93
5.293269e+000 2.947057e-001 -1.295814e+001 108 78 52
2.470778e+000 4.161451e-001 -1.292968e+001 188 89 107
4.930283e+000 1.537497e-001 -1.305742e+001 83 55 33
5.072827e+000 1.660414e-001 -1.309102e+001 99 71 50
2.989220e+000 -1.710015e-001 -1.307484e+001 57 51 36
4.432959e+000 -1.874233e-001 -1.326937e+001 107 78 48
2.618138e+000 -1.611368e-001 -1.311165e+001 205 124 140
2.956513e+000 -1.903215e-001 -1.308347e+001 114 102 75
4.459663e+000 -3.917184e-001 -1.354945e+001 115 87 63
4.964460e+000 -3.772961e-001 -1.367292e+001 112 82 56
1.762138e+000 -4.899578e-001 -1.403104e+001 163 86 96
4.311572e+000 -8.296585e-001 -1.410417e+001 102 78 55
4.311572e+000 -8.296585e-001 -1.410417e+001 102 78 55
2.520600e+000 -9.525181e-001 -1.369570e+001 213 169 152
4.609705e+000 -8.447745e-001 -1.425843e+001 85 56 38
4.611515e+000 -8.435171e-001 -1.426308e+001 85 56 38
4.475491e+000 -1.000902e+000 -1.436307e+001 89 63 40
-8.264764e-002 -1.267607e+000 -1.366242e+001 129 87 63
4.141637e+000 -1.243890e+000 -1.460735e+001 93 64 48
2.879601e+000 -1.556955e+000 -1.457529e+001 177 142 122
4.667222e+000 2.484721e-001 -1.281398e+001 135 104 78
5.285726e+000 1.227462e-001 -1.320959e+001 151 119 89
4.420730e+000 -1.439100e-001 -1.325637e+001 135 105 79
4.678771e+000 -1.102069e-001 -1.328102e+001 102 70 45
4.336332e+000 -3.109187e-001 -1.341065e+001 142 111 85
4.456828e+000 -3.034390e-001 -1.345602e+001 118 85 66
5.256868e+000 -2.921579e-001 -1.367803e+001 134 100 74
4.717063e+000 -5.762081e-001 -1.384150e+001 96 70 43
4.439361e+000 -7.368471e-001 -1.400680e+001 112 87 67
4.867587e+000 -9.638000e-001 -1.444828e+001 133 105 81
5.234413e+000 -9.693492e-001 -1.447636e+001 147 117 83
4.613999e+000 -1.361569e+000 -1.484793e+001 131 103 79
5.117644e+000 8.102719e-001 -1.233039e+001 194 155 119
4.812031e+000 4.739111e-001 -1.252414e+001 145 112 85
4.635096e+000 3.246784e-001 -1.270588e+001 92 62 38
5.123734e+000 2.640373e-001 -1.299038e+001 93 63 42
4.481092e+000 -2.541778e-002 -1.311666e+001 146 115 89
5.060050e+000 -1.865410e-001 -1.347899e+001 140 114 87
4.246236e+000 -6.004514e-001 -1.374807e+001 121 96 74
4.402992e+000 -7.066356e-001 -1.396154e+001 74 51 35
5.466621e+000 -8.385510e-001 -1.442348e+001 159 128 82
3.030317e+000 -1.049599e+000 -1.399163e+001 176 138 119
4.275203e+000 -1.097069e+000 -1.448230e+001 132 104 82
5.233143e+000 -1.128172e+000 -1.473219e+001 144 115 83
4.834966e+000 7.255190e-001 -1.227432e+001 180 145 117
4.679613e+000 3.416467e-001 -1.266016e+001 150 120 92
4.726843e+000 5.164239e-002 -1.311075e+001 84 53 32
5.114271e+000 -9.913675e-002 -1.342140e+001 102 71 50
4.521305e+000 -5.471028e-001 -1.374438e+001 130 104 79
4.378728e+000 -8.949646e-001 -1.419705e+001 101 74 53
5.476093e+000 -8.955921e-001 -1.456667e+001 160 131 84
5.414787e+000 -1.245807e+000 -1.483138e+001 159 128 81
4.621718e+000 -1.324984e+000 -1.482840e+001 132 104 81
4.945500e+000 5.688001e-001 -1.248759e+001 171 137 110
4.944659e+000 -6.473973e-001 -1.402173e+001 123 92 71
4.476904e+000 -7.526121e-001 -1.407627e+001 90 64 44
4.528587e+000 4.341396e-001 -1.251311e+001 106 75 54
5.636977e+000 2.609826e-001 -1.316431e+001 98 68 40
4.296251e+000 7.891240e-001 -1.215116e+001 132 99 72
5.006216e+000 4.609010e-002 -1.320748e+001 111 87 66
2.866419e+000 -8.181446e-001 -1.366469e+001 52 46 34
3.374296e+000 5.587268e-001 -1.203690e+001 153 118 95
5.141251e+000 4.585353e-002 -1.325112e+001 70 43 26
2.876682e+000 -5.265386e-001 -1.342506e+001 130 69 68
5.197809e+000 -1.552365e-001 -1.351978e+001 78 51 34
4.117071e+000 -5.732626e-001 -1.367402e+001 74 51 35
4.708835e+000 -4.928095e-001 -1.375241e+001 65 44 23
6.067691e+000 -6.609118e-001 -1.169740e+001 224 191 134
3.549749e+000 8.353776e-001 -1.193869e+001 129 111 87
5.865753e+000 1.077506e+000 -1.223103e+001 232 203 145
3.300927e+000 7.455957e-001 -1.208629e+001 133 100 72
3.614729e+000 6.392278e-001 -1.202367e+001 82 63 44
4.544292e+000 8.633506e-001 -1.223716e+001 142 106 74
3.476330e+000 5.256755e-001 -1.208005e+001 153 121 87
3.358469e+000 3.475577e-001 -1.216722e+001 216 185 153
3.829394e+000 -2.270317e-002 -1.233308e+001 99 77 55
3.336500e+000 1.832224e-001 -1.240771e+001 233 203 174
4.926127e+000 3.525029e-001 -1.273569e+001 106 74 44
5.994239e+000 -1.218165e+000 -1.237795e+001 222 187 130
3.312318e+000 -5.387640e-002 -1.271502e+001 173 142 113
5.105923e+000 2.062359e-001 -1.305485e+001 96 66 42
5.943755e+000 -1.235110e+000 -1.246239e+001 154 122 75
3.265890e+000 -6.996282e-002 -1.281942e+001 117 88 58
4.992001e+000 1.619719e-001 -1.311752e+001 88 60 36
2.968310e+000 2.432156e-001 -1.298952e+001 154 119 99
2.662922e+000 5.212438e-002 -1.311963e+001 170 114 100
3.300353e+000 -3.155867e-001 -1.306131e+001 129 98 70
3.678420e+000 -1.873715e-001 -1.306979e+001 71 55 34
1.726683e+000 1.298239e-001 -1.324841e+001 157 101 86
2.280656e+000 -3.753364e-001 -1.306099e+001 189 110 115
2.668553e+000 -2.032656e-001 -1.313581e+001 166 82 88
2.810896e+000 -1.434795e-001 -1.319471e+001 154 94 82
4.613405e+000 -2.791242e-001 -1.343891e+001 103 73 45
2.339848e+000 -4.283083e-001 -1.314197e+001 135 56 51
2.778290e+000 -4.139052e-001 -1.327263e+001 160 73 81
2.251544e+000 -4.707877e-001 -1.330892e+001 122 59 54
2.317719e+000 -5.119767e-001 -1.318929e+001 203 155 133
2.291260e+000 -5.461747e-001 -1.332528e+001 148 91 80
2.802017e+000 -4.875426e-001 -1.333065e+001 199 121 125
3.782781e+000 -5.340274e-001 -1.353511e+001 156 129 108
2.846744e+000 -6.189291e-001 -1.347222e+001 161 92 92
3.617069e+000 -6.265625e-001 -1.354942e+001 58 40 19
4.722372e+000 -5.076726e-001 -1.378481e+001 85 57 33
5.566691e+000 -4.072582e-001 -1.395051e+001 140 108 60
2.820159e+000 -7.679998e-001 -1.359752e+001 183 115 116
4.412511e+000 -6.801250e-001 -1.391590e+001 68 42 24
4.577042e+000 -6.480950e-001 -1.390322e+001 77 50 29
4.577042e+000 -6.480950e-001 -1.390322e+001 77 50 29
2.520620e+000 -8.973301e-001 -1.358262e+001 187 138 117
3.392934e+000 -8.501951e-001 -1.375391e+001 42 28 20
4.886962e+000 -6.682937e-001 -1.410924e+001 103 76 49
3.632195e-002 -6.304813e-001 -1.347478e+001 148 114 87
2.447751e+000 -1.031109e+000 -1.372151e+001 207 147 136
3.218249e+000 -9.297709e-001 -1.384613e+001 39 25 15
5.540246e-001 -7.626293e-001 -1.372515e+001 89 57 36
3.258864e+000 -9.517672e-001 -1.392766e+001 39 25 19
3.746322e+000 -9.857198e-001 -1.412902e+001 132 104 83
4.203790e+000 -9.380211e-001 -1.412151e+001 103 77 54
4.622101e+000 -8.531949e-001 -1.420720e+001 112 82 58
4.936961e+000 -8.242916e-001 -1.428715e+001 95 64 35
-1.786067e-001 -1.128638e+000 -1.355579e+001 150 107 79
3.440120e+000 -1.060113e+000 -1.418278e+001 94 81 65
2.647990e+000 -1.214907e+000 -1.403900e+001 170 100 101
3.285783e+000 -1.131720e+000 -1.416331e+001 158 143 124
4.664364e+000 -1.040641e+000 -1.447179e+001 102 72 44
4.863670e+000 -1.022250e+000 -1.456437e+001 90 58 31
1.185067e-001 -1.337208e+000 -1.365630e+001 124 86 65
2.674912e+000 -1.185519e+000 -1.419500e+001 115 60 57
3.616352e+000 -1.243166e+000 -1.444597e+001 160 136 112
4.087147e+000 -1.216340e+000 -1.457088e+001 98 68 44
4.181200e+000 -1.228511e+000 -1.460989e+001 77 51 26
4.414658e+000 -1.309406e+000 -1.474854e+001 114 84 60
4.606375e+000 -1.313154e+000 -1.475435e+001 100 66 38
4.606375e+000 -1.313154e+000 -1.475435e+001 100 66 38
4.994681e+000 -1.277787e+000 -1.485081e+001 89 58 30
2.177720e+000 -1.183258e+000 -1.453357e+001 154 84 82
2.214032e+000 -1.244871e+000 -1.453071e+001 152 62 72
2.453723e+000 -1.301763e+000 -1.456676e+001 194 149 121
2.871012e+000 -1.529614e+000 -1.435969e+001 168 129 98
4.015506e+000 -1.410895e+000 -1.466023e+001 86 59 38
4.084282e+000 -1.405759e+000 -1.472371e+001 78 49 27
4.689497e+000 -1.338756e+000 -1.483217e+001 117 86 56
4.776022e+000 -1.285607e+000 -1.485879e+001 111 81 54
2.800963e+000 -1.518642e+000 -1.457667e+001 225 187 151
2.848324e+000 -1.522312e+000 -1.451262e+001 183 149 116
2.914093e+000 -1.529106e+000 -1.453839e+001 182 142 108
4.893203e+000 -1.411110e+000 -1.499428e+001 89 67 45
2.807180e+000 -1.626980e+000 -1.473631e+001 147 105 81
4.748268e+000 -1.556743e+000 -1.511769e+001 113 82 56
3.329427e+000 -2.011149e+000 -1.463365e+001 58 44 33
3.505894e+000 6.798155e-001 -1.191711e+001 79 58 37
3.377311e+000 6.757152e-001 -1.195642e+001 192 159 128
3.364443e+000 4.635342e-001 -1.211481e+001 172 142 111
3.372663e+000 4.161918e-001 -1.213694e+001 231 203 174
5.480887e+000 7.316352e-001 -1.248296e+001 118 80 43
6.064285e+000 -8.748319e-001 -1.203908e+001 230 196 136
5.003863e+000 5.546233e-001 -1.250329e+001 115 82 51
5.061823e+000 5.249000e-001 -1.266004e+001 112 77 47
3.290539e+000 3.545338e-001 -1.244773e+001 170 132 100
5.119957e+000 3.646530e-001 -1.279429e+001 95 64 36
3.099611e+000 1.178768e-001 -1.274041e+001 184 149 120
4.898737e+000 1.632386e-001 -1.298965e+001 84 54 30
5.072674e+000 1.920834e-001 -1.306249e+001 116 86 60
2.959339e+000 2.541805e-001 -1.283957e+001 139 98 78
3.299178e+000 -8.619849e-002 -1.280820e+001 195 166 134
4.765356e+000 1.054760e-001 -1.303505e+001 87 58 28
4.765356e+000 1.054760e-001 -1.303505e+001 87 58 28
4.983499e+000 -9.880408e-003 -1.328303e+001 95 63 38
2.288541e+000 1.527626e-001 -1.306925e+001 159 90 78
3.092208e+000 -3.289799e-001 -1.304234e+001 71 62 45
1.814754e+000 -4.474919e-002 -1.314601e+001 185 131 117
2.993297e+000 -4.710152e-001 -1.310843e+001 160 122 65
3.088313e+000 -4.688029e-001 -1.312106e+001 172 137 100
3.865399e+000 -3.944406e-001 -1.318167e+001 136 109 82
5.106638e+000 -2.475687e-001 -1.356238e+001 128 96 71
2.192695e+000 -4.735848e-001 -1.307988e+001 201 145 130
2.057464e+000 -4.677856e-001 -1.324812e+001 154 97 88
2.328586e+000 -6.027158e-001 -1.319188e+001 202 155 135
2.513556e+000 -6.646295e-001 -1.325097e+001 182 126 114
3.186908e+000 -6.820216e-001 -1.337100e+001 248 223 204
4.184411e+000 -5.284759e-001 -1.356929e+001 106 72 47
2.368678e+000 -6.272593e-001 -1.337652e+001 142 90 76
2.459933e+000 -6.821904e-001 -1.327996e+001 194 152 133
2.407388e+000 -6.358802e-001 -1.338276e+001 148 95 82
2.407914e+000 -6.344438e-001 -1.338372e+001 148 95 82
3.200404e+000 -7.281746e-001 -1.342991e+001 139 105 73
3.155359e+000 -7.274760e-001 -1.345750e+001 140 105 78
4.520103e+000 -5.662933e-001 -1.379423e+001 87 57 33
2.977296e+000 -7.636945e-001 -1.362393e+001 82 73 55
4.583419e+000 -6.319499e-001 -1.387753e+001 99 73 49
4.991776e+000 -5.330938e-001 -1.398737e+001 103 76 49
2.582436e+000 -9.352606e-001 -1.355502e+001 152 96 87
3.024844e+000 -9.620732e-001 -1.354508e+001 94 81 62
4.577561e+000 -7.428704e-001 -1.408011e+001 77 51 29
4.797521e+000 -6.564721e-001 -1.418189e+001 130 100 71
2.407275e+000 -8.558935e-001 -1.372338e+001 145 65 68
2.486051e+000 -9.073057e-001 -1.366594e+001 214 168 139
2.486051e+000 -9.073057e-001 -1.366594e+001 214 168 139
2.414228e+000 -9.361096e-001 -1.372509e+001 195 136 122
2.487439e+000 -9.242341e-001 -1.370009e+001 156 99 82
2.519724e+000 -9.558585e-001 -1.369292e+001 213 167 143
2.773712e+000 -8.618835e-001 -1.380145e+001 139 67 72
2.830864e+000 -8.997363e-001 -1.381582e+001 161 113 102
3.268488e+000 -9.192490e-001 -1.380783e+001 45 28 18
3.268488e+000 -9.192490e-001 -1.380783e+001 45 28 18
3.821587e+000 1.691473e+000 -1.577247e+001 36 22 14
4.155404e+000 -8.465109e-001 -1.400889e+001 72 45 25
4.371781e+000 -7.783410e-001 -1.406607e+001 81 53 29
4.572400e+000 -7.870068e-001 -1.414574e+001 75 47 25
4.922197e+000 -7.150462e-001 -1.419063e+001 93 62 36
4.314441e-001 -8.420867e-001 -1.360310e+001 73 42 24
4.167257e-001 -8.677638e-001 -1.361979e+001 105 71 51
4.053663e-001 -9.367076e-001 -1.361282e+001 85 52 37
2.939983e+000 -9.102586e-001 -1.389296e+001 137 88 81
2.939776e+000 -9.162187e-001 -1.388856e+001 137 88 81
4.386713e+000 -9.124153e-001 -1.423163e+001 78 48 24
4.437311e+000 -9.916361e-001 -1.413533e+001 115 85 61
2.254029e+000 -1.131324e+000 -1.391146e+001 184 138 123
3.110318e+000 -1.105647e+000 -1.397549e+001 136 104 76
2.280417e+000 -1.188282e+000 -1.397923e+001 168 120 110
2.358224e+000 -1.231289e+000 -1.400096e+001 144 85 81
2.536540e+000 -1.222498e+000 -1.408500e+001 159 93 95
3.004363e+000 -1.203244e+000 -1.416338e+001 149 108 82
4.773901e+000 -1.122290e+000 -1.456356e+001 98 67 39
4.922702e+000 -9.653504e-001 -1.457193e+001 87 56 28
7.075758e-001 -9.684167e-001 -1.404640e+001 52 29 21
1.898979e+000 -6.792131e-001 -1.448044e+001 186 106 112
4.500664e+000 -1.115884e+000 -1.457503e+001 80 52 28
-3.563122e-001 -1.400376e+000 -1.368471e+001 146 65 76
-1.664762e-001 -1.496432e+000 -1.373932e+001 161 94 96
2.705079e+000 -1.275503e+000 -1.448825e+001 104 47 29
3.037226e+000 -1.398050e+000 -1.428068e+001 229 201 172
3.036209e+000 -1.403424e+000 -1.427602e+001 229 201 172
3.094040e+000 -1.377120e+000 -1.432788e+001 145 110 78
4.209900e+000 -1.309172e+000 -1.462934e+001 111 83 59
4.236218e+000 -1.297879e+000 -1.467935e+001 89 61 36
4.341307e+000 -1.256922e+000 -1.469030e+001 88 60 36
4.593042e+000 -1.246387e+000 -1.471327e+001 99 68 39
4.653895e+000 -1.266068e+000 -1.472633e+001 120 88 62
4.709521e+000 -1.291347e+000 -1.475639e+001 116 83 52
-2.394460e-001 -1.517841e+000 -1.390046e+001 129 54 66
2.343842e+000 -1.201132e+000 -1.450014e+001 158 93 89
2.421431e+000 -1.247629e+000 -1.455692e+001 182 136 113
2.581869e+000 -1.439545e+000 -1.448118e+001 194 152 135
2.581869e+000 -1.439545e+000 -1.448118e+001 194 152 135
2.732604e+000 -1.292742e+000 -1.449371e+001 212 170 141
2.765034e+000 -1.352149e+000 -1.455243e+001 204 160 108
3.969110e+000 -1.370152e+000 -1.464899e+001 75 48 29
4.279450e+000 -1.445019e+000 -1.478344e+001 105 78 53
4.556422e+000 -1.373417e+000 -1.481799e+001 89 59 33
4.578822e+000 -1.394757e+000 -1.485900e+001 97 63 36
4.980881e+000 -1.413008e+000 -1.493164e+001 101 73 49
2.568745e+000 -1.408739e+000 -1.460647e+001 185 141 116
2.510281e+000 -1.425317e+000 -1.469151e+001 176 131 110
2.729916e+000 -1.450081e+000 -1.455539e+001 209 171 137
3.015299e+000 -1.603818e+000 -1.449297e+001 170 139 110
4.867759e+000 -1.512375e+000 -1.504112e+001 94 63 37
-7.567592e-002 -1.597843e+000 -1.408502e+001 116 71 68
2.956449e+000 -1.752357e+000 -1.468012e+001 250 228 202
3.003724e+000 -1.767699e+000 -1.467431e+001 139 107 80
3.055946e+000 -1.680242e+000 -1.467213e+001 121 91 66
3.330131e+000 -1.870702e+000 -1.454759e+001 145 132 113
4.404713e+000 -1.601092e+000 -1.500723e+001 68 41 18
4.865444e+000 -1.553587e+000 -1.507622e+001 97 66 38
2.974373e+000 -1.798298e+000 -1.473784e+001 124 91 66
2.956233e+000 -1.771296e+000 -1.480315e+001 176 149 120
4.222357e+000 -1.648595e+000 -1.501940e+001 109 79 53
2.777176e+000 -1.743418e+000 -1.503971e+001 145 111 83
2.898358e+000 -1.800767e+000 -1.490359e+001 250 224 200
2.898358e+000 -1.800767e+000 -1.490359e+001 250 224 200
3.162292e+000 -1.888337e+000 -1.495500e+001 65 52 35
3.434573e+000 6.553250e-001 -1.194621e+001 199 165 137
3.331568e+000 6.527597e-001 -1.213700e+001 159 124 104
3.016267e+000 8.826089e-001 -1.240748e+001 183 153 117
3.030665e+000 6.550666e-001 -1.242885e+001 204 160 93
3.288804e+000 4.012190e-001 -1.235064e+001 183 145 113
3.656293e+000 5.619791e-003 -1.223570e+001 110 95 72
4.915577e+000 4.985331e-001 -1.261738e+001 107 71 45
3.340746e+000 1.862024e-001 -1.246627e+001 253 223 195
5.026041e+000 4.459017e-001 -1.270136e+001 98 67 38
2.954994e+000 5.874071e-001 -1.265047e+001 179 126 52
5.693646e+000 4.670803e-001 -1.303705e+001 86 54 25
5.960485e+000 -1.213899e+000 -1.242095e+001 163 128 80
2.677537e+000 7.168048e-001 -1.282054e+001 179 85 86
3.273391e+000 -1.166378e-002 -1.271426e+001 219 191 165
4.002527e+000 1.474168e-001 -1.283068e+001 123 96 75
4.962267e+000 1.993744e-001 -1.298197e+001 85 55 31
2.690795e+000 5.134110e-001 -1.300093e+001 134 53 50
4.716303e+000 7.464073e-002 -1.307450e+001 117 87 59
4.951091e+000 1.494449e-001 -1.309665e+001 106 78 52
5.237471e+000 1.176019e-001 -1.321354e+001 91 60 29
5.237471e+000 1.176019e-001 -1.321354e+001 91 60 29
3.550742e+000 -6.433027e-002 -1.298372e+001 81 64 44
4.839359e+000 2.470979e-003 -1.323938e+001 89 57 29
5.354045e+000 5.290740e-003 -1.338106e+001 118 82 45
2.311232e+000 -2.596808e-001 -1.306816e+001 196 116 120
2.775336e+000 -1.864012e-001 -1.315333e+001 188 132 117
3.041265e+000 -3.736257e-001 -1.306723e+001 80 68 48
3.217848e+000 -4.555242e-001 -1.312276e+001 219 192 169
2.085755e+000 -5.141303e-001 -1.311204e+001 130 60 58
2.247228e+000 -4.474358e-001 -1.307515e+001 189 129 121
2.356674e+000 -5.325322e-001 -1.310961e+001 206 158 141
3.003018e+000 -5.284706e-001 -1.312457e+001 203 170 124
4.439052e+000 -3.276248e-001 -1.348643e+001 134 103 74
4.989662e+000 -2.781826e-001 -1.355782e+001 124 92 61
5.053748e+000 -3.207845e-001 -1.364168e+001 131 98 65
2.136101e+000 -4.566638e-001 -1.328882e+001 129 58 61
2.376334e+000 -6.274459e-001 -1.327079e+001 143 67 69
2.468963e+000 -6.144247e-001 -1.321595e+001 148 80 79
2.616866e+000 -6.227343e-001 -1.332570e+001 127 64 53
4.961157e+000 -3.814029e-001 -1.367186e+001 105 72 44
2.297218e+000 -5.509214e-001 -1.337701e+001 141 77 73
2.297218e+000 -5.509214e-001 -1.337701e+001 141 77 73
2.651429e+000 -7.081200e-001 -1.343495e+001 160 106 100
4.371590e+000 -5.691018e-001 -1.373008e+001 114 88 65
2.424448e+000 -6.197529e-001 -1.347906e+001 127 60 57
4.251218e+000 -6.655424e-001 -1.379865e+001 100 74 51
2.772033e+000 -8.914255e-001 -1.366742e+001 178 124 114
2.840839e+000 -8.276995e-001 -1.361324e+001 147 86 88
2.940746e+000 -9.183667e-001 -1.364339e+001 66 58 40
4.612722e+000 -7.118690e-001 -1.407215e+001 113 81 57
8.074467e-001 -4.162526e-001 -1.376555e+001 196 190 176
4.607221e+000 -7.611628e-001 -1.414041e+001 101 74 47
4.623663e+000 -7.395874e-001 -1.411008e+001 74 48 23
5.067794e+000 -1.235441e+000 -1.384318e+001 138 105 66
2.242290e-001 -8.461294e-001 -1.356280e+001 120 84 60
2.400772e+000 -1.083736e+000 -1.368224e+001 156 94 87
2.880509e+000 -9.568029e-001 -1.388833e+001 189 141 129
2.996915e+000 -9.981540e-001 -1.398990e+001 155 113 96
3.073781e+000 -1.079975e+000 -1.396555e+001 247 226 205
3.189244e+000 -1.004224e+000 -1.397289e+001 42 24 13
4.373705e+000 -8.869427e-001 -1.418343e+001 69 41 17
4.632665e+000 -8.872717e-001 -1.431645e+001 84 52 28
2.781395e+000 -1.108544e+000 -1.406443e+001 180 122 110
3.062730e+000 -1.156678e+000 -1.404985e+001 229 201 180
3.062505e+000 -1.184927e+000 -1.410175e+001 243 217 194
4.302499e+000 -1.151463e+000 -1.445548e+001 78 51 29
4.629446e+000 -1.111315e+000 -1.453245e+001 78 50 26
2.477417e-001 -1.360297e+000 -1.376710e+001 113 78 59
4.181858e+000 -1.152888e+000 -1.449740e+001 85 57 35
4.926869e+000 -1.125799e+000 -1.470564e+001 76 49 27
4.926869e+000 -1.125799e+000 -1.470564e+001 76 49 27
-1.562423e-001 -1.409838e+000 -1.379357e+001 128 68 61
2.717264e+000 -1.275630e+000 -1.439564e+001 133 82 65
2.781521e+000 -1.220812e+000 -1.440141e+001 127 71 54
2.813861e+000 -1.253595e+000 -1.441518e+001 189 148 126
3.109561e+000 -1.424974e+000 -1.434043e+001 134 99 66
3.709613e+000 -1.281419e+000 -1.448004e+001 149 119 95
4.394009e+000 -1.304933e+000 -1.473329e+001 118 88 61
4.880622e+000 -1.253689e+000 -1.483491e+001 116 85 56
4.932481e+000 -1.250658e+000 -1.488461e+001 82 52 25
-1.528416e-001 -1.544766e+000 -1.383148e+001 150 89 88
-1.528416e-001 -1.544766e+000 -1.383148e+001 150 89 88
-5.071523e-002 -1.521173e+000 -1.396171e+001 97 53 41
1.654429e+000 -4.409285e-001 -1.512321e+001 125 67 65
2.379845e+000 -1.262178e+000 -1.455706e+001 138 72 63
2.540318e+000 -1.384672e+000 -1.446633e+001 203 156 140
2.805410e+000 -1.400720e+000 -1.446521e+001 151 110 78
3.695268e+000 -1.377301e+000 -1.458175e+001 146 118 96
4.291518e+000 -1.390496e+000 -1.472302e+001 124 94 68
4.515863e+000 -1.315555e+000 -1.480506e+001 102 71 43
4.787400e+000 -1.318908e+000 -1.485129e+001 82 52 24
4.870335e+000 -1.393615e+000 -1.492986e+001 86 56 32
4.973645e+000 -1.349601e+000 -1.500830e+001 80 52 28
4.971931e-002 -1.498090e+000 -1.412635e+001 78 46 31
1.998139e+000 -1.323435e+000 -1.458973e+001 176 127 113
2.310326e+000 -1.390654e+000 -1.463324e+001 175 120 115
2.360923e+000 -1.377808e+000 -1.468103e+001 159 106 97
2.525044e+000 -1.408944e+000 -1.465460e+001 145 97 79
4.333015e+000 -1.593160e+000 -1.501314e+001 73 48 23
2.812717e+000 -1.754143e+000 -1.503595e+001 122 88 62
2.937010e+000 -1.789662e+000 -1.494826e+001 150 123 96
2.966036e+000 -1.828268e+000 -1.495687e+001 124 95 71
3.358425e+000 -1.871436e+000 -1.500477e+001 47 41 29
2.916020e+000 -1.815205e+000 -1.510392e+001 124 98 80
3.324874e+000 6.590575e-001 -1.205422e+001 159 125 100
5.129492e+000 9.544882e-001 -1.236772e+001 143 103 67
3.309714e+000 4.950920e-001 -1.220216e+001 161 128 100
4.531724e+000 4.844874e-001 -1.246658e+001 114 80 53
5.115911e+000 4.124940e-001 -1.277660e+001 94 62 36
5.263434e+000 4.498798e-001 -1.284433e+001 88 54 27
5.975466e+000 -1.082235e+000 -1.227043e+001 158 126 79
3.251112e+000 1.947643e-002 -1.267664e+001 147 113 85
5.923398e+000 -1.371856e+000 -1.242386e+001 220 184 130
3.363571e+000 -2.216034e-001 -1.292482e+001 79 56 37
3.363571e+000 -2.216034e-001 -1.292482e+001 79 56 37
5.150508e+000 6.632089e-002 -1.326557e+001 87 56 35
2.188850e+000 -1.367477e-001 -1.296820e+001 155 77 73
2.413579e+000 1.657328e-001 -1.307464e+001 140 59 55
2.956837e+000 -1.347481e-001 -1.306885e+001 106 95 67
3.268219e+000 -2.383028e-001 -1.297420e+001 199 173 149
4.485895e+000 -8.355074e-002 -1.328386e+001 88 54 30
5.170263e+000 -8.698673e-002 -1.342497e+001 89 57 32
5.235048e+000 -8.685478e-002 -1.346858e+001 142 107 80
1.925168e+000 -2.388847e-001 -1.296944e+001 206 146 135
2.311934e+000 -2.518175e-001 -1.304648e+001 191 112 117
2.600833e+000 -2.154235e-001 -1.314213e+001 185 100 106
5.125977e+000 -2.335948e-001 -1.352480e+001 86 56 32
2.067134e+000 -4.883236e-001 -1.307974e+001 203 144 136
2.145675e+000 -5.107009e-001 -1.311938e+001 145 86 75
2.667494e+000 -4.685948e-001 -1.322039e+001 192 137 127
1.970218e+000 -4.452968e-001 -1.323360e+001 158 101 90
3.021953e+000 -6.459355e-001 -1.324410e+001 166 133 105
5.393688e+000 -4.411571e-001 -1.377288e+001 149 113 71
2.551162e+000 -9.343092e-001 -1.362411e+001 189 144 121
4.527278e+000 -7.228786e-001 -1.401606e+001 104 76 54
2.726948e-001 -5.771854e-001 -1.362844e+001 151 109 69
2.783116e+000 -8.950595e-001 -1.383254e+001 126 51 61
5.202216e+000 -7.240569e-001 -1.427327e+001 121 85 51
-1.967200e-001 -9.187297e-001 -1.353604e+001 129 88 62
4.543960e+000 -9.241630e-001 -1.424744e+001 109 78 57
4.693059e+000 -8.763355e-001 -1.437624e+001 135 102 71
2.804173e+000 -9.041396e-001 -1.408220e+001 198 136 128
2.804173e+000 -9.041396e-001 -1.408220e+001 198 136 128
4.385410e+000 -1.091055e+000 -1.447575e+001 79 53 30
4.815292e+000 -1.091760e+000 -1.454981e+001 98 66 41
5.162787e+000 -1.090023e+000 -1.459849e+001 163 128 90
-4.641000e-001 -1.251793e+000 -1.372312e+001 185 124 119
-3.121710e-001 -1.300364e+000 -1.369361e+001 113 57 47
4.644935e-002 -1.348034e+000 -1.373120e+001 119 82 64
2.951928e+000 -1.234697e+000 -1.433797e+001 166 125 103
4.435137e+000 -1.187880e+000 -1.455886e+001 112 81 55
4.651747e+000 -1.196370e+000 -1.459988e+001 83 52 26
-1.615053e-001 -1.527713e+000 -1.379166e+001 133 62 66
-1.687059e-001 -1.512555e+000 -1.380391e+001 133 62 66
-1.182909e-001 -1.512552e+000 -1.385915e+001 142 80 84
-7.687604e-002 -1.564669e+000 -1.391067e+001 151 88 93
2.089402e+000 -1.338697e+000 -1.450156e+001 204 150 138
2.653009e+000 -1.379599e+000 -1.444959e+001 193 140 126
2.517706e+000 -1.370197e+000 -1.454902e+001 147 98 82
4.245857e+000 -1.365055e+000 -1.472224e+001 95 67 43
2.272871e+000 -1.338726e+000 -1.471536e+001 118 52 54
4.552607e+000 -1.461010e+000 -1.494580e+001 86 54 30
5.163610e+000 -1.509106e+000 -1.497950e+001 143 109 71
2.397625e+000 -1.372732e+000 -1.482624e+001 167 114 100
2.491429e+000 -1.348041e+000 -1.495408e+001 153 116 89
3.314560e+000 -1.846340e+000 -1.451640e+001 38 29 24
4.249800e+000 -1.614834e+000 -1.499812e+001 67 42 20
4.756247e+000 -1.596600e+000 -1.514586e+001 115 84 56
2.901994e+000 -1.728697e+000 -1.473379e+001 160 125 97
4.536505e+000 -1.608547e+000 -1.514203e+001 94 64 40
4.547316e+000 -1.674539e+000 -1.539511e+001 86 60 35
3.389364e+000 5.196052e-001 -1.208379e+001 245 217 195
3.386640e+000 5.089560e-001 -1.208036e+001 245 217 195
3.281040e+000 4.591343e-001 -1.229973e+001 184 147 118
5.030091e+000 5.935079e-001 -1.245085e+001 105 69 42
3.750244e+000 -2.590525e-002 -1.223579e+001 86 69 51
5.051792e+000 5.259749e-001 -1.255867e+001 102 67 39
5.989305e+000 -1.090959e+000 -1.234844e+001 164 132 83
3.314196e+000 7.170328e-002 -1.258928e+001 230 206 181
3.401321e+000 6.256472e-002 -1.272369e+001 102 71 45
3.368984e+000 -7.630022e-002 -1.281545e+001 56 38 21
3.173109e+000 -2.980775e-001 -1.291220e+001 62 53 27
4.528091e+000 -3.316204e-002 -1.316605e+001 106 74 44
2.924099e+000 1.190624e-001 -1.309754e+001 148 103 84
2.536074e+000 -1.659455e-001 -1.310396e+001 152 71 77
2.151620e+000 -4.862425e-001 -1.307186e+001 200 142 131
4.112686e+000 -4.434544e-001 -1.349582e+001 129 98 70
4.259771e+000 -5.154167e-001 -1.366283e+001 71 46 26
1.822130e+000 -1.597568e-001 -1.380193e+001 175 96 100
1.822006e+000 -1.576387e-001 -1.380330e+001 175 96 100
4.515382e+000 -6.481259e-001 -1.391344e+001 117 91 68
4.906118e+000 -5.580971e-001 -1.394653e+001 78 50 28
2.404494e+000 -8.161043e-001 -1.361495e+001 167 116 94
2.992481e+000 -9.778575e-001 -1.362687e+001 118 109 80
9.160909e-001 -5.654337e-001 -1.372570e+001 192 158 131
1.394888e+000 -5.512693e-001 -1.376956e+001 127 85 70
2.973250e+000 -1.000565e+000 -1.374031e+001 60 57 42
3.206660e+000 -9.096781e-001 -1.380527e+001 39 23 15
1.264808e+000 -8.059999e-001 -1.392310e+001 127 81 66
4.036278e+000 -1.139618e+000 -1.440224e+001 110 80 54
5.465134e+000 -9.698043e-001 -1.467879e+001 153 119 70
4.291557e+000 -1.132919e+000 -1.451814e+001 84 56 34
1.116469e+000 -7.592178e-001 -1.459941e+001 133 90 82
2.864790e+000 -1.447755e+000 -1.438235e+001 208 178 149
2.985866e+000 -1.449151e+000 -1.443755e+001 148 108 77
2.253112e+000 -1.378322e+000 -1.458545e+001 175 126 117
2.376558e+000 -1.381864e+000 -1.460242e+001 151 87 85
2.608895e+000 -1.461556e+000 -1.459293e+001 134 85 60
2.610588e+000 -1.447598e+000 -1.460592e+001 134 85 60
4.718269e+000 -1.491268e+000 -1.501645e+001 101 71 43
5.394983e+000 -1.391086e+000 -1.509359e+001 153 120 70
2.553643e+000 -1.501297e+000 -1.480097e+001 126 89 60
2.746863e+000 -1.568354e+000 -1.473336e+001 160 119 89
2.933229e+000 -1.666363e+000 -1.470782e+001 147 113 84
4.273232e+000 -1.604301e+000 -1.492326e+001 109 81 55
4.824207e+000 -1.567586e+000 -1.508572e+001 123 93 68
2.585548e+000 -1.578291e+000 -1.486958e+001 124 89 47
3.938918e+000 -1.685295e+000 -1.507008e+001 90 64 39
4.736726e+000 -1.600306e+000 -1.523235e+001 77 51 28
3.504400e+000 5.845952e-001 -1.205019e+001 52 28 16
3.741548e+000 1.879631e-001 -1.207858e+001 145 123 97
5.423083e+000 7.951403e-001 -1.243687e+001 175 132 93
3.360514e+000 3.866921e-001 -1.215455e+001 205 174 145
3.375142e+000 3.201230e-001 -1.234449e+001 210 184 154
6.088413e+000 -1.038156e+000 -1.218607e+001 138 105 60
5.294258e+000 2.173927e-001 -1.311805e+001 152 117 87
2.584511e+000 -8.016839e-003 -1.311850e+001 213 160 146
4.213498e+000 -1.710028e-001 -1.323392e+001 125 94 66
4.353464e+000 -2.028056e-001 -1.326600e+001 131 96 68
5.316929e+000 -7.824515e-002 -1.343855e+001 106 70 42
2.460102e+000 -2.669931e-001 -1.309405e+001 184 105 108
2.856829e+000 -1.448811e-001 -1.316269e+001 178 137 119
2.990968e+000 -4.048624e-001 -1.309064e+001 181 153 117
4.218319e+000 -2.289869e-001 -1.327539e+001 129 98 70
4.245033e+000 -4.568498e-001 -1.356206e+001 131 100 72
4.773267e+000 -4.225854e-001 -1.367204e+001 146 114 86
4.994623e+000 -4.862050e-001 -1.381698e+001 139 106 78
3.074869e+000 -8.018336e-001 -1.349156e+001 67 58 40
3.091908e+000 -9.158450e-001 -1.351491e+001 95 64 44
1.215908e+000 -7.600422e-001 -1.429136e+001 134 87 77
2.599525e+000 -1.243611e+000 -1.427429e+001 193 141 126
4.089480e+000 -1.131115e+000 -1.447286e+001 75 47 25
7.014342e-001 -8.657204e-001 -1.436349e+001 192 185 169
4.877150e+000 -1.229197e+000 -1.481582e+001 118 85 58
2.877800e+000 -1.504763e+000 -1.448361e+001 142 97 64
4.618166e+000 -1.334029e+000 -1.481876e+001 122 91 62
1.830435e-001 -1.503717e+000 -1.410771e+001 70 42 28
2.477975e+000 -1.381979e+000 -1.460435e+001 209 166 134
2.478229e+000 -1.369668e+000 -1.461566e+001 209 166 134
2.722942e+000 -1.737528e+000 -1.480490e+001 145 110 78
2.796228e+000 -1.732277e+000 -1.478761e+001 165 130 103
4.980517e+000 -1.651801e+000 -1.545465e+001 107 79 53
5.044118e+000 -1.524774e+000 -1.582431e+001 138 117 91
3.134880e+000 6.614076e-001 -1.230069e+001 204 174 140
5.420653e+000 6.911474e-001 -1.261802e+001 157 119 82
4.979689e+000 5.160507e-001 -1.259005e+001 93 60 35
2.583284e+000 4.793769e-001 -1.296957e+001 171 87 91
2.950249e+000 -4.173747e-001 -1.320886e+001 159 109 60
2.354379e+000 -5.636328e-001 -1.316522e+001 188 141 124
2.736342e+000 -4.480049e-001 -1.330731e+001 124 45 51
2.735680e+000 -4.502001e-001 -1.330598e+001 124 45 51
4.991983e+000 -4.922837e-001 -1.381724e+001 138 104 76
2.911743e+000 -7.781791e-001 -1.364112e+001 47 39 25
3.156222e+000 -9.314654e-001 -1.365056e+001 141 115 93
3.129855e+000 -1.027080e+000 -1.380958e+001 137 110 85
2.927414e-001 -7.879604e-001 -1.359002e+001 171 139 116
3.177647e+000 -1.146298e+000 -1.405060e+001 59 42 32
1.977571e+000 -4.918011e-001 -1.440517e+001 180 104 109
3.162481e+000 -1.246944e+000 -1.420117e+001 57 43 35
4.527007e+000 -1.110064e+000 -1.449256e+001 117 87 59
3.143091e+000 -1.378042e+000 -1.429148e+001 59 40 31
-2.902794e-001 -1.449656e+000 -1.376908e+001 137 59 72
3.041200e+000 -1.407980e+000 -1.433267e+001 203 175 147
5.090850e+000 -1.181325e+000 -1.487959e+001 102 68 39
3.015607e+000 -1.554651e+000 -1.445182e+001 215 186 158
-2.600670e-001 -1.547357e+000 -1.392335e+001 133 60 68
2.999744e+000 -1.629093e+000 -1.460090e+001 191 160 134
2.586681e+000 -1.510571e+000 -1.467694e+001 199 166 133
3.081641e+000 -1.747769e+000 -1.465256e+001 48 31 20
3.185575e+000 -1.786536e+000 -1.465992e+001 84 68 54
3.896404e+000 -1.591994e+000 -1.489913e+001 106 78 54
2.868137e+000 -1.791134e+000 -1.510765e+001 152 128 102
4.624726e+000 1.113990e+000 -1.227732e+001 124 86 51
3.823585e+000 1.236489e-001 -1.213978e+001 50 38 26
5.407233e+000 3.652293e-001 -1.299520e+001 107 72 44
2.938549e+000 1.143303e-001 -1.308123e+001 145 98 80
2.682032e+000 -6.274483e-001 -1.335873e+001 112 46 46
2.993383e+000 -7.057558e-001 -1.349596e+001 58 44 31
2.513190e+000 -7.733894e-001 -1.355705e+001 161 98 91
2.513190e+000 -7.733894e-001 -1.355705e+001 161 98 91
2.939481e+000 -9.304156e-001 -1.376245e+001 85 80 60
1.913948e+000 -4.338513e-001 -1.408563e+001 148 66 72
3.212016e+000 -1.034088e+000 -1.393523e+001 57 41 32
4.633743e-001 -1.079257e+000 -1.368563e+001 111 76 54
2.481767e+000 -1.227151e+000 -1.403473e+001 149 89 89
3.522995e+000 -1.314131e+000 -1.441517e+001 59 43 27
3.488646e+000 -1.501719e+000 -1.444895e+001 53 40 24
4.867957e+000 -1.518040e+000 -1.521672e+001 120 90 62
4.563301e+000 -1.665720e+000 -1.522847e+001 111 87 59
5.142813e+000 1.484193e+000 -1.231368e+001 34 30 27
4.638569e+000 4.876072e-001 -1.246862e+001 151 116 87
3.712131e+000 6.773511e-002 -1.226896e+001 201 175 140
3.077650e+000 3.054737e-001 -1.267425e+001 152 106 72
2.534504e+000 2.447485e-001 -1.306934e+001 127 54 47
2.121701e+000 -2.691783e-001 -1.299659e+001 151 66 66
1.969893e+000 -7.368748e-001 -1.443347e+001 190 105 112
1.516807e+000 -2.680638e-001 -1.532241e+001 191 183 167
1.516807e+000 -2.680638e-001 -1.532241e+001 191 183 167
4.290626e+000 -1.626127e+000 -1.517948e+001 125 94 68
4.953588e+000 -1.632715e+000 -1.527102e+001 93 65 41
1.811341e+000 -2.774782e-001 -1.388321e+001 180 100 105
1.172307e+000 -8.128641e-001 -1.390416e+001 77 52 35
1.172307e+000 -8.128641e-001 -1.390416e+001 77 52 35
1.691186e+000 -4.151555e-001 -1.547556e+001 148 89 85
2.613839e+000 -9.887097e-001 -1.391076e+001 108 42 44
2.013855e+000 -9.627176e-001 -1.443853e+001 182 99 107
3.169197e+000 -1.603838e+000 -1.462099e+001 37 28 21
5.425174e+000 8.520871e-001 -1.250010e+001 162 123 84
2.745783e+000 -1.200841e+000 -1.431526e+001 116 45 50
4.681226e+000 -1.895416e+000 -1.580534e+001 41 37 34
4.661385e+000 -7.824926e-001 -1.392351e+001 116 86 62
5.541706e+000 2.981286e+000 -1.291412e+001 214 179 131
6.060983e+000 9.557657e-001 -1.211757e+001 254 227 171
6.195813e+000 2.077108e-001 -1.174922e+001 254 240 181
6.158261e+000 9.336135e-002 -1.171999e+001 252 220 165
6.224746e+000 1.020640e-001 -1.179261e+001 255 247 192
6.278736e+000 1.214894e-001 -1.175842e+001 218 187 132
6.250507e+000 -2.004097e-003 -1.175371e+001 219 190 134
6.267758e+000 -2.568005e-001 -1.162434e+001 155 121 78
3.948057e+000 1.121949e+000 -1.202586e+001 101 83 65
5.454458e+000 2.876817e+000 -1.291880e+001 241 208 163
5.557785e+000 2.993222e+000 -1.305663e+001 200 166 119
6.100011e+000 6.464799e-002 -1.188143e+001 247 217 162
6.222080e+000 -8.486913e-002 -1.178223e+001 210 179 125
6.274247e+000 -2.893022e-001 -1.168388e+001 154 119 76
3.629400e+000 9.024049e-001 -1.205960e+001 74 56 34
3.899520e+000 8.296543e-001 -1.212448e+001 69 53 37
5.385125e+000 1.201555e+000 -1.245033e+001 118 79 46
5.385125e+000 1.201555e+000 -1.245033e+001 118 79 46
5.792739e+000 1.229620e+000 -1.251599e+001 176 140 89
6.254707e+000 -3.310605e-001 -1.179023e+001 217 184 132
6.302191e+000 -2.485720e-001 -1.190250e+001 202 166 114
2.987874e+000 1.400513e+000 -1.247115e+001 136 130 97
3.135590e+000 9.854502e-001 -1.226583e+001 137 131 107
3.888165e+000 7.423691e-001 -1.214648e+001 63 45 30
5.535436e+000 1.030365e+000 -1.246700e+001 134 95 58
6.143086e+000 -1.743878e-001 -1.204671e+001 195 162 109
6.168412e+000 -2.026537e-001 -1.202327e+001 202 169 116
6.194550e+000 -2.456244e-001 -1.209294e+001 221 188 137
6.119465e+000 -2.882172e-001 -1.215039e+001 204 173 119
6.208367e+000 -5.462384e-001 -1.200153e+001 215 182 129
3.913765e+000 2.401096e-001 -1.234410e+001 64 45 27
4.559816e+000 6.374922e-001 -1.257451e+001 102 69 44
4.559816e+000 6.374922e-001 -1.257451e+001 102 69 44
6.238820e+000 -6.149059e-001 -1.207746e+001 138 106 65
2.816118e+000 7.900236e-001 -1.260873e+001 231 195 157
3.650115e+000 2.739676e-001 -1.247647e+001 39 29 22
3.680974e+000 1.239472e-001 -1.242705e+001 89 79 66
3.853075e+000 6.759074e-002 -1.238905e+001 91 73 53
5.179849e+000 3.720873e-001 -1.264505e+001 128 93 65
5.179849e+000 3.720873e-001 -1.264505e+001 128 93 65
2.772495e+000 5.786825e-001 -1.275124e+001 170 88 85
3.479567e+000 2.452067e-001 -1.262942e+001 49 31 19
6.116216e+000 -7.809704e-001 -1.239998e+001 141 110 66
3.076595e+000 2.569050e-001 -1.275263e+001 173 137 109
5.264046e+000 6.742540e-001 -1.318550e+001 100 70 45
1.952625e+000 5.013603e-001 -1.294838e+001 202 143 120
3.272014e+000 1.121703e-001 -1.286955e+001 126 99 72
4.748515e+000 1.284189e-001 -1.302519e+001 122 88 61
5.356292e+000 2.268409e-001 -1.320733e+001 95 62 31
6.126408e+000 -1.064915e+000 -1.251189e+001 136 102 63
3.125186e+000 1.269339e-002 -1.285330e+001 80 75 50
4.610447e+000 2.038738e-001 -1.329129e+001 97 66 38
5.063798e+000 2.547454e-001 -1.325225e+001 110 82 58
3.741663e+000 -3.768737e-002 -1.315244e+001 127 110 89
1.737958e+000 1.994818e-001 -1.313364e+001 238 189 172
2.327683e+000 -2.577450e-002 -1.306061e+001 200 129 135
2.969753e+000 -3.464707e-001 -1.308056e+001 63 47 27
4.420100e+000 -2.297216e-001 -1.323757e+001 83 53 27
2.181210e+000 -4.765986e-001 -1.304584e+001 178 107 111
2.730790e+000 -1.959309e-001 -1.317631e+001 145 90 73
1.913329e+000 -4.649799e-001 -1.311413e+001 145 78 79
1.968130e+000 -4.440326e-001 -1.314033e+001 130 69 68
2.113728e+000 -5.036198e-001 -1.318587e+001 125 64 61
2.113728e+000 -5.036198e-001 -1.318587e+001 125 64 61
2.991758e+000 -3.147671e-001 -1.350228e+001 154 108 67
4.850571e+000 -3.641037e-001 -1.359373e+001 88 56 32
4.904933e+000 -3.343860e-001 -1.364034e+001 116 85 57
5.998757e+000 -1.594953e+000 -1.293864e+001 125 95 55
2.462447e+000 -6.739388e-001 -1.332501e+001 135 85 76
3.389029e+000 -5.754737e-001 -1.344150e+001 64 48 35
3.480078e+000 -5.171922e-001 -1.351565e+001 38 28 17
4.112954e+000 -7.129956e-001 -1.349831e+001 84 58 35
2.664281e+000 -6.077334e-001 -1.347210e+001 112 53 52
3.122264e+000 -8.387398e-001 -1.350510e+001 95 73 54
5.879297e+000 -2.016691e+000 -1.323651e+001 123 95 54
-1.573087e-001 -8.086397e-001 -1.353076e+001 157 116 94
2.472490e+000 -9.806136e-001 -1.368895e+001 216 164 147
5.852613e+000 -2.019921e+000 -1.329009e+001 211 178 133
5.841737e+000 -2.108939e+000 -1.330851e+001 132 103 63
-2.673228e-001 -9.391681e-001 -1.347536e+001 204 167 140
-2.673228e-001 -9.391681e-001 -1.347536e+001 204 167 140
5.720591e+000 -2.449025e+000 -1.360756e+001 195 164 117
6.219921e+000 8.937747e-002 -1.173554e+001 251 220 163
3.915525e+000 1.071849e+000 -1.203605e+001 185 166 125
3.915525e+000 1.071849e+000 -1.203605e+001 185 166 125
5.958674e+000 1.272719e+000 -1.232888e+001 226 196 143
3.135644e+000 1.631465e+000 -1.238340e+001 211 191 160
3.518116e+000 7.391943e-001 -1.194432e+001 69 44 22
4.046302e+000 8.575470e-001 -1.213671e+001 158 128 105
4.395816e+000 1.000729e+000 -1.224932e+001 118 81 55
5.130833e+000 1.172166e+000 -1.239845e+001 144 108 72
4.962066e+000 1.040877e+000 -1.239902e+001 125 88 59
2.951106e+000 1.799062e+000 -1.274498e+001 153 128 103
2.955061e+000 1.267735e+000 -1.248940e+001 187 168 132
2.981119e+000 1.254186e+000 -1.257964e+001 201 167 129
3.092681e+000 9.972046e-001 -1.231583e+001 73 67 45
3.133343e+000 9.683375e-001 -1.230964e+001 108 101 78
3.180221e+000 7.364896e-001 -1.225219e+001 89 74 51
5.539639e+000 8.150084e-001 -1.261297e+001 112 71 41
5.927859e+000 1.184201e+000 -1.275276e+001 126 90 50
6.153888e+000 -1.652866e-001 -1.214573e+001 171 139 85
6.254429e+000 -4.643226e-001 -1.200516e+001 216 183 132
2.800569e+000 1.868861e+000 -1.293402e+001 216 191 169
3.332470e+000 4.017779e-001 -1.236872e+001 148 112 87
2.795353e+000 9.182745e-001 -1.266971e+001 196 158 113
3.626777e+000 4.762174e-001 -1.252927e+001 34 25 18
3.549881e+000 3.558305e-001 -1.252301e+001 55 38 30
6.161300e+000 -7.918926e-001 -1.224627e+001 229 197 140
