ply
format ascii 1.0
element face 0
property list uchar int vertex_indices
element vertex 899
property float x
property float y
property float z
property uchar diffuse_red
property uchar diffuse_green
property uchar diffuse_blue
end_header
4.343300e+000 6.376339e-001 -1.290572e+001 55 30 7
3.680672e+000 4.402627e-001 -1.265621e+001 61 52 34
2.738680e+000 4.007170e-001 -1.314652e+001 197 145 124
2.738126e+000 4.009093e-001 -1.314878e+001 197 145 124
3.013625e+000 4.171039e-001 -1.321098e+001 114 49 45
4.391594e+000 3.687855e-001 -1.330128e+001 100 76 52
2.833210e+000 2.604850e-001 -1.310422e+001 186 134 114
4.304602e+000 2.107862e-001 -1.345006e+001 113 83 58
4.490458e+000 2.745247e-001 -1.344204e+001 100 77 53
3.975753e+000 -1.018733e-002 -1.361417e+001 98 76 53
4.563858e+000 1.081209e+000 -1.282705e+001 127 91 55
4.660361e+000 9.266872e-001 -1.278422e+001 143 106 70
3.380118e+000 7.659007e-001 -1.265722e+001 111 105 76
3.373475e+000 7.063459e-001 -1.271546e+001 56 49 27
4.343010e+000 6.618827e-001 -1.288402e+001 103 74 50
4.410819e+000 6.159601e-001 -1.296226e+001 112 82 58
2.960858e+000 1.434833e-001 -1.322569e+001 100 26 29
3.281844e+000 -1.148739e-002 -1.339895e+001 44 34 24
1.799605e+000 -2.448419e-003 -1.344999e+001 164 119 98
3.935674e+000 9.991687e-001 -1.267545e+001 76 48 27
3.063353e+000 1.178042e+000 -1.329628e+001 197 157 120
3.308784e+000 8.569253e-001 -1.280908e+001 180 147 113
4.575516e+000 7.779150e-001 -1.282853e+001 109 72 45
3.492887e+000 6.188623e-001 -1.262061e+001 192 160 129
3.409485e+000 3.379601e-001 -1.302821e+001 47 35 23
4.248309e+000 3.789757e-001 -1.323863e+001 103 78 50
2.873464e+000 2.856891e-001 -1.314260e+001 132 64 56
4.087832e+000 3.046308e-001 -1.326245e+001 67 42 20
3.440384e+000 2.013009e-001 -1.312175e+001 132 108 82
1.984033e+000 -1.202636e-002 -1.351179e+001 123 82 62
4.048521e+000 -3.856891e-001 -1.414334e+001 80 53 34
4.400695e+000 9.626500e-001 -1.277355e+001 124 88 58
3.505727e+000 7.661801e-001 -1.251706e+001 181 150 119
4.137249e+000 8.722865e-001 -1.270468e+001 77 45 22
3.077431e+000 8.450833e-001 -1.299903e+001 169 84 79
3.144566e+000 7.265318e-001 -1.302433e+001 151 72 67
2.964670e+000 4.308014e-001 -1.318246e+001 119 52 49
2.928795e+000 3.054416e-001 -1.314771e+001 167 97 91
3.277368e+000 1.549318e-001 -1.321319e+001 154 119 91
4.060571e+000 8.341771e-001 -1.269322e+001 104 72 47
4.083577e+000 1.488531e-001 -1.346331e+001 86 59 38
3.673135e+000 6.437474e-002 -1.339692e+001 40 25 12
4.061036e+000 9.843305e-001 -1.271185e+001 121 87 53
2.835175e+000 2.057082e-001 -1.316650e+001 131 59 57
1.905242e+000 -6.963690e-002 -1.344873e+001 174 139 113
3.413918e+000 1.554221e+000 -1.304658e+001 66 50 33
3.445155e+000 1.553604e+000 -1.303551e+001 50 32 19
3.158410e+000 1.601371e+000 -1.317258e+001 165 131 94
3.890189e+000 1.524388e+000 -1.310034e+001 84 54 31
4.215536e+000 1.489221e+000 -1.311030e+001 99 64 38
4.069628e+000 1.286734e+000 -1.293296e+001 101 67 39
3.487491e+000 9.676655e-001 -1.253677e+001 124 88 51
4.260937e+000 7.578626e-001 -1.275653e+001 62 38 13
4.562757e+000 5.076023e-001 -1.320177e+001 77 49 25
3.213781e+000 3.476275e-001 -1.330766e+001 95 43 30
1.553246e+000 -6.737167e-002 -1.343833e+001 115 77 55
2.824966e+000 -2.881960e-001 -1.398868e+001 170 110 100
4.067756e+000 1.653415e+000 -1.321362e+001 95 64 37
4.144248e+000 1.558489e+000 -1.314979e+001 97 63 35
3.327563e+000 1.337276e+000 -1.290142e+001 128 94 62
4.159496e+000 1.259271e+000 -1.293030e+001 103 67 39
3.506293e+000 8.827466e-001 -1.250915e+001 128 94 59
3.311627e+000 9.647823e-001 -1.285330e+001 147 119 95
3.753741e+000 6.415743e-001 -1.268353e+001 33 23 13
3.769911e+000 6.458113e-001 -1.267928e+001 94 78 56
3.785461e+000 6.526648e-001 -1.268458e+001 47 29 16
2.685898e+000 4.700480e-001 -1.318621e+001 163 113 85
3.544245e+000 3.230454e-001 -1.307445e+001 38 27 10
3.908425e+000 6.387374e-002 -1.350657e+001 57 32 11
2.146523e+000 -2.454514e-002 -1.359660e+001 151 114 90
1.481717e+000 -1.336684e-001 -1.347191e+001 138 94 65
2.973278e+000 -1.857404e-001 -1.352030e+001 138 75 65
3.915408e+000 -3.688006e-001 -1.408444e+001 98 71 50
3.442545e+000 1.462233e+000 -1.297716e+001 64 45 26
2.996841e+000 4.595802e-001 -1.325033e+001 178 122 109
4.435261e+000 4.635219e-001 -1.321398e+001 92 70 47
3.145606e+000 2.739530e-001 -1.322014e+001 110 49 45
3.211980e+000 3.261266e-001 -1.327899e+001 151 99 85
3.212004e+000 3.260561e-001 -1.327771e+001 151 99 85
3.567171e+000 2.796148e-001 -1.314976e+001 45 37 15
3.835455e+000 -1.427761e-001 -1.376343e+001 73 46 27
3.835883e+000 -1.430038e-001 -1.376454e+001 73 46 27
4.182556e+000 -9.069617e-002 -1.384752e+001 64 42 19
1.591087e+000 -1.889738e-001 -1.342658e+001 126 83 58
4.149606e+000 -2.341091e-001 -1.401520e+001 76 49 28
3.377377e+000 -3.420029e-001 -1.383288e+001 113 81 53
3.315999e+000 -4.646223e-001 -1.391275e+001 201 171 142
3.133334e+000 1.430740e+000 -1.327157e+001 185 155 117
3.314653e+000 1.201166e+000 -1.283711e+001 159 132 105
4.540337e+000 6.497194e-001 -1.299544e+001 81 53 30
2.611088e+000 5.378798e-001 -1.325796e+001 143 92 63
2.680575e+000 4.525544e-001 -1.319190e+001 203 156 126
2.751137e+000 2.100506e-001 -1.310799e+001 165 94 92
3.433424e+000 2.345799e-001 -1.309741e+001 91 67 41
4.459592e+000 2.869005e-001 -1.343387e+001 61 37 13
3.552599e+000 8.299339e-002 -1.330375e+001 80 67 48
4.383925e+000 -2.348731e-001 -1.410334e+001 92 68 44
3.140985e+000 -4.566701e-001 -1.401429e+001 174 135 106
4.255820e+000 1.447963e+000 -1.307979e+001 127 93 65
2.932746e+000 1.278207e+000 -1.361788e+001 189 147 112
3.029633e+000 1.151736e+000 -1.331377e+001 110 80 52
3.064121e+000 8.976861e-001 -1.301274e+001 206 134 120
4.105950e+000 6.812623e-001 -1.277306e+001 74 46 25
3.291066e+000 6.755455e-001 -1.283067e+001 126 82 22
3.146330e+000 3.556185e-001 -1.320691e+001 119 65 56
3.983838e+000 2.046937e-001 -1.336652e+001 74 48 26
3.652106e+000 4.477033e-003 -1.347851e+001 54 39 21
4.075134e+000 -2.146544e-001 -1.396964e+001 73 46 25
3.308427e+000 1.503609e+000 -1.298608e+001 212 178 143
4.341724e+000 1.378386e+000 -1.304307e+001 149 114 76
3.552372e+000 8.655748e-001 -1.249703e+001 58 39 22
3.416522e+000 7.580748e-001 -1.257466e+001 59 51 28
2.855105e+000 7.788703e-001 -1.308281e+001 163 72 72
3.342205e+000 7.211295e-001 -1.275060e+001 172 147 113
4.082888e+000 7.026566e-001 -1.275874e+001 93 65 43
4.388626e+000 7.068751e-001 -1.284758e+001 72 46 25
3.463540e+000 3.992697e-001 -1.290808e+001 170 139 111
3.137734e+000 2.473887e-001 -1.321426e+001 152 104 82
4.157788e+000 2.546881e-001 -1.335558e+001 65 37 16
4.208256e+000 -3.660014e-002 -1.377484e+001 72 44 22
3.331375e+000 1.413221e+000 -1.292431e+001 178 142 105
3.777843e+000 1.540402e+000 -1.308027e+001 97 66 38
4.731259e+000 1.339790e+000 -1.309201e+001 21 16 13
3.699025e+000 1.016509e+000 -1.262862e+001 152 129 96
3.767318e+000 1.045849e+000 -1.267691e+001 65 47 27
4.033917e+000 4.830268e-001 -1.302925e+001 98 73 51
4.554478e+000 4.529849e-001 -1.323774e+001 89 57 32
3.158902e+000 6.712762e-002 -1.339685e+001 97 43 41
4.214227e+000 1.313120e-001 -1.350812e+001 62 37 17
4.271433e+000 1.426855e-001 -1.352614e+001 105 79 52
1.983666e+000 -7.452942e-002 -1.351905e+001 79 46 31
3.883194e+000 -6.586934e-002 -1.369480e+001 96 72 48
3.831079e+000 -4.252859e-001 -1.410656e+001 106 79 58
3.391831e+000 1.206034e+000 -1.273086e+001 211 178 145
3.560150e+000 7.304224e-001 -1.254278e+001 39 23 14
3.516884e+000 6.960963e-001 -1.255220e+001 181 152 122
3.440775e+000 5.357220e-001 -1.277016e+001 132 97 68
4.572015e+000 1.283546e-001 -1.364282e+001 131 100 69
3.016657e+000 6.395806e-002 -1.321238e+001 122 54 55
3.318104e+000 1.079550e+000 -1.283625e+001 84 71 44
4.045100e+000 1.658946e+000 -1.320723e+001 121 87 60
4.242884e+000 1.750474e+000 -1.330280e+001 109 73 41
4.399871e+000 1.814494e+000 -1.337939e+001 111 75 43
3.444707e+000 1.567371e+000 -1.303285e+001 105 87 59
3.615311e+000 1.498376e+000 -1.301035e+001 81 68 48
3.246865e+000 1.425451e+000 -1.304235e+001 75 58 33
3.576837e+000 1.460491e+000 -1.297128e+001 226 211 173
3.576837e+000 1.460491e+000 -1.297128e+001 226 211 173
4.272273e+000 1.491058e+000 -1.312005e+001 97 63 36
4.272273e+000 1.491058e+000 -1.312005e+001 97 63 36
4.311612e+000 1.540834e+000 -1.315223e+001 125 91 61
4.555588e+000 1.564266e+000 -1.320315e+001 115 85 58
3.362563e+000 1.294042e+000 -1.282214e+001 177 139 105
3.386249e+000 1.308271e+000 -1.284306e+001 140 103 67
3.598000e+000 1.350098e+000 -1.289302e+001 75 53 30
3.981656e+000 1.384335e+000 -1.300326e+001 98 67 39
4.324194e+000 1.437353e+000 -1.309497e+001 116 82 54
3.538800e+000 1.268914e+000 -1.283135e+001 63 46 31
4.308809e+000 1.285297e+000 -1.297381e+001 124 85 49
3.670695e+000 1.094078e+000 -1.268464e+001 253 236 170
3.679531e+000 1.108608e+000 -1.269989e+001 67 45 24
3.915015e+000 1.125338e+000 -1.277046e+001 103 71 46
4.023147e+000 1.222774e+000 -1.286596e+001 132 100 72
3.244393e+000 1.077291e+000 -1.288552e+001 193 157 116
3.576159e+000 1.022006e+000 -1.260572e+001 166 148 115
3.688299e+000 1.039520e+000 -1.264090e+001 247 232 181
4.411298e+000 3.527261e-001 -1.333132e+001 71 50 26
3.200360e+000 2.654977e-001 -1.323625e+001 124 68 57
3.527946e+000 1.798831e-001 -1.322257e+001 37 23 8
2.168599e+000 -8.415851e-003 -1.360787e+001 162 125 98
3.275317e+000 -7.602985e-002 -1.349085e+001 46 33 20
3.325654e+000 -3.239477e-001 -1.380552e+001 215 180 152
3.325654e+000 -3.239477e-001 -1.380552e+001 215 180 152
3.379965e+000 1.667598e+000 -1.311871e+001 70 54 32
4.206714e+000 1.737587e+000 -1.328613e+001 103 66 37
4.569782e+000 1.808790e+000 -1.341380e+001 119 77 42
4.569782e+000 1.808790e+000 -1.341380e+001 119 77 42
4.069296e+000 1.621248e+000 -1.318403e+001 124 89 62
3.358950e+000 1.419542e+000 -1.291104e+001 184 151 113
3.406070e+000 1.314270e+000 -1.286459e+001 142 105 76
3.653400e+000 1.287206e+000 -1.281602e+001 62 47 26
4.245191e+000 1.394147e+000 -1.305978e+001 122 87 59
3.645492e+000 1.194763e+000 -1.274662e+001 76 64 42
4.015958e+000 1.277534e+000 -1.292621e+001 99 64 38
4.142554e+000 1.298766e+000 -1.295261e+001 126 92 64
4.252975e+000 1.257578e+000 -1.293632e+001 102 66 32
3.455169e+000 1.101265e+000 -1.263561e+001 148 110 73
4.227269e+000 1.223615e+000 -1.290559e+001 108 69 36
4.088596e+000 1.124747e+000 -1.279177e+001 97 62 34
3.159867e+000 1.051948e+000 -1.299371e+001 211 173 128
3.481097e+000 9.565741e-001 -1.255095e+001 175 140 102
3.744524e+000 9.710786e-001 -1.260438e+001 128 111 85
3.301047e+000 9.529252e-001 -1.287445e+001 125 86 55
3.325306e+000 7.110239e-001 -1.279550e+001 141 100 50
4.624069e+000 7.718707e-001 -1.285836e+001 78 46 21
2.719550e+000 7.146576e-001 -1.322451e+001 158 100 78
2.819922e+000 6.999409e-001 -1.307079e+001 170 94 86
3.140316e+000 4.550023e-001 -1.327035e+001 135 66 69
3.495656e+000 4.088980e-001 -1.290799e+001 103 72 43
4.268385e+000 4.521436e-001 -1.316496e+001 70 46 22
4.378623e+000 4.299407e-001 -1.325248e+001 54 32 11
4.423098e+000 4.541403e-001 -1.322489e+001 52 30 8
3.360699e+000 3.257563e-001 -1.306266e+001 40 31 14
3.410907e+000 3.081842e-001 -1.302377e+001 98 81 56
3.557689e+000 3.414405e-001 -1.306924e+001 39 25 17
4.418505e+000 4.026290e-001 -1.327981e+001 88 65 43
4.520027e+000 3.567144e-001 -1.338552e+001 55 31 9
1.653853e+000 1.083410e-001 -1.360289e+001 92 70 60
1.653755e+000 1.081802e-001 -1.360579e+001 92 70 60
4.213917e+000 1.872982e-001 -1.346717e+001 97 72 49
3.305822e+000 6.035772e-002 -1.320270e+001 178 146 105
3.980515e+000 8.857355e-002 -1.349820e+001 66 43 22
1.472045e+000 -1.024219e-001 -1.348103e+001 141 94 64
3.363088e+000 -2.713309e-001 -1.373054e+001 126 92 65
3.619726e+000 -3.546278e-001 -1.397141e+001 65 46 29
3.873523e+000 1.701381e+000 -1.319482e+001 121 86 59
4.215722e+000 1.689654e+000 -1.324720e+001 131 98 70
4.358877e+000 1.719482e+000 -1.329953e+001 124 91 60
3.427318e+000 1.511850e+000 -1.300422e+001 65 48 28
4.382508e+000 1.648785e+000 -1.325172e+001 117 84 53
3.579737e+000 1.440007e+000 -1.295897e+001 47 33 20
3.838282e+000 1.482250e+000 -1.306959e+001 81 53 29
4.149269e+000 1.468046e+000 -1.308190e+001 137 104 73
3.515505e+000 1.314651e+000 -1.285427e+001 47 35 19
3.601956e+000 1.358417e+000 -1.289805e+001 69 50 35
3.622130e+000 1.272545e+000 -1.280993e+001 77 60 37
3.973467e+000 1.355373e+000 -1.297094e+001 127 96 67
3.771891e+000 1.285036e+000 -1.289175e+001 141 111 83
4.435327e+000 1.256165e+000 -1.294750e+001 108 67 35
4.435327e+000 1.256165e+000 -1.294750e+001 108 67 35
3.720968e+000 1.070979e+000 -1.266345e+001 132 113 80
4.132667e+000 1.127879e+000 -1.280588e+001 140 104 70
4.306863e+000 1.149555e+000 -1.283805e+001 145 107 70
4.501817e+000 1.108615e+000 -1.282398e+001 128 93 61
3.500433e+000 9.377212e-001 -1.254757e+001 135 99 63
3.357525e+000 8.828109e-001 -1.268517e+001 67 60 32
3.536845e+000 8.512071e-001 -1.254851e+001 117 82 49
3.359706e+000 8.279923e-001 -1.271455e+001 94 84 58
3.391629e+000 7.914138e-001 -1.259157e+001 112 102 74
3.403087e+000 8.064186e-001 -1.252522e+001 141 122 89
3.339291e+000 7.512735e-001 -1.276383e+001 156 137 105
3.739257e+000 6.743709e-001 -1.265691e+001 51 39 27
3.257524e+000 5.358192e-001 -1.292016e+001 157 115 73
4.114045e+000 5.806323e-001 -1.290102e+001 71 44 23
3.256139e+000 4.686501e-001 -1.290517e+001 186 152 117
4.570623e+000 5.232148e-001 -1.318261e+001 93 64 40
4.370489e+000 4.816665e-001 -1.318094e+001 62 43 19
4.435238e+000 3.311836e-001 -1.337507e+001 67 45 22
4.435969e+000 3.314026e-001 -1.337755e+001 67 45 22
4.090764e+000 1.319818e-001 -1.347020e+001 70 45 26
4.202738e+000 1.392541e-001 -1.350327e+001 50 28 6
2.965250e+000 1.727879e-002 -1.322070e+001 185 144 126
3.238555e+000 4.816627e-002 -1.337929e+001 92 39 35
3.238555e+000 4.816627e-002 -1.337929e+001 92 39 35
3.288680e+000 1.761699e-002 -1.335327e+001 159 116 98
4.148640e+000 3.962019e-002 -1.363512e+001 73 52 30
3.356609e+000 -3.235258e-001 -1.380182e+001 122 88 62
3.321493e+000 1.680336e+000 -1.311959e+001 56 37 24
4.215416e+000 1.571844e+000 -1.316105e+001 137 104 71
4.280393e+000 1.603051e+000 -1.319458e+001 88 57 28
3.626633e+000 1.309175e+000 -1.288039e+001 69 56 39
3.164069e+000 1.392326e+000 -1.328275e+001 81 63 39
3.396843e+000 1.123584e+000 -1.269984e+001 137 104 71
3.419161e+000 1.060818e+000 -1.265913e+001 136 102 67
4.015855e+000 1.115239e+000 -1.278409e+001 87 55 30
3.341003e+000 9.873649e-001 -1.277520e+001 155 125 95
3.340867e+000 9.878152e-001 -1.277861e+001 155 125 95
3.460163e+000 9.040998e-001 -1.254761e+001 132 96 65
3.541824e+000 7.874453e-001 -1.253354e+001 138 107 76
4.017112e+000 8.690703e-001 -1.266697e+001 81 50 22
3.293015e+000 7.407751e-001 -1.286188e+001 135 86 41
3.308734e+000 5.851150e-001 -1.286877e+001 121 78 36
4.132927e+000 5.999651e-001 -1.287290e+001 107 80 53
4.514566e+000 6.460861e-001 -1.298844e+001 103 75 49
3.611540e+000 5.147725e-001 -1.284241e+001 30 20 12
4.122484e+000 5.309104e-001 -1.299961e+001 72 43 25
4.230677e+000 4.906249e-001 -1.308594e+001 104 77 52
4.442402e+000 4.863997e-001 -1.319068e+001 61 42 18
3.432467e+000 2.355373e-001 -1.308407e+001 91 67 41
3.459402e+000 2.972443e-001 -1.304308e+001 186 160 133
3.419356e+000 1.090856e-001 -1.322392e+001 207 177 151
3.417471e+000 1.100519e-001 -1.321089e+001 207 177 151
1.710546e+000 -1.941119e-002 -1.338078e+001 147 107 83
3.997165e+000 9.624674e-002 -1.348496e+001 65 43 22
3.191729e+000 -2.020308e-001 -1.369116e+001 170 112 99
3.948072e+000 -2.870909e-001 -1.401784e+001 70 47 23
3.239829e+000 -4.169599e-001 -1.390477e+001 186 147 116
3.347134e+000 1.602792e+000 -1.305266e+001 59 38 21
4.437524e+000 1.534672e+000 -1.318054e+001 92 61 33
3.869650e+000 1.207261e+000 -1.283388e+001 89 59 34
3.442693e+000 9.920495e-001 -1.257833e+001 141 103 67
3.319759e+000 9.816402e-001 -1.283018e+001 56 45 27
4.000565e+000 1.033884e+000 -1.271585e+001 93 59 31
4.589186e+000 4.990747e-001 -1.322113e+001 74 44 18
4.307327e+000 1.503649e-001 -1.352725e+001 109 83 56
3.126460e+000 9.012994e-003 -1.334247e+001 104 38 38
3.242791e+000 -1.286532e-002 -1.342965e+001 136 92 81
3.230861e+000 -2.082693e-001 -1.371595e+001 106 45 40
3.244923e+000 -3.044273e-001 -1.388050e+001 108 59 42
4.431606e+000 -2.627042e-001 -1.413559e+001 88 58 33
3.464403e+000 -5.387496e-001 -1.392154e+001 80 66 55
3.417086e+000 1.820416e+000 -1.327480e+001 214 198 180
3.402732e+000 1.361119e+000 -1.290311e+001 58 37 23
3.415884e+000 1.012362e+000 -1.270385e+001 173 138 108
3.547583e+000 8.626671e-001 -1.246686e+001 58 39 22
2.808215e+000 7.762345e-001 -1.312027e+001 218 160 140
3.708180e+000 6.290994e-001 -1.263253e+001 24 17 11
4.465395e+000 5.579083e-001 -1.310653e+001 97 73 47
4.633127e+000 5.317631e-001 -1.318516e+001 124 93 64
2.939477e+000 3.788080e-001 -1.317432e+001 166 106 95
4.164469e+000 4.304696e-001 -1.313672e+001 106 79 52
4.458017e+000 4.514299e-001 -1.321436e+001 90 66 42
3.223036e+000 2.725994e-001 -1.322017e+001 146 107 89
3.398588e+000 -3.807198e-001 -1.391132e+001 54 45 38
3.711329e+000 -4.070836e-001 -1.403908e+001 139 111 89
4.470963e+000 -3.994052e-001 -1.429943e+001 125 98 66
4.587201e+000 1.136880e+000 -1.284918e+001 97 61 29
2.808628e+000 6.788457e-001 -1.306434e+001 183 103 96
3.168696e+000 4.121841e-001 -1.327619e+001 98 40 38
3.129206e+000 3.175615e-001 -1.321736e+001 94 35 27
4.154014e+000 3.099141e-001 -1.330022e+001 108 80 52
3.066106e+000 1.879679e-001 -1.327787e+001 106 41 39
3.697290e+000 1.262331e-001 -1.338215e+001 44 28 12
2.947801e+000 5.150533e-002 -1.321722e+001 159 114 94
3.632044e+000 -1.153657e-001 -1.361677e+001 51 39 22
3.900754e+000 -1.480615e-001 -1.380166e+001 73 51 30
4.466055e+000 1.824030e+000 -1.336817e+001 183 140 101
3.612158e+000 1.477432e+000 -1.296380e+001 75 62 46
3.526062e+000 1.300324e+000 -1.280203e+001 71 58 41
3.660206e+000 1.316314e+000 -1.284083e+001 87 70 45
3.585897e+000 1.175681e+000 -1.274588e+001 75 62 40
4.306205e+000 8.252233e-001 -1.276362e+001 73 42 20
4.303957e+000 2.880246e-001 -1.337463e+001 104 74 48
3.364361e+000 1.445248e-001 -1.315965e+001 72 67 48
4.672866e+000 1.616085e-001 -1.365539e+001 99 68 38
3.172998e+000 -9.904974e-002 -1.353290e+001 173 114 108
3.118134e+000 -1.502624e-001 -1.368360e+001 97 32 36
3.339218e+000 1.798843e+000 -1.333075e+001 97 76 57
3.958692e+000 1.572809e+000 -1.314065e+001 106 76 47
4.109815e+000 7.384140e-001 -1.274250e+001 82 54 32
3.348125e+000 6.717388e-001 -1.271573e+001 184 155 119
4.156124e+000 6.213941e-001 -1.284193e+001 112 82 55
2.668005e+000 4.414153e-001 -1.319457e+001 191 135 112
2.858532e+000 3.767742e-001 -1.317513e+001 130 62 53
3.772836e+000 4.244864e-002 -1.350214e+001 127 101 76
3.772836e+000 4.244864e-002 -1.350214e+001 127 101 76
3.865899e+000 6.043724e-003 -1.359951e+001 66 43 27
4.507405e+000 -2.718736e-001 -1.419358e+001 131 100 69
3.325604e+000 2.081541e-001 -1.311855e+001 55 41 27
1.878854e+000 -2.064988e-001 -1.347840e+001 93 67 54
4.377886e+000 1.776368e+000 -1.339390e+001 98 65 30
4.351617e+000 1.273871e+000 -1.296332e+001 152 109 74
3.268919e+000 5.193511e-001 -1.288349e+001 199 161 114
3.379332e+000 7.981585e-001 -1.275741e+001 56 48 28
4.563933e+000 -5.242486e-001 -1.444022e+001 164 135 91
4.417276e+000 3.720379e-001 -1.329758e+001 77 51 31
4.476798e+000 1.299527e+000 -1.310339e+001 121 82 47
3.333101e+000 1.759993e+000 -1.319430e+001 73 58 36
3.612169e+000 1.846557e+000 -1.339270e+001 172 146 116
3.317479e+000 1.743608e+000 -1.319922e+001 77 51 36
3.549639e+000 1.699329e+000 -1.314141e+001 65 51 32
3.936248e+000 1.795391e+000 -1.330447e+001 106 71 41
3.260666e+000 1.627451e+000 -1.308997e+001 204 171 138
4.222819e+000 1.730768e+000 -1.328508e+001 137 101 69
4.609704e+000 1.786002e+000 -1.341512e+001 146 102 67
3.215256e+000 1.549529e+000 -1.305420e+001 161 134 103
3.221003e+000 1.519933e+000 -1.299637e+001 78 67 35
3.347030e+000 1.513714e+000 -1.298563e+001 145 113 80
3.427430e+000 1.463185e+000 -1.296325e+001 69 53 29
3.923990e+000 1.569142e+000 -1.313901e+001 88 56 34
3.225803e+000 1.440169e+000 -1.300747e+001 90 75 45
3.643968e+000 1.460921e+000 -1.299379e+001 70 53 33
4.349236e+000 1.543746e+000 -1.316068e+001 117 82 54
3.341010e+000 1.338300e+000 -1.286301e+001 209 175 139
3.487541e+000 1.356691e+000 -1.287236e+001 120 103 77
3.548915e+000 1.389429e+000 -1.295977e+001 37 23 12
3.614660e+000 1.377241e+000 -1.290629e+001 136 114 81
3.615636e+000 1.378382e+000 -1.291047e+001 136 114 81
4.123968e+000 1.364184e+000 -1.299886e+001 97 63 35
3.012380e+000 1.351111e+000 -1.354088e+001 198 159 126
3.150990e+000 1.293543e+000 -1.315318e+001 65 59 31
3.360132e+000 1.252339e+000 -1.282083e+001 138 104 69
3.389864e+000 1.214843e+000 -1.274991e+001 229 196 162
3.622652e+000 1.266542e+000 -1.281951e+001 84 62 40
2.959643e+000 1.307387e+000 -1.359887e+001 145 105 69
3.050774e+000 1.211800e+000 -1.329632e+001 93 73 39
3.548206e+000 1.154583e+000 -1.272577e+001 64 47 26
3.665557e+000 1.210670e+000 -1.278278e+001 176 150 105
3.706192e+000 1.152756e+000 -1.273083e+001 67 49 29
3.791423e+000 1.239025e+000 -1.288516e+001 139 108 79
4.011972e+000 1.229540e+000 -1.288107e+001 98 64 37
4.741955e+000 1.262087e+000 -1.306767e+001 95 62 29
3.074914e+000 1.113357e+000 -1.322124e+001 160 116 79
3.388762e+000 1.048694e+000 -1.272736e+001 124 95 71
3.502993e+000 1.007492e+000 -1.261855e+001 169 129 94
3.591986e+000 1.009185e+000 -1.260488e+001 151 129 101
3.581637e+000 1.000448e+000 -1.260901e+001 70 55 29
3.632196e+000 1.004551e+000 -1.263703e+001 79 64 41
3.720000e+000 9.970148e-001 -1.259510e+001 159 136 108
3.380115e+000 9.414429e-001 -1.275130e+001 128 93 65
3.708827e+000 9.143783e-001 -1.259729e+001 146 129 102
3.708827e+000 9.143783e-001 -1.259729e+001 146 129 102
3.319555e+000 9.061560e-001 -1.286127e+001 182 144 111
3.368988e+000 8.764909e-001 -1.262650e+001 105 94 71
3.367115e+000 8.535594e-001 -1.269334e+001 102 95 67
3.380106e+000 8.383245e-001 -1.260644e+001 97 90 62
3.380106e+000 8.383245e-001 -1.260644e+001 97 90 62
3.585120e+000 8.408305e-001 -1.255746e+001 75 53 32
3.631989e+000 8.910296e-001 -1.254813e+001 40 27 12
3.334681e+000 8.202821e-001 -1.276419e+001 139 111 83
3.594330e+000 8.309471e-001 -1.256428e+001 225 198 144
3.601752e+000 8.224151e-001 -1.255549e+001 58 39 23
3.352553e+000 7.458555e-001 -1.273250e+001 85 69 47
3.493216e+000 7.169995e-001 -1.255943e+001 124 93 64
3.624896e+000 7.272255e-001 -1.256248e+001 58 42 27
3.645256e+000 7.016592e-001 -1.256650e+001 116 99 81
3.664468e+000 7.002709e-001 -1.260186e+001 46 31 15
3.724277e+000 5.960712e-001 -1.263294e+001 57 47 33
3.611083e+000 5.621180e-001 -1.265718e+001 78 62 46
4.161375e+000 5.767046e-001 -1.291949e+001 101 77 51
3.563124e+000 4.447128e-001 -1.292963e+001 50 34 21
3.587068e+000 3.843653e-001 -1.301794e+001 40 28 16
3.978135e+000 4.153913e-001 -1.309772e+001 51 28 11
2.813339e+000 2.757338e-001 -1.311589e+001 134 67 51
3.197806e+000 3.177317e-001 -1.328275e+001 94 40 28
3.324261e+000 3.294288e-001 -1.306561e+001 54 38 23
3.559266e+000 3.246815e-001 -1.306734e+001 113 95 68
4.321207e+000 3.190594e-001 -1.335607e+001 102 80 58
3.535331e+000 2.553221e-001 -1.314250e+001 43 30 13
3.951423e+000 2.223537e-001 -1.337023e+001 61 36 14
3.951423e+000 2.223537e-001 -1.337023e+001 61 36 14
1.587811e+000 7.818172e-002 -1.342674e+001 145 106 77
3.426186e+000 1.424873e-001 -1.314942e+001 151 124 97
3.533366e+000 2.012074e-001 -1.321274e+001 41 28 14
3.560254e+000 1.914687e-001 -1.323633e+001 37 24 12
3.573906e+000 1.863033e-001 -1.324798e+001 102 88 64
4.221810e+000 1.683081e-001 -1.349006e+001 61 36 14
4.240210e+000 1.264007e-001 -1.354430e+001 60 34 12
4.229262e+000 1.006068e-001 -1.356656e+001 63 38 17
3.039627e+000 -6.916810e-002 -1.337256e+001 163 102 97
3.375761e+000 1.278694e-002 -1.327043e+001 122 88 61
3.496823e+000 -3.564836e-002 -1.345521e+001 49 37 20
3.499587e+000 -1.914610e-002 -1.344204e+001 52 40 18
3.962006e+000 3.247801e-002 -1.358497e+001 67 45 24
3.250135e+000 -1.404743e-001 -1.350430e+001 54 45 28
3.235429e+000 -1.747254e-001 -1.364677e+001 110 40 39
3.472945e+000 -1.287384e-001 -1.356710e+001 62 47 25
3.486134e+000 -7.462928e-002 -1.350641e+001 63 47 31
3.587795e+000 -8.334139e-002 -1.357905e+001 78 62 44
3.584968e+000 -1.108590e-001 -1.363293e+001 71 56 36
3.611717e+000 -9.364245e-002 -1.357920e+001 40 24 9
3.141573e+000 -3.243269e-001 -1.385387e+001 119 68 49
4.058623e+000 -3.371060e-001 -1.405848e+001 81 54 35
4.828025e+000 -2.973848e-001 -1.331082e+001 113 85 45
3.161477e+000 1.688256e+000 -1.326773e+001 80 72 44
3.278457e+000 1.693623e+000 -1.309707e+001 144 107 80
3.505842e+000 1.729929e+000 -1.319436e+001 82 66 44
3.848212e+000 1.785805e+000 -1.327789e+001 168 132 98
4.037546e+000 1.797584e+000 -1.332147e+001 100 64 30
4.008445e+000 1.768306e+000 -1.329178e+001 100 63 34
4.233574e+000 1.796971e+000 -1.335008e+001 104 65 32
4.577998e+000 1.850840e+000 -1.348371e+001 125 86 45
3.248743e+000 1.638387e+000 -1.314599e+001 145 112 84
3.284526e+000 1.562150e+000 -1.302727e+001 233 201 168
3.523969e+000 1.609486e+000 -1.307237e+001 78 62 47
3.276150e+000 1.470753e+000 -1.296090e+001 138 108 70
3.607552e+000 1.562436e+000 -1.303929e+001 66 49 29
3.578381e+000 1.483664e+000 -1.299535e+001 62 44 22
3.632579e+000 1.484383e+000 -1.299262e+001 63 48 29
3.927007e+000 1.579349e+000 -1.310592e+001 116 84 59
3.886720e+000 1.521244e+000 -1.309585e+001 84 54 31
3.563794e+000 1.325001e+000 -1.289996e+001 28 16 2
3.688036e+000 1.316813e+000 -1.288609e+001 81 60 39
4.180901e+000 1.435864e+000 -1.306258e+001 90 55 29
4.332902e+000 1.410478e+000 -1.310233e+001 111 75 41
3.375877e+000 1.223583e+000 -1.277026e+001 186 154 116
3.449203e+000 1.221203e+000 -1.276798e+001 55 38 20
3.477556e+000 1.279205e+000 -1.279869e+001 33 28 18
3.543406e+000 1.193685e+000 -1.268765e+001 66 51 32
3.701248e+000 1.273044e+000 -1.285110e+001 77 57 33
2.862662e+000 1.354758e+000 -1.370873e+001 216 203 188
3.019923e+000 1.282822e+000 -1.343678e+001 172 147 112
3.405643e+000 1.157257e+000 -1.269130e+001 189 157 119
3.493996e+000 1.089389e+000 -1.264477e+001 53 36 22
3.553475e+000 1.070142e+000 -1.262575e+001 80 59 35
3.689694e+000 1.080982e+000 -1.267572e+001 69 52 31
3.983996e+000 1.145779e+000 -1.277828e+001 148 113 81
3.001477e+000 1.096382e+000 -1.327505e+001 179 114 87
3.481754e+000 1.002585e+000 -1.257148e+001 115 77 40
3.520824e+000 9.200908e-001 -1.253961e+001 143 105 69
3.663913e+000 9.356617e-001 -1.260114e+001 57 46 27
4.525106e+000 1.048551e+000 -1.280435e+001 101 64 32
4.525106e+000 1.048551e+000 -1.280435e+001 101 64 32
3.277632e+000 8.719728e-001 -1.290613e+001 131 88 53
3.395871e+000 8.972385e-001 -1.266257e+001 139 103 71
3.391550e+000 8.503592e-001 -1.256066e+001 128 114 87
3.748762e+000 8.750213e-001 -1.258125e+001 63 46 26
4.512310e+000 9.647103e-001 -1.278806e+001 88 53 26
3.251206e+000 8.514787e-001 -1.294676e+001 161 117 78
3.291222e+000 8.331880e-001 -1.284298e+001 153 111 73
3.378326e+000 7.792708e-001 -1.264336e+001 111 101 75
4.004513e+000 8.102216e-001 -1.267669e+001 70 39 18
2.747430e+000 7.368933e-001 -1.314264e+001 175 98 86
3.148771e+000 7.799309e-001 -1.299454e+001 175 109 93
3.299317e+000 6.471727e-001 -1.287275e+001 135 94 45
3.473597e+000 6.519181e-001 -1.264885e+001 117 84 58
3.489819e+000 7.004968e-001 -1.256711e+001 156 124 95
3.506825e+000 6.993514e-001 -1.255238e+001 155 124 93
3.746424e+000 6.924440e-001 -1.264148e+001 39 25 19
4.583967e+000 7.479979e-001 -1.286890e+001 64 35 11
3.188905e+000 6.320769e-001 -1.300315e+001 95 56 40
3.473115e+000 5.815188e-001 -1.268881e+001 166 131 100
3.553189e+000 6.229583e-001 -1.267603e+001 107 73 46
3.695874e+000 6.088097e-001 -1.264755e+001 62 50 34
3.728566e+000 6.125218e-001 -1.265207e+001 23 14 6
3.412883e+000 5.538695e-001 -1.279152e+001 151 112 80
3.686522e+000 5.625136e-001 -1.260138e+001 67 56 39
3.736584e+000 5.561163e-001 -1.259322e+001 81 66 45
3.913941e+000 5.616000e-001 -1.280912e+001 61 40 23
2.680318e+000 3.981820e-001 -1.317267e+001 159 98 83
3.746574e+000 4.769307e-001 -1.260750e+001 79 63 47
4.508303e+000 5.516451e-001 -1.313251e+001 72 46 23
3.486917e+000 3.943818e-001 -1.290653e+001 115 81 54
3.524462e+000 3.949031e-001 -1.296122e+001 49 36 18
4.089933e+000 4.630696e-001 -1.310889e+001 68 41 22
4.297281e+000 4.457151e-001 -1.320019e+001 93 69 44
4.297281e+000 4.457151e-001 -1.320019e+001 93 69 44
4.459469e+000 4.076529e-001 -1.330231e+001 63 38 17
2.781329e+000 3.113063e-001 -1.314520e+001 195 132 115
3.476908e+000 3.055424e-001 -1.302391e+001 91 66 39
3.563471e+000 3.600727e-001 -1.306664e+001 74 63 45
3.930651e+000 3.054917e-001 -1.324545e+001 56 38 18
3.216793e+000 2.270643e-001 -1.327556e+001 115 60 46
3.292965e+000 2.195087e-001 -1.324638e+001 53 41 25
3.286427e+000 1.054294e-001 -1.327771e+001 119 81 45
3.383134e+000 1.743430e-001 -1.307839e+001 54 42 20
3.656868e+000 1.919298e-001 -1.323823e+001 61 46 27
3.686426e+000 2.025941e-001 -1.322831e+001 37 24 13
3.678549e+000 1.572840e-001 -1.324676e+001 89 71 50
4.204131e+000 1.394823e-001 -1.350116e+001 50 28 6
3.309816e+000 1.050083e-001 -1.313776e+001 162 129 94
3.528684e+000 8.704324e-002 -1.333459e+001 80 68 48
3.526397e+000 6.434087e-002 -1.334504e+001 43 30 13
3.014474e+000 6.130639e-003 -1.320953e+001 115 66 52
2.978973e+000 -6.386151e-002 -1.343055e+001 159 106 92
3.533551e+000 -1.129426e-002 -1.343777e+001 37 27 17
3.494080e+000 -5.501137e-002 -1.348669e+001 47 33 18
4.050092e+000 4.103752e-002 -1.356080e+001 88 66 47
4.267929e+000 1.972447e-002 -1.376560e+001 72 47 25
4.267929e+000 1.972447e-002 -1.376560e+001 72 47 25
1.890864e+000 -1.570537e-001 -1.343831e+001 97 64 45
3.486767e+000 -1.105823e-001 -1.356653e+001 51 38 24
3.588034e+000 -2.369634e-001 -1.379270e+001 156 136 112
3.588034e+000 -2.369634e-001 -1.379270e+001 156 136 112
3.091634e+000 -3.126271e-001 -1.375638e+001 167 108 100
3.207979e+000 -3.989526e-001 -1.391324e+001 146 105 77
3.247174e+000 -3.827010e-001 -1.385027e+001 143 99 72
1.576230e+000 -5.059203e-001 -1.355550e+001 149 78 84
3.191011e+000 -4.174765e-001 -1.395180e+001 182 141 109
3.237418e+000 -4.347142e-001 -1.385434e+001 152 113 82
3.251875e+000 1.788108e+000 -1.323087e+001 164 132 101
3.466821e+000 1.840067e+000 -1.332057e+001 162 141 116
3.143722e+000 1.722277e+000 -1.327896e+001 91 83 54
3.232393e+000 1.648826e+000 -1.320920e+001 176 145 116
3.265575e+000 1.564097e+000 -1.301973e+001 137 105 73
3.589371e+000 1.657000e+000 -1.312302e+001 74 58 35
3.598993e+000 1.602048e+000 -1.307088e+001 74 59 40
3.181647e+000 1.499471e+000 -1.312768e+001 188 157 123
3.289597e+000 1.487803e+000 -1.297669e+001 247 219 184
3.987680e+000 1.544828e+000 -1.312879e+001 118 89 59
4.069258e+000 1.620258e+000 -1.318171e+001 124 89 62
4.373744e+000 1.615303e+000 -1.321097e+001 97 63 36
3.301162e+000 1.437789e+000 -1.297267e+001 126 93 61
3.356695e+000 1.356971e+000 -1.289709e+001 120 81 50
3.391122e+000 1.272643e+000 -1.277586e+001 128 93 61
3.495031e+000 1.332515e+000 -1.286417e+001 134 114 78
3.434905e+000 1.282897e+000 -1.285758e+001 56 34 21
3.648222e+000 1.265484e+000 -1.283335e+001 150 126 88
3.681734e+000 1.215794e+000 -1.276724e+001 67 50 30
4.431040e+000 1.348456e+000 -1.302674e+001 111 72 39
3.022589e+000 1.245167e+000 -1.335097e+001 73 65 26
3.422475e+000 1.123983e+000 -1.265945e+001 216 180 145
3.422747e+000 1.124449e+000 -1.266156e+001 216 180 145
3.572469e+000 1.134093e+000 -1.268992e+001 62 46 28
4.040545e+000 1.202336e+000 -1.283951e+001 123 89 61
2.968190e+000 1.155842e+000 -1.345858e+001 194 157 121
3.491684e+000 1.073496e+000 -1.266212e+001 144 110 69
4.134731e+000 1.128463e+000 -1.280896e+001 140 104 70
3.509096e+000 9.812852e-001 -1.257128e+001 143 104 68
3.567552e+000 1.037440e+000 -1.259489e+001 77 61 38
3.703604e+000 1.047376e+000 -1.264518e+001 81 63 43
3.391047e+000 9.221777e-001 -1.272234e+001 175 137 106
3.379158e+000 8.599513e-001 -1.262531e+001 65 59 34
3.764161e+000 8.637589e-001 -1.257179e+001 138 120 96
3.764161e+000 8.637589e-001 -1.257179e+001 138 120 96
2.841894e+000 8.295896e-001 -1.314034e+001 210 132 124
3.395053e+000 7.712589e-001 -1.261638e+001 71 60 38
3.395053e+000 7.712589e-001 -1.261638e+001 71 60 38
3.600448e+000 7.752048e-001 -1.255964e+001 38 24 13
3.666049e+000 8.151592e-001 -1.257044e+001 66 49 32
2.765183e+000 7.721323e-001 -1.318895e+001 164 94 80
3.517701e+000 7.504874e-001 -1.249193e+001 125 91 64
3.599958e+000 7.365534e-001 -1.255779e+001 61 44 24
3.817947e+000 7.688447e-001 -1.263702e+001 60 40 16
3.680001e+000 6.578116e-001 -1.261306e+001 67 53 36
3.761628e+000 6.940510e-001 -1.262731e+001 114 94 68
4.382072e+000 6.967034e-001 -1.284525e+001 61 34 15
4.633451e+000 6.637480e-001 -1.299542e+001 79 48 20
3.211157e+000 5.575774e-001 -1.300628e+001 179 140 109
3.484451e+000 5.541518e-001 -1.267810e+001 195 161 129
3.759102e+000 5.519996e-001 -1.261802e+001 38 25 14
4.059598e+000 6.010301e-001 -1.287590e+001 70 48 25
4.504430e+000 6.027579e-001 -1.303405e+001 76 51 28
3.479713e+000 4.533395e-001 -1.283327e+001 213 182 153
3.512268e+000 5.021649e-001 -1.278590e+001 114 83 55
4.370712e+000 5.490346e-001 -1.302352e+001 87 65 41
4.419936e+000 5.497583e-001 -1.310005e+001 65 42 20
4.419936e+000 5.497583e-001 -1.310005e+001 65 42 20
4.530468e+000 5.391368e-001 -1.315773e+001 94 68 44
2.759527e+000 3.737751e-001 -1.312568e+001 189 124 112
4.535312e+000 4.140432e-001 -1.335899e+001 57 31 14
4.475023e+000 3.293525e-001 -1.339985e+001 64 42 19
3.295231e+000 2.583224e-001 -1.318516e+001 36 27 12
4.412263e+000 2.674982e-001 -1.344141e+001 63 36 17
4.465441e+000 3.100233e-001 -1.341987e+001 91 66 44
1.453629e+000 5.000327e-002 -1.350506e+001 178 137 110
4.268462e+000 1.796769e-001 -1.349637e+001 70 43 22
1.762036e+000 6.491288e-003 -1.342699e+001 156 115 90
3.433014e+000 5.070911e-002 -1.328734e+001 111 77 50
4.193878e+000 4.135572e-002 -1.366651e+001 61 39 18
4.195075e+000 4.099451e-002 -1.367245e+001 61 39 18
3.316668e+000 -2.906723e-003 -1.329161e+001 145 114 90
4.035390e+000 -2.842572e-002 -1.369098e+001 97 71 51
4.146069e+000 4.098554e-002 -1.362460e+001 73 52 30
4.232449e+000 1.710399e-002 -1.372057e+001 96 72 48
3.199100e+000 -9.159740e-002 -1.348014e+001 122 53 56
4.175127e+000 -1.258756e-001 -1.388469e+001 73 49 25
3.010911e+000 -1.996881e-001 -1.351235e+001 168 115 101
3.196855e+000 -2.904589e-001 -1.384032e+001 163 110 92
3.298648e+000 -1.582029e-001 -1.349007e+001 100 82 63
4.390879e+000 -2.382876e-001 -1.412442e+001 92 68 44
3.325500e+000 -3.902915e-001 -1.383067e+001 203 172 144
4.105736e+000 -4.046549e-001 -1.419727e+001 79 54 32
3.305770e+000 -5.153613e-001 -1.398053e+001 200 168 140
3.294194e+000 1.828375e+000 -1.329359e+001 218 201 183
3.584121e+000 1.854581e+000 -1.341402e+001 214 198 179
4.366831e+000 1.850916e+000 -1.345835e+001 135 97 61
3.121984e+000 1.667840e+000 -1.330242e+001 57 49 26
3.238467e+000 1.576282e+000 -1.307237e+001 167 137 108
4.129079e+000 1.658929e+000 -1.321303e+001 101 67 40
4.295947e+000 1.720334e+000 -1.329160e+001 125 90 60
3.113806e+000 1.602231e+000 -1.331569e+001 90 80 55
3.318907e+000 1.417569e+000 -1.292973e+001 214 180 144
3.838940e+000 1.482321e+000 -1.307193e+001 81 53 29
3.310649e+000 1.318479e+000 -1.299083e+001 157 126 98
3.491420e+000 1.260067e+000 -1.278521e+001 40 27 18
3.921496e+000 1.305964e+000 -1.293948e+001 114 80 53
4.061940e+000 1.265667e+000 -1.292056e+001 130 95 66
2.966005e+000 1.345931e+000 -1.365340e+001 191 151 117
3.329291e+000 1.171651e+000 -1.281505e+001 82 70 42
3.367249e+000 1.186024e+000 -1.277174e+001 139 105 72
3.433301e+000 1.159681e+000 -1.268876e+001 136 98 61
2.846038e+000 1.229730e+000 -1.369160e+001 201 159 109
3.737022e+000 9.301870e-001 -1.255250e+001 128 110 80
3.177337e+000 7.389749e-001 -1.291067e+001 191 154 115
3.485023e+000 7.221695e-001 -1.258582e+001 112 82 57
3.549898e+000 7.011922e-001 -1.254110e+001 107 76 47
3.753188e+000 6.728965e-001 -1.262908e+001 36 23 14
3.552624e+000 6.374110e-001 -1.261846e+001 33 20 12
3.704429e+000 5.683871e-001 -1.260263e+001 34 23 17
4.520852e+000 5.575912e-001 -1.308852e+001 64 42 19
2.279884e+000 2.614281e-001 -1.337517e+001 201 160 122
3.326142e+000 3.026384e-001 -1.301155e+001 81 73 52
3.326142e+000 3.026384e-001 -1.301155e+001 81 73 52
4.491090e+000 3.299644e-001 -1.337261e+001 96 72 48
3.084438e+000 2.311552e-001 -1.322343e+001 149 75 76
3.693261e+000 2.790379e-001 -1.315051e+001 39 24 11
4.394512e+000 3.115646e-001 -1.338071e+001 68 43 21
4.394448e+000 3.115613e-001 -1.338084e+001 68 43 21
4.558589e+000 2.494560e-001 -1.353092e+001 89 59 33
3.372091e+000 1.500691e-001 -1.311476e+001 56 49 32
4.233918e+000 1.897929e-001 -1.348428e+001 101 74 49
1.558576e+000 -7.398572e-002 -1.335630e+001 157 113 84
2.877121e+000 8.294941e-002 -1.316832e+001 187 135 117
3.347403e+000 4.871751e-002 -1.321756e+001 130 95 67
3.399065e+000 -1.597601e-002 -1.335437e+001 164 134 108
3.816413e+000 -1.478304e-002 -1.355308e+001 68 42 25
3.647080e+000 -6.215814e-002 -1.355109e+001 47 33 19
3.684389e+000 -1.474157e-001 -1.373406e+001 121 96 76
3.234907e+000 -2.554776e-001 -1.378964e+001 174 128 104
4.343972e+000 -2.317948e-001 -1.406186e+001 69 44 22
3.305824e+000 -3.004023e-001 -1.380074e+001 134 94 69
3.309043e+000 -3.795965e-001 -1.392163e+001 138 99 73
3.671481e+000 -4.202169e-001 -1.402839e+001 98 72 53
4.003408e+000 -4.139141e-001 -1.417367e+001 74 49 27
3.245891e+000 1.716308e+000 -1.314021e+001 242 209 176
3.719618e+000 1.808638e+000 -1.334305e+001 125 90 60
4.203712e+000 1.829814e+000 -1.339083e+001 168 126 88
4.364979e+000 1.835707e+000 -1.334898e+001 134 95 59
4.341070e+000 1.574786e+000 -1.322338e+001 86 55 26
3.100268e+000 1.462385e+000 -1.327961e+001 128 112 78
3.838301e+000 1.317559e+000 -1.294194e+001 79 51 29
3.491898e+000 1.153869e+000 -1.274179e+001 77 61 38
3.085493e+000 1.084289e+000 -1.318805e+001 192 148 111
4.212838e+000 1.083899e+000 -1.277940e+001 95 60 28
3.390404e+000 9.511364e-001 -1.274562e+001 118 82 56
3.254661e+000 8.854862e-001 -1.294154e+001 168 122 79
2.877362e+000 8.486080e-001 -1.314270e+001 184 98 93
4.736858e+000 9.180326e-001 -1.283333e+001 131 93 57
3.624675e+000 7.548526e-001 -1.258328e+001 134 112 76
3.580418e+000 6.683288e-001 -1.260337e+001 52 38 24
3.701225e+000 5.992689e-001 -1.266491e+001 62 48 31
4.085953e+000 6.679587e-001 -1.278576e+001 71 44 23
3.890380e+000 5.725381e-001 -1.279355e+001 105 85 63
3.311766e+000 4.559040e-001 -1.294853e+001 93 62 42
3.656620e+000 3.175803e-001 -1.315289e+001 79 68 47
3.177325e+000 2.185835e-001 -1.331177e+001 105 45 36
4.002142e+000 2.361643e-001 -1.332493e+001 80 52 30
2.962874e+000 1.430702e-001 -1.322634e+001 100 26 29
3.960049e+000 8.441140e-002 -1.349187e+001 69 45 27
1.984147e+000 -9.930570e-002 -1.340229e+001 85 50 37
3.576147e+000 2.207282e-002 -1.344861e+001 23 14 11
3.067817e+000 -1.660089e-001 -1.348144e+001 171 124 109
3.067612e+000 -1.652551e-001 -1.347422e+001 171 124 109
3.369555e+000 -7.365963e-002 -1.344258e+001 85 58 37
3.391727e+000 -1.151085e-001 -1.346940e+001 118 95 72
3.186838e+000 -2.695729e-001 -1.389204e+001 109 42 40
3.671640e+000 -2.029184e-001 -1.378745e+001 126 100 79
4.278180e+000 -4.531841e-001 -1.432986e+001 93 63 39
3.282850e+000 1.630428e+000 -1.304557e+001 196 163 130
3.108420e+000 1.647897e+000 -1.338838e+001 114 103 75
3.295009e+000 1.573689e+000 -1.301927e+001 199 166 131
3.383279e+000 1.450158e+000 -1.296330e+001 43 29 20
4.184283e+000 1.394213e+000 -1.303754e+001 132 98 70
3.166155e+000 1.279679e+000 -1.315134e+001 75 67 44
2.914763e+000 1.348949e+000 -1.371110e+001 157 109 69
2.907038e+000 1.240621e+000 -1.363793e+001 47 28 23
3.887491e+000 1.153510e+000 -1.277725e+001 95 63 40
2.910751e+000 1.157670e+000 -1.354246e+001 195 155 119
3.771931e+000 9.552020e-001 -1.258335e+001 45 32 16
3.798989e+000 8.569400e-001 -1.258131e+001 67 49 25
2.928943e+000 8.575206e-001 -1.311270e+001 209 141 128
3.408145e+000 6.545124e-001 -1.271447e+001 134 91 61
3.900521e+000 6.320970e-001 -1.272582e+001 118 92 67
4.679060e+000 6.797926e-001 -1.298603e+001 121 90 62
3.924997e+000 5.441963e-001 -1.286190e+001 60 39 20
3.626695e+000 4.444431e-001 -1.296477e+001 20 12 12
3.351987e+000 3.589601e-001 -1.307065e+001 116 85 60
3.337138e+000 2.585921e-001 -1.307180e+001 77 70 47
1.628465e+000 5.888207e-002 -1.340726e+001 135 94 66
4.243933e+000 2.165335e-001 -1.347164e+001 107 77 51
4.344681e+000 -3.029287e-003 -1.381978e+001 74 49 27
3.413712e+000 -2.467255e-001 -1.372780e+001 43 32 20
3.828610e+000 -1.973566e-001 -1.379438e+001 104 76 54
3.181213e+000 -3.166130e-001 -1.387181e+001 160 114 92
3.402302e+000 -3.067781e-001 -1.380455e+001 46 36 25
3.873389e+000 -4.884834e-001 -1.419785e+001 88 63 41
4.253802e+000 -4.967349e-001 -1.431426e+001 187 156 110
4.451631e+000 -5.327948e-001 -1.454298e+001 160 131 92
3.537811e+000 1.731663e+000 -1.313851e+001 75 61 42
3.361016e+000 1.549403e+000 -1.302136e+001 50 36 22
3.544745e+000 1.498305e+000 -1.298733e+001 106 83 58
4.076293e+000 1.424475e+000 -1.305566e+001 147 112 79
4.073212e+000 1.422188e+000 -1.304478e+001 147 112 79
3.027230e+000 1.223366e+000 -1.333141e+001 101 83 50
3.027230e+000 1.223366e+000 -1.333141e+001 101 83 50
3.697541e+000 1.201883e+000 -1.274550e+001 82 64 40
3.227483e+000 1.094890e+000 -1.294457e+001 198 159 116
4.736173e+000 1.167819e+000 -1.282897e+001 164 121 67
3.518192e+000 1.017496e+000 -1.259480e+001 54 32 18
3.974799e+000 1.060087e+000 -1.271996e+001 127 95 65
3.774338e+000 9.562537e-001 -1.258817e+001 44 30 13
3.643532e+000 6.971055e-001 -1.260624e+001 63 48 25
3.846282e+000 6.678100e-001 -1.272542e+001 104 79 58
4.131537e+000 5.499347e-001 -1.283960e+001 80 55 33
2.929665e+000 3.056720e-001 -1.314083e+001 167 97 91
3.709823e+000 2.770761e-001 -1.319494e+001 60 44 29
4.526937e+000 1.979421e-001 -1.354846e+001 74 48 25
3.469139e+000 1.531439e+000 -1.299233e+001 61 49 32
3.598139e+000 1.565823e+000 -1.305444e+001 77 57 42
3.509514e+000 1.395104e+000 -1.289839e+001 57 43 29
3.568751e+000 1.251816e+000 -1.282430e+001 64 48 31
3.079832e+000 1.269364e+000 -1.336847e+001 77 65 39
3.940141e+000 1.232812e+000 -1.288259e+001 130 99 70
4.007603e+000 1.174001e+000 -1.282427e+001 127 92 64
3.909188e+000 1.099677e+000 -1.272586e+001 79 48 27
4.333436e+000 8.853004e-001 -1.274250e+001 70 39 18
3.681002e+000 7.428026e-001 -1.258404e+001 22 14 7
3.693610e+000 7.456943e-001 -1.264588e+001 22 14 7
4.648168e+000 5.131805e-001 -1.321497e+001 115 87 57
3.318502e+000 2.052727e-001 -1.319498e+001 43 34 21
4.277951e+000 -4.968295e-002 -1.378216e+001 111 85 58
4.591230e+000 -3.503848e-001 -1.429446e+001 108 78 43
4.152755e+000 1.144778e+000 -1.282982e+001 143 107 71
3.790095e+000 8.024644e-001 -1.257916e+001 52 33 16
4.511315e+000 7.652277e-001 -1.281701e+001 90 58 33
4.153676e+000 6.213378e-001 -1.283555e+001 112 82 55
4.375379e+000 5.465717e-001 -1.303200e+001 88 65 41
4.157541e+000 4.614423e-001 -1.310066e+001 96 69 44
4.003756e+000 -4.586933e-001 -1.426414e+001 89 64 42
3.235253e+000 1.420621e+000 -1.310688e+001 56 45 25
4.268522e+000 1.041964e+000 -1.275510e+001 131 95 59
4.192505e+000 7.885385e-001 -1.272952e+001 120 85 57
4.192505e+000 7.885385e-001 -1.272952e+001 120 85 57
4.445880e+000 8.658706e-001 -1.276116e+001 111 75 43
3.182324e+000 1.130663e+000 -1.316052e+001 187 144 99
4.027614e+000 5.937327e-001 -1.293477e+001 62 40 22
3.363792e+000 5.938088e-002 -1.323870e+001 131 97 67
2.006130e+000 -1.786696e-001 -1.366777e+001 63 42 37
3.917527e+000 -4.134637e-001 -1.423453e+001 74 49 29
3.465990e+000 1.657802e+000 -1.319441e+001 69 56 38
3.347778e+000 5.566741e-001 -1.270933e+001 177 138 98
2.022369e+000 -1.418429e-001 -1.272653e+001 85 54 41
3.602091e+000 1.720829e+000 -1.321487e+001 129 105 80
4.291879e+000 1.841680e+000 -1.341800e+001 98 59 25
3.277045e+000 1.623053e+000 -1.308417e+001 166 134 98
3.221064e+000 1.523211e+000 -1.301081e+001 78 67 35
3.254818e+000 1.478186e+000 -1.297277e+001 173 140 108
3.477978e+000 1.478539e+000 -1.300903e+001 50 40 20
3.703898e+000 1.509417e+000 -1.305709e+001 140 109 81
3.130839e+000 1.518523e+000 -1.326349e+001 157 122 85
3.566179e+000 1.448467e+000 -1.296582e+001 74 58 28
3.973093e+000 1.522531e+000 -1.311950e+001 85 55 29
4.311069e+000 1.540885e+000 -1.315187e+001 125 91 61
3.142578e+000 1.421976e+000 -1.320904e+001 189 159 126
3.556923e+000 1.361324e+000 -1.294307e+001 28 15 2
4.087864e+000 1.387426e+000 -1.302283e+001 125 92 59
4.090602e+000 1.388286e+000 -1.303169e+001 125 92 59
4.651170e+000 1.422066e+000 -1.315775e+001 114 85 65
3.352669e+000 1.235690e+000 -1.284954e+001 132 97 62
3.447784e+000 1.266911e+000 -1.285781e+001 62 41 22
3.447784e+000 1.266911e+000 -1.285781e+001 62 41 22
3.443939e+000 1.197310e+000 -1.272422e+001 143 113 74
3.783936e+000 1.263662e+000 -1.290948e+001 137 107 78
3.852080e+000 1.298409e+000 -1.291965e+001 100 74 47
4.342867e+000 1.273654e+000 -1.277607e+001 112 73 40
4.627580e+000 1.405277e+000 -1.312816e+001 118 84 57
3.767551e+000 1.222069e+000 -1.282578e+001 159 129 101
4.423756e+000 1.233899e+000 -1.293010e+001 150 110 75
4.019895e+000 1.087503e+000 -1.275315e+001 87 54 29
2.892436e+000 1.171709e+000 -1.363005e+001 206 167 128
3.163499e+000 1.033500e+000 -1.299276e+001 185 147 102
3.426268e+000 1.030704e+000 -1.258814e+001 175 141 106
3.558317e+000 9.998163e-001 -1.260984e+001 65 48 23
3.676896e+000 9.188882e-001 -1.263923e+001 54 42 29
3.106685e+000 8.855473e-001 -1.297308e+001 182 119 84
4.780071e+000 9.259512e-001 -1.287530e+001 76 42 14
4.845173e+000 8.640743e-001 -1.263407e+001 151 112 60
3.744125e+000 7.279802e-001 -1.258006e+001 57 38 24
3.304672e+000 6.764128e-001 -1.278145e+001 177 137 76
3.311306e+000 6.479638e-001 -1.283694e+001 180 133 59
3.646948e+000 7.019561e-001 -1.257033e+001 116 99 81
4.009928e+000 6.710733e-001 -1.271382e+001 75 47 28
4.044244e+000 6.504966e-001 -1.278196e+001 55 31 12
3.453337e+000 4.339264e-001 -1.289973e+001 119 85 60
4.451587e+000 5.400842e-001 -1.312460e+001 93 69 43
4.598897e+000 5.400549e-001 -1.315620e+001 82 54 30
2.736350e+000 3.715916e-001 -1.315155e+001 163 96 87
3.470832e+000 2.846546e-001 -1.304560e+001 105 77 53
4.195385e+000 3.543267e-001 -1.327336e+001 104 77 52
4.331692e+000 3.754588e-001 -1.328363e+001 61 36 14
4.366215e+000 3.687620e-001 -1.329543e+001 65 40 18
3.577434e+000 2.206124e-001 -1.321280e+001 109 94 64
4.863768e+000 3.066738e-001 -1.279165e+001 104 78 37
3.645421e+000 1.239429e-001 -1.330412e+001 53 41 20
4.085016e+000 2.132826e-001 -1.338768e+001 76 49 24
4.192489e+000 1.782367e-001 -1.346139e+001 63 39 14
3.329653e+000 9.582968e-002 -1.318074e+001 131 96 65
3.521750e+000 1.102357e-001 -1.329432e+001 45 32 15
3.549438e+000 1.065996e-001 -1.329697e+001 38 25 10
2.996684e+000 -7.502169e-002 -1.345739e+001 132 74 63
4.049152e+000 1.188838e-002 -1.360614e+001 89 66 48
4.851238e+000 4.042945e-002 -1.293928e+001 108 79 39
4.851238e+000 4.042945e-002 -1.293928e+001 108 79 39
4.924059e+000 1.017742e-001 -1.261662e+001 115 83 42
2.970477e+000 -2.068172e-001 -1.352987e+001 185 124 111
4.224520e+000 -1.749255e-001 -1.397760e+001 83 57 32
4.913580e+000 -6.104865e-002 -1.258439e+001 126 94 53
3.874926e+000 -3.978970e-001 -1.409518e+001 73 51 30
4.903468e+000 -1.866985e-001 -1.273858e+001 123 94 53
4.009303e+000 1.769467e+000 -1.329602e+001 100 63 34
3.218671e+000 1.638964e+000 -1.324995e+001 121 92 65
3.976514e+000 1.652655e+000 -1.319822e+001 110 77 46
4.128335e+000 1.691854e+000 -1.324325e+001 104 68 42
3.619747e+000 1.541444e+000 -1.304602e+001 60 43 25
3.970924e+000 1.574929e+000 -1.314438e+001 104 73 47
3.993715e+000 1.576805e+000 -1.316500e+001 85 56 35
4.275596e+000 1.552559e+000 -1.316072e+001 115 82 54
4.534110e+000 1.588140e+000 -1.319256e+001 113 73 49
3.241275e+000 1.438561e+000 -1.303545e+001 117 97 69
4.784744e+000 1.414122e+000 -1.267137e+001 148 111 58
3.469589e+000 1.328740e+000 -1.285808e+001 75 57 37
3.186667e+000 1.318015e+000 -1.308308e+001 92 77 51
3.376414e+000 1.224243e+000 -1.277398e+001 186 154 116
3.698814e+000 1.297854e+000 -1.289347e+001 79 62 36
4.414261e+000 1.346224e+000 -1.302521e+001 136 97 64
4.032723e+000 1.243187e+000 -1.289115e+001 86 52 25
4.318306e+000 1.130523e+000 -1.282431e+001 122 81 50
3.035903e+000 1.113860e+000 -1.329787e+001 195 152 113
