ply
format ascii 1.0
element face 0
property list uchar int vertex_indices
element vertex 901
property float x
property float y
property float z
property uchar diffuse_red
property uchar diffuse_green
property uchar diffuse_blue
end_header
3.124072e+000 1.855923e+000 -1.206833e+001 137 105 76
3.750011e+000 1.875449e+000 -1.222271e+001 46 34 20
3.407901e+000 1.707301e+000 -1.203272e+001 55 46 35
3.440289e+000 1.602025e+000 -1.196375e+001 48 41 25
3.495177e+000 1.618731e+000 -1.195292e+001 43 36 24
2.042439e+000 7.502354e-001 -1.637846e+001 147 119 90
2.772031e+000 5.785878e-001 -1.678709e+001 86 74 57
2.816412e+000 6.366665e-001 -1.666852e+001 93 81 65
2.059851e+000 7.107336e-001 -1.617364e+001 111 74 44
3.945944e+000 1.441451e+000 -1.609655e+001 73 53 29
1.205196e+000 7.967187e-001 -1.566948e+001 155 108 90
2.055756e+000 1.198969e+000 -1.569963e+001 148 118 93
4.748645e+000 1.510717e+000 -1.618798e+001 97 75 51
4.608227e+000 1.747606e+000 -1.597545e+001 75 54 31
4.608227e+000 1.747606e+000 -1.597545e+001 75 54 31
5.561752e+000 1.650291e+000 -1.619077e+001 95 64 36
4.690714e+000 1.950638e+000 -1.570819e+001 100 76 52
1.837766e+000 1.015338e+000 -1.537228e+001 138 81 70
4.635038e+000 2.237567e+000 -1.523797e+001 73 52 27
2.548063e+000 2.510114e+000 -1.448438e+001 207 187 155
3.376937e+000 2.674633e+000 -1.443495e+001 50 33 18
4.996159e-001 8.168429e-002 -1.457630e+001 106 70 48
1.919091e+000 1.903825e+000 -1.435199e+001 173 140 96
2.575826e+000 2.350010e+000 -1.420932e+001 116 91 61
2.998869e+000 3.095084e+000 -1.399932e+001 43 29 17
3.347548e+000 3.078078e+000 -1.401136e+001 77 69 50
4.472238e+000 3.080439e+000 -1.421971e+001 81 54 32
3.474414e+000 3.118297e+000 -1.398520e+001 48 35 18
2.221185e+000 1.644507e+000 -1.380826e+001 114 72 46
2.861991e+000 3.227882e+000 -1.358922e+001 106 82 58
2.964617e+000 3.157761e+000 -1.354938e+001 33 20 12
2.258566e+000 1.513481e+000 -1.337326e+001 156 96 68
3.442702e+000 3.087616e+000 -1.329728e+001 46 36 27
2.656129e+000 2.543234e+000 -1.323509e+001 122 95 67
2.891001e+000 3.008792e+000 -1.316713e+001 211 190 161
3.154039e+000 3.050047e+000 -1.316079e+001 32 25 18
2.289047e+000 1.265728e+000 -1.321996e+001 112 60 47
2.740268e+000 2.627828e+000 -1.305716e+001 160 136 108
4.351605e+000 2.855912e+000 -1.321284e+001 73 45 23
2.548203e+000 1.533204e+000 -1.302225e+001 123 85 58
4.886901e+000 2.780349e+000 -1.325610e+001 55 33 10
3.201555e+000 2.722605e+000 -1.288530e+001 48 39 24
4.696096e+000 2.630536e+000 -1.307873e+001 73 48 26
5.134627e+000 2.594857e+000 -1.313894e+001 114 88 63
5.111010e+000 2.625646e+000 -1.313387e+001 114 88 63
3.590874e+000 2.432541e+000 -1.272717e+001 121 103 68
2.857669e+000 1.887032e+000 -1.238125e+001 81 77 52
3.299922e+000 2.177553e+000 -1.245771e+001 51 44 32
3.082753e+000 1.930122e+000 -1.226259e+001 184 158 132
4.899073e+000 1.859743e+000 -1.252223e+001 112 85 61
2.880179e+000 7.973383e-001 -1.206298e+001 168 146 122
5.255779e+000 1.646839e+000 -1.241686e+001 107 77 49
3.081735e+000 1.703391e+000 -1.200801e+001 131 103 77
5.591974e+000 1.008640e+000 -1.209406e+001 112 83 51
5.829137e+000 1.167685e+000 -1.220086e+001 131 100 69
2.915809e+000 5.118284e-001 -1.694994e+001 62 49 33
4.962043e+000 8.123560e-001 -1.700881e+001 71 50 25
3.228218e+000 1.845984e+000 -1.574122e+001 47 35 21
2.188797e+000 1.528051e+000 -1.560618e+001 149 123 96
2.190756e+000 1.521658e+000 -1.561132e+001 149 123 96
3.819909e+000 1.780626e+000 -1.566829e+001 74 52 29
1.746908e+000 1.132316e+000 -1.530028e+001 99 37 32
4.897774e+000 2.040103e+000 -1.552048e+001 102 76 51
5.162641e-001 -1.511454e-001 -1.514659e+001 72 49 35
5.196375e-001 -1.201292e-001 -1.513723e+001 72 49 35
3.119615e+000 2.197623e+000 -1.492527e+001 76 68 55
1.053087e+000 1.283282e+000 -1.455451e+001 168 104 95
1.307142e+000 1.217704e+000 -1.464424e+001 125 55 48
5.161355e-001 9.959777e-002 -1.479382e+001 103 66 47
5.144987e-001 9.053050e-002 -1.479641e+001 103 66 47
2.552538e+000 2.234136e+000 -1.435135e+001 121 87 60
3.367513e+000 2.862607e+000 -1.425680e+001 44 30 17
1.521612e+000 1.169963e+000 -1.418730e+001 147 94 79
2.599459e+000 2.564184e+000 -1.392779e+001 78 69 38
3.799540e-001 -2.238153e-001 -1.412018e+001 153 106 88
-4.807083e-001 -6.198994e-001 -1.384421e+001 137 97 63
2.545683e+000 2.277436e+000 -1.377936e+001 88 83 54
6.802360e-001 1.160636e-001 -1.381121e+001 155 113 89
2.006218e+000 1.555098e+000 -1.348755e+001 173 109 100
2.288613e+000 1.611384e+000 -1.344469e+001 173 127 94
1.259533e+000 7.742825e-001 -1.322580e+001 153 109 85
2.088228e+000 1.231506e+000 -1.334851e+001 172 102 102
4.306010e+000 2.752683e+000 -1.314634e+001 74 53 29
5.271804e+000 2.698857e+000 -1.323137e+001 61 37 17
5.019624e+000 2.457413e+000 -1.302528e+001 63 38 16
2.850317e+000 1.078369e+000 -1.215610e+001 162 138 112
4.520785e+000 1.756791e+000 -1.230562e+001 102 78 54
3.378920e+000 1.934627e-001 -1.737511e+001 96 76 52
2.518690e+000 9.800495e-001 -1.632043e+001 77 70 54
2.276836e+000 1.667488e+000 -1.552468e+001 113 83 56
3.909172e+000 1.562907e+000 -1.592278e+001 104 80 58
3.904808e+000 1.565619e+000 -1.591957e+001 104 80 58
4.997430e+000 1.534037e+000 -1.626786e+001 71 49 27
1.362598e+000 1.157300e+000 -1.536993e+001 139 91 78
2.326706e+000 2.003688e+000 -1.514736e+001 115 83 58
2.064118e+000 2.011212e+000 -1.484171e+001 126 88 38
2.217576e+000 2.251107e+000 -1.486580e+001 156 129 99
1.270818e+000 1.092165e+000 -1.495639e+001 115 52 45
1.927690e+000 2.106927e+000 -1.471647e+001 159 124 82
4.307553e+000 2.412108e+000 -1.497096e+001 97 77 52
1.150416e-001 -3.457716e-001 -1.481579e+001 157 122 100
1.822788e+000 1.946354e+000 -1.443275e+001 168 135 92
4.648093e+000 2.683657e+000 -1.475357e+001 102 78 55
2.532367e+000 2.328049e+000 -1.412379e+001 119 96 65
2.607984e+000 2.493869e+000 -1.407326e+001 95 73 50
3.666408e+000 3.062880e+000 -1.418101e+001 129 105 80
3.834345e+000 3.082909e+000 -1.404975e+001 61 40 19
2.590395e+000 2.519583e+000 -1.367013e+001 115 103 79
3.421822e+000 3.112470e+000 -1.346603e+001 38 30 20
2.239423e+000 1.324731e+000 -1.330261e+001 178 110 100
2.393885e+000 1.300718e+000 -1.322061e+001 125 77 57
1.276311e+000 -4.535107e-002 -1.306466e+001 34 30 31
4.503257e+000 2.603174e+000 -1.306449e+001 64 44 20
4.836499e+000 2.637269e+000 -1.311742e+001 88 61 39
3.145539e+000 2.185743e+000 -1.246338e+001 47 29 19
2.787117e+000 1.577692e+000 -1.239218e+001 55 54 34
2.986791e+000 1.938830e+000 -1.232180e+001 112 86 60
4.831841e+000 2.051105e+000 -1.265477e+001 78 54 30
5.847650e+000 1.855872e+000 -1.268291e+001 88 58 30
2.169643e+000 2.049270e+000 -1.510038e+001 150 125 94
2.642004e+000 2.336583e+000 -1.480313e+001 34 22 10
1.998983e+000 2.160553e+000 -1.458121e+001 145 101 46
1.227695e+000 1.338677e+000 -1.455918e+001 128 60 51
1.237500e+000 1.350297e+000 -1.455823e+001 128 60 51
5.553717e-001 9.799553e-002 -1.458111e+001 111 73 52
2.524581e+000 2.183802e+000 -1.436002e+001 114 78 53
9.678751e-001 9.518920e-001 -1.415526e+001 174 121 101
3.313600e+000 3.046703e+000 -1.398763e+001 60 52 31
1.734235e+000 1.437224e+000 -1.386588e+001 155 102 88
3.411478e+000 3.048184e+000 -1.371688e+001 248 240 218
4.851920e+000 3.163200e+000 -1.396417e+001 107 79 56
3.351806e+000 2.855089e+000 -1.310686e+001 40 33 19
1.893349e+000 1.026730e+000 -1.302529e+001 154 69 71
2.619021e+000 1.763774e+000 -1.300687e+001 182 150 115
3.379651e+000 2.579243e+000 -1.284461e+001 31 22 15
3.564943e+000 2.155515e+000 -1.243503e+001 114 100 67
2.831628e+000 1.367456e+000 -1.228323e+001 159 131 102
5.937663e+000 1.623357e+000 -1.235501e+001 171 137 102
4.817609e+000 3.308614e-001 -1.758743e+001 80 59 35
5.487871e+000 3.023377e-001 -1.766677e+001 110 81 48
4.026733e+000 8.863291e-001 -1.669276e+001 78 60 38
4.933604e+000 1.366941e+000 -1.641865e+001 80 58 35
3.174357e-001 -9.715855e-002 -1.490971e+001 155 110 91
1.898867e+000 1.371940e+000 -1.428640e+001 138 108 74
2.585371e+000 2.542531e+000 -1.398116e+001 108 90 64
9.678773e-001 8.261957e-001 -1.379946e+001 120 73 52
4.838326e+000 3.163421e+000 -1.396658e+001 104 77 50
5.090308e+000 3.077822e+000 -1.354604e+001 114 84 58
2.558715e+000 2.389919e+000 -1.309731e+001 58 57 36
2.558715e+000 2.389919e+000 -1.309731e+001 58 57 36
3.441984e+000 2.968591e+000 -1.315978e+001 100 82 58
4.191189e+000 1.975414e+000 -1.251983e+001 52 33 17
3.466167e+000 1.995331e+000 -1.228837e+001 37 27 16
5.511350e+000 2.370068e+000 -1.524098e+001 119 92 61
5.254873e-001 -4.676015e-002 -1.421722e+001 176 123 107
4.534269e+000 3.190225e+000 -1.370815e+001 98 71 43
3.031685e+000 2.000052e+000 -1.213468e+001 212 189 160
2.667022e+000 1.892998e+000 -1.532166e+001 28 18 16
4.372629e+000 1.974471e+000 -1.556035e+001 100 74 49
2.077213e+000 2.327602e+000 -1.450705e+001 149 112 65
1.069908e+000 1.014155e+000 -1.402100e+001 174 137 110
2.773148e+000 2.750299e+000 -1.339588e+001 100 91 73
3.545968e+000 3.108821e+000 -1.322259e+001 37 30 20
3.656456e+000 2.563794e-001 -1.725628e+001 89 67 44
1.658826e+000 1.022651e+000 -1.328478e+001 125 50 44
2.998070e+000 1.335846e+000 -1.235852e+001 89 84 61
3.940799e+000 3.285935e+000 -1.378110e+001 66 45 27
2.723510e+000 2.524520e+000 -1.289121e+001 55 55 32
2.574802e+000 3.048624e+000 -1.404342e+001 143 117 87
2.880666e+000 1.998486e+000 -1.526712e+001 46 27 20
2.153762e+000 2.410359e+000 -1.441171e+001 145 105 54
1.650945e+000 1.241513e+000 -1.511372e+001 159 116 91
1.668024e+000 1.268304e+000 -1.465955e+001 135 75 49
-1.149500e+000 -4.841178e-001 -1.398358e+001 154 122 98
1.192734e+000 9.148468e-001 -1.571459e+001 139 96 77
5.757950e+000 2.880685e+000 -1.544620e+001 97 68 36
2.437785e+000 2.246083e+000 -1.447239e+001 152 117 84
3.788400e+000 2.985142e+000 -1.327155e+001 112 87 65
1.578157e+000 8.461565e-001 -1.311971e+001 149 69 68
3.837703e+000 3.015868e+000 -1.322576e+001 160 136 111
3.534149e-001 -1.177226e-002 -1.472276e+001 110 78 53
4.700464e+000 3.120388e+000 -1.355197e+001 70 43 22
4.663504e+000 3.102404e+000 -1.350717e+001 95 73 49
4.459422e+000 2.860155e+000 -1.325097e+001 87 59 37
1.460255e+000 1.182438e+000 -1.468768e+001 103 37 31
5.329159e+000 3.211177e+000 -1.421639e+001 76 45 24
4.761794e+000 2.027827e+000 -1.261187e+001 110 83 62
1.104417e+000 9.313707e-001 -1.576632e+001 177 130 112
1.126808e+000 9.158801e-001 -1.579780e+001 133 85 71
2.431266e+000 1.771250e+000 -1.555811e+001 59 42 26
2.411087e+000 1.801473e+000 -1.551896e+001 114 89 64
3.081676e+000 2.007347e+000 -1.556952e+001 68 55 39
1.708377e+000 1.258881e+000 -1.518744e+001 118 56 45
2.143089e+000 2.135827e+000 -1.491952e+001 134 105 65
2.817497e+000 2.060849e+000 -1.511340e+001 28 19 10
-9.246493e-001 -4.943244e-001 -1.474936e+001 123 98 76
9.465804e-001 1.259316e+000 -1.465839e+001 124 57 54
1.927677e+000 1.901334e+000 -1.438902e+001 147 110 59
5.402260e-001 2.702350e-002 -1.436189e+001 153 100 88
5.344551e+000 3.234939e+000 -1.386200e+001 86 61 41
2.290467e+000 1.547953e+000 -1.338576e+001 182 137 105
4.329179e+000 3.074671e+000 -1.340135e+001 92 64 40
6.001022e+000 2.916184e+000 -1.353984e+001 157 121 82
3.403033e+000 2.791508e+000 -1.301571e+001 137 126 108
4.285760e+000 2.631092e+000 -1.303687e+001 79 53 30
5.690092e+000 2.463799e+000 -1.313783e+001 83 53 29
3.458527e+000 2.505804e+000 -1.281694e+001 137 124 106
4.478970e+000 2.199477e+000 -1.275481e+001 71 47 24
3.244604e+000 2.029171e+000 -1.240000e+001 130 116 97
3.244604e+000 2.029171e+000 -1.240000e+001 130 116 97
2.572795e+000 5.799785e-001 -1.684798e+001 68 59 44
2.638822e+000 8.690735e-001 -1.649938e+001 68 58 48
3.548875e+000 9.138393e-001 -1.659072e+001 67 46 27
1.918620e+000 6.256425e-001 -1.615572e+001 161 131 104
1.148754e+000 8.233966e-001 -1.571030e+001 147 100 80
4.056722e+000 1.348073e+000 -1.620134e+001 69 48 28
2.391891e+000 1.911734e+000 -1.536150e+001 147 122 98
2.517057e+000 2.035120e+000 -1.525271e+001 45 29 22
5.596905e-001 -1.424181e-001 -1.519030e+001 139 93 72
2.930621e+000 2.281371e+000 -1.483156e+001 37 27 10
2.659255e+000 2.699198e+000 -1.446654e+001 130 101 70
3.563424e+000 3.079662e+000 -1.402075e+001 108 87 66
3.009875e+000 3.180120e+000 -1.366795e+001 48 32 16
3.364035e+000 3.176209e+000 -1.375474e+001 63 47 37
5.340268e+000 3.244365e+000 -1.383918e+001 64 42 21
2.898044e+000 2.690460e+000 -1.300007e+001 138 118 85
3.156233e+000 2.748890e+000 -1.292631e+001 192 171 124
2.442292e+000 1.131212e+000 -1.273341e+001 199 155 120
4.790376e+000 2.256422e+000 -1.284315e+001 70 44 21
3.415848e+000 7.824484e-001 -1.679498e+001 90 69 48
3.388813e+000 9.106709e-001 -1.655109e+001 80 62 41
1.458913e+000 7.665841e-001 -1.575076e+001 145 86 80
2.023130e+000 1.113500e+000 -1.562885e+001 101 70 42
1.398260e+000 1.145078e+000 -1.533905e+001 145 99 82
4.695484e+000 2.012574e+000 -1.561763e+001 59 34 11
3.121373e+000 2.044044e+000 -1.521718e+001 37 28 12
3.355339e+000 2.154254e+000 -1.505326e+001 128 110 89
1.767228e+000 1.295208e+000 -1.476649e+001 156 114 79
2.600461e+000 2.735862e+000 -1.441278e+001 168 143 112
4.992498e+000 2.535050e+000 -1.496031e+001 68 43 21
4.047321e+000 2.618430e+000 -1.464171e+001 62 44 22
1.978411e+000 1.356976e+000 -1.406373e+001 114 68 45
3.353953e+000 3.201383e+000 -1.379782e+001 35 25 14
5.576877e+000 2.863757e+000 -1.340749e+001 59 34 13
3.532600e+000 2.894016e+000 -1.298931e+001 49 38 23
2.774726e+000 2.480531e+000 -1.284816e+001 83 81 56
3.287796e+000 2.639647e+000 -1.279530e+001 46 34 20
3.519738e+000 2.578337e+000 -1.284067e+001 57 43 26
4.738094e+000 2.062876e+000 -1.266981e+001 78 52 27
4.836737e+000 1.766582e+000 -1.243215e+001 103 77 54
3.075450e+000 8.068961e-001 -1.160133e+001 92 87 65
3.615282e+000 1.914270e-001 -1.748856e+001 97 75 51
3.323018e+000 2.149099e+000 -1.511802e+001 111 92 75
2.097722e+000 2.039387e+000 -1.482240e+001 123 83 42
4.063205e+000 2.272102e+000 -1.508218e+001 55 36 18
9.400242e-001 1.256010e+000 -1.462154e+001 180 133 117
2.530205e+000 2.467194e+000 -1.459791e+001 127 98 68
2.526003e+000 2.478352e+000 -1.459460e+001 127 98 68
1.498248e+000 1.289840e+000 -1.461282e+001 168 123 102
3.258539e+000 2.575528e+000 -1.451375e+001 34 25 14
4.795155e+000 2.685481e+000 -1.477496e+001 70 48 26
2.508654e+000 2.331174e+000 -1.408906e+001 124 110 74
2.633098e+000 2.349615e+000 -1.313769e+001 66 61 45
2.892325e+000 2.999572e+000 -1.316671e+001 199 179 152
4.569441e+000 3.033132e+000 -1.339195e+001 109 83 58
3.033775e+000 2.657123e+000 -1.278633e+001 117 94 63
4.879003e+000 2.554605e+000 -1.305944e+001 102 76 53
5.107105e+000 2.579711e+000 -1.310577e+001 88 58 33
3.553839e+000 2.489981e+000 -1.277355e+001 56 43 26
3.579761e+000 2.454634e+000 -1.272620e+001 149 135 98
3.401105e+000 1.751813e+000 -1.212478e+001 50 39 25
4.418238e+000 1.484104e+000 -1.212143e+001 79 54 33
1.150352e+000 9.395346e-001 -1.574113e+001 180 136 113
4.856915e+000 1.678551e+000 -1.609855e+001 99 77 54
3.020459e+000 2.071360e+000 -1.506223e+001 26 21 15
1.684191e+000 1.295093e+000 -1.483974e+001 118 60 45
4.404583e+000 2.284060e+000 -1.516173e+001 85 66 44
4.404583e+000 2.284060e+000 -1.516173e+001 85 66 44
4.868280e+000 3.138562e+000 -1.359471e+001 90 65 43
3.009788e+000 3.070987e+000 -1.322291e+001 29 18 16
5.059168e+000 2.192302e+000 -1.282482e+001 68 42 21
3.303356e+000 2.086276e+000 -1.236276e+001 55 44 33
3.367786e+000 6.834006e-001 -1.684326e+001 73 51 28
3.842526e+000 1.135466e+000 -1.641430e+001 97 77 52
2.014623e+000 8.037871e-001 -1.601249e+001 144 113 87
3.794295e+000 1.172542e+000 -1.628359e+001 76 55 34
1.276895e+000 8.741294e-001 -1.565026e+001 98 58 48
1.476271e+000 8.962485e-001 -1.560460e+001 113 56 49
3.573836e+000 1.949799e+000 -1.546325e+001 74 53 32
8.969517e-001 1.223962e+000 -1.464173e+001 185 135 122
1.028506e+000 1.227400e+000 -1.446916e+001 125 65 57
4.867501e+000 2.599335e+000 -1.486939e+001 92 70 47
3.788986e+000 2.783449e+000 -1.439115e+001 73 52 28
2.242982e+000 2.096134e+000 -1.410439e+001 181 150 121
4.695837e+000 3.029470e+000 -1.437322e+001 71 46 25
4.207126e+000 3.156278e+000 -1.400302e+001 66 46 24
5.239612e+000 3.118317e+000 -1.363132e+001 100 74 49
4.935015e+000 2.850410e+000 -1.327270e+001 114 88 61
5.669166e+000 2.398685e+000 -1.306960e+001 101 73 49
3.016785e+000 7.405197e-001 -1.168487e+001 183 176 166
4.159920e+000 2.296901e+000 -1.508038e+001 87 68 46
3.417507e+000 2.381298e+000 -1.477621e+001 118 100 78
5.027636e+000 2.630056e+000 -1.491283e+001 97 73 48
4.280512e+000 2.717625e+000 -1.460057e+001 100 79 57
3.502434e+000 2.992090e+000 -1.417262e+001 114 96 73
1.041166e+000 9.050222e-001 -1.394593e+001 170 134 108
3.689906e+000 3.158228e+000 -1.402274e+001 139 116 92
2.919564e+000 3.179767e+000 -1.367208e+001 30 20 13
2.310601e+000 1.826489e+000 -1.350681e+001 75 66 27
2.240970e+000 1.310916e+000 -1.601268e+001 163 142 115
2.367676e+000 2.162003e+000 -1.490771e+001 110 78 51
2.070410e+000 1.990911e+000 -1.484937e+001 122 84 37
1.138968e+000 1.268384e+000 -1.465470e+001 132 83 68
4.409192e+000 2.591583e+000 -1.481439e+001 97 75 52
4.236791e+000 3.105379e+000 -1.411112e+001 100 76 50
1.987641e+000 1.149526e+000 -1.330816e+001 136 65 59
1.706482e+000 1.382735e+000 -1.530235e+001 107 44 37
2.372412e+000 1.858608e+000 -1.540662e+001 140 114 87
2.514048e+000 2.215601e+000 -1.435338e+001 113 78 50
3.225080e+000 9.240043e-001 -1.652019e+001 123 98 76
5.424371e+000 1.872903e+000 -1.269406e+001 130 99 70
2.218013e+000 1.549991e+000 -1.574590e+001 142 116 89
4.055652e+000 -8.580435e-001 -1.359851e+001 100 74 51
-1.345764e+000 -1.640237e+000 -1.388797e+001 127 73 63
3.025688e+000 -8.930852e-001 -1.329064e+001 222 193 168
5.757803e+000 -1.776623e+000 -1.534590e+001 107 83 59
3.303298e+000 9.038085e-001 -1.153844e+001 119 84 56
2.327543e+000 -3.515109e-001 -1.309738e+001 139 67 73
1.454676e+000 -3.929597e-001 -1.298260e+001 168 100 97
4.082579e+000 -2.004318e+000 -1.499168e+001 90 64 51
5.606524e+000 7.679264e-002 -1.286918e+001 76 60 37
1.218927e+000 3.999819e-001 -1.334400e+001 155 107 84
5.219299e+000 1.033534e+000 -1.202677e+001 134 98 68
6.080818e+000 1.056000e+000 -1.216172e+001 156 118 82
5.840172e+000 9.404605e-001 -1.218506e+001 122 85 56
4.620874e+000 6.458058e-001 -1.198654e+001 74 46 24
5.079830e+000 6.057004e-001 -1.211243e+001 84 55 34
5.273302e+000 5.728666e-001 -1.216796e+001 83 51 27
5.867231e+000 5.931007e-001 -1.209541e+001 112 78 51
5.804031e+000 1.277702e-001 -1.299822e+001 100 73 54
5.193046e+000 -1.572499e-002 -1.298913e+001 93 67 50
1.341373e+000 1.905495e-002 -1.319233e+001 189 130 122
2.535848e+000 -7.703316e-001 -1.341511e+001 165 105 109
4.326006e+000 -1.017010e+000 -1.387685e+001 57 36 19
4.951071e+000 -1.066234e+000 -1.413669e+001 69 50 33
1.038289e-001 -8.322789e-001 -1.412011e+001 156 123 104
2.670184e+000 -1.162207e+000 -1.376199e+001 79 69 59
-1.023250e+000 -1.089806e+000 -1.357478e+001 140 98 78
-8.777227e-001 -1.299682e+000 -1.356289e+001 137 99 78
2.422922e+000 -1.726232e+000 -1.461872e+001 146 98 89
4.226868e+000 -1.952698e+000 -1.505255e+001 79 55 37
5.255193e+000 8.838028e-001 -1.204195e+001 82 50 25
4.653652e+000 7.532068e-001 -1.193257e+001 118 84 59
2.554558e+000 7.927886e-001 -1.258282e+001 226 191 161
4.568547e+000 4.096102e-001 -1.211060e+001 99 72 52
6.216577e+000 4.708396e-001 -1.265888e+001 83 58 32
4.528912e+000 3.206002e-001 -1.225388e+001 77 52 32
2.377028e+000 5.957189e-001 -1.291250e+001 132 53 56
2.915598e+000 1.929550e-001 -1.222968e+001 187 152 120
5.535048e+000 2.206211e-001 -1.272556e+001 55 33 13
4.859119e+000 4.242812e-002 -1.273395e+001 76 49 30
5.501920e+000 -4.834593e-002 -1.301361e+001 98 73 51
5.593016e+000 -1.662891e-001 -1.324658e+001 65 44 27
5.252634e+000 -2.796814e-001 -1.324605e+001 67 45 24
3.913607e+000 -4.728568e-001 -1.319404e+001 98 75 62
5.129824e+000 -3.975452e-001 -1.334464e+001 94 86 75
5.400734e+000 -4.082518e-001 -1.343891e+001 63 40 24
4.589835e+000 -6.156962e-001 -1.345494e+001 77 53 33
5.252575e+000 -8.172850e-001 -1.383002e+001 76 51 31
5.563630e+000 -8.248740e-001 -1.389791e+001 94 72 49
5.177659e+000 -1.104613e+000 -1.420616e+001 95 72 54
-5.804824e-001 -1.222065e+000 -1.375042e+001 82 50 32
1.729437e+000 -1.588561e+000 -1.495535e+001 159 98 97
-1.397025e+000 -1.687494e+000 -1.385058e+001 170 94 106
2.813274e+000 1.349851e+000 -1.248236e+001 199 161 127
5.630830e+000 8.592408e-001 -1.210710e+001 116 77 48
6.025651e+000 5.824958e-001 -1.226943e+001 109 78 50
5.276539e+000 1.236032e-001 -1.266826e+001 91 69 50
5.596355e+000 1.345491e-001 -1.292598e+001 74 51 33
4.361780e+000 -1.059625e-001 -1.282151e+001 60 39 22
4.904222e+000 -1.694766e-001 -1.306540e+001 52 31 12
4.411787e+000 -2.657907e-001 -1.296502e+001 105 78 57
4.929486e+000 -3.074417e-001 -1.317624e+001 75 53 32
5.467616e+000 -2.881056e-001 -1.333053e+001 71 48 30
5.521658e+000 -3.132725e-001 -1.335892e+001 83 60 44
1.632350e+000 -3.427344e-001 -1.290185e+001 212 163 150
5.540949e+000 -4.573158e-001 -1.354608e+001 57 35 18
2.999220e+000 -8.405089e-001 -1.322859e+001 100 64 38
2.717174e+000 -9.858465e-001 -1.351026e+001 47 36 27
4.083073e+000 -1.018470e+000 -1.381157e+001 82 63 48
4.897970e+000 -1.081315e+000 -1.413662e+001 93 70 52
5.138546e+000 -1.198146e+000 -1.438452e+001 87 66 47
5.186731e+000 -1.229148e+000 -1.441218e+001 66 45 28
3.650993e+000 -1.884822e+000 -1.483420e+001 112 91 72
4.170161e+000 -1.976784e+000 -1.503666e+001 101 80 63
5.147907e+000 -2.035533e+000 -1.532687e+001 73 51 38
5.150623e+000 -2.035316e+000 -1.532300e+001 73 51 38
5.081056e+000 6.733195e-001 -1.203558e+001 125 93 67
5.715909e+000 8.011655e-001 -1.220365e+001 134 99 69
5.329719e+000 6.009081e-001 -1.216630e+001 115 81 54
6.132383e+000 5.973335e-001 -1.234558e+001 120 90 61
2.378548e+000 7.821884e-001 -1.277103e+001 191 111 114
2.805269e+000 4.725941e-001 -1.235855e+001 203 157 79
2.846277e+000 5.347319e-001 -1.227948e+001 201 155 70
5.602523e+000 3.608670e-001 -1.252480e+001 110 83 56
4.901459e+000 1.545157e-001 -1.262568e+001 76 54 30
5.032736e+000 1.249382e-001 -1.268394e+001 66 39 20
5.632704e+000 -1.713926e-001 -1.318904e+001 98 75 55
2.688557e+000 -3.790946e-001 -1.309951e+001 60 48 28
4.446299e+000 -4.815503e-001 -1.321591e+001 101 76 54
4.855433e+000 -5.560623e-001 -1.343206e+001 95 70 51
4.855433e+000 -5.560623e-001 -1.343206e+001 95 70 51
4.088283e+000 -9.148999e-001 -1.370592e+001 94 73 56
4.599470e+000 -1.012146e+000 -1.392531e+001 58 36 22
4.482149e+000 -1.259799e+000 -1.424799e+001 67 46 28
4.864120e+000 -1.362193e+000 -1.444530e+001 106 79 60
5.030054e+000 -1.407590e+000 -1.464792e+001 110 85 63
4.451569e+000 -1.597458e+000 -1.463868e+001 104 82 61
4.709588e+000 -1.697167e+000 -1.486641e+001 72 49 33
4.324790e+000 -2.021801e+000 -1.512735e+001 95 71 54
4.711207e+000 -2.112458e+000 -1.531745e+001 80 57 39
2.500267e+000 -2.206785e+000 -1.488777e+001 144 109 87
3.161315e+000 1.581877e-001 -1.224285e+001 128 97 74
3.136153e+000 3.676159e-002 -1.241766e+001 111 82 60
4.442667e+000 -4.598282e-002 -1.276666e+001 65 39 22
5.088446e+000 -5.862860e-001 -1.348716e+001 90 63 41
1.961704e+000 -7.867915e-001 -1.306958e+001 185 141 127
2.554334e+000 -7.969470e-001 -1.341262e+001 165 110 111
2.641816e+000 -1.009937e+000 -1.366678e+001 140 102 98
4.067087e+000 -1.179099e+000 -1.402203e+001 92 71 55
3.389007e+000 -1.331752e+000 -1.397741e+001 96 84 68
4.499163e+000 -1.375395e+000 -1.436846e+001 77 51 36
-6.937955e-001 -1.348157e+000 -1.367637e+001 116 79 60
2.519564e+000 -1.595351e+000 -1.455104e+001 103 41 49
2.415460e+000 -1.906741e+000 -1.476875e+001 139 96 75
2.600800e+000 -1.972912e+000 -1.469271e+001 185 153 130
2.384493e+000 -2.064720e+000 -1.495847e+001 178 144 119
3.058135e+000 5.504290e-001 -1.198999e+001 146 105 76
2.305209e+000 8.028738e-001 -1.281666e+001 170 86 91
4.157195e+000 2.953800e-001 -1.212506e+001 117 97 74
3.281359e+000 1.954714e-002 -1.205902e+001 49 46 32
5.237290e+000 -7.507899e-003 -1.294203e+001 59 38 20
5.731210e+000 -1.296151e-001 -1.318147e+001 84 57 36
5.260883e+000 -4.331787e-001 -1.342046e+001 71 52 35
4.359027e+000 -6.108061e-001 -1.339859e+001 72 46 29
4.798516e+000 -8.534464e-001 -1.376289e+001 102 80 59
3.518808e+000 -1.608732e+000 -1.447017e+001 79 61 44
4.559406e+000 -1.637484e+000 -1.476687e+001 68 45 29
2.360200e+000 6.006673e-001 -1.288043e+001 146 65 69
5.772591e+000 2.266435e-001 -1.261850e+001 87 59 38
1.925284e+000 4.536435e-001 -1.292441e+001 162 76 85
2.898093e+000 1.332541e-001 -1.250242e+001 116 78 54
4.462644e+000 3.930938e-002 -1.263628e+001 103 78 57
5.050405e+000 -8.086616e-001 -1.376741e+001 100 75 53
5.050405e+000 -8.086616e-001 -1.376741e+001 100 75 53
4.103322e+000 -1.249111e+000 -1.418574e+001 94 71 53
3.869173e+000 -1.684807e+000 -1.468437e+001 82 56 41
2.505990e+000 -1.774519e+000 -1.476996e+001 157 120 101
2.505990e+000 -1.774519e+000 -1.476996e+001 157 120 101
3.996084e+000 -2.103052e+000 -1.512054e+001 109 83 68
5.364137e+000 3.023122e-001 -1.238907e+001 119 91 68
4.811619e+000 -8.671475e-002 -1.286738e+001 109 81 60
2.474331e+000 -4.710772e-001 -1.324557e+001 111 48 43
4.978277e+000 -6.020795e-001 -1.357216e+001 104 77 57
4.699459e+000 -7.403343e-001 -1.355561e+001 109 88 65
5.554112e+000 -7.390131e-001 -1.370969e+001 83 58 38
4.244581e+000 -7.952637e-001 -1.355910e+001 95 73 52
5.017326e+000 2.036048e-001 -1.252463e+001 111 85 60
5.233793e+000 1.711297e-001 -1.255009e+001 89 65 42
2.888242e+000 -6.270770e-001 -1.292452e+001 83 71 57
1.316101e-002 -8.906349e-001 -1.424987e+001 177 139 121
4.008531e+000 -1.091108e+000 -1.396847e+001 69 47 33
5.564871e+000 -1.892876e+000 -1.533309e+001 121 97 73
4.790438e+000 3.633454e-001 -1.222173e+001 125 93 74
4.220502e+000 -1.275822e-001 -1.269808e+001 69 48 32
2.707492e+000 -2.000963e+000 -1.465571e+001 140 104 82
5.351154e+000 -2.648233e-001 -1.319459e+001 76 53 35
4.737127e+000 2.114342e+000 -1.545640e+001 69 43 18
2.357430e+000 1.928037e+000 -1.351010e+001 80 77 46
2.071767e+000 8.029414e-001 -1.639928e+001 142 116 89
2.074731e+000 8.529032e-001 -1.632307e+001 148 117 91
2.260567e+000 1.508209e+000 -1.552555e+001 138 103 75
4.606025e+000 2.048045e+000 -1.555271e+001 69 45 21
6.291264e+000 1.613590e+000 -1.256703e+001 160 123 74
3.522114e+000 2.372218e+000 -1.271430e+001 57 43 30
2.032689e+000 1.156291e+000 -1.555967e+001 143 111 86
4.275127e+000 2.849020e+000 -1.444302e+001 57 34 16
2.915886e+000 3.109597e+000 -1.395362e+001 77 66 46
4.984162e+000 3.185081e+000 -1.370134e+001 52 27 8
3.037574e+000 3.129509e+000 -1.330200e+001 99 91 69
5.530511e+000 1.958295e+000 -1.727512e+001 103 79 45
2.214351e+000 6.825063e-001 -1.665052e+001 112 89 63
1.926160e+000 7.276341e-002 -1.666655e+001 81 71 50
2.301980e+000 1.270627e+000 -1.607981e+001 110 82 61
5.589923e+000 1.900493e+000 -1.667073e+001 79 54 24
1.580781e+000 1.169220e+000 -1.577987e+001 151 106 91
2.041089e+000 9.138404e-001 -1.592658e+001 62 55 36
2.238332e+000 1.361647e+000 -1.581395e+001 160 135 105
2.245867e+000 1.456239e+000 -1.581358e+001 122 96 69
2.540846e+000 1.676214e+000 -1.590318e+001 123 114 96
2.543018e+000 1.636581e+000 -1.587061e+001 63 55 36
2.003593e+000 1.133850e+000 -1.572428e+001 53 46 25
2.003593e+000 1.133850e+000 -1.572428e+001 53 46 25
3.201976e+000 1.856301e+000 -1.546860e+001 57 45 29
8.947487e-001 1.367923e+000 -1.500311e+001 197 147 130
1.802490e+000 1.225486e+000 -1.512952e+001 146 95 71
2.085427e+000 2.224821e+000 -1.509414e+001 155 127 100
2.940669e+000 1.909676e+000 -1.531724e+001 12 6 6
3.242184e+000 1.903820e+000 -1.535754e+001 61 45 29
-6.457078e-001 -9.190341e-002 -1.436501e+001 170 96 73
1.851682e+000 1.966573e+000 -1.470405e+001 129 91 49
2.986795e+000 2.298715e+000 -1.480620e+001 58 49 35
3.877265e-001 -6.760801e-002 -1.437699e+001 158 109 94
9.554553e-001 1.106067e+000 -1.422093e+001 189 148 120
2.840039e+000 3.054812e+000 -1.399504e+001 88 62 37
3.052442e+000 3.210287e+000 -1.380326e+001 23 13 3
2.637691e+000 2.813524e+000 -1.330404e+001 130 109 78
5.987266e+000 3.161618e+000 -1.371591e+001 120 77 32
3.509612e+000 2.344848e+000 -1.267303e+001 70 56 37
3.580728e+000 1.904919e+000 -1.232728e+001 108 95 80
2.068896e+000 5.415361e-001 -1.690235e+001 166 138 114
2.782918e+000 4.475441e-001 -1.712382e+001 101 92 75
2.849116e+000 4.681806e-001 -1.705950e+001 78 67 49
2.123122e+000 6.348916e-001 -1.675578e+001 152 127 104
2.114840e+000 5.818100e-001 -1.660890e+001 127 102 78
2.477018e+000 7.668396e-001 -1.665367e+001 50 39 22
5.539942e+000 2.532055e+000 -1.690807e+001 103 76 46
1.914156e+000 5.805371e-001 -1.625450e+001 127 95 70
2.072860e+000 8.716537e-001 -1.631539e+001 141 111 83
2.072860e+000 8.716537e-001 -1.631539e+001 141 111 83
1.519275e+000 1.035108e+000 -1.588300e+001 147 103 91
1.116689e+000 7.943439e-001 -1.570334e+001 167 121 98
2.315102e+000 1.450747e+000 -1.595448e+001 110 85 59
2.306955e+000 1.554465e+000 -1.580776e+001 130 105 75
3.010202e+000 1.762557e+000 -1.597074e+001 97 88 73
1.179019e+000 7.595262e-001 -1.564354e+001 132 75 66
2.051301e+000 1.237004e+000 -1.574608e+001 45 43 22
2.230681e+000 1.460205e+000 -1.576089e+001 117 90 63
2.247433e+000 1.526095e+000 -1.567651e+001 126 97 69
2.764487e+000 1.792507e+000 -1.581832e+001 88 80 62
3.453391e+000 1.385888e+000 -1.606190e+001 72 47 27
4.010275e+000 1.439309e+000 -1.608733e+001 59 43 22
5.047883e+000 1.479304e+000 -1.631002e+001 49 31 10
1.340649e+000 1.084526e+000 -1.544891e+001 114 68 57
1.558200e+000 9.233515e-001 -1.557814e+001 143 84 78
2.170325e+000 1.447565e+000 -1.552681e+001 95 64 44
2.319428e+000 1.734193e+000 -1.553120e+001 87 59 35
3.014729e+000 1.957363e+000 -1.559477e+001 83 72 52
3.014729e+000 1.957363e+000 -1.559477e+001 83 72 52
2.258728e+000 1.622241e+000 -1.533666e+001 87 55 30
1.642156e+000 1.220158e+000 -1.508566e+001 155 111 86
2.140779e+000 2.205851e+000 -1.508723e+001 154 127 97
2.333126e+000 1.800118e+000 -1.524157e+001 122 91 63
1.809699e+000 1.339688e+000 -1.501916e+001 128 78 45
2.806056e+000 2.094240e+000 -1.510877e+001 27 18 9
2.239141e+000 2.286783e+000 -1.485094e+001 153 122 91
2.606471e+000 2.223697e+000 -1.487517e+001 88 61 39
-6.546376e-001 -7.745080e-002 -1.442341e+001 144 76 47
1.403860e+000 1.287096e+000 -1.465826e+001 113 49 42
1.973004e+000 2.091276e+000 -1.449353e+001 173 137 87
3.420061e+000 2.481296e+000 -1.457990e+001 41 23 7
9.288220e-001 9.950472e-001 -1.414228e+001 177 119 104
2.098658e+000 2.380631e+000 -1.425937e+001 148 114 79
2.186883e+000 1.722571e+000 -1.408112e+001 168 135 102
2.619668e+000 2.475939e+000 -1.352694e+001 68 49 25
2.765752e+000 3.126299e+000 -1.359820e+001 102 83 60
2.622248e+000 2.243214e+000 -1.329849e+001 141 112 80
5.471944e+000 3.127320e+000 -1.365862e+001 100 70 48
3.400091e+000 3.130548e+000 -1.334371e+001 52 40 30
3.400091e+000 3.130548e+000 -1.334371e+001 52 40 30
5.162176e+000 2.965400e+000 -1.340831e+001 116 86 60
4.360401e+000 2.770079e+000 -1.317389e+001 106 85 59
3.006740e+000 1.190196e+000 -1.197331e+001 102 76 54
2.652722e+000 3.175887e-001 -1.726386e+001 84 73 55
2.805279e+000 3.870428e-001 -1.722614e+001 85 70 56
2.022490e+000 1.536251e-001 -1.698820e+001 100 80 58
2.320088e+000 1.557456e-002 -1.715816e+001 83 68 55
2.430227e+000 4.214655e-001 -1.703467e+001 47 38 22
2.340120e+000 5.541641e-001 -1.680819e+001 46 33 24
2.444763e+000 6.314692e-001 -1.681519e+001 45 35 23
2.773434e+000 5.591838e-001 -1.690591e+001 56 44 29
2.575575e+000 8.244119e-001 -1.664305e+001 71 62 45
3.484328e+000 6.451448e-001 -1.693574e+001 58 39 20
3.484328e+000 6.451448e-001 -1.693574e+001 58 39 20
2.204147e+000 1.001730e+000 -1.628010e+001 161 132 108
2.287775e+000 1.118392e+000 -1.620940e+001 106 79 55
2.633020e+000 9.528253e-001 -1.637661e+001 35 24 13
4.183067e+000 8.922635e-001 -1.667456e+001 63 44 28
1.265129e+000 9.707890e-001 -1.572627e+001 133 90 75
1.520340e+000 9.139949e-001 -1.584880e+001 139 91 77
1.655863e+000 1.036206e+000 -1.578064e+001 147 101 85
2.083929e+000 8.686239e-001 -1.598754e+001 112 90 66
1.219536e+000 8.185163e-001 -1.566373e+001 157 111 90
1.350908e+000 1.214593e+000 -1.553843e+001 133 88 75
4.009427e+000 1.440924e+000 -1.613106e+001 78 60 38
4.890200e+000 1.582712e+000 -1.618963e+001 57 36 17
2.051417e+000 1.131692e+000 -1.550756e+001 100 64 38
2.395351e+000 1.957013e+000 -1.527518e+001 168 141 118
3.209993e+000 1.835888e+000 -1.536821e+001 68 56 38
1.817044e+000 1.269488e+000 -1.497217e+001 162 120 78
1.800747e+000 1.673670e+000 -1.489011e+001 130 86 44
2.474709e+000 2.159794e+000 -1.488862e+001 121 85 59
2.532258e+000 2.289101e+000 -1.483584e+001 112 85 58
1.540568e+000 1.260035e+000 -1.451271e+001 117 60 41
1.942538e+000 2.042502e+000 -1.446441e+001 181 149 108
2.474691e+000 2.284525e+000 -1.450708e+001 142 109 78
2.616633e+000 2.806676e+000 -1.440847e+001 122 88 60
2.578570e+000 2.528675e+000 -1.428044e+001 152 122 90
4.762394e+000 2.795730e+000 -1.464667e+001 50 27 11
8.766837e-001 7.172690e-001 -1.390809e+001 169 124 103
3.015667e+000 2.743351e+000 -1.433227e+001 26 20 6
2.544482e+000 2.487243e+000 -1.398490e+001 72 66 34
2.631482e+000 2.554703e+000 -1.403638e+001 103 79 52
3.976279e+000 2.908835e+000 -1.431053e+001 61 39 18
2.742163e+000 3.125410e+000 -1.365436e+001 40 31 17
2.308794e+000 1.167905e+000 -1.321231e+001 124 68 53
5.381263e+000 3.172982e+000 -1.372571e+001 72 46 23
2.581154e+000 1.543057e+000 -1.303600e+001 182 146 110
2.800989e+000 2.615735e+000 -1.318559e+001 151 121 93
3.031359e+000 3.143053e+000 -1.330283e+001 147 134 109
3.146278e+000 3.024389e+000 -1.313264e+001 45 34 16
4.643495e+000 2.957832e+000 -1.333950e+001 63 37 14
5.662628e+000 2.959025e+000 -1.347174e+001 154 118 84
2.766830e+000 2.410740e+000 -1.285873e+001 55 53 30
2.832071e+000 2.617118e+000 -1.285595e+001 56 52 35
4.349484e+000 2.552826e+000 -1.305857e+001 129 102 75
4.726244e+000 2.808411e+000 -1.322580e+001 80 52 30
5.730260e+000 2.157877e+000 -1.291684e+001 78 48 23
3.086299e+000 2.938643e-001 -1.194917e+001 95 77 52
2.513774e+000 5.584404e-001 -1.698282e+001 79 68 53
2.814055e+000 4.056799e-001 -1.709273e+001 44 32 20
4.813275e+000 1.936902e-001 -1.775881e+001 80 55 33
2.507881e+000 5.889484e-001 -1.687312e+001 49 39 27
2.772408e+000 5.389942e-001 -1.684095e+001 86 78 59
3.502175e+000 7.763994e-001 -1.674604e+001 51 34 18
2.830017e+000 9.073581e-001 -1.642555e+001 105 94 67
2.077658e+000 1.033030e+000 -1.611713e+001 127 97 69
4.640192e+000 1.338103e+000 -1.633787e+001 58 37 21
4.640192e+000 1.338103e+000 -1.633787e+001 58 37 21
1.451025e+000 8.408173e-001 -1.573601e+001 137 80 72
1.990470e+000 1.135016e+000 -1.566668e+001 128 98 72
2.053548e+000 1.222879e+000 -1.569323e+001 143 112 87
2.396696e+000 1.693226e+000 -1.563816e+001 106 81 58
2.481391e+000 1.783406e+000 -1.572109e+001 99 88 65
2.881263e+000 2.024887e+000 -1.557230e+001 75 67 48
3.075693e+000 1.914998e+000 -1.561993e+001 39 27 13
3.783364e+000 1.655891e+000 -1.581613e+001 65 44 23
2.053049e+000 1.220942e+000 -1.541556e+001 130 100 72
3.796189e+000 1.837078e+000 -1.561569e+001 60 39 20
-5.659643e-001 -6.442953e-001 -1.498661e+001 116 85 64
2.111806e+000 1.945417e+000 -1.509500e+001 120 83 39
4.027328e+000 1.981249e+000 -1.550458e+001 61 40 19
4.992883e+000 1.901256e+000 -1.581209e+001 59 38 17
1.774396e+000 1.290330e+000 -1.503536e+001 151 105 76
3.172068e+000 2.156094e+000 -1.503042e+001 25 18 7
4.627436e+000 2.139575e+000 -1.537789e+001 56 36 12
4.627436e+000 2.139575e+000 -1.537789e+001 56 36 12
2.599969e+000 2.375417e+000 -1.473430e+001 118 93 63
3.205861e+000 2.300590e+000 -1.484799e+001 28 20 9
2.363238e+000 2.311710e+000 -1.458342e+001 143 113 81
2.446135e+000 2.294036e+000 -1.458617e+001 110 73 44
1.925033e+000 1.891106e+000 -1.435770e+001 170 136 91
3.249992e+000 2.397419e+000 -1.462443e+001 77 69 50
3.217443e+000 2.544789e+000 -1.452755e+001 29 20 11
4.653300e+000 2.561850e+000 -1.483809e+001 58 36 15
2.580659e+000 2.812084e+000 -1.431808e+001 138 107 75
2.716902e+000 2.847693e+000 -1.423710e+001 91 58 31
2.806253e+000 2.809216e+000 -1.423971e+001 40 24 11
3.279570e+000 2.814478e+000 -1.429897e+001 23 16 10
3.326336e+000 2.798094e+000 -1.434203e+001 87 74 57
3.495019e+000 2.804528e+000 -1.428613e+001 105 88 67
4.213922e+000 2.793612e+000 -1.450674e+001 59 38 18
2.529327e+000 2.520341e+000 -1.387664e+001 71 64 39
2.684398e+000 3.052960e+000 -1.391263e+001 194 168 145
3.294874e+000 2.999540e+000 -1.408474e+001 39 29 20
2.566901e+000 2.427203e+000 -1.375551e+001 87 79 47
2.857445e+000 3.136204e+000 -1.338813e+001 94 68 45
4.708307e+000 3.109894e+000 -1.355022e+001 72 47 25
5.173104e+000 3.180782e+000 -1.372969e+001 91 63 42
2.890223e+000 2.649723e+000 -1.308680e+001 130 108 84
5.393958e+000 2.748826e+000 -1.341351e+001 114 84 58
4.546079e+000 2.181488e+000 -1.284810e+001 122 98 72
3.347257e+000 2.114454e+000 -1.239783e+001 112 97 75
3.347257e+000 2.114454e+000 -1.239783e+001 112 97 75
3.144089e+000 6.238433e-002 -1.748718e+001 129 108 87
3.294571e+000 1.208106e-001 -1.746220e+001 89 67 44
1.994310e+000 4.784390e-001 -1.673147e+001 59 54 35
2.498386e+000 5.145063e-001 -1.685078e+001 58 49 34
2.803052e+000 2.148216e-001 -1.707968e+001 72 64 45
2.019815e+000 8.870178e-001 -1.633270e+001 143 111 86
4.819689e+000 9.291747e-001 -1.682951e+001 57 36 19
2.657439e+000 1.561303e+000 -1.608393e+001 24 19 13
2.191752e+000 1.316303e+000 -1.588864e+001 90 66 41
2.187907e+000 1.324034e+000 -1.588683e+001 90 66 41
3.010885e+000 1.588612e+000 -1.605070e+001 67 55 41
3.041786e+000 1.638915e+000 -1.593659e+001 46 32 22
2.386706e+000 1.659546e+000 -1.571369e+001 67 44 26
3.197998e+000 1.728085e+000 -1.589682e+001 63 51 35
1.998547e+000 1.164597e+000 -1.541544e+001 103 58 38
2.067397e+000 1.835487e+000 -1.510657e+001 147 114 77
2.981781e+000 1.931638e+000 -1.510430e+001 62 53 36
9.632875e-001 1.212070e+000 -1.467913e+001 126 62 52
1.745486e+000 1.573784e+000 -1.467655e+001 129 83 49
2.762338e+000 2.290608e+000 -1.482836e+001 124 115 98
5.428854e+000 2.373325e+000 -1.525730e+001 109 83 58
1.893061e+000 2.014446e+000 -1.443206e+001 159 120 71
1.954255e+000 2.060393e+000 -1.439757e+001 132 96 55
2.499652e+000 2.569656e+000 -1.436034e+001 151 117 89
4.320686e+000 2.635458e+000 -1.469967e+001 66 45 24
3.250388e+000 2.679775e+000 -1.437667e+001 28 21 9
3.385956e+000 2.789564e+000 -1.436068e+001 49 36 19
2.200543e+000 1.638041e+000 -1.403594e+001 116 79 50
2.125601e+000 1.503982e+000 -1.395506e+001 101 60 36
2.838616e+000 3.015575e+000 -1.406129e+001 43 27 17
2.527304e+000 2.502426e+000 -1.393459e+001 106 99 70
2.527304e+000 2.502426e+000 -1.393459e+001 106 99 70
1.764902e+000 1.453780e+000 -1.363794e+001 175 115 101
2.643668e+000 1.884823e+000 -1.353360e+001 116 94 71
2.994119e+000 3.087039e+000 -1.354732e+001 32 18 15
5.052781e+000 3.224907e+000 -1.380126e+001 87 61 43
2.857773e+000 2.932590e+000 -1.322550e+001 119 91 66
3.481050e+000 3.004103e+000 -1.329337e+001 51 45 33
5.346859e+000 2.927487e+000 -1.355631e+001 79 51 28
2.458924e+000 8.508297e-001 -1.265434e+001 177 118 99
2.541141e+000 1.031045e+000 -1.260969e+001 165 120 82
2.894527e+000 6.073234e-001 -1.234096e+001 168 132 96
3.167614e+000 1.534727e+000 -1.221619e+001 134 105 75
5.260930e+000 1.205907e+000 -1.224626e+001 122 93 63
2.660464e+000 2.639980e-001 -1.712594e+001 34 30 21
3.320557e+000 6.056881e-001 -1.698027e+001 76 54 32
2.053710e+000 7.666036e-001 -1.616642e+001 104 68 36
2.145375e+000 1.255328e+000 -1.582511e+001 137 110 82
1.094769e+000 1.136455e+000 -1.544621e+001 164 117 102
2.720603e+000 1.775188e+000 -1.573340e+001 38 30 18
3.910788e+000 1.517400e+000 -1.606299e+001 53 35 16
4.749943e+000 1.537666e+000 -1.616714e+001 85 67 45
2.134361e+000 1.424189e+000 -1.561226e+001 111 81 55
2.192988e+000 1.236929e+000 -1.556579e+001 102 71 50
2.145564e+000 1.649620e+000 -1.528917e+001 135 106 76
2.145564e+000 1.649620e+000 -1.528917e+001 135 106 76
4.047538e+000 1.710121e+000 -1.571794e+001 86 65 44
3.744734e-001 -7.183622e-003 -1.472540e+001 112 76 54
5.083268e-001 1.414251e-001 -1.479234e+001 102 67 45
2.494164e+000 2.218266e+000 -1.471347e+001 103 68 40
2.747895e+000 2.290494e+000 -1.469063e+001 30 15 10
2.562173e+000 2.491112e+000 -1.449173e+001 185 158 127
2.708598e+000 2.627414e+000 -1.451536e+001 32 18 14
1.172202e+000 1.105282e+000 -1.418777e+001 147 86 70
1.953567e+000 1.415231e+000 -1.415714e+001 137 102 71
2.523967e+000 2.239365e+000 -1.391179e+001 130 124 90
2.577378e+000 2.531913e+000 -1.382371e+001 139 125 98
2.565688e+000 2.137027e+000 -1.362360e+001 100 89 69
2.587125e+000 2.567132e+000 -1.365858e+001 117 100 73
2.402948e+000 1.913783e+000 -1.341819e+001 51 45 26
2.238350e+000 1.081651e+000 -1.322215e+001 124 71 58
2.616017e+000 1.795385e+000 -1.300973e+001 179 146 111
3.130897e+000 3.201337e+000 -1.330694e+001 111 97 66
2.770565e+000 2.547475e+000 -1.305994e+001 154 127 97
3.058868e+000 2.848742e+000 -1.302665e+001 34 21 15
4.376809e+000 2.568817e+000 -1.306260e+001 124 97 68
4.600845e+000 2.447651e+000 -1.305339e+001 65 45 22
2.935232e+000 5.116191e-001 -1.214989e+001 137 107 78
2.873914e+000 1.282573e+000 -1.234897e+001 72 66 45
5.029324e+000 1.964503e+000 -1.279313e+001 68 42 18
3.100104e+000 2.774899e-001 -1.184233e+001 181 171 159
3.802755e+000 5.498977e-001 -1.716769e+001 95 73 50
3.429047e+000 1.138760e+000 -1.633902e+001 70 49 30
3.562280e+000 1.229573e+000 -1.625345e+001 90 69 48
4.398262e+000 1.358870e+000 -1.626575e+001 89 67 44
1.862399e+000 1.009962e+000 -1.554221e+001 74 25 18
5.097104e+000 1.696814e+000 -1.607840e+001 63 41 20
3.804343e+000 1.769496e+000 -1.567756e+001 66 45 24
1.050494e+000 1.344524e+000 -1.508308e+001 125 62 53
1.710570e+000 1.154729e+000 -1.501313e+001 108 43 33
2.372122e+000 1.962082e+000 -1.505277e+001 102 71 43
2.372122e+000 1.962082e+000 -1.505277e+001 102 71 43
3.120302e+000 2.017580e+000 -1.514012e+001 53 46 27
3.265365e+000 2.132832e+000 -1.508290e+001 60 47 28
3.158594e+000 2.136976e+000 -1.494762e+001 60 48 34
4.165483e+000 2.288332e+000 -1.508108e+001 80 60 39
4.575658e+000 2.233320e+000 -1.520584e+001 58 38 24
2.512565e+000 2.382661e+000 -1.455599e+001 106 71 43
3.200326e+000 2.229304e+000 -1.477494e+001 45 37 18
3.219836e+000 2.395203e+000 -1.460761e+001 57 49 29
1.886736e+000 1.358309e+000 -1.428376e+001 141 108 77
1.996814e+000 2.066705e+000 -1.429751e+001 172 139 96
2.067627e+000 1.618983e+000 -1.406704e+001 171 141 108
2.067627e+000 1.618983e+000 -1.406704e+001 171 141 108
2.293621e+000 1.888138e+000 -1.401170e+001 103 73 49
3.312260e+000 2.836654e+000 -1.414280e+001 43 34 17
2.876440e+000 3.097061e+000 -1.389320e+001 33 19 11
3.007603e+000 2.991656e+000 -1.393468e+001 56 45 28
3.083211e+000 3.151365e+000 -1.361785e+001 34 26 15
2.607566e+000 2.113130e+000 -1.319192e+001 57 52 33
4.654556e+000 1.952342e+000 -1.270903e+001 88 64 38
3.940307e+000 1.219566e+000 -1.626261e+001 85 64 43
2.894962e+000 1.843924e+000 -1.571931e+001 41 28 19
1.259047e+000 9.301703e-001 -1.545527e+001 86 44 31
1.365976e+000 1.175975e+000 -1.536660e+001 137 90 74
1.532745e+000 9.424639e-001 -1.549133e+001 106 47 41
2.460714e+000 1.764592e+000 -1.559232e+001 57 44 28
2.245712e+000 1.698027e+000 -1.537191e+001 93 62 38
1.803653e+000 1.090550e+000 -1.523602e+001 103 45 34
-9.651447e-001 -4.588452e-001 -1.465030e+001 57 53 52
-9.651447e-001 -4.588452e-001 -1.465030e+001 57 53 52
2.810802e-001 -3.961231e-002 -1.469681e+001 134 91 72
2.352804e+000 2.218346e+000 -1.490245e+001 102 68 43
1.943412e+000 2.048497e+000 -1.473093e+001 153 120 80
3.289651e+000 2.460019e+000 -1.472252e+001 38 26 13
4.309478e+000 2.410168e+000 -1.497093e+001 80 62 40
3.336498e+000 2.568288e+000 -1.455863e+001 43 29 18
4.419563e+000 2.576455e+000 -1.481629e+001 83 62 41
4.840463e+000 2.476380e+000 -1.494606e+001 58 40 19
1.976967e+000 1.766670e+000 -1.426261e+001 97 71 49
3.381052e+000 2.880523e+000 -1.425974e+001 51 36 21
3.327805e+000 3.008738e+000 -1.398359e+001 49 40 24
1.924169e+000 1.191586e+000 -1.345712e+001 189 125 116
1.861419e+000 1.027696e+000 -1.334271e+001 141 68 62
2.810761e+000 3.149428e+000 -1.349435e+001 192 171 143
5.704415e+000 2.958751e+000 -1.369566e+001 85 54 31
2.907720e+000 2.960408e+000 -1.309759e+001 206 181 151
3.471687e+000 2.904993e+000 -1.316127e+001 215 196 157
5.730569e+000 2.934847e+000 -1.345130e+001 186 152 122
3.111877e+000 4.651513e-001 -1.668011e+001 48 39 22
2.156790e+000 9.718683e-001 -1.606032e+001 84 70 44
2.985184e+000 1.289514e+000 -1.621350e+001 59 47 32
3.019707e+000 1.925472e+000 -1.569240e+001 78 66 51
1.500905e+000 1.150266e+000 -1.479199e+001 96 33 26
1.484969e+000 1.233595e+000 -1.478329e+001 96 33 26
2.865306e+000 2.102100e+000 -1.491292e+001 61 53 39
-5.053211e-001 4.312712e-002 -1.436720e+001 166 130 105
1.707644e+000 1.328561e+000 -1.449588e+001 152 109 81
5.028936e+000 2.819823e+000 -1.462339e+001 88 66 45
5.028936e+000 2.819823e+000 -1.462339e+001 88 66 45
5.248741e+000 2.838475e+000 -1.470772e+001 54 31 13
5.308969e+000 3.060213e+000 -1.458284e+001 67 42 20
3.362019e+000 3.158003e+000 -1.407839e+001 50 38 23
5.033181e+000 3.076306e+000 -1.435472e+001 55 34 15
3.454829e+000 3.271072e+000 -1.368097e+001 43 31 17
5.956717e+000 2.915498e+000 -1.344943e+001 25 17 15
5.956717e+000 2.915498e+000 -1.344943e+001 25 17 15
5.484153e+000 1.790182e+000 -1.267957e+001 139 103 74
2.206806e+000 7.256804e-001 -1.641553e+001 136 106 80
4.007581e+000 9.170703e-001 -1.666826e+001 68 49 33
4.007581e+000 9.170703e-001 -1.666826e+001 68 49 33
4.232017e+000 1.795322e+000 -1.577019e+001 52 33 16
1.871345e+000 1.741061e+000 -1.510309e+001 167 132 99
1.034535e+000 1.047131e+000 -1.480642e+001 96 59 44
1.884642e+000 1.993217e+000 -1.451416e+001 150 114 72
2.588940e+000 2.400308e+000 -1.375364e+001 93 82 51
2.372598e+000 1.309779e+000 -1.333945e+001 175 131 94
2.418822e+000 1.457502e+000 -1.308131e+001 131 87 62
2.708735e+000 2.494677e+000 -1.316454e+001 162 133 101
2.708735e+000 2.494677e+000 -1.316454e+001 162 133 101
5.069317e+000 2.970902e+000 -1.347390e+001 122 92 64
2.832884e+000 2.670310e+000 -1.297378e+001 37 31 18
1.685597e+000 9.006509e-001 -1.329632e+001 131 58 51
2.778696e+000 2.685499e+000 -1.337792e+001 54 49 29
2.919019e+000 2.890288e+000 -1.318962e+001 158 128 100
2.621680e+000 3.008566e+000 -1.402866e+001 154 127 97
4.516743e+000 2.803268e+000 -1.333283e+001 113 87 60
2.796759e+000 2.444677e+000 -1.289228e+001 73 71 46
2.447888e+000 1.899779e+000 -1.366130e+001 51 46 26
3.935546e+000 2.462684e+000 -1.490174e+001 52 34 20
1.573409e+000 1.931142e+000 -1.418043e+001 109 62 42
2.915418e+000 1.867983e+000 -1.529697e+001 48 30 18
2.639390e+000 7.384300e-001 -1.661737e+001 62 54 41
2.305343e+000 9.159433e-001 -1.635762e+001 93 70 47
1.084066e+000 8.555934e-001 -1.580479e+001 133 86 73
2.324482e+000 1.844757e+000 -1.535606e+001 124 100 74
3.341285e+000 2.695421e+000 -1.446243e+001 39 26 10
2.772804e+000 4.245648e-001 -1.705031e+001 70 63 46
1.948060e+000 7.228085e-001 -1.591876e+001 116 86 67
2.192814e+000 1.019474e+000 -1.600977e+001 104 80 56
2.389089e+000 1.620994e+000 -1.567570e+001 100 78 54
2.354521e+000 1.848273e+000 -1.538143e+001 109 81 57
2.482432e+000 2.037818e+000 -1.517865e+001 108 82 57
2.097172e+000 1.908676e+000 -1.494108e+001 132 100 61
2.097172e+000 1.908676e+000 -1.494108e+001 132 100 61
3.279818e+000 2.639740e+000 -1.445206e+001 43 31 15
2.124466e+000 4.071163e-001 -1.688665e+001 141 117 92
2.470550e+000 5.383779e-001 -1.684219e+001 35 27 14
1.469536e+000 6.618932e-001 -1.609066e+001 117 54 54
1.560967e+000 5.701850e-001 -1.610494e+001 115 76 61
1.894405e+000 7.768703e-001 -1.583413e+001 120 90 70
3.788013e+000 1.788886e+000 -1.570884e+001 49 31 11
3.129546e+000 1.973465e+000 -1.530938e+001 34 25 13
1.778901e+000 1.260344e+000 -1.494352e+001 126 79 57
1.823065e+000 1.238987e+000 -1.497246e+001 149 109 72
1.406227e+000 1.251080e+000 -1.475343e+001 107 43 36
3.336403e+000 2.110955e+000 -1.505272e+001 49 32 16
-9.570868e-001 -5.073123e-001 -1.419789e+001 129 103 81
2.565715e+000 2.420652e+000 -1.467985e+001 108 78 52
2.565373e+000 2.558090e+000 -1.453717e+001 161 132 99
2.646928e+000 2.804689e+000 -1.415492e+001 102 73 44
2.390380e+000 1.617445e+000 -1.319131e+001 173 134 101
2.957878e+000 2.551862e+000 -1.272050e+001 154 120 91
4.122836e+000 8.533644e-001 -1.676527e+001 50 34 19
2.169093e+000 9.076730e-001 -1.616161e+001 96 69 42
1.809238e+000 8.824880e-001 -1.578412e+001 86 49 31
2.585217e+000 1.735134e+000 -1.581245e+001 52 40 26
