ply
format ascii 1.0
element face 0
property list uchar int vertex_indices
element vertex 897
property float x
property float y
property float z
property uchar diffuse_red
property uchar diffuse_green
property uchar diffuse_blue
end_header
2.803669e+000 -1.939909e+000 -1.459163e+001 180 149 129
2.959937e+000 1.232218e+000 -1.209488e+001 194 160 132
2.769963e+000 8.766456e-001 -1.229867e+001 208 171 142
5.849876e+000 3.695845e-001 -1.255308e+001 73 48 26
5.474610e+000 1.518809e-001 -1.275956e+001 76 57 40
5.780526e+000 1.526457e-001 -1.282775e+001 51 33 16
4.558699e+000 -3.866553e-002 -1.275982e+001 59 37 23
2.914036e+000 -1.272968e-001 -1.276113e+001 106 79 60
2.599594e+000 -3.199137e-001 -1.314460e+001 138 99 87
4.427812e+000 -6.852604e-001 -1.350235e+001 88 68 46
3.664186e+000 -7.416708e-001 -1.334737e+001 39 27 13
2.318417e+000 -1.122692e+000 -1.367819e+001 108 47 52
2.318417e+000 -1.122692e+000 -1.367819e+001 108 47 52
-1.254365e+000 -1.735650e+000 -1.392367e+001 167 97 105
3.399107e+000 -1.974581e+000 -1.481433e+001 42 33 28
2.767618e+000 -2.136358e+000 -1.472384e+001 151 123 104
3.129164e+000 -2.374564e+000 -1.456315e+001 109 97 83
3.960893e+000 9.300371e-001 -1.175284e+001 58 42 23
1.330531e+000 1.570672e-001 -1.313920e+001 201 153 132
3.663227e+000 -2.950686e-001 -1.249942e+001 47 35 23
4.772125e+000 -8.414118e-001 -1.384139e+001 91 70 53
4.772125e+000 -8.414118e-001 -1.384139e+001 91 70 53
4.161674e+000 2.312401e+000 -1.275113e+001 101 69 47
5.329763e+000 1.776966e+000 -1.248076e+001 163 126 90
1.419405e+000 7.908434e-001 -1.324364e+001 167 106 77
5.043763e+000 2.285511e-001 -1.258818e+001 96 69 50
4.176649e+000 -3.185075e-001 -1.306953e+001 48 30 19
9.473988e-001 -5.880761e-001 -1.398690e+001 58 33 31
3.951392e+000 -2.252924e+000 -1.552187e+001 102 76 59
4.866161e+000 7.427981e-001 -1.195597e+001 117 85 60
2.826182e+000 -4.476070e-001 -1.303517e+001 49 39 29
3.015593e+000 8.640620e-001 -1.198753e+001 116 110 78
3.399931e+000 4.117679e-002 -1.186756e+001 37 27 17
2.878075e+000 -8.329029e-001 -1.316588e+001 119 85 58
4.414396e+000 2.552153e+000 -1.303471e+001 114 83 57
3.852238e+000 8.090753e-001 -1.245853e+001 41 30 22
6.185337e+000 3.728529e+000 -1.267292e+001 117 82 47
6.167219e+000 3.621186e+000 -1.281674e+001 120 82 46
2.741906e+000 3.099398e+000 -1.366486e+001 64 49 28
3.402261e+000 3.251920e+000 -1.364876e+001 110 92 69
4.718664e+000 3.198166e+000 -1.380308e+001 133 97 61
3.090322e+000 3.027171e+000 -1.320148e+001 70 51 27
3.139611e+000 3.028268e+000 -1.315554e+001 70 54 36
3.095852e+000 2.977251e+000 -1.311019e+001 61 44 20
4.330887e+000 3.050680e+000 -1.336347e+001 133 94 61
4.669105e+000 3.045074e+000 -1.343824e+001 133 98 66
5.609969e+000 3.158177e+000 -1.375363e+001 140 97 55
2.806890e+000 2.798967e+000 -1.328677e+001 118 91 64
4.300715e+000 2.989336e+000 -1.330326e+001 147 112 82
5.232494e+000 2.871253e+000 -1.335234e+001 100 63 37
5.232494e+000 2.871253e+000 -1.335234e+001 100 63 37
2.843764e+000 2.651911e+000 -1.308307e+001 80 62 36
3.280416e+000 2.641261e+000 -1.281558e+001 49 37 15
3.641629e+000 2.650855e+000 -1.292662e+001 79 62 42
3.641629e+000 2.650855e+000 -1.292662e+001 79 62 42
5.593173e+000 2.866534e+000 -1.343987e+001 82 49 18
2.790852e+000 2.445014e+000 -1.264515e+001 89 72 42
2.940189e+000 2.555473e+000 -1.277252e+001 213 180 149
3.176347e+000 2.548005e+000 -1.281549e+001 65 47 25
3.289939e+000 2.587382e+000 -1.280280e+001 47 33 21
3.409410e+000 2.468610e+000 -1.278733e+001 68 54 39
5.535238e+000 2.662967e+000 -1.324448e+001 101 66 36
3.563522e+000 2.331881e+000 -1.264236e+001 70 50 25
3.523164e+000 2.317559e+000 -1.268278e+001 72 55 32
4.386300e+000 2.475556e+000 -1.294546e+001 74 44 20
4.985327e+000 2.390454e+000 -1.294383e+001 127 92 62
3.219273e+000 2.273970e+000 -1.258023e+001 61 41 19
4.726422e+000 2.266471e+000 -1.283390e+001 110 77 46
4.769277e+000 2.276155e+000 -1.284039e+001 101 68 37
5.269898e+000 2.249972e+000 -1.289687e+001 108 73 45
3.085594e+000 2.001881e+000 -1.232652e+001 156 121 83
3.624674e+000 2.064237e+000 -1.244573e+001 77 58 27
4.446688e+000 2.003535e+000 -1.258118e+001 91 58 31
1.929714e+000 1.675081e+000 -1.446984e+001 91 60 40
3.765198e+000 1.857659e+000 -1.223467e+001 68 50 28
4.975104e+000 1.932615e+000 -1.260506e+001 97 64 33
5.923516e+000 2.000319e+000 -1.270790e+001 111 74 45
2.315839e+000 1.563668e+000 -1.335613e+001 201 156 115
3.129782e+000 1.824904e+000 -1.207264e+001 170 135 97
3.699808e+000 1.707686e+000 -1.210369e+001 82 62 42
4.822716e+000 1.836238e+000 -1.250090e+001 113 79 52
5.218475e+000 1.819652e+000 -1.252473e+001 119 79 43
3.680933e+000 1.619667e+000 -1.205511e+001 71 54 33
3.782568e+000 1.617249e+000 -1.204656e+001 111 93 73
4.070151e+000 1.488046e+000 -1.200638e+001 148 117 88
5.252884e+000 1.492035e+000 -1.231516e+001 120 81 43
2.653068e+000 1.203716e+000 -1.259642e+001 181 138 93
3.656076e+000 1.349593e+000 -1.183000e+001 74 62 44
6.093393e+000 1.380571e+000 -1.213191e+001 146 107 69
1.540815e+000 8.009871e-001 -1.323873e+001 201 129 115
1.543803e+000 8.236757e-001 -1.314460e+001 201 129 115
3.188849e+000 1.179458e+000 -1.162444e+001 193 157 120
3.886394e+000 1.262049e+000 -1.174132e+001 54 36 22
1.327404e+000 5.889983e-001 -1.332431e+001 164 111 80
3.890963e+000 1.066697e+000 -1.166955e+001 53 34 19
3.980945e+000 1.015970e+000 -1.173513e+001 95 70 44
3.840062e+000 9.009654e-001 -1.201222e+001 240 215 157
3.878486e+000 9.427402e-001 -1.163803e+001 61 44 24
1.290318e+000 1.752535e-001 -1.316563e+001 178 118 98
3.306712e+000 7.926189e-001 -1.155358e+001 141 106 74
3.812818e-001 -1.583434e-001 -1.414039e+001 178 126 102
2.617775e+000 2.730478e-001 -1.262407e+001 203 164 130
1.871398e+000 1.587601e-002 -1.305874e+001 168 100 88
2.909950e+000 1.967778e-001 -1.224851e+001 181 145 111
3.059929e+000 -1.200043e-001 -1.260658e+001 139 104 80
6.293837e+000 3.917421e+000 -1.246467e+001 106 80 51
3.415681e+000 3.186359e+000 -1.351007e+001 90 74 53
2.896480e+000 3.070719e+000 -1.328804e+001 208 175 144
3.154374e+000 2.979693e+000 -1.313839e+001 68 56 38
4.473387e+000 3.045238e+000 -1.339122e+001 106 72 42
5.246156e+000 3.125637e+000 -1.363764e+001 145 108 71
4.367649e+000 2.836647e+000 -1.315696e+001 112 76 49
5.525966e+000 2.993538e+000 -1.353616e+001 125 89 57
2.876706e+000 2.736284e+000 -1.302784e+001 152 118 89
3.061539e+000 2.603452e+000 -1.279133e+001 122 88 63
4.794030e+000 2.770012e+000 -1.325529e+001 136 104 75
5.176308e+000 2.822071e+000 -1.329247e+001 86 52 24
2.923042e+000 2.526898e+000 -1.278362e+001 138 105 74
2.989998e+000 2.437475e+000 -1.267242e+001 223 190 157
3.533603e+000 2.577985e+000 -1.288014e+001 60 42 25
4.287818e+000 2.640309e+000 -1.304033e+001 111 78 50
4.468485e+000 2.633416e+000 -1.308390e+001 83 51 26
4.919070e+000 2.573385e+000 -1.308661e+001 98 65 38
3.007580e+000 2.375382e+000 -1.262235e+001 200 166 131
3.024969e+000 2.304184e+000 -1.251802e+001 167 131 96
3.318280e+000 2.337387e+000 -1.258851e+001 112 94 70
3.318280e+000 2.337387e+000 -1.258851e+001 112 94 70
4.975070e+000 2.449513e+000 -1.298326e+001 145 110 80
2.158549e+000 2.009205e+000 -1.419969e+001 192 155 113
2.241738e+000 2.032650e+000 -1.402882e+001 183 143 107
3.023229e+000 2.113254e+000 -1.243531e+001 226 191 155
3.021618e+000 2.121313e+000 -1.241990e+001 226 191 155
5.665605e+000 2.282673e+000 -1.300618e+001 92 56 34
2.140754e+000 1.864522e+000 -1.413328e+001 133 91 53
2.990847e+000 2.040803e+000 -1.248572e+001 171 138 103
4.446559e+000 2.105398e+000 -1.267639e+001 84 53 27
5.054737e+000 2.094225e+000 -1.274394e+001 98 64 36
5.285259e+000 2.113798e+000 -1.280562e+001 113 77 45
5.528249e+000 2.037090e+000 -1.277122e+001 108 70 39
3.994502e+000 1.942426e+000 -1.246714e+001 138 106 83
4.605770e+000 1.960893e+000 -1.256793e+001 95 60 32
5.489101e+000 2.008328e+000 -1.271719e+001 133 97 63
2.931568e+000 1.682269e+000 -1.217916e+001 109 100 69
3.066161e+000 1.766460e+000 -1.217498e+001 145 111 76
3.425576e+000 1.817458e+000 -1.220774e+001 104 83 56
3.475368e+000 1.779902e+000 -1.213229e+001 64 48 30
5.220555e+000 1.852987e+000 -1.256249e+001 123 85 49
3.171556e+000 1.561814e+000 -1.185725e+001 251 219 180
3.417001e+000 1.665537e+000 -1.204187e+001 76 62 37
3.212695e+000 1.425014e+000 -1.173137e+001 193 153 117
4.091661e+000 1.440836e+000 -1.198299e+001 145 111 83
5.596531e+000 1.488592e+000 -1.228220e+001 113 74 43
3.560603e+000 1.368475e+000 -1.170778e+001 55 42 23
3.212269e+000 1.255945e+000 -1.165387e+001 176 141 103
4.923630e+000 1.279330e+000 -1.197904e+001 108 72 39
1.401352e+000 6.646621e-001 -1.329195e+001 174 121 89
3.260086e+000 1.047410e+000 -1.157201e+001 206 172 137
2.795056e+000 7.032437e-001 -1.229852e+001 192 150 84
2.807806e+000 6.038462e-001 -1.239504e+001 133 85 29
3.219455e-001 -1.557500e-001 -1.415986e+001 131 94 66
3.809730e+000 6.100275e-001 -1.173764e+001 54 40 25
4.591796e+000 4.861098e-001 -1.208521e+001 74 46 22
5.027144e+000 4.971460e-001 -1.215300e+001 66 40 15
1.600143e+000 -7.290173e-002 -1.298180e+001 193 125 116
1.601411e+000 -1.822634e-001 -1.301454e+001 203 140 124
3.815876e+000 3.007618e-001 -1.169376e+001 36 24 10
2.729395e+000 -9.311654e-001 -1.345221e+001 176 131 112
2.661580e+000 3.010948e+000 -1.347856e+001 88 83 53
4.811253e+000 3.167819e+000 -1.367210e+001 100 65 33
2.925920e+000 2.818524e+000 -1.298472e+001 212 179 144
3.203735e+000 2.772897e+000 -1.298994e+001 65 49 32
4.467447e+000 2.917910e+000 -1.334962e+001 124 85 56
4.649831e+000 2.989174e+000 -1.340031e+001 95 60 28
5.080698e+000 2.870652e+000 -1.332864e+001 93 59 29
5.128374e+000 2.863525e+000 -1.331761e+001 132 97 68
5.276349e+000 2.889302e+000 -1.335484e+001 97 62 33
2.899946e+000 2.653345e+000 -1.290179e+001 115 83 60
5.088301e+000 2.832624e+000 -1.331635e+001 94 61 32
2.833215e+000 2.440579e+000 -1.263676e+001 175 146 112
2.889995e+000 2.438148e+000 -1.268344e+001 141 107 72
3.067047e+000 2.508078e+000 -1.272990e+001 136 100 62
5.558084e+000 2.551296e+000 -1.317610e+001 92 57 29
3.053957e+000 2.378135e+000 -1.264188e+001 123 87 55
3.589655e+000 2.313977e+000 -1.263152e+001 49 35 22
3.589040e+000 2.316576e+000 -1.262398e+001 49 35 22
4.952311e+000 2.359437e+000 -1.291181e+001 102 69 38
4.952311e+000 2.359437e+000 -1.291181e+001 102 69 38
5.011545e+000 2.476910e+000 -1.301764e+001 100 65 38
5.012443e+000 2.476124e+000 -1.302022e+001 100 65 38
5.180143e+000 2.450677e+000 -1.302305e+001 123 90 57
2.075943e+000 1.981892e+000 -1.412300e+001 196 159 116
2.199161e+000 2.039522e+000 -1.408109e+001 157 114 81
5.063928e+000 2.328113e+000 -1.291191e+001 99 63 36
5.059938e+000 2.328893e+000 -1.290754e+001 99 63 36
3.627106e+000 2.122249e+000 -1.248967e+001 71 56 38
5.107967e+000 2.104118e+000 -1.278385e+001 122 89 56
3.428960e+000 1.956507e+000 -1.225852e+001 62 50 30
4.007568e+000 1.836343e+000 -1.234902e+001 132 105 77
5.541234e+000 1.997831e+000 -1.274634e+001 103 66 37
5.603026e+000 1.929883e+000 -1.271059e+001 110 69 39
2.234565e+000 1.604043e+000 -1.348590e+001 175 106 79
2.962570e+000 1.705399e+000 -1.216348e+001 77 69 38
3.133409e+000 1.719743e+000 -1.201252e+001 203 169 131
3.186670e+000 1.727984e+000 -1.208244e+001 145 108 66
3.481714e+000 1.690062e+000 -1.206360e+001 50 37 21
3.158352e+000 1.626649e+000 -1.195583e+001 230 194 157
3.799598e+000 1.609924e+000 -1.198667e+001 65 53 31
5.013930e+000 1.687709e+000 -1.244204e+001 106 69 40
5.317180e+000 1.583897e+000 -1.231170e+001 150 112 76
3.467361e+000 1.493612e+000 -1.188821e+001 69 55 41
1.579643e+000 7.877527e-001 -1.319726e+001 173 92 83
2.741950e+000 1.021461e+000 -1.260428e+001 171 124 81
3.237191e+000 1.227147e+000 -1.163409e+001 197 162 124
3.287248e+000 1.183617e+000 -1.157887e+001 144 106 69
5.472950e+000 1.178318e+000 -1.209375e+001 97 57 32
2.498448e+000 8.560824e-001 -1.269710e+001 190 123 107
2.564259e+000 8.513758e-001 -1.253445e+001 223 185 144
2.796183e+000 7.646281e-001 -1.233229e+001 143 96 49
1.395660e+000 1.663673e-001 -1.312640e+001 210 162 130
4.687817e+000 7.320561e-001 -1.195470e+001 89 60 30
4.614365e+000 7.048845e-001 -1.193626e+001 81 51 27
4.614365e+000 7.048845e-001 -1.193626e+001 81 51 27
2.118052e+000 1.335359e-001 -1.323292e+001 179 122 107
-1.247799e+000 -5.802026e-001 -1.382622e+001 99 68 52
3.021824e+000 -2.541050e-001 -1.257655e+001 111 88 60
4.608227e+000 -3.741612e-001 -1.314573e+001 77 49 25
5.640975e+000 3.947489e+000 -1.678997e+001 168 134 87
3.524146e+000 2.994898e+000 -1.312287e+001 68 53 34
4.790027e+000 3.116987e+000 -1.357192e+001 154 115 84
5.817047e+000 3.179515e+000 -1.376146e+001 204 160 117
4.240685e+000 2.737575e+000 -1.311055e+001 102 69 40
4.971541e+000 2.746100e+000 -1.321244e+001 122 87 57
2.521653e+000 2.477362e+000 -1.337618e+001 208 174 136
2.794283e+000 2.508007e+000 -1.273080e+001 146 130 91
5.035107e+000 2.659042e+000 -1.316095e+001 96 62 34
5.297070e+000 2.545893e+000 -1.308481e+001 124 90 63
2.324127e+000 2.244466e+000 -1.416711e+001 181 137 98
5.182146e+000 2.402967e+000 -1.298188e+001 95 60 30
5.180508e+000 2.401575e+000 -1.299036e+001 95 60 30
3.323478e+000 2.273606e+000 -1.254586e+001 122 103 72
4.879037e+000 2.210688e+000 -1.282203e+001 93 61 33
2.942260e+000 2.077261e+000 -1.268222e+001 161 127 99
3.360600e+000 2.088733e+000 -1.238233e+001 134 115 86
2.897989e+000 1.903616e+000 -1.259150e+001 159 126 101
3.078644e+000 1.954395e+000 -1.232230e+001 216 182 145
3.390339e+000 1.834467e+000 -1.223602e+001 67 49 29
3.700345e+000 1.840598e+000 -1.226773e+001 73 52 32
4.305739e+000 1.878985e+000 -1.245443e+001 82 50 25
4.812361e+000 1.872957e+000 -1.251604e+001 90 56 29
2.392753e+000 1.476546e+000 -1.326719e+001 155 105 72
4.985741e+000 1.814222e+000 -1.247931e+001 99 65 34
5.715303e+000 1.817907e+000 -1.260593e+001 113 74 41
3.318221e+000 1.539420e+000 -1.189250e+001 49 30 21
3.781069e+000 1.481004e+000 -1.192276e+001 71 54 27
4.632299e+000 1.422013e+000 -1.208886e+001 94 60 33
4.780096e+000 1.525544e+000 -1.217268e+001 139 103 71
5.689294e+000 1.456574e+000 -1.222917e+001 107 71 38
5.683550e+000 1.456001e+000 -1.222716e+001 107 71 38
1.805954e+000 9.269495e-001 -1.294074e+001 184 88 89
3.050925e+000 1.167789e+000 -1.203673e+001 177 141 107
3.325961e+000 1.260764e+000 -1.160442e+001 133 95 57
3.111969e+000 1.074417e+000 -1.175678e+001 152 118 91
3.242842e+000 4.626813e-001 -1.175127e+001 252 218 183
-1.286748e+000 -6.231340e-001 -1.379681e+001 137 101 79
-8.990059e-001 -7.914396e-001 -1.360522e+001 148 110 88
4.812055e+000 -1.613223e+000 -1.476290e+001 79 51 27
2.716914e+000 2.968564e+000 -1.334048e+001 127 112 89
2.954612e+000 2.722970e+000 -1.287502e+001 193 160 127
5.274472e+000 2.832116e+000 -1.332334e+001 123 90 59
2.949038e+000 2.352991e+000 -1.268629e+001 136 103 72
3.074286e+000 2.298920e+000 -1.254334e+001 183 145 108
4.541828e+000 2.402098e+000 -1.293524e+001 92 60 32
5.083108e+000 2.513399e+000 -1.303124e+001 140 105 76
4.921525e+000 2.290688e+000 -1.285287e+001 134 100 72
4.923809e+000 2.289215e+000 -1.286313e+001 134 100 72
2.059588e+000 1.915595e+000 -1.418549e+001 55 33 30
2.928565e+000 1.812095e+000 -1.233935e+001 161 140 107
4.674156e+000 1.987631e+000 -1.259019e+001 92 57 29
2.302355e+000 1.613208e+000 -1.338562e+001 206 159 118
4.487010e+000 1.759228e+000 -1.238565e+001 83 51 26
2.282419e+000 1.242407e+000 -1.298636e+001 205 133 121
2.808294e+000 1.212646e+000 -1.246931e+001 193 150 103
2.337298e+000 1.007510e+000 -1.269093e+001 165 80 77
2.481689e+000 1.040042e+000 -1.264062e+001 195 142 102
2.773661e+000 9.580179e-001 -1.260759e+001 130 79 50
3.183240e+000 1.111228e+000 -1.164731e+001 136 101 69
2.860216e+000 9.873231e-001 -1.215620e+001 192 158 126
3.043586e+000 1.055687e+000 -1.175859e+001 70 64 39
2.906775e+000 7.171156e-001 -1.201107e+001 176 144 108
3.169820e+000 4.215428e-001 -1.198017e+001 169 134 104
5.808313e+000 5.919327e-001 -1.223840e+001 87 53 25
3.579721e+000 3.852039e-001 -1.170218e+001 50 35 20
3.708897e+000 3.871803e-001 -1.175052e+001 70 53 37
5.449575e+000 -9.426922e-002 -1.304343e+001 102 75 51
2.396737e+000 -3.631743e-001 -1.310612e+001 162 114 90
2.950755e+000 -3.128922e-001 -1.261085e+001 63 55 34
2.067504e+000 -5.830359e-001 -1.306577e+001 157 86 85
3.512743e+000 3.141259e+000 -1.331103e+001 82 69 52
5.431236e+000 3.076590e+000 -1.362345e+001 135 96 63
3.037578e+000 2.898344e+000 -1.305652e+001 51 31 20
3.438404e+000 2.826870e+000 -1.306529e+001 156 140 107
3.084851e+000 2.716889e+000 -1.289919e+001 48 28 18
4.969930e+000 2.843021e+000 -1.329036e+001 143 106 76
5.136979e+000 2.226928e+000 -1.284671e+001 128 94 66
2.302918e+000 1.702578e+000 -1.350577e+001 128 95 65
3.244701e+000 1.840581e+000 -1.216129e+001 50 32 19
1.666790e+000 1.229463e+000 -1.352279e+001 207 127 118
3.297792e+000 1.671792e+000 -1.200516e+001 58 40 23
3.112367e+000 1.393402e+000 -1.201029e+001 180 147 112
3.399127e+000 9.175019e-001 -1.164140e+001 57 35 22
4.054273e+000 5.133069e-001 -1.198457e+001 111 89 65
5.280176e+000 5.407915e-001 -1.215486e+001 78 48 24
4.173255e+000 4.318888e-001 -1.197954e+001 127 101 74
1.491273e-001 -5.622260e-001 -1.397124e+001 108 77 54
2.233001e+000 -4.683228e-001 -1.316184e+001 112 44 39
3.449102e+000 3.003309e+000 -1.330220e+001 152 125 96
2.774161e+000 2.898392e+000 -1.331278e+001 45 40 21
2.790916e+000 2.096189e+000 -1.301296e+001 136 105 77
4.710444e+000 2.196147e+000 -1.275465e+001 147 113 79
5.287442e+000 2.225181e+000 -1.291134e+001 87 53 27
4.535504e+000 2.043083e+000 -1.262204e+001 134 101 70
4.535086e+000 2.042907e+000 -1.262320e+001 134 101 70
5.324167e+000 2.054601e+000 -1.274130e+001 153 114 81
5.324167e+000 2.054601e+000 -1.274130e+001 153 114 81
4.681269e+000 1.754195e+000 -1.244446e+001 80 49 21
3.338423e+000 1.530378e+000 -1.192226e+001 58 40 17
4.261334e+000 1.499754e+000 -1.203827e+001 74 48 25
4.430653e+000 1.389894e+000 -1.207645e+001 128 97 67
3.928724e+000 1.222821e+000 -1.169375e+001 58 36 22
2.720934e+000 7.129942e-001 -1.242625e+001 160 111 50
2.777557e+000 5.850460e-001 -1.229198e+001 154 107 51
2.939238e+000 5.863958e-001 -1.201210e+001 190 155 125
-1.081541e+000 -6.138091e-001 -1.380456e+001 132 91 62
2.398904e+000 -1.811871e-001 -1.301327e+001 112 49 40
5.043914e+000 3.071779e+000 -1.351815e+001 161 123 86
2.950091e+000 2.783695e+000 -1.298530e+001 191 158 123
4.579272e+000 2.855045e+000 -1.328416e+001 141 106 74
5.568329e+000 2.920340e+000 -1.341603e+001 103 68 40
2.958545e+000 2.662279e+000 -1.276828e+001 203 170 139
2.975371e+000 2.490758e+000 -1.271961e+001 229 194 162
3.099120e+000 2.588230e+000 -1.270852e+001 50 32 26
4.363617e+000 1.792912e+000 -1.238952e+001 123 89 61
1.442227e+000 1.057001e+000 -1.331001e+001 190 145 111
3.354171e+000 1.371088e+000 -1.170952e+001 58 34 21
6.306417e+000 1.374338e+000 -1.223447e+001 165 122 67
3.433741e+000 1.063926e+000 -1.168377e+001 85 68 49
3.426806e+000 7.107138e-001 -1.164380e+001 60 43 28
3.568607e+000 4.714971e-001 -1.166767e+001 41 28 17
3.634643e+000 2.782795e+000 -1.302116e+001 66 51 30
3.373117e+000 2.559633e+000 -1.282901e+001 54 40 29
3.667427e+000 2.592737e+000 -1.288031e+001 60 45 24
3.110305e+000 1.815537e+000 -1.211526e+001 204 172 135
3.395954e+000 1.250834e+000 -1.167740e+001 77 55 40
2.663522e+000 8.287710e-001 -1.248255e+001 207 169 131
5.545798e+000 2.027509e+000 -1.257459e+001 123 87 55
2.995569e+000 9.047938e-001 -1.208275e+001 72 61 43
3.371949e+000 1.970958e+000 -1.234995e+001 72 56 40
2.912023e+000 1.560237e+000 -1.241704e+001 93 80 49
2.613297e+000 1.379348e+000 -1.259214e+001 207 169 122
5.802567e+000 2.558482e+000 -1.311834e+001 119 79 57
2.422219e+000 1.800867e+000 -1.334606e+001 161 122 85
5.371792e+000 9.416541e-001 -1.200022e+001 131 97 62
4.976455e+000 7.141721e-001 -1.202398e+001 126 88 59
4.538457e+000 2.044042e+000 -1.262314e+001 138 103 71
5.209109e+000 2.458907e+000 -1.302799e+001 117 82 53
6.133687e+000 3.642279e+000 -1.278076e+001 169 126 83
2.766666e+000 3.041200e+000 -1.346658e+001 74 61 40
4.465346e+000 2.993713e+000 -1.336071e+001 114 79 49
4.465346e+000 2.993713e+000 -1.336071e+001 114 79 49
4.847502e+000 2.818586e+000 -1.326064e+001 106 71 41
3.235488e+000 2.500478e+000 -1.276895e+001 62 41 21
4.361810e+000 2.499373e+000 -1.297721e+001 105 75 51
4.254589e+000 2.462664e+000 -1.291780e+001 104 74 49
4.712463e+000 1.865647e+000 -1.248283e+001 99 65 37
4.824446e+000 1.870021e+000 -1.251291e+001 86 55 26
1.678030e+000 8.030878e-001 -1.294525e+001 173 100 87
2.484824e+000 9.732778e-001 -1.267481e+001 196 135 107
3.275015e+000 9.280619e-001 -1.156341e+001 158 122 86
1.682329e+000 -1.880043e-001 -1.294302e+001 185 116 107
4.469431e+000 2.838022e+000 -1.323386e+001 120 85 52
4.699204e+000 2.726711e+000 -1.317497e+001 120 86 59
4.866846e+000 2.576863e+000 -1.306846e+001 123 89 62
5.061620e+000 2.090837e+000 -1.276209e+001 98 64 36
5.230353e+000 1.893475e+000 -1.255460e+001 150 112 74
4.460757e+000 1.596964e+000 -1.217319e+001 145 112 81
4.835488e+000 1.354659e+000 -1.206586e+001 81 49 26
3.092777e+000 1.182655e+000 -1.204809e+001 141 104 72
4.290816e+000 2.935951e+000 -1.326936e+001 112 77 47
5.949955e+000 3.070182e+000 -1.373274e+001 118 74 36
5.951863e+000 3.070054e+000 -1.373069e+001 118 74 36
4.498650e+000 2.507502e+000 -1.298916e+001 83 53 29
4.416998e+000 2.058315e+000 -1.263365e+001 80 49 22
5.601402e+000 1.358523e+000 -1.218529e+001 123 86 54
5.371864e+000 3.081570e+000 -1.363296e+001 139 100 66
4.726228e+000 2.552812e+000 -1.302557e+001 92 59 33
5.234055e+000 2.566948e+000 -1.311130e+001 92 58 30
5.726359e+000 2.360791e+000 -1.306118e+001 119 85 48
4.518344e+000 1.728482e+000 -1.233693e+001 140 106 71
5.495622e+000 1.223833e+000 -1.207529e+001 127 89 58
5.627316e+000 1.010633e+000 -1.205148e+001 92 55 28
3.369718e+000 8.496832e-001 -1.157727e+001 136 102 66
4.724486e+000 6.341064e-001 -1.198594e+001 82 54 30
-1.001967e+000 -4.356678e-001 -1.418082e+001 178 139 110
4.396336e+000 1.753089e+000 -1.234898e+001 127 94 63
2.482715e+000 1.035652e+000 -1.264624e+001 195 142 102
-3.352781e-001 -1.101254e+000 -1.376332e+001 82 53 42
5.223504e+000 3.051647e+000 -1.351441e+001 97 62 31
5.901650e+000 3.242010e+000 -1.392460e+001 168 126 78
5.913834e+000 3.238427e+000 -1.394383e+001 168 126 78
4.900442e+000 2.417453e+000 -1.294836e+001 142 109 77
4.922402e+000 2.289259e+000 -1.285588e+001 129 95 67
5.262210e+000 1.765933e+000 -1.244539e+001 156 117 78
4.397302e+000 1.561127e+000 -1.212370e+001 95 62 36
4.967507e+000 1.410910e+000 -1.212580e+001 97 62 32
-9.424561e-001 -4.963862e-001 -1.410455e+001 102 85 74
6.270766e+000 3.788383e+000 -1.259850e+001 93 67 41
2.776924e+000 3.008356e+000 -1.334836e+001 64 51 34
3.771730e+000 3.064446e+000 -1.333827e+001 145 114 88
4.672921e+000 3.149057e+000 -1.353991e+001 114 79 49
2.933056e+000 2.987629e+000 -1.308610e+001 173 140 109
3.190409e+000 2.973127e+000 -1.308321e+001 45 35 16
3.308983e+000 3.031005e+000 -1.316043e+001 70 58 45
3.384102e+000 2.937195e+000 -1.308779e+001 151 136 107
4.314558e+000 3.053506e+000 -1.330624e+001 122 87 57
5.489228e+000 3.079022e+000 -1.359279e+001 125 89 54
5.954730e+000 3.115732e+000 -1.372300e+001 172 126 76
5.163511e+000 2.952680e+000 -1.338185e+001 137 100 72
3.378350e+000 2.628780e+000 -1.287723e+001 75 67 54
3.839900e+000 2.691482e+000 -1.300237e+001 137 112 83
4.900176e+000 2.764474e+000 -1.321199e+001 74 44 18
4.900176e+000 2.764474e+000 -1.321199e+001 74 44 18
3.337779e+000 2.582789e+000 -1.285630e+001 64 55 36
3.390727e+000 2.515913e+000 -1.277657e+001 66 55 41
4.075502e+000 2.548718e+000 -1.293235e+001 79 48 27
4.835559e+000 2.549883e+000 -1.303200e+001 93 61 36
5.536733e+000 2.662023e+000 -1.324918e+001 85 54 26
3.195774e+000 2.428208e+000 -1.271963e+001 70 53 28
3.205705e+000 2.376032e+000 -1.266532e+001 59 43 19
3.567990e+000 2.329772e+000 -1.265024e+001 71 54 39
3.893391e+000 2.406065e+000 -1.282917e+001 134 100 73
4.556693e+000 2.381838e+000 -1.288176e+001 108 78 50
3.068514e+000 2.303642e+000 -1.253017e+001 189 158 127
3.512641e+000 2.329083e+000 -1.260979e+001 68 51 33
1.946265e+000 1.626211e+000 -1.445302e+001 134 102 81
2.460960e+000 1.925394e+000 -1.341142e+001 62 49 22
2.509508e+000 1.868836e+000 -1.337248e+001 183 150 111
3.186617e+000 1.954900e+000 -1.229008e+001 76 46 25
3.362119e+000 2.020049e+000 -1.233652e+001 87 76 52
3.723327e+000 1.960120e+000 -1.231552e+001 49 35 21
2.282159e+000 1.468715e+000 -1.331856e+001 178 116 88
3.126793e+000 1.828081e+000 -1.206428e+001 167 131 95
4.435894e+000 1.926465e+000 -1.249637e+001 104 77 48
4.714876e+000 1.868272e+000 -1.248102e+001 93 61 35
3.443238e+000 1.683961e+000 -1.205932e+001 53 40 23
3.991910e+000 1.735512e+000 -1.224232e+001 141 115 92
4.689906e+000 1.764151e+000 -1.243132e+001 96 65 42
5.173519e+000 1.694950e+000 -1.239748e+001 124 89 57
2.362061e+000 1.269658e+000 -1.283948e+001 172 99 84
3.681137e+000 1.621181e+000 -1.204998e+001 64 52 30
2.441946e+000 1.136114e+000 -1.269770e+001 209 164 122
3.176014e+000 1.471599e+000 -1.175724e+001 202 167 129
3.222509e+000 1.337474e+000 -1.171604e+001 191 156 119
6.348779e+000 1.532529e+000 -1.181099e+001 150 110 59
4.022547e-001 -3.575970e-002 -1.441456e+001 148 99 82
4.214910e+000 1.289808e+000 -1.177273e+001 122 91 62
5.804017e+000 1.140016e+000 -1.215614e+001 73 41 14
3.848113e+000 1.137711e+000 -1.168341e+001 135 120 86
2.877996e+000 7.070675e-001 -1.217938e+001 139 101 55
3.903563e+000 9.967206e-001 -1.163951e+001 66 50 29
5.968031e+000 8.636771e-001 -1.218656e+001 106 69 40
2.255692e+000 6.961881e-002 -1.323443e+001 149 87 78
2.255692e+000 6.961881e-002 -1.323443e+001 149 87 78
3.233700e+000 7.410462e-001 -1.158843e+001 164 133 104
3.523873e+000 7.683712e-001 -1.163456e+001 243 222 180
3.564461e+000 7.675930e-001 -1.162358e+001 208 188 153
3.540441e+000 7.409851e-001 -1.162574e+001 82 65 45
2.517702e+000 -3.717938e-001 -1.319116e+001 159 101 89
6.197980e+000 4.089804e+000 -1.230616e+001 121 85 49
6.311340e+000 4.073388e+000 -1.228226e+001 103 76 49
2.848585e+000 3.130106e+000 -1.333234e+001 211 182 150
4.411619e+000 3.132739e+000 -1.351902e+001 153 119 84
5.468076e+000 3.214590e+000 -1.382408e+001 137 99 63
2.944195e+000 2.953011e+000 -1.303088e+001 127 93 65
3.161363e+000 2.932864e+000 -1.305179e+001 68 56 41
4.469430e+000 3.044664e+000 -1.338144e+001 102 68 40
5.477453e+000 3.132440e+000 -1.365681e+001 135 94 59
2.703225e+000 2.742358e+000 -1.316782e+001 151 117 80
3.035342e+000 2.821918e+000 -1.297232e+001 130 99 69
3.041606e+000 2.775181e+000 -1.290602e+001 116 87 57
5.982285e+000 2.994894e+000 -1.361288e+001 166 120 70
4.339117e+000 2.769516e+000 -1.310650e+001 79 47 24
4.731287e+000 2.757468e+000 -1.317370e+001 85 55 31
5.114905e+000 2.725575e+000 -1.319835e+001 97 63 36
3.880016e+000 2.509697e+000 -1.290440e+001 132 100 75
4.105715e+000 2.484228e+000 -1.289974e+001 75 49 27
4.712822e+000 2.546425e+000 -1.303439e+001 84 52 27
4.789794e+000 2.564577e+000 -1.305852e+001 112 82 58
3.891833e+000 2.455880e+000 -1.287087e+001 128 100 71
4.202416e+000 2.468859e+000 -1.292729e+001 72 44 22
4.307693e+000 2.485780e+000 -1.293045e+001 100 74 51
4.837895e+000 2.387664e+000 -1.296836e+001 82 53 27
3.283238e+000 2.240797e+000 -1.254973e+001 82 67 46
2.632980e+000 1.952216e+000 -1.297931e+001 72 66 41
5.056356e+000 2.197932e+000 -1.283912e+001 74 43 23
5.087442e+000 2.160431e+000 -1.280738e+001 85 53 30
3.327513e+000 1.973423e+000 -1.229138e+001 36 23 14
3.327513e+000 1.973423e+000 -1.229138e+001 36 23 14
3.407354e+000 2.038097e+000 -1.238647e+001 39 30 13
4.877019e+000 2.011741e+000 -1.259366e+001 102 74 46
3.977942e+000 1.808390e+000 -1.231770e+001 146 120 95
3.442971e+000 1.759236e+000 -1.207535e+001 119 104 77
3.742020e+000 1.752058e+000 -1.211816e+001 138 121 95
2.360602e+000 1.290355e+000 -1.304129e+001 176 115 95
3.171797e+000 1.563976e+000 -1.185136e+001 247 222 187
3.398375e+000 1.524014e+000 -1.197507e+001 70 53 35
5.658405e+000 1.565064e+000 -1.230711e+001 113 76 46
5.823134e+000 1.438002e+000 -1.224828e+001 80 46 19
2.771617e+000 1.080406e+000 -1.257970e+001 181 138 94
4.852872e+000 1.308381e+000 -1.201362e+001 87 53 24
5.538530e+000 1.339495e+000 -1.213864e+001 99 64 36
3.223964e+000 1.188005e+000 -1.161386e+001 166 132 95
5.260200e+000 1.130296e+000 -1.206001e+001 79 47 21
3.867087e+000 1.176883e+000 -1.164150e+001 56 41 22
5.775099e+000 1.121610e+000 -1.211754e+001 94 63 33
2.765365e+000 6.829011e-001 -1.234192e+001 150 103 36
2.963024e+000 7.286247e-001 -1.205377e+001 74 63 36
3.191539e+000 1.013766e+000 -1.154529e+001 208 174 137
3.270203e+000 9.349125e-001 -1.155712e+001 150 115 85
5.159358e+000 7.852894e-001 -1.204470e+001 77 45 20
-9.245214e-001 -7.459734e-001 -1.363678e+001 114 77 55
5.503717e+000 -4.400941e-001 -1.347321e+001 66 42 18
6.296581e+000 4.030527e+000 -1.232998e+001 104 72 44
3.077406e+000 3.144721e+000 -1.334247e+001 70 60 47
4.637865e+000 3.140556e+000 -1.357423e+001 140 107 73
2.907300e+000 2.939146e+000 -1.308397e+001 173 141 111
2.907300e+000 2.939146e+000 -1.308397e+001 173 141 111
4.666056e+000 2.992997e+000 -1.341303e+001 89 55 28
5.508304e+000 3.108070e+000 -1.361492e+001 104 68 36
2.617079e+000 2.807724e+000 -1.327228e+001 194 170 132
2.748949e+000 2.761685e+000 -1.320452e+001 162 130 99
4.328884e+000 2.878139e+000 -1.320876e+001 102 68 41
5.215865e+000 2.705914e+000 -1.321630e+001 113 82 54
4.079237e+000 2.584927e+000 -1.296522e+001 101 73 49
2.201562e+000 2.039091e+000 -1.409047e+001 146 106 75
2.952318e+000 2.303420e+000 -1.273348e+001 110 82 57
4.589173e+000 2.472664e+000 -1.297752e+001 89 59 35
4.577590e+000 2.418221e+000 -1.297305e+001 80 53 26
4.922767e+000 2.492459e+000 -1.301523e+001 85 53 28
2.353306e+000 1.936312e+000 -1.353645e+001 109 102 61
2.353306e+000 1.936312e+000 -1.353645e+001 109 102 61
3.919131e+000 2.277137e+000 -1.273098e+001 127 100 73
4.394744e+000 2.338090e+000 -1.280653e+001 92 62 37
4.859601e+000 2.099253e+000 -1.267954e+001 92 61 32
6.328954e+000 2.473035e+000 -1.196518e+001 174 136 82
3.356901e+000 1.932603e+000 -1.227709e+001 39 26 16
2.720468e+000 1.616503e+000 -1.286140e+001 139 93 57
3.216578e+000 1.793395e+000 -1.209850e+001 141 105 69
3.443755e+000 1.897125e+000 -1.221984e+001 49 40 23
4.918559e+000 1.810080e+000 -1.248276e+001 83 51 26
6.652751e+000 1.673502e+000 -1.397353e+001 96 68 46
4.586985e+000 1.710953e+000 -1.228714e+001 111 79 54
5.034011e+000 1.731637e+000 -1.242869e+001 95 65 34
1.286928e+000 5.279624e-001 -1.326996e+001 141 87 61
2.688709e+000 9.289885e-001 -1.255216e+001 194 152 117
2.811535e+000 1.007583e+000 -1.237036e+001 198 162 126
2.918353e+000 1.009760e+000 -1.210503e+001 51 40 22
3.169395e+000 1.230534e+000 -1.164649e+001 185 151 114
3.064641e+000 1.026990e+000 -1.167491e+001 77 66 38
5.168857e+000 1.004034e+000 -1.200106e+001 79 48 27
3.304757e+000 9.395578e-001 -1.156590e+001 109 74 44
3.269694e+000 7.937475e-001 -1.154801e+001 213 182 153
3.610532e+000 7.108914e-001 -1.168161e+001 37 27 15
4.691085e+000 6.680904e-001 -1.199555e+001 101 73 49
2.595997e+000 -2.082763e-001 -1.327359e+001 148 94 82
3.391412e+000 6.479749e-001 -1.164420e+001 107 71 39
1.549011e+000 -3.291397e-001 -1.294574e+001 186 129 110
3.004037e+000 3.079954e+000 -1.322230e+001 47 35 28
3.235932e+000 2.993298e+000 -1.311612e+001 47 35 23
4.695265e+000 2.982754e+000 -1.334389e+001 143 110 79
4.345875e+000 2.942117e+000 -1.322643e+001 139 102 72
4.852233e+000 2.915933e+000 -1.333261e+001 96 61 33
5.101622e+000 2.778283e+000 -1.323362e+001 129 99 70
5.803353e+000 2.775948e+000 -1.332662e+001 128 93 65
2.687452e+000 2.379596e+000 -1.308801e+001 191 164 130
4.744386e+000 2.647144e+000 -1.309880e+001 115 88 61
4.304097e+000 2.402910e+000 -1.287515e+001 100 74 49
4.533440e+000 2.482105e+000 -1.295769e+001 107 81 56
3.369559e+000 2.256876e+000 -1.250505e+001 47 35 20
2.359542e+000 1.771771e+000 -1.344720e+001 177 140 99
2.146420e+000 1.612419e+000 -1.383769e+001 144 98 70
3.106786e+000 2.006639e+000 -1.237984e+001 143 108 73
2.323886e+000 1.494001e+000 -1.330387e+001 203 152 117
3.742338e+000 1.823028e+000 -1.222068e+001 102 86 59
2.490050e+000 1.320165e+000 -1.297819e+001 203 160 119
6.247595e+000 1.588055e+000 -1.246801e+001 157 117 65
3.141770e+000 1.503613e+000 -1.186846e+001 147 114 83
4.709232e+000 1.525491e+000 -1.219976e+001 86 55 27
3.316528e+000 1.298586e+000 -1.167921e+001 131 95 59
2.815165e+000 9.601940e-001 -1.232469e+001 169 127 90
6.499547e+000 6.950609e-001 -1.288376e+001 131 99 60
4.044543e+000 7.763360e-001 -1.179080e+001 107 82 60
4.479663e+000 6.344175e-001 -1.197530e+001 80 52 28
-1.292786e+000 -7.153038e-001 -1.380917e+001 114 77 61
2.472731e+000 -8.055720e-001 -1.347764e+001 105 44 42
5.583994e+000 3.809360e+000 -1.681444e+001 160 123 85
6.241148e+000 3.850048e+000 -1.250497e+001 118 84 57
2.795632e+000 2.509625e+000 -1.272834e+001 139 125 88
5.219942e+000 2.576964e+000 -1.307498e+001 87 55 28
5.580508e+000 2.387974e+000 -1.304290e+001 78 49 22
5.727562e+000 2.171075e+000 -1.290129e+001 90 56 28
2.165037e+000 1.593124e+000 -1.364930e+001 189 124 104
4.768651e+000 2.017574e+000 -1.261292e+001 122 95 65
2.262532e+000 1.525853e+000 -1.337324e+001 174 109 79
2.749777e+000 1.653339e+000 -1.258393e+001 188 151 107
4.632520e+000 1.907630e+000 -1.254219e+001 117 84 57
1.673155e+000 1.011269e+000 -1.336303e+001 178 105 97
1.714350e+000 9.568348e-001 -1.328509e+001 140 73 64
1.886971e+000 1.013835e+000 -1.304920e+001 172 81 80
4.631158e+000 1.472870e+000 -1.211754e+001 111 79 54
2.750716e+000 1.071750e+000 -1.259043e+001 183 140 97
3.213930e+000 1.305520e+000 -1.163907e+001 223 193 158
4.895358e+000 1.339283e+000 -1.203067e+001 127 93 62
2.808093e+000 7.296930e-001 -1.224119e+001 169 125 61
3.625954e+000 9.421246e-001 -1.166975e+001 41 24 14
4.079695e+000 9.241124e-001 -1.179427e+001 124 98 75
2.868190e+000 4.371831e-001 -1.228724e+001 118 77 28
3.357694e+000 8.528969e-001 -1.155707e+001 132 101 72
1.725422e+000 -3.814581e-001 -1.293384e+001 132 64 59
4.588119e+000 3.026088e+000 -1.344961e+001 138 104 73
3.530281e+000 2.776119e+000 -1.296182e+001 72 61 43
5.156448e+000 2.335433e+000 -1.292358e+001 87 56 30
5.250644e+000 2.381525e+000 -1.294552e+001 131 97 69
2.182950e+000 1.718152e+000 -1.387424e+001 188 152 116
2.767674e+000 1.953419e+000 -1.301911e+001 152 116 82
3.565532e+000 2.137117e+000 -1.254359e+001 78 62 39
5.005459e+000 2.209018e+000 -1.280918e+001 82 53 28
1.928320e+000 1.130796e+000 -1.341717e+001 187 106 103
1.617899e+000 8.257659e-001 -1.305391e+001 181 103 91
2.618193e+000 9.012341e-001 -1.269394e+001 128 70 46
1.716338e+000 4.821420e-001 -1.285418e+001 167 97 88
3.402572e+000 9.112764e-001 -1.165740e+001 54 31 18
5.876555e+000 8.668394e-001 -1.209632e+001 107 74 43
2.231855e+000 -4.590106e-001 -1.314600e+001 106 40 41
5.144795e+000 3.221355e+000 -1.376764e+001 103 67 37
2.719729e+000 2.643663e+000 -1.307403e+001 185 154 118
5.473684e+000 2.223437e+000 -1.289190e+001 125 90 60
4.683658e+000 1.750491e+000 -1.245962e+001 90 60 36
1.586878e+000 1.131924e+000 -1.344138e+001 156 83 65
2.054831e+000 1.128235e+000 -1.326818e+001 148 72 65
2.016651e+000 1.065965e+000 -1.297703e+001 201 132 117
1.258956e+000 4.991868e-001 -1.329208e+001 160 104 77
-9.326353e-001 -4.943207e-001 -1.408444e+001 88 75 67
-9.326353e-001 -4.943207e-001 -1.408444e+001 88 75 67
2.174878e+000 -2.218048e-001 -1.307544e+001 127 58 51
2.890607e+000 2.994866e+000 -1.313598e+001 232 203 171
4.709967e+000 2.196863e+000 -1.275383e+001 137 103 75
3.200407e+000 2.002045e+000 -1.226127e+001 58 35 19
4.341324e+000 8.334837e-001 -1.187440e+001 64 37 18
3.977888e+000 8.013461e-001 -1.177226e+001 35 22 8
3.136738e+000 1.846094e-001 -1.229328e+001 124 88 62
3.823252e+000 3.002342e+000 -1.330513e+001 172 143 113
2.819866e+000 2.571400e+000 -1.300009e+001 79 69 46
2.436607e+000 1.350799e+000 -1.313387e+001 137 91 67
2.909317e+000 1.104591e+000 -1.220517e+001 182 147 113
-7.476308e-001 -5.941716e-001 -1.390637e+001 178 142 114
5.967978e+000 3.144917e+000 -1.330585e+001 176 129 81
2.564698e+000 1.736255e+000 -1.317034e+001 192 153 112
5.313078e+000 3.834188e+000 -1.510351e+001 159 126 84
6.169984e+000 2.747841e+000 -1.337574e+001 18 13 10
6.142044e+000 3.888917e+000 -1.253222e+001 140 98 50
6.107960e+000 3.620122e+000 -1.280777e+001 186 141 90
3.027755e+000 3.142027e+000 -1.330726e+001 144 133 107
4.610233e+000 3.098766e+000 -1.351803e+001 98 64 36
3.782551e+000 3.019818e+000 -1.330255e+001 135 105 79
5.173211e+000 2.751671e+000 -1.318322e+001 81 51 27
2.393203e+000 1.906721e+000 -1.342769e+001 50 42 19
4.785474e+000 1.959725e+000 -1.258052e+001 84 51 24
2.762997e+000 1.665241e+000 -1.238518e+001 59 57 27
3.987926e+000 1.766436e+000 -1.225910e+001 134 107 85
5.823545e+000 1.615562e+000 -1.239483e+001 114 77 44
3.016736e+000 1.133662e+000 -1.202401e+001 110 75 43
2.714493e+000 3.081708e+000 -1.361827e+001 112 100 78
2.614025e+000 2.945881e+000 -1.349211e+001 102 98 69
4.255048e+000 3.175681e+000 -1.365425e+001 131 101 70
4.230111e+000 3.097528e+000 -1.345318e+001 117 83 55
5.033953e+000 3.192400e+000 -1.369946e+001 90 56 28
5.288747e+000 3.164847e+000 -1.368952e+001 103 68 39
5.195289e+000 3.097884e+000 -1.356732e+001 104 68 36
2.804266e+000 2.751533e+000 -1.325524e+001 97 68 42
2.617475e+000 2.541548e+000 -1.334816e+001 191 158 123
2.849351e+000 2.643423e+000 -1.310577e+001 62 50 29
3.473792e+000 2.554764e+000 -1.282245e+001 46 31 15
5.198374e+000 2.600659e+000 -1.311035e+001 109 77 52
4.106049e+000 2.484410e+000 -1.289960e+001 68 42 20
5.009197e+000 2.333385e+000 -1.291018e+001 111 82 52
5.126821e+000 2.150780e+000 -1.279280e+001 73 42 16
1.123439e+000 1.076288e+000 -1.425206e+001 188 123 105
3.082402e+000 1.928187e+000 -1.222540e+001 213 183 147
5.221977e+000 1.931083e+000 -1.264749e+001 101 64 36
2.932286e+000 1.684180e+000 -1.217447e+001 104 102 71
1.850695e+000 1.018301e+000 -1.319450e+001 176 95 88
2.788862e+000 9.948278e-001 -1.244567e+001 116 72 43
5.409535e+000 1.299413e+000 -1.213314e+001 105 66 32
2.192223e+000 1.182967e-001 -1.324834e+001 178 114 104
3.570450e+000 9.555140e-001 -1.157723e+001 111 96 67
4.760867e+000 3.207196e+000 -1.382969e+001 97 64 36
5.107693e+000 3.195643e+000 -1.376980e+001 84 50 22
5.094898e+000 3.197560e+000 -1.374732e+001 84 50 22
5.464416e+000 3.213942e+000 -1.382113e+001 128 92 59
3.001304e+000 2.954024e+000 -1.310793e+001 131 99 69
2.875802e+000 2.655112e+000 -1.305634e+001 135 112 88
3.527597e+000 2.579732e+000 -1.285619e+001 39 25 13
2.012901e+000 1.853858e+000 -1.432450e+001 152 110 68
4.496359e+000 2.508805e+000 -1.298581e+001 67 40 22
2.704425e+000 2.131840e+000 -1.297427e+001 90 83 51
5.251675e+000 2.216858e+000 -1.288532e+001 65 37 11
3.135689e+000 2.083267e+000 -1.239234e+001 127 88 55
2.425971e+000 1.535724e+000 -1.319790e+001 197 158 116
2.639542e+000 1.567732e+000 -1.298727e+001 193 150 105
5.212281e+000 1.721654e+000 -1.242371e+001 111 74 45
1.462436e+000 1.842676e-001 -1.310259e+001 187 136 107
2.120831e+000 1.448131e-001 -1.321505e+001 184 124 113
2.947598e+000 7.624895e-001 -1.209479e+001 83 73 48
4.851901e+000 2.679141e+000 -1.314866e+001 73 46 20
5.180469e+000 2.450397e+000 -1.302380e+001 119 86 59
4.640574e+000 2.152359e+000 -1.271237e+001 132 99 70
1.614586e+000 1.335947e+000 -1.378332e+001 196 130 114
4.646642e+000 1.507578e+000 -1.216117e+001 78 46 21
4.469887e+000 1.445675e+000 -1.203721e+001 108 78 54
4.744228e+000 1.450471e+000 -1.211598e+001 93 59 32
6.128329e+000 1.473089e+000 -1.231454e+001 149 109 66
2.760257e+000 7.887505e-001 -1.232591e+001 167 125 66
2.943564e+000 9.370249e-001 -1.211830e+001 44 34 19
2.911652e+000 7.740462e-001 -1.213782e+001 154 135 106
5.185154e+000 3.023125e+000 -1.348300e+001 84 50 24
4.592807e+000 2.704935e+000 -1.310685e+001 121 94 66
2.196475e+000 1.898700e+000 -1.404234e+001 173 138 98
2.266102e+000 1.955118e+000 -1.399887e+001 143 106 74
2.336691e+000 1.708359e+000 -1.341976e+001 137 100 66
2.927236e+000 1.809729e+000 -1.233410e+001 150 128 99
3.407504e+000 1.102037e+000 -1.170079e+001 48 29 14
5.124931e+000 8.061803e-001 -1.202483e+001 83 52 24
1.924609e+000 -5.138309e-001 -1.304654e+001 176 100 102
4.638208e+000 3.155367e+000 -1.369793e+001 142 109 76
5.348871e+000 2.438459e+000 -1.315345e+001 83 53 27
2.308420e+000 1.609359e+000 -1.338548e+001 200 154 113
4.672458e+000 1.987288e+000 -1.259276e+001 81 51 25
3.445594e+000 1.558332e+000 -1.189458e+001 99 83 53
2.940422e+000 1.288185e+000 -1.221557e+001 162 138 107
4.373005e+000 1.486707e+000 -1.207796e+001 105 75 51
5.893903e+000 1.362909e+000 -1.220800e+001 106 67 34
2.842628e+000 1.049500e+000 -1.239854e+001 202 168 133
1.269039e+000 2.578118e-001 -1.327106e+001 169 118 91
2.860026e+000 9.770926e-001 -1.215210e+001 201 175 142
1.547617e+000 1.129223e-001 -1.305593e+001 175 106 91
2.912019e+000 6.815088e-001 -1.207860e+001 184 159 129
5.396758e+000 3.079096e+000 -1.358039e+001 126 91 61
4.703803e+000 2.779453e+000 -1.320019e+001 98 68 42
5.116234e+000 2.660311e+000 -1.312433e+001 128 94 67
2.869025e+000 1.949253e+000 -1.291281e+001 141 105 81
4.926779e+000 1.876650e+000 -1.252649e+001 118 84 57
5.206172e+000 9.501279e-001 -1.200801e+001 83 53 27
5.259229e+000 7.722516e-001 -1.205259e+001 143 112 81
3.128169e+000 2.379956e+000 -1.262796e+001 31 20 12
2.285130e+000 1.680811e+000 -1.362445e+001 127 94 63
2.158045e+000 1.156172e+000 -1.297550e+001 201 128 120
2.884437e+000 2.265683e+000 -1.272686e+001 119 92 65
2.531395e+000 1.854600e+000 -1.328835e+001 194 162 123
2.074990e+000 1.644650e-001 -1.295444e+001 124 46 44
4.592968e+000 1.211605e+000 -1.195425e+001 128 91 62
5.436928e+000 3.167629e+000 -1.390222e+001 122 86 56
6.354680e+000 9.561979e-001 -1.191721e+001 177 141 83
6.167886e+000 2.222399e+000 -1.265267e+001 22 17 14
5.866429e+000 3.588641e+000 -1.320263e+001 188 147 95
5.736468e+000 2.847899e+000 -1.331797e+001 169 130 96
4.834751e+000 2.381234e+000 -1.294638e+001 90 56 28
5.535787e+000 1.571405e+000 -1.233940e+001 101 62 27
4.824799e+000 2.209445e+000 -1.279890e+001 131 97 69
3.893536e+000 2.513403e+000 -1.299398e+001 139 107 80
4.327509e+000 2.519838e+000 -1.296786e+001 72 44 22
3.598008e+000 2.727637e+000 -1.115622e+001 134 105 75
4.865906e+000 2.193692e+000 -1.278869e+001 76 46 20
5.200568e+000 1.666698e+000 -1.238084e+001 96 62 26
3.963386e-001 -4.441637e-002 -1.443452e+001 148 99 82
3.856502e+000 2.596731e+000 -1.294809e+001 131 101 73
5.966189e+000 2.190801e+000 -1.277971e+001 16 12 9
4.020283e+000 1.743481e+000 -1.225480e+001 126 96 70
3.191677e+000 1.003920e+000 -1.157039e+001 208 174 137
3.604316e+000 7.704208e-001 -1.162531e+001 33 22 15
2.322664e+000 2.059887e+000 -1.392463e+001 179 152 119
6.138508e+000 1.776311e+000 -1.276182e+001 114 80 53
-1.393063e+000 -6.050624e-001 -1.387658e+001 112 80 64
2.137234e+000 2.087732e+000 -1.425414e+001 155 111 74
4.351492e+000 1.632638e+000 -1.223081e+001 109 78 52
5.408122e+000 1.017529e+000 -1.205547e+001 98 63 35
6.038019e+000 1.456259e+000 -1.225827e+001 132 95 50
6.046046e+000 4.249156e+000 -1.367874e+001 166 128 79
3.417411e+000 3.262637e+000 -1.372210e+001 191 182 172
2.623337e+000 3.072024e+000 -1.362575e+001 94 87 61
2.772634e+000 3.134024e+000 -1.368384e+001 150 126 92
2.772634e+000 3.134024e+000 -1.368384e+001 150 126 92
2.778321e+000 3.078237e+000 -1.367538e+001 149 122 91
3.013302e+000 3.180192e+000 -1.344206e+001 105 94 77
3.013302e+000 3.180192e+000 -1.344206e+001 105 94 77
4.658991e+000 3.201160e+000 -1.384456e+001 124 88 57
2.634735e+000 3.048045e+000 -1.352273e+001 90 85 56
5.200212e+000 3.200930e+000 -1.379740e+001 87 54 24
5.554539e+000 3.134019e+000 -1.372246e+001 106 70 40
3.077196e+000 2.945767e+000 -1.307531e+001 96 78 59
3.099321e+000 2.939686e+000 -1.304981e+001 50 32 20
3.186817e+000 2.970659e+000 -1.307278e+001 39 27 13
3.326885e+000 2.973657e+000 -1.317997e+001 64 48 33
3.373850e+000 3.006165e+000 -1.320762e+001 150 134 111
3.111311e+000 2.880998e+000 -1.303540e+001 53 35 20
5.250835e+000 2.874546e+000 -1.335129e+001 82 50 25
5.661571e+000 2.913076e+000 -1.342392e+001 115 76 41
3.213095e+000 2.781879e+000 -1.295756e+001 40 28 14
3.447411e+000 2.719345e+000 -1.297160e+001 46 29 16
6.030003e+000 2.854715e+000 -1.356461e+001 122 88 58
2.647915e+000 2.437786e+000 -1.326101e+001 183 154 120
2.654526e+000 2.484217e+000 -1.312641e+001 207 178 146
3.462876e+000 2.603635e+000 -1.286770e+001 57 41 28
4.278500e+000 2.645021e+000 -1.303305e+001 94 64 36
4.336109e+000 2.629546e+000 -1.303524e+001 73 43 17
4.660629e+000 2.658181e+000 -1.308711e+001 68 40 16
4.665265e+000 2.654576e+000 -1.309719e+001 68 40 16
2.981305e+000 2.529674e+000 -1.272152e+001 164 130 102
3.192781e+000 2.420173e+000 -1.271223e+001 52 33 19
3.408121e+000 2.469488e+000 -1.276702e+001 56 40 30
3.450648e+000 2.529838e+000 -1.282185e+001 94 81 64
3.540505e+000 2.485653e+000 -1.276831e+001 71 56 35
4.240997e+000 2.552510e+000 -1.297907e+001 79 51 27
4.503962e+000 2.453815e+000 -1.293745e+001 73 47 24
5.161673e+000 2.582472e+000 -1.309959e+001 92 61 33
3.261277e+000 2.410661e+000 -1.270736e+001 203 188 154
2.609901e+000 1.905540e+000 -1.305930e+001 189 161 122
2.906543e+000 2.010370e+000 -1.294644e+001 150 118 93
3.135004e+000 2.147866e+000 -1.255794e+001 74 43 22
2.886597e+000 1.810164e+000 -1.295231e+001 125 89 63
3.943645e+000 2.168024e+000 -1.264765e+001 118 91 70
4.633393e+000 2.095981e+000 -1.268448e+001 94 63 35
2.478110e+000 1.518715e+000 -1.316138e+001 193 149 110
2.878164e+000 1.770986e+000 -1.294691e+001 122 86 64
3.666541e+000 2.070010e+000 -1.242652e+001 206 186 144
4.679437e+000 2.066665e+000 -1.264331e+001 89 57 32
5.011999e+000 1.981738e+000 -1.260450e+001 87 57 31
5.768160e+000 1.972471e+000 -1.271879e+001 111 77 49
2.756160e+000 1.594771e+000 -1.287870e+001 120 76 41
4.596694e+000 1.817984e+000 -1.245392e+001 69 39 15
2.526477e+000 1.407846e+000 -1.297652e+001 195 158 114
2.754950e+000 1.602313e+000 -1.235498e+001 98 94 56
3.456673e+000 1.796678e+000 -1.207200e+001 42 25 14
4.674035e+000 1.777645e+000 -1.240063e+001 97 67 43
3.438774e+000 1.687463e+000 -1.204376e+001 54 35 20
4.002276e+000 1.665483e+000 -1.203638e+001 118 92 69
5.553819e+000 1.590872e+000 -1.242398e+001 97 60 33
2.872670e+000 1.351915e+000 -1.236721e+001 127 107 76
3.444323e+000 1.562749e+000 -1.193751e+001 232 217 168
4.435958e+000 1.581369e+000 -1.218787e+001 79 49 23
5.263077e+000 1.575085e+000 -1.222813e+001 109 73 41
2.902399e+000 1.135498e+000 -1.234339e+001 191 158 120
3.743493e+000 1.424778e+000 -1.186552e+001 86 70 54
2.931315e+000 1.220815e+000 -1.203718e+001 195 161 131
2.995861e+000 1.163957e+000 -1.201696e+001 166 132 99
3.394072e+000 1.348754e+000 -1.174800e+001 76 60 45
2.831239e+000 8.725699e-001 -1.225995e+001 158 123 93
2.890930e+000 1.016412e+000 -1.211838e+001 170 146 118
2.909646e+000 9.428962e-001 -1.213650e+001 166 138 108
2.918794e+000 8.903880e-001 -1.212669e+001 127 117 90
2.918794e+000 8.903880e-001 -1.212669e+001 127 117 90
2.902882e+000 8.581720e-001 -1.215440e+001 56 46 27
5.837466e+000 1.074361e+000 -1.211630e+001 114 79 49
6.269609e+000 1.044107e+000 -1.230165e+001 103 65 26
3.014814e+000 9.773687e-001 -1.177643e+001 108 98 73
3.188342e+000 1.177804e+000 -1.162856e+001 202 168 132
2.783090e+000 4.634076e-001 -1.235978e+001 189 147 87
3.067432e+000 9.881915e-001 -1.157696e+001 143 121 90
3.196397e+000 1.012586e+000 -1.162333e+001 159 125 90
3.473469e+000 9.211022e-001 -1.164068e+001 69 50 18
3.693128e+000 8.912400e-001 -1.168674e+001 25 18 11
6.349542e+000 1.015949e+000 -1.164388e+001 183 148 94
4.847483e+000 3.219311e+000 -1.383745e+001 109 74 44
5.237513e+000 3.225609e+000 -1.395178e+001 98 63 35
5.009533e+000 3.173825e+000 -1.371551e+001 87 53 25
5.121422e+000 3.120406e+000 -1.366129e+001 148 114 79
2.844812e+000 2.960427e+000 -1.327610e+001 124 94 65
3.092096e+000 2.975000e+000 -1.308209e+001 48 30 15
3.458810e+000 2.971414e+000 -1.313451e+001 46 27 19
5.295746e+000 3.020450e+000 -1.357229e+001 119 85 57
3.112370e+000 2.849979e+000 -1.297066e+001 51 30 21
6.072411e+000 3.009001e+000 -1.340423e+001 130 92 54
6.094560e+000 2.973248e+000 -1.340741e+001 109 81 50
4.724288e+000 2.760633e+000 -1.316898e+001 76 46 20
2.149656e+000 2.028165e+000 -1.417510e+001 185 146 110
2.311577e+000 2.136881e+000 -1.401988e+001 189 160 126
2.247747e+000 2.022219e+000 -1.410366e+001 178 142 110
2.806196e+000 2.559356e+000 -1.275399e+001 65 59 30
