ply
format ascii 1.0
element face 0
property list uchar int vertex_indices
element vertex 898
property float x
property float y
property float z
property uchar diffuse_red
property uchar diffuse_green
property uchar diffuse_blue
end_header
4.169124e+000 1.502401e+000 -1.311211e+001 102 69 38
4.190365e+000 1.555563e+000 -1.315841e+001 100 65 38
4.190108e+000 1.556253e+000 -1.315760e+001 100 65 38
4.263722e+000 1.549748e+000 -1.316214e+001 123 90 57
2.914773e+000 1.273163e+000 -1.360461e+001 196 159 116
2.967140e+000 1.301130e+000 -1.358646e+001 157 114 81
4.218353e+000 1.491957e+000 -1.311400e+001 99 63 36
4.216701e+000 1.492114e+000 -1.311212e+001 99 63 36
3.607195e+000 1.357161e+000 -1.291428e+001 71 56 38
4.245509e+000 1.394428e+000 -1.306204e+001 122 89 56
3.529232e+000 1.276806e+000 -1.281356e+001 62 50 30
3.782149e+000 1.242042e+000 -1.286204e+001 132 105 77
4.436865e+000 1.359966e+000 -1.305314e+001 103 66 37
4.465761e+000 1.331970e+000 -1.303873e+001 110 69 39
3.002329e+000 1.107764e+000 -1.333159e+001 175 106 79
3.335209e+000 1.153619e+000 -1.276925e+001 77 69 38
3.411127e+000 1.162700e+000 -1.270600e+001 203 169 131
3.432985e+000 1.168656e+000 -1.273688e+001 145 108 66
3.562305e+000 1.160237e+000 -1.273316e+001 50 37 21
3.425344e+000 1.122288e+000 -1.268296e+001 230 194 157
3.703547e+000 1.133410e+000 -1.270507e+001 65 53 31
4.221308e+000 1.206896e+000 -1.291804e+001 106 69 40
4.357611e+000 1.168723e+000 -1.286692e+001 150 112 76
3.564072e+000 1.072371e+000 -1.265951e+001 69 55 41
2.745703e+000 7.297180e-001 -1.321253e+001 173 92 83
3.251930e+000 8.561963e-001 -1.296730e+001 171 124 81
3.475246e+000 9.471007e-001 -1.254944e+001 197 162 124
3.498973e+000 9.289159e-001 -1.252670e+001 144 106 69
4.439463e+000 9.944124e-001 -1.277972e+001 97 57 32
3.149524e+000 7.787944e-001 -1.300662e+001 190 123 107
3.180535e+000 7.765984e-001 -1.293668e+001 223 185 144
3.286494e+000 7.428276e-001 -1.285343e+001 143 96 49
2.684067e+000 4.541298e-001 -1.318776e+001 210 162 130
4.113391e+000 7.770308e-001 -1.271489e+001 89 60 30
4.082628e+000 7.629278e-001 -1.270637e+001 81 51 27
4.082628e+000 7.629278e-001 -1.270637e+001 81 51 27
2.996734e+000 4.614954e-001 -1.324423e+001 179 122 107
1.548249e+000 6.495758e-002 -1.346692e+001 99 68 52
3.408863e+000 3.103171e-001 -1.297649e+001 111 88 60
4.091685e+000 3.101506e-001 -1.324637e+001 77 49 25
4.364403e+000 2.256524e+000 -1.477548e+001 168 134 87
3.529173e+000 1.740661e+000 -1.317576e+001 68 53 34
4.069881e+000 1.834753e+000 -1.338768e+001 154 115 84
4.508642e+000 1.892609e+000 -1.348142e+001 204 160 117
3.846769e+000 1.649212e+000 -1.318269e+001 102 69 40
4.161616e+000 1.674303e+000 -1.323689e+001 122 87 57
3.105046e+000 1.491254e+000 -1.327923e+001 208 174 136
3.231865e+000 1.504196e+000 -1.300277e+001 146 130 91
4.192333e+000 1.637978e+000 -1.321620e+001 96 62 34
4.311179e+000 1.594899e+000 -1.318965e+001 124 90 63
3.014416e+000 1.394552e+000 -1.362251e+001 181 137 98
4.266540e+000 1.528562e+000 -1.314513e+001 95 60 30
4.264246e+000 1.528365e+000 -1.314688e+001 95 60 30
3.470541e+000 1.415012e+000 -1.293269e+001 122 103 72
4.142394e+000 1.434648e+000 -1.307404e+001 93 61 33
3.308564e+000 1.320856e+000 -1.298931e+001 161 127 99
3.494098e+000 1.333814e+000 -1.286459e+001 134 115 86
3.295472e+000 1.243144e+000 -1.295173e+001 159 126 101
3.376386e+000 1.266868e+000 -1.283661e+001 216 182 145
3.516154e+000 1.222492e+000 -1.280492e+001 67 49 29
3.649995e+000 1.234239e+000 -1.282273e+001 73 52 32
3.906643e+000 1.269599e+000 -1.291053e+001 82 50 25
4.129304e+000 1.284405e+000 -1.294348e+001 90 56 29
3.078408e+000 1.052187e+000 -1.324420e+001 155 105 72
4.205022e+000 1.261466e+000 -1.293206e+001 99 65 34
4.518412e+000 1.285466e+000 -1.299611e+001 113 74 41
3.498039e+000 1.088121e+000 -1.265877e+001 49 30 21
3.700013e+000 1.076135e+000 -1.267888e+001 71 54 27
4.068324e+000 1.076528e+000 -1.276297e+001 94 60 33
4.129077e+000 1.126248e+000 -1.280151e+001 139 103 71
4.525408e+000 1.121768e+000 -1.284024e+001 107 71 38
4.521258e+000 1.122434e+000 -1.283693e+001 107 71 38
2.843692e+000 7.931927e-001 -1.310226e+001 184 88 89
3.390812e+000 9.208687e-001 -1.272350e+001 177 141 107
3.513274e+000 9.638051e-001 -1.253728e+001 133 95 57
3.423292e+000 8.789085e-001 -1.260294e+001 152 118 91
3.497070e+000 6.169590e-001 -1.261099e+001 252 218 183
1.533169e+000 4.508728e-002 -1.345377e+001 137 101 79
1.708629e+000 -1.946602e-002 -1.337798e+001 148 110 88
4.190108e+000 -2.003721e-001 -1.396787e+001 79 51 27
3.176194e+000 1.707389e+000 -1.326390e+001 127 112 89
3.293459e+000 1.603735e+000 -1.306476e+001 193 160 127
4.289733e+000 1.721545e+000 -1.328865e+001 123 90 59
3.303845e+000 1.440720e+000 -1.298743e+001 136 103 72
3.361750e+000 1.418993e+000 -1.292781e+001 183 145 108
3.989642e+000 1.509723e+000 -1.311620e+001 92 60 32
4.219691e+000 1.573406e+000 -1.316426e+001 140 105 76
4.158552e+000 1.470993e+000 -1.308703e+001 134 100 72
4.159440e+000 1.470526e+000 -1.309165e+001 134 100 72
2.908641e+000 1.244818e+000 -1.363192e+001 55 33 30
3.314935e+000 1.201133e+000 -1.284393e+001 161 140 107
4.064034e+000 1.329114e+000 -1.297475e+001 92 57 29
3.033649e+000 1.110437e+000 -1.329233e+001 206 159 118
3.991937e+000 1.223993e+000 -1.288372e+001 83 51 26
3.041018e+000 9.440168e-001 -1.312395e+001 205 133 121
3.277380e+000 9.393422e-001 -1.290674e+001 193 150 103
3.075547e+000 8.399199e-001 -1.299960e+001 165 80 77
3.138006e+000 8.574460e-001 -1.297923e+001 195 142 102
3.267386e+000 8.296031e-001 -1.297003e+001 130 79 50
3.454833e+000 8.953320e-001 -1.255617e+001 136 101 69
3.310695e+000 8.390190e-001 -1.277474e+001 192 158 126
3.394167e+000 8.687944e-001 -1.260348e+001 70 64 39
3.340459e+000 7.212308e-001 -1.271599e+001 176 144 108
3.463177e+000 5.999723e-001 -1.271007e+001 169 134 104
4.598894e+000 7.512430e-001 -1.285529e+001 87 53 25
3.646081e+000 5.921796e-001 -1.259518e+001 50 35 20
3.701320e+000 5.973047e-001 -1.261783e+001 70 53 37
4.450156e+000 4.538673e-001 -1.320926e+001 102 75 51
3.133063e+000 2.523387e-001 -1.319946e+001 162 114 90
3.379197e+000 2.832419e-001 -1.299128e+001 63 55 34
2.996981e+000 1.470826e-001 -1.318089e+001 157 86 85
3.517428e+000 1.806121e+000 -1.325520e+001 82 69 52
4.346084e+000 1.835498e+000 -1.341700e+001 135 96 63
3.321923e+000 1.684375e+000 -1.314227e+001 51 31 20
3.497465e+000 1.664673e+000 -1.315190e+001 156 140 107
3.349682e+000 1.605017e+000 -1.307703e+001 48 28 18
4.157855e+000 1.717282e+000 -1.327030e+001 143 106 76
4.253815e+000 1.449271e+000 -1.308820e+001 128 94 66
3.029696e+000 1.150723e+000 -1.334321e+001 128 95 65
3.453902e+000 1.220125e+000 -1.277044e+001 50 32 19
2.766681e+000 9.278658e-001 -1.334895e+001 207 127 118
3.484219e+000 1.146138e+000 -1.270620e+001 58 40 23
3.411000e+000 1.020518e+000 -1.270889e+001 180 147 112
3.553960e+000 8.173226e-001 -1.255915e+001 57 35 22
3.844220e+000 6.647025e-001 -1.272248e+001 111 89 65
4.372597e+000 7.132059e-001 -1.281248e+001 78 48 24
3.898176e+000 6.326481e-001 -1.272300e+001 127 101 74
2.151801e+000 1.144152e-001 -1.354694e+001 108 77 54
3.064183e+000 2.027623e-001 -1.322316e+001 112 44 39
3.493759e+000 1.744403e+000 -1.325235e+001 152 125 96
3.204083e+000 1.679929e+000 -1.325099e+001 45 40 21
3.237629e+000 1.328929e+000 -1.313080e+001 136 105 77
4.070866e+000 1.423030e+000 -1.304224e+001 147 113 79
4.318111e+000 1.453533e+000 -1.311823e+001 87 53 27
4.000916e+000 1.349915e+000 -1.298452e+001 134 101 70
4.000047e+000 1.350714e+000 -1.298358e+001 134 101 70
4.340222e+000 1.379195e+000 -1.304531e+001 153 114 81
4.341224e+000 1.378454e+000 -1.304715e+001 153 114 81
4.075187e+000 1.226453e+000 -1.291372e+001 80 49 21
3.506606e+000 1.085154e+000 -1.267197e+001 58 40 17
3.906120e+000 1.099195e+000 -1.273519e+001 74 48 25
3.982016e+000 1.056755e+000 -1.275552e+001 128 97 67
3.774562e+000 9.653513e-001 -1.258482e+001 58 36 22
3.253865e+000 7.195778e-001 -1.289368e+001 160 111 50
3.283952e+000 6.638722e-001 -1.283813e+001 154 107 51
3.358106e+000 6.654667e-001 -1.271852e+001 190 155 125
1.621626e+000 5.299988e-002 -1.346242e+001 132 91 62
3.130383e+000 3.300389e-001 -1.315694e+001 112 49 40
4.180225e+000 1.821373e+000 -1.336693e+001 161 123 86
3.288141e+000 1.631287e+000 -1.311173e+001 191 158 123
3.988342e+000 1.711532e+000 -1.326224e+001 141 106 74
4.414816e+000 1.768524e+000 -1.333460e+001 103 68 40
3.298249e+000 1.576183e+000 -1.301895e+001 203 170 139
3.311034e+000 1.501627e+000 -1.300060e+001 229 194 162
3.362241e+000 1.547343e+000 -1.299579e+001 50 32 26
3.935104e+000 1.235063e+000 -1.288046e+001 123 89 61
2.677042e+000 8.441344e-001 -1.325569e+001 190 145 111
3.520962e+000 1.013769e+000 -1.258203e+001 58 34 21
4.793356e+000 1.104552e+000 -1.284952e+001 165 122 67
3.564321e+000 8.823803e-001 -1.257602e+001 85 68 49
3.571631e+000 7.283910e-001 -1.256336e+001 60 43 28
3.639389e+000 6.288745e-001 -1.257885e+001 41 28 17
3.584529e+000 1.650501e+000 -1.313642e+001 66 51 30
3.480100e+000 1.544022e+000 -1.305246e+001 54 40 29
3.605957e+000 1.567245e+000 -1.307792e+001 60 45 24
3.396960e+000 1.204912e+000 -1.274901e+001 204 172 135
3.542874e+000 9.623500e-001 -1.257023e+001 77 55 40
3.224994e+000 7.688451e-001 -1.291605e+001 207 169 131
4.440546e+000 1.370844e+000 -1.297804e+001 123 87 55
3.372744e+000 8.060999e-001 -1.274565e+001 72 61 43
3.502740e+000 1.282628e+000 -1.285227e+001 72 56 40
3.313576e+000 1.092401e+000 -1.288070e+001 93 80 49
3.186441e+000 1.007755e+000 -1.295521e+001 207 169 122
4.529628e+000 1.615108e+000 -1.321052e+001 119 79 57
3.080999e+000 1.194652e+000 -1.327456e+001 161 122 85
4.403782e+000 8.875371e-001 -1.274149e+001 131 97 62
4.238201e+000 7.780544e-001 -1.274959e+001 126 88 59
4.002693e+000 1.350355e+000 -1.298571e+001 138 103 71
4.276074e+000 1.554101e+000 -1.316503e+001 117 82 53
4.648230e+000 2.090271e+000 -1.305407e+001 169 126 83
3.194541e+000 1.743852e+000 -1.331480e+001 74 61 40
3.934045e+000 1.769460e+000 -1.329210e+001 114 79 49
3.934045e+000 1.769460e+000 -1.329210e+001 114 79 49
4.106238e+000 1.703090e+000 -1.325580e+001 106 71 41
3.422875e+000 1.513749e+000 -1.302535e+001 62 41 21
3.908294e+000 1.547382e+000 -1.313081e+001 105 75 51
3.863694e+000 1.527766e+000 -1.310387e+001 104 74 49
4.085055e+000 1.276177e+000 -1.292914e+001 99 65 37
4.133054e+000 1.281564e+000 -1.294375e+001 86 55 26
2.791558e+000 7.359305e-001 -1.310416e+001 173 100 87
3.140710e+000 8.290017e-001 -1.299500e+001 196 135 107
3.500927e+000 8.174644e-001 -1.252327e+001 158 122 86
2.820775e+000 3.062415e-001 -1.311638e+001 185 116 107
3.941851e+000 1.700449e+000 -1.323912e+001 120 85 52
4.043154e+000 1.659893e+000 -1.321266e+001 120 86 59
4.122385e+000 1.597642e+000 -1.317208e+001 123 89 62
4.226094e+000 1.387111e+000 -1.305212e+001 98 64 36
4.307786e+000 1.303626e+000 -1.296697e+001 150 112 74
3.988659e+000 1.147320e+000 -1.279689e+001 145 112 81
4.158719e+000 1.052681e+000 -1.275684e+001 81 49 26
3.407745e+000 9.289819e-001 -1.272793e+001 141 104 72
3.861210e+000 1.738390e+000 -1.325075e+001 112 77 47
4.569676e+000 1.848607e+000 -1.347214e+001 118 74 36
4.570742e+000 1.848658e+000 -1.347138e+001 118 74 36
3.967249e+000 1.554913e+000 -1.313762e+001 83 53 29
3.948999e+000 1.353691e+000 -1.298728e+001 80 49 22
4.488679e+000 1.077839e+000 -1.281836e+001 123 86 54
4.320378e+000 1.836182e+000 -1.342106e+001 139 100 66
4.064727e+000 1.581802e+000 -1.315519e+001 92 59 33
4.282605e+000 1.602749e+000 -1.319978e+001 92 58 30
4.502461e+000 1.526484e+000 -1.318736e+001 119 85 48
4.006297e+000 1.210329e+000 -1.286342e+001 140 106 71
4.448316e+000 1.014542e+000 -1.277138e+001 127 89 58
4.511734e+000 9.254452e-001 -1.276591e+001 92 55 28
3.543925e+000 7.863228e-001 -1.253137e+001 136 102 66
4.131561e+000 7.359421e-001 -1.273042e+001 82 54 30
1.642172e+000 1.376444e-001 -1.362371e+001 178 139 110
3.953092e+000 1.216791e+000 -1.286853e+001 127 94 63
3.138493e+000 8.556366e-001 -1.298175e+001 195 142 102
1.959582e+000 -1.355213e-001 -1.345749e+001 82 53 42
4.258677e+000 1.817636e+000 -1.336794e+001 97 62 31
4.541702e+000 1.924153e+000 -1.355298e+001 168 126 78
4.546561e+000 1.923204e+000 -1.356124e+001 168 126 78
4.144520e+000 1.526587e+000 -1.312649e+001 142 109 77
4.158090e+000 1.469805e+000 -1.308836e+001 129 95 67
4.326727e+000 1.247826e+000 -1.292167e+001 156 117 78
3.962086e+000 1.130723e+000 -1.277308e+001 95 62 36
4.214252e+000 1.080686e+000 -1.278542e+001 97 62 32
1.672799e+000 1.143785e-001 -1.359109e+001 102 85 74
4.706463e+000 2.155140e+000 -1.297542e+001 93 67 41
3.201742e+000 1.728464e+000 -1.326395e+001 64 51 34
3.633099e+000 1.778586e+000 -1.327564e+001 145 114 88
4.017266e+000 1.844753e+000 -1.337100e+001 114 79 49
3.273736e+000 1.720452e+000 -1.315303e+001 173 140 109
3.385806e+000 1.721328e+000 -1.315540e+001 45 35 16
3.434523e+000 1.750698e+000 -1.318980e+001 70 58 45
3.470739e+000 1.711215e+000 -1.316045e+001 151 136 107
3.867763e+000 1.790468e+000 -1.326559e+001 122 87 57
4.372466e+000 1.837910e+000 -1.340552e+001 125 89 54
4.570674e+000 1.868325e+000 -1.346747e+001 172 126 76
4.237606e+000 1.771288e+000 -1.331179e+001 137 100 72
3.479781e+000 1.574680e+000 -1.307288e+001 75 67 54
3.676368e+000 1.616417e+000 -1.313219e+001 137 112 83
4.131099e+000 1.680225e+000 -1.323692e+001 74 44 18
4.131099e+000 1.680225e+000 -1.323692e+001 74 44 18
3.463752e+000 1.553335e+000 -1.306385e+001 64 55 36
3.489691e+000 1.524905e+000 -1.303044e+001 66 55 41
3.783350e+000 1.560001e+000 -1.310713e+001 79 48 27
4.111476e+000 1.583291e+000 -1.316000e+001 93 61 36
4.409297e+000 1.654043e+000 -1.326291e+001 85 54 26
3.408397e+000 1.480616e+000 -1.300459e+001 70 53 28
3.414930e+000 1.457589e+000 -1.298181e+001 59 43 19
3.573564e+000 1.447481e+000 -1.298072e+001 71 54 39
3.709913e+000 1.492066e+000 -1.306111e+001 134 100 73
3.997416e+000 1.500685e+000 -1.309340e+001 108 78 50
3.359377e+000 1.420676e+000 -1.292219e+001 189 158 127
3.550168e+000 1.445133e+000 -1.296241e+001 68 51 33
2.863693e+000 1.119629e+000 -1.375002e+001 134 102 81
3.093339e+000 1.250020e+000 -1.330280e+001 62 49 22
3.116694e+000 1.226922e+000 -1.328617e+001 183 150 111
3.423696e+000 1.269705e+000 -1.282407e+001 76 46 25
3.497357e+000 1.303528e+000 -1.284550e+001 87 76 52
3.656001e+000 1.287325e+000 -1.284224e+001 49 35 21
3.030455e+000 1.045712e+000 -1.326646e+001 178 116 88
3.404478e+000 1.210273e+000 -1.272649e+001 167 131 95
3.963041e+000 1.295215e+000 -1.293002e+001 104 77 48
4.086135e+000 1.277305e+000 -1.292869e+001 93 61 35
3.545842e+000 1.156474e+000 -1.273081e+001 53 40 23
3.779619e+000 1.196633e+000 -1.281650e+001 141 115 92
4.078808e+000 1.230880e+000 -1.290784e+001 96 65 42
4.290178e+000 1.214550e+000 -1.289923e+001 124 89 57
3.077598e+000 9.552097e-001 -1.306263e+001 172 99 84
3.650910e+000 1.135781e+000 -1.273080e+001 64 52 30
3.117307e+000 8.989524e-001 -1.300171e+001 209 164 122
3.440136e+000 1.053112e+000 -1.259855e+001 202 167 129
3.464625e+000 9.956544e-001 -1.258324e+001 191 156 119
4.813726e+000 1.168989e+000 -1.266404e+001 150 110 59
2.239386e+000 3.527633e-001 -1.374136e+001 148 99 82
3.895660e+000 1.003491e+000 -1.262190e+001 122 91 62
4.583061e+000 9.878524e-001 -1.281182e+001 73 41 14
3.742027e+000 9.260916e-001 -1.258019e+001 135 120 86
3.325742e+000 7.183393e-001 -1.278848e+001 139 101 55
3.770607e+000 8.659105e-001 -1.256376e+001 66 50 29
4.661413e+000 8.729423e-001 -1.283122e+001 106 69 40
3.058149e+000 4.376856e-001 -1.324752e+001 149 87 78
3.058149e+000 4.376856e-001 -1.324752e+001 149 87 78
3.487755e+000 7.355424e-001 -1.253599e+001 164 133 104
3.612226e+000 7.561162e-001 -1.255959e+001 243 222 180
3.630020e+000 7.567733e-001 -1.255539e+001 208 188 153
3.620299e+000 7.445804e-001 -1.255637e+001 82 65 45
3.184550e+000 2.531728e-001 -1.323796e+001 159 101 89
4.671084e+000 2.280349e+000 -1.284354e+001 121 85 49
4.720934e+000 2.276062e+000 -1.283476e+001 103 76 49
3.229607e+000 1.782903e+000 -1.325707e+001 211 182 150
3.904597e+000 1.830263e+000 -1.335798e+001 153 119 84
4.355667e+000 1.898865e+000 -1.350362e+001 137 99 63
3.280321e+000 1.705072e+000 -1.312964e+001 127 93 65
3.374770e+000 1.702664e+000 -1.314188e+001 68 56 41
3.934177e+000 1.791883e+000 -1.330066e+001 102 68 40
4.364155e+000 1.861100e+000 -1.343186e+001 135 94 59
3.179606e+000 1.608613e+000 -1.318865e+001 151 117 80
3.324311e+000 1.650032e+000 -1.310710e+001 130 99 69
3.329277e+000 1.629119e+000 -1.307898e+001 116 87 57
4.587829e+000 1.815275e+000 -1.342240e+001 166 120 70
3.889122e+000 1.665648e+000 -1.318263e+001 79 47 24
4.058631e+000 1.671996e+000 -1.321812e+001 85 55 31
4.224837e+000 1.669387e+000 -1.323316e+001 97 63 36
3.700194e+000 1.537473e+000 -1.309256e+001 132 100 75
3.798379e+000 1.533290e+000 -1.309246e+001 75 49 27
4.058335e+000 1.578344e+000 -1.315950e+001 84 52 27
4.089667e+000 1.589927e+000 -1.316760e+001 112 82 58
3.707036e+000 1.514229e+000 -1.307829e+001 128 100 71
3.840831e+000 1.528991e+000 -1.310775e+001 72 44 22
3.885949e+000 1.539388e+000 -1.310998e+001 100 74 51
4.116593e+000 1.513051e+000 -1.313189e+001 82 53 27
3.453963e+000 1.399665e+000 -1.293440e+001 82 67 46
3.173665e+000 1.261788e+000 -1.311563e+001 72 66 41
4.219751e+000 1.434359e+000 -1.308411e+001 74 43 23
4.234719e+000 1.418576e+000 -1.307122e+001 85 53 30
3.484289e+000 1.281707e+000 -1.282626e+001 36 23 14
3.484289e+000 1.281707e+000 -1.282626e+001 36 23 14
3.515756e+000 1.313182e+000 -1.286780e+001 39 30 13
4.150764e+000 1.345536e+000 -1.297761e+001 102 74 46
3.769678e+000 1.230501e+000 -1.284561e+001 146 120 95
3.543423e+000 1.189326e+000 -1.273677e+001 119 104 77
3.672722e+000 1.195127e+000 -1.275948e+001 138 121 95
3.072820e+000 9.676989e-001 -1.314821e+001 176 115 95
3.434417e+000 1.094210e+000 -1.263836e+001 247 222 187
3.532010e+000 1.084764e+000 -1.269574e+001 70 53 35
4.506176e+000 1.170027e+000 -1.286989e+001 113 76 46
4.582163e+000 1.118865e+000 -1.284814e+001 80 46 19
3.263521e+000 8.823568e-001 -1.295600e+001 181 138 94
4.168198e+000 1.032499e+000 -1.273472e+001 87 53 24
4.462910e+000 1.066716e+000 -1.279812e+001 99 64 36
3.470862e+000 9.295498e-001 -1.254085e+001 166 132 95
4.349019e+000 9.671901e-001 -1.276283e+001 79 47 21
3.749799e+000 9.430982e-001 -1.256167e+001 56 41 22
4.572400e+000 9.781554e-001 -1.279575e+001 94 63 33
3.275210e+000 7.066847e-001 -1.285815e+001 150 103 36
3.363804e+000 7.286013e-001 -1.273454e+001 74 63 36
3.462587e+000 8.521683e-001 -1.251294e+001 208 174 137
3.498658e+000 8.203587e-001 -1.251998e+001 150 115 85
4.315009e+000 8.144919e-001 -1.275958e+001 77 45 20
1.695635e+000 -3.935515e-005 -1.339055e+001 114 77 55
4.476615e+000 3.108016e-001 -1.340174e+001 66 42 18
4.715015e+000 2.257641e+000 -1.285588e+001 104 72 44
3.328395e+000 1.795985e+000 -1.326347e+001 70 60 47
4.001718e+000 1.840427e+000 -1.338588e+001 140 107 73
3.263927e+000 1.698672e+000 -1.315239e+001 173 141 111
3.263927e+000 1.698672e+000 -1.315239e+001 173 141 111
4.019356e+000 1.778286e+000 -1.331251e+001 89 55 28
4.379228e+000 1.851317e+000 -1.341473e+001 104 68 36
3.138972e+000 1.635899e+000 -1.323190e+001 194 170 132
3.198741e+000 1.619743e+000 -1.320292e+001 162 130 99
3.880235e+000 1.713716e+000 -1.322549e+001 102 68 41
4.269305e+000 1.663800e+000 -1.324310e+001 113 82 54
3.783900e+000 1.576317e+000 -1.312095e+001 101 73 49
2.968170e+000 1.301058e+000 -1.359142e+001 146 106 75
3.306023e+000 1.419831e+000 -1.300901e+001 110 82 57
4.007701e+000 1.542083e+000 -1.313470e+001 89 59 35
4.004159e+000 1.518151e+000 -1.313295e+001 80 53 26
4.151638e+000 1.560289e+000 -1.315570e+001 85 53 28
3.044740e+000 1.253932e+000 -1.335404e+001 109 102 61
3.044740e+000 1.253932e+000 -1.335404e+001 109 102 61
3.725961e+000 1.435333e+000 -1.302122e+001 127 100 73
3.933126e+000 1.470624e+000 -1.307610e+001 92 62 37
4.139542e+000 1.384076e+000 -1.301352e+001 92 61 32
4.777173e+000 1.578420e+000 -1.271824e+001 174 136 82
3.498369e+000 1.264642e+000 -1.282099e+001 39 26 16
3.222492e+000 1.117056e+000 -1.307029e+001 139 93 57
3.443929e+000 1.198094e+000 -1.274333e+001 141 105 69
3.537859e+000 1.250972e+000 -1.279775e+001 49 40 23
4.175919e+000 1.257817e+000 -1.293273e+001 83 51 26
4.909617e+000 1.263879e+000 -1.360996e+001 96 68 46
4.040451e+000 1.200892e+000 -1.285026e+001 111 79 54
4.228974e+000 1.226369e+000 -1.291182e+001 95 65 34
2.624937e+000 6.098221e-001 -1.324353e+001 141 87 61
3.232121e+000 8.139994e-001 -1.294498e+001 194 152 117
3.285886e+000 8.491945e-001 -1.286673e+001 198 162 126
3.335986e+000 8.498473e-001 -1.275260e+001 51 40 22
3.445536e+000 9.468886e-001 -1.255372e+001 185 151 114
3.405232e+000 8.560382e-001 -1.256722e+001 77 66 38
4.313811e+000 9.091217e-001 -1.273776e+001 79 48 27
3.513414e+000 8.234490e-001 -1.252425e+001 109 74 44
3.502512e+000 7.589144e-001 -1.251817e+001 213 182 153
3.650717e+000 7.341884e-001 -1.258203e+001 37 27 15
4.115925e+000 7.498962e-001 -1.273350e+001 101 73 49
3.212805e+000 3.273217e-001 -1.327261e+001 148 94 82
3.557929e+000 7.002718e-001 -1.256366e+001 107 71 39
2.766836e+000 2.414280e-001 -1.311765e+001 186 129 110
3.300010e+000 1.764155e+000 -1.321198e+001 47 35 28
3.404518e+000 1.731755e+000 -1.317005e+001 47 35 23
4.033486e+000 1.769658e+000 -1.328827e+001 143 110 79
3.887207e+000 1.740112e+000 -1.323848e+001 139 102 72
4.104502e+000 1.746307e+000 -1.328583e+001 96 61 33
4.217598e+000 1.692256e+000 -1.324809e+001 129 99 70
4.520595e+000 1.711840e+000 -1.329864e+001 128 93 65
3.183903e+000 1.449827e+000 -1.315852e+001 191 164 130
4.068309e+000 1.623734e+000 -1.318651e+001 115 88 61
3.887347e+000 1.503146e+000 -1.308570e+001 100 74 49
3.983013e+000 1.544382e+000 -1.312447e+001 107 81 56
3.491618e+000 1.408507e+000 -1.291592e+001 47 35 20
3.053243e+000 1.181457e+000 -1.331825e+001 177 140 99
2.959637e+000 1.111501e+000 -1.348621e+001 144 98 70
3.386334e+000 1.291031e+000 -1.286131e+001 143 108 73
3.047496e+000 1.058211e+000 -1.325924e+001 203 152 117
3.669403e+000 1.227204e+000 -1.280310e+001 102 86 59
3.129042e+000 9.833998e-001 -1.312234e+001 203 160 119
4.758396e+000 1.198475e+000 -1.294728e+001 157 117 65
3.422801e+000 1.067386e+000 -1.264621e+001 147 114 83
4.097483e+000 1.124965e+000 -1.281093e+001 86 55 27
3.507026e+000 9.809526e-001 -1.256902e+001 131 95 59
3.289428e+000 8.281634e-001 -1.284756e+001 169 127 90
4.885767e+000 8.235192e-001 -1.314345e+001 131 99 60
3.835597e+000 7.761301e-001 -1.263447e+001 107 82 60
4.025504e+000 7.290841e-001 -1.272247e+001 80 52 28
1.533308e+000 5.648554e-003 -1.345930e+001 114 77 61
3.172836e+000 6.729866e-002 -1.336816e+001 105 44 42
4.344880e+000 2.195802e+000 -1.479416e+001 160 123 85
4.693356e+000 2.179938e+000 -1.293359e+001 118 84 57
3.232459e+000 1.504841e+000 -1.300195e+001 139 125 88
4.276906e+000 1.606160e+000 -1.318415e+001 87 55 28
4.438483e+000 1.534889e+000 -1.317559e+001 78 49 22
4.510427e+000 1.442027e+000 -1.312029e+001 90 56 28
2.970914e+000 1.101055e+000 -1.340580e+001 189 124 104
4.103538e+000 1.345054e+000 -1.298498e+001 122 95 65
3.018785e+000 1.071245e+000 -1.328782e+001 174 109 79
3.238223e+000 1.130341e+000 -1.294979e+001 188 151 107
4.047383e+000 1.294386e+000 -1.294992e+001 117 84 57
2.777766e+000 8.313849e-001 -1.328268e+001 178 105 97
2.798244e+000 8.079520e-001 -1.325011e+001 140 73 64
2.875425e+000 8.360799e-001 -1.314689e+001 172 81 80
4.065222e+000 1.098766e+000 -1.277453e+001 111 79 54
3.254539e+000 8.781510e-001 -1.296051e+001 183 140 97
3.462904e+000 9.805872e-001 -1.255007e+001 223 193 158
4.184604e+000 1.046806e+000 -1.274267e+001 127 93 62
3.293875e+000 7.269667e-001 -1.281413e+001 169 125 61
3.651171e+000 8.348811e-001 -1.257370e+001 41 24 14
3.846728e+000 8.412906e-001 -1.263441e+001 124 98 75
3.327371e+000 6.022695e-001 -1.283912e+001 118 77 28
3.538873e+000 7.872370e-001 -1.252224e+001 132 101 72
2.844949e+000 2.233842e-001 -1.311588e+001 132 64 59
3.985522e+000 1.788698e+000 -1.333076e+001 138 104 73
3.540400e+000 1.643889e+000 -1.310974e+001 72 61 43
4.258068e+000 1.497879e+000 -1.312016e+001 87 56 30
4.299857e+000 1.519248e+000 -1.313388e+001 131 97 69
2.971609e+000 1.154022e+000 -1.350854e+001 188 152 116
3.231428e+000 1.266418e+000 -1.313512e+001 152 116 82
3.579259e+000 1.362690e+000 -1.293613e+001 78 62 39
4.197398e+000 1.438225e+000 -1.306830e+001 82 53 28
2.884343e+000 8.910374e-001 -1.330804e+001 187 106 103
2.763340e+000 7.455190e-001 -1.315008e+001 181 103 91
3.200257e+000 8.017776e-001 -1.300601e+001 128 70 46
2.818353e+000 5.967676e-001 -1.306914e+001 167 97 88
3.555333e+000 8.150138e-001 -1.256595e+001 54 31 18
4.622958e+000 8.705843e-001 -1.279067e+001 107 74 43
3.063643e+000 2.066187e-001 -1.321604e+001 106 40 41
4.216204e+000 1.892071e+000 -1.347473e+001 103 67 37
3.190912e+000 1.565274e+000 -1.314884e+001 185 154 118
4.399306e+000 1.457673e+000 -1.311268e+001 125 90 60
4.076070e+000 1.225127e+000 -1.292030e+001 90 60 36
2.737755e+000 8.764312e-001 -1.332261e+001 156 83 65
2.941429e+000 8.916927e-001 -1.324479e+001 148 72 65
2.930760e+000 8.600197e-001 -1.311847e+001 201 132 117
2.613165e+000 5.968867e-001 -1.325292e+001 160 104 77
1.679383e+000 1.148085e-001 -1.358121e+001 88 75 67
1.679383e+000 1.148085e-001 -1.358121e+001 88 75 67
3.033403e+000 3.071558e-001 -1.318101e+001 127 58 51
3.254387e+000 1.723144e+000 -1.317339e+001 232 203 171
4.070788e+000 1.423229e+000 -1.304221e+001 137 103 75
3.428801e+000 1.290239e+000 -1.281091e+001 58 35 19
3.961523e+000 8.103113e-001 -1.267401e+001 64 37 18
3.806265e+000 7.848843e-001 -1.262516e+001 35 22 8
3.450721e+000 5.002839e-001 -1.284884e+001 124 88 62
3.656228e+000 1.754419e+000 -1.325987e+001 172 143 113
3.237374e+000 1.535737e+000 -1.311926e+001 79 69 46
3.102812e+000 9.972183e-001 -1.318856e+001 137 91 67
3.328016e+000 8.920006e-001 -1.279473e+001 182 147 113
1.764809e+000 7.440901e-002 -1.350775e+001 178 142 114
4.582026e+000 1.876317e+000 -1.328628e+001 176 129 81
3.147194e+000 1.168416e+000 -1.320104e+001 192 153 112
4.252605e+000 2.178517e+000 -1.404943e+001 159 126 84
4.679257e+000 1.710562e+000 -1.332460e+001 18 13 10
4.648741e+000 2.194477e+000 -1.294272e+001 140 98 50
4.637287e+000 2.080291e+000 -1.306563e+001 186 141 90
3.307486e+000 1.792883e+000 -1.324824e+001 144 133 107
3.990445e+000 1.821085e+000 -1.335945e+001 98 64 36
3.637314e+000 1.762043e+000 -1.325493e+001 135 105 79
4.250212e+000 1.682063e+000 -1.322775e+001 81 51 27
3.064428e+000 1.240852e+000 -1.330792e+001 50 42 19
4.112646e+000 1.320216e+000 -1.297140e+001 84 51 24
3.246520e+000 1.133388e+000 -1.286345e+001 59 57 27
3.778276e+000 1.207961e+000 -1.282791e+001 134 107 85
4.574779e+000 1.197796e+000 -1.290908e+001 114 77 44
3.376444e+000 9.053198e-001 -1.271705e+001 110 75 43
3.168793e+000 1.761863e+000 -1.337950e+001 112 100 78
3.130659e+000 1.698549e+000 -1.332498e+001 102 98 69
3.833413e+000 1.846128e+000 -1.341384e+001 131 101 70
3.827514e+000 1.809379e+000 -1.332666e+001 117 83 55
4.169862e+000 1.875687e+000 -1.344358e+001 90 56 28
4.281269e+000 1.870732e+000 -1.344322e+001 103 68 39
4.244547e+000 1.837649e+000 -1.338986e+001 104 68 36
3.221974e+000 1.616756e+000 -1.322713e+001 97 68 42
3.145368e+000 1.521495e+000 -1.326786e+001 191 158 123
3.246667e+000 1.569327e+000 -1.316406e+001 62 50 29
3.524027e+000 1.544690e+000 -1.305091e+001 46 31 15
4.266232e+000 1.616409e+000 -1.319827e+001 109 77 52
3.798953e+000 1.532925e+000 -1.309348e+001 68 42 20
4.194520e+000 1.493523e+000 -1.311122e+001 111 82 52
4.252262e+000 1.415345e+000 -1.306548e+001 73 42 16
2.526411e+000 8.551213e-001 -1.366299e+001 188 123 105
3.380166e+000 1.254439e+000 -1.279472e+001 213 183 147
4.299764e+000 1.322751e+000 -1.300273e+001 101 64 36
3.322496e+000 1.143709e+000 -1.277390e+001 104 102 71
2.856995e+000 8.375622e-001 -1.321111e+001 176 95 88
3.275296e+000 8.440513e-001 -1.289911e+001 116 72 43
4.408110e+000 1.045549e+000 -1.279455e+001 105 66 32
3.029089e+000 4.574871e-001 -1.325145e+001 178 114 104
3.628088e+000 8.379402e-001 -1.253258e+001 111 96 67
4.049373e+000 1.876029e+000 -1.349677e+001 97 64 36
4.200674e+000 1.880006e+000 -1.347503e+001 84 50 22
4.197756e+000 1.879559e+000 -1.346830e+001 84 50 22
4.354024e+000 1.898567e+000 -1.350182e+001 128 92 59
3.304042e+000 1.708159e+000 -1.316358e+001 131 99 69
3.258526e+000 1.574357e+000 -1.314324e+001 135 112 88
3.546178e+000 1.557453e+000 -1.306592e+001 39 25 13
2.888143e+000 1.218753e+000 -1.369170e+001 152 110 68
3.966279e+000 1.555384e+000 -1.313610e+001 67 40 22
3.199737e+000 1.341599e+000 -1.311206e+001 90 83 51
4.303607e+000 1.447577e+000 -1.310817e+001 65 37 11
3.396604e+000 1.325311e+000 -1.286588e+001 127 88 55
3.092140e+000 1.078104e+000 -1.321330e+001 197 158 116
3.186986e+000 1.095328e+000 -1.312436e+001 193 150 105
4.306788e+000 1.227015e+000 -1.291198e+001 111 74 45
2.712909e+000 4.636112e-001 -1.317772e+001 187 136 107
2.997886e+000 4.665432e-001 -1.323570e+001 184 124 113
3.355612e+000 7.432380e-001 -1.275192e+001 83 73 48
4.114153e+000 1.644184e+000 -1.320638e+001 73 46 20
4.263856e+000 1.549660e+000 -1.316245e+001 119 86 59
4.041547e+000 1.402015e+000 -1.302241e+001 132 99 70
2.737487e+000 9.762051e-001 -1.345898e+001 196 130 114
4.071097e+000 1.115008e+000 -1.279335e+001 78 46 21
3.997619e+000 1.082204e+000 -1.273707e+001 108 78 54
4.115642e+000 1.092243e+000 -1.277605e+001 93 59 32
4.712082e+000 1.143420e+000 -1.288044e+001 149 109 66
3.270294e+000 7.523377e-001 -1.284946e+001 167 125 66
3.348743e+000 8.191689e-001 -1.275969e+001 44 34 19
3.339076e+000 7.477929e-001 -1.276998e+001 154 135 106
4.242415e+000 1.804231e+000 -1.335276e+001 84 50 24
4.002664e+000 1.643216e+000 -1.319053e+001 121 94 66
2.970521e+000 1.239582e+000 -1.357197e+001 173 138 98
2.999755e+000 1.265614e+000 -1.355269e+001 143 106 74
3.045497e+000 1.153151e+000 -1.330637e+001 137 100 66
3.314536e+000 1.200062e+000 -1.284145e+001 150 128 99
3.551540e+000 8.985381e-001 -1.258207e+001 48 29 14
4.299718e+000 8.223554e-001 -1.275014e+001 83 52 24
2.933347e+000 1.731908e-001 -1.316898e+001 176 100 102
3.999392e+000 1.848555e+000 -1.343815e+001 142 109 76
4.335206e+000 1.550795e+000 -1.322111e+001 83 53 27
3.036457e+000 1.108996e+000 -1.329245e+001 200 154 113
4.063705e+000 1.330518e+000 -1.297404e+001 81 51 25
3.552713e+000 1.100007e+000 -1.266075e+001 99 83 53
3.336300e+000 9.726606e-001 -1.279717e+001 162 138 107
3.954257e+000 1.097199e+000 -1.275390e+001 105 75 51
4.615157e+000 1.087559e+000 -1.283273e+001 106 67 34
3.297778e+000 8.686696e-001 -1.287862e+001 202 168 133
2.624633e+000 4.925534e-001 -1.324667e+001 169 118 91
3.310898e+000 8.346216e-001 -1.277274e+001 201 175 142
2.752384e+000 4.347038e-001 -1.315912e+001 175 106 91
3.342638e+000 7.069061e-001 -1.274549e+001 184 159 129
4.332057e+000 1.835586e+000 -1.339782e+001 126 91 61
4.045610e+000 1.681284e+000 -1.322817e+001 98 68 42
4.228367e+000 1.640261e+000 -1.320200e+001 128 94 67
3.277017e+000 1.266243e+000 -1.309001e+001 141 105 81
4.176797e+000 1.287607e+000 -1.295062e+001 118 84 57
4.331251e+000 8.868939e-001 -1.274192e+001 83 53 27
4.358517e+000 8.117822e-001 -1.276447e+001 143 112 81
3.381737e+000 1.456858e+000 -1.296389e+001 31 20 12
3.020959e+000 1.142297e+000 -1.339499e+001 127 94 63
2.989614e+000 9.031515e-001 -1.311838e+001 201 128 120
3.277724e+000 1.401569e+000 -1.300541e+001 119 92 65
3.127769e+000 1.220490e+000 -1.324962e+001 194 162 123
2.981212e+000 4.704061e-001 -1.312170e+001 124 46 44
4.059137e+000 9.821461e-001 -1.270731e+001 128 91 62
4.342107e+000 1.878653e+000 -1.353724e+001 122 86 56
4.830364e+000 9.204158e-001 -1.271821e+001 177 141 83
4.703639e+000 1.473788e+000 -1.301761e+001 22 17 14
4.527195e+000 2.064699e+000 -1.323372e+001 188 147 95
4.488608e+000 1.741873e+000 -1.329038e+001 169 130 96
4.117103e+000 1.509042e+000 -1.312517e+001 90 56 28
4.452245e+000 1.169773e+000 -1.288194e+001 101 62 27
4.120149e+000 1.432550e+000 -1.306328e+001 131 97 69
3.704600e+000 1.540589e+000 -1.313151e+001 139 107 80
3.893056e+000 1.555164e+000 -1.312608e+001 72 44 22
3.597648e+000 1.602751e+000 -1.232577e+001 134 105 75
4.138477e+000 1.426289e+000 -1.306041e+001 76 46 20
4.303645e+000 1.202117e+000 -1.289438e+001 96 62 26
2.238280e+000 3.519090e-001 -1.374389e+001 148 99 82
3.687010e+000 1.575108e+000 -1.311013e+001 131 101 73
4.615223e+000 1.455965e+000 -1.307060e+001 16 12 9
3.791599e+000 1.200932e+000 -1.282256e+001 126 96 70
3.462488e+000 8.483153e-001 -1.252368e+001 208 174 137
3.647136e+000 7.592066e-001 -1.255641e+001 33 22 15
3.022786e+000 1.309221e+000 -1.352571e+001 179 152 119
4.701522e+000 1.280743e+000 -1.307085e+001 114 80 53
1.485815e+000 5.141940e-002 -1.348588e+001 112 80 64
2.936579e+000 1.322404e+000 -1.366032e+001 155 111 74
3.936381e+000 1.165907e+000 -1.281178e+001 109 78 52
4.416343e+000 9.223558e-001 -1.276441e+001 98 63 35
4.674300e+000 1.132737e+000 -1.285521e+001 132 95 50
4.578934e+000 2.361880e+000 -1.343254e+001 166 128 79
3.467152e+000 1.861172e+000 -1.343197e+001 191 182 172
3.129373e+000 1.755139e+000 -1.338192e+001 94 87 61
3.191588e+000 1.786910e+000 -1.340836e+001 150 126 92
3.191588e+000 1.786910e+000 -1.340836e+001 150 126 92
3.195693e+000 1.762785e+000 -1.340536e+001 149 122 91
3.298250e+000 1.810674e+000 -1.330620e+001 105 94 77
3.298250e+000 1.810674e+000 -1.330620e+001 105 94 77
4.005273e+000 1.870704e+000 -1.350220e+001 124 88 57
3.136468e+000 1.743783e+000 -1.333770e+001 90 85 56
4.240636e+000 1.885111e+000 -1.348908e+001 87 54 24
4.397123e+000 1.865062e+000 -1.346212e+001 106 70 40
3.337718e+000 1.706262e+000 -1.315071e+001 96 78 59
3.347857e+000 1.703926e+000 -1.314003e+001 50 32 20
3.384495e+000 1.720384e+000 -1.314975e+001 39 27 13
3.443720e+000 1.726643e+000 -1.319906e+001 64 48 33
3.462806e+000 1.742393e+000 -1.321131e+001 150 134 111
3.354857e+000 1.678638e+000 -1.313460e+001 53 35 20
4.277650e+000 1.739948e+000 -1.329913e+001 82 50 25
4.456715e+000 1.767109e+000 -1.333989e+001 115 76 41
3.402841e+000 1.637519e+000 -1.310346e+001 40 28 14
3.505940e+000 1.617169e+000 -1.311327e+001 46 29 16
4.612837e+000 1.755346e+000 -1.340318e+001 122 88 58
3.162673e+000 1.476284e+000 -1.323182e+001 183 154 120
3.166226e+000 1.494912e+000 -1.317297e+001 207 178 146
3.517320e+000 1.566127e+000 -1.306982e+001 57 41 28
3.867590e+000 1.608163e+000 -1.315299e+001 94 64 36
3.892572e+000 1.604179e+000 -1.315307e+001 73 43 17
4.032024e+000 1.625972e+000 -1.318050e+001 68 40 16
4.033822e+000 1.624796e+000 -1.318456e+001 68 40 16
3.312631e+000 1.518704e+000 -1.300110e+001 164 130 102
3.407467e+000 1.477062e+000 -1.300111e+001 52 33 19
3.498737e+000 1.505115e+000 -1.302729e+001 56 40 30
3.514697e+000 1.533217e+000 -1.305069e+001 94 81 64
3.555663e+000 1.515898e+000 -1.302923e+001 71 56 35
3.854406e+000 1.567238e+000 -1.312888e+001 79 51 27
3.971815e+000 1.531137e+000 -1.311597e+001 73 47 24
4.250874e+000 1.607759e+000 -1.319258e+001 92 61 33
3.437528e+000 1.474743e+000 -1.300020e+001 203 188 154
3.163701e+000 1.241966e+000 -1.315049e+001 189 161 122
3.291118e+000 1.294217e+000 -1.310437e+001 150 118 93
3.392137e+000 1.355334e+000 -1.293709e+001 74 43 22
3.287876e+000 1.206899e+000 -1.310932e+001 125 89 63
3.740894e+000 1.387939e+000 -1.298629e+001 118 91 70
4.040865e+000 1.376658e+000 -1.301200e+001 94 63 35
3.115711e+000 1.071828e+000 -1.319818e+001 193 149 110
3.285374e+000 1.189601e+000 -1.310739e+001 122 86 64
3.626754e+000 1.334803e+000 -1.288813e+001 206 186 144
4.062925e+000 1.364395e+000 -1.299593e+001 89 57 32
4.209948e+000 1.336434e+000 -1.298451e+001 87 57 31
4.536277e+000 1.354976e+000 -1.304442e+001 111 77 49
3.238309e+000 1.108877e+000 -1.307856e+001 120 76 41
4.036828e+000 1.251763e+000 -1.291595e+001 69 39 15
3.142434e+000 1.022600e+000 -1.312048e+001 195 158 114
3.245205e+000 1.105480e+000 -1.285104e+001 98 94 56
3.548442e+000 1.205863e+000 -1.273500e+001 42 25 14
4.072011e+000 1.235904e+000 -1.289415e+001 97 67 43
3.544079e+000 1.157620e+000 -1.272394e+001 54 35 20
3.789277e+000 1.163739e+000 -1.272866e+001 118 92 69
4.458217e+000 1.179797e+000 -1.291862e+001 97 60 33
3.302967e+000 1.000272e+000 -1.286138e+001 127 107 76
3.551469e+000 1.102320e+000 -1.267952e+001 232 217 168
3.977225e+000 1.142159e+000 -1.280016e+001 79 49 23
4.335648e+000 1.162294e+000 -1.282999e+001 109 73 41
3.322142e+000 9.069287e-001 -1.285432e+001 191 158 120
3.686090e+000 1.049944e+000 -1.265405e+001 86 70 54
3.336818e+000 9.408450e-001 -1.272053e+001 195 161 131
3.366673e+000 9.177293e-001 -1.271338e+001 166 132 99
3.538302e+000 1.005686e+000 -1.259928e+001 76 60 45
3.299732e+000 7.897737e-001 -1.282072e+001 158 123 93
3.323722e+000 8.520694e-001 -1.275802e+001 170 146 118
3.333604e+000 8.209167e-001 -1.276716e+001 166 138 108
3.339146e+000 7.982731e-001 -1.276373e+001 127 117 90
3.339146e+000 7.982731e-001 -1.276373e+001 127 117 90
3.332720e+000 7.842161e-001 -1.277597e+001 56 46 27
4.600060e+000 9.595222e-001 -1.279623e+001 114 79 49
4.785132e+000 9.611312e-001 -1.288257e+001 103 65 26
3.383523e+000 8.342619e-001 -1.261154e+001 108 98 73
3.455466e+000 9.242471e-001 -1.254684e+001 202 168 132
3.288651e+000 6.121735e-001 -1.286904e+001 189 147 87
3.409130e+000 8.372988e-001 -1.252622e+001 143 121 90
3.463567e+000 8.527198e-001 -1.254688e+001 159 125 90
3.586054e+000 8.209682e-001 -1.255946e+001 69 50 18
3.681479e+000 8.147882e-001 -1.258280e+001 25 18 11
4.830585e+000 9.427677e-001 -1.259850e+001 183 148 94
4.086632e+000 1.883734e+000 -1.350149e+001 109 74 44
4.253696e+000 1.898763e+000 -1.355603e+001 98 63 35
4.160020e+000 1.867008e+000 -1.345152e+001 87 53 25
4.210709e+000 1.846325e+000 -1.343005e+001 148 114 79
3.233571e+000 1.708615e+000 -1.323452e+001 124 94 65
3.343292e+000 1.719436e+000 -1.315352e+001 48 30 15
3.501677e+000 1.728792e+000 -1.318113e+001 46 27 19
4.290290e+000 1.806762e+000 -1.339499e+001 119 85 57
3.357111e+000 1.664411e+000 -1.310691e+001 51 30 21
4.629644e+000 1.821408e+000 -1.333246e+001 130 92 54
4.640111e+000 1.806588e+000 -1.333448e+001 109 81 50
4.055654e+000 1.673182e+000 -1.321562e+001 76 46 20
2.944705e+000 1.296461e+000 -1.362597e+001 185 146 110
3.014380e+000 1.345192e+000 -1.356224e+001 189 160 126
2.988398e+000 1.295732e+000 -1.359639e+001 178 142 110
3.235238e+000 1.527468e+000 -1.301145e+001 65 59 30
3.816050e+000 1.575730e+000 -1.313423e+001 81 50 29
4.049215e+000 1.611390e+000 -1.317559e+001 85 57 33
4.266801e+000 1.615829e+000 -1.319870e+001 109 77 52
3.191683e+000 1.443600e+000 -1.305238e+001 54 50 26
3.229446e+000 1.456538e+000 -1.298341e+001 137 122 89
3.542549e+000 1.528805e+000 -1.306584e+001 82 69 52
3.826294e+000 1.563052e+000 -1.312584e+001 98 71 46
3.842242e+000 1.558932e+000 -1.312403e+001 98 71 50
3.839722e+000 1.529817e+000 -1.310204e+001 64 37 16
3.864013e+000 1.551863e+000 -1.312079e+001 93 67 44
3.893071e+000 1.533293e+000 -1.312894e+001 97 69 48
4.294495e+000 1.570172e+000 -1.318118e+001 77 45 20
3.022120e+000 1.242932e+000 -1.349331e+001 87 79 43
3.328930e+000 1.441419e+000 -1.293088e+001 141 104 69
3.452005e+000 1.467276e+000 -1.299636e+001 50 37 20
3.545365e+000 1.470290e+000 -1.299849e+001 44 26 12
3.053754e+000 1.177144e+000 -1.331142e+001 183 146 110
3.053754e+000 1.177144e+000 -1.331142e+001 183 146 110
3.104192e+000 1.220454e+000 -1.330367e+001 119 86 54
3.182710e+000 1.292527e+000 -1.311106e+001 97 89 60
3.378834e+000 1.401656e+000 -1.291937e+001 137 102 65
3.425324e+000 1.409085e+000 -1.295088e+001 46 30 15
3.429469e+000 1.393414e+000 -1.293510e+001 46 28 16
3.418662e+000 1.347115e+000 -1.289520e+001 53 34 20
3.441253e+000 1.353956e+000 -1.289340e+001 47 30 15
3.446954e+000 1.333894e+000 -1.288708e+001 49 33 18
3.447598e+000 1.327039e+000 -1.286463e+001 44 28 15
3.488495e+000 1.365348e+000 -1.288395e+001 105 88 70
3.632350e+000 1.348455e+000 -1.288599e+001 57 40 23
3.461167e+000 1.291940e+000 -1.284928e+001 30 17 10
3.461167e+000 1.291940e+000 -1.284928e+001 30 17 10
4.124595e+000 1.366966e+000 -1.300836e+001 76 44 21
4.137376e+000 1.353093e+000 -1.299883e+001 76 44 19
4.310923e+000 1.371296e+000 -1.304627e+001 108 71 42
3.372518e+000 1.225479e+000 -1.278474e+001 173 143 107
3.608426e+000 1.263797e+000 -1.284592e+001 47 31 16
3.638378e+000 1.275532e+000 -1.284490e+001 61 44 25
3.615050e+000 1.244230e+000 -1.284677e+001 52 34 20
4.135759e+000 1.265294e+000 -1.294379e+001 100 70 44
4.283006e+000 1.285600e+000 -1.294374e+001 130 95 63
3.636385e+000 1.181583e+000 -1.279075e+001 49 33 23
3.681350e+000 1.208893e+000 -1.276152e+001 50 33 18
3.465857e+000 1.153835e+000 -1.271992e+001 120 83 54
2.778065e+000 7.457757e-001 -1.317169e+001 171 91 81
3.707372e+000 1.117094e+000 -1.268164e+001 61 44 25
3.673339e+000 1.060809e+000 -1.267011e+001 61 44 28
4.541946e+000 1.134044e+000 -1.284658e+001 118 82 50
3.119324e+000 7.247171e-001 -1.303340e+001 154 70 68
3.468529e+000 9.890817e-001 -1.257412e+001 134 95 62
3.844420e+000 1.038452e+000 -1.268073e+001 133 104 76
4.166062e+000 1.032447e+000 -1.273359e+001 85 54 26
4.202586e+000 1.023085e+000 -1.272634e+001 106 72 37
4.471892e+000 1.055757e+000 -1.280691e+001 108 71 42
3.728250e+000 9.753019e-001 -1.259794e+001 49 32 16
3.753265e+000 9.831561e-001 -1.260936e+001 38 24 11
4.573494e+000 9.975334e-001 -1.279657e+001 75 39 12
4.763263e+000 1.019084e+000 -1.285723e+001 96 62 22
3.317241e+000 7.458039e-001 -1.280230e+001 48 41 25
3.350689e+000 7.836106e-001 -1.276049e+001 56 48 28
3.381367e+000 8.122782e-001 -1.263836e+001 56 50 29
3.381367e+000 8.122782e-001 -1.263836e+001 56 50 29
3.481353e+000 9.221582e-001 -1.253144e+001 249 222 193
3.585641e+000 9.183909e-001 -1.256446e+001 254 253 239
3.744609e+000 9.104747e-001 -1.258114e+001 60 45 26
4.009011e+000 8.714697e-001 -1.266571e+001 93 59 33
4.072784e+000 8.986882e-001 -1.269212e+001 102 67 39
3.009852e+000 3.910000e-001 -1.318160e+001 137 63 58
3.393366e+000 8.397267e-001 -1.256376e+001 122 108 81
3.501863e+000 8.870791e-001 -1.250541e+001 127 94 61
3.599440e+000 8.252962e-001 -1.254997e+001 73 55 31
4.327043e+000 8.457380e-001 -1.275716e+001 103 72 43
3.356658e+000 5.397746e-001 -1.279846e+001 178 142 106
3.749498e+000 6.077233e-001 -1.268563e+001 36 23 16
3.320447e+000 1.838549e+000 -1.347319e+001 75 63 45
3.446738e+000 1.842868e+000 -1.350421e+001 59 50 36
3.578778e+000 1.803097e+000 -1.332713e+001 135 110 88
4.664636e+000 1.982949e+000 -1.314197e+001 143 108 70
3.284719e+000 1.695330e+000 -1.313806e+001 120 86 56
3.409672e+000 1.723458e+000 -1.318099e+001 37 24 14
3.517025e+000 1.685380e+000 -1.315245e+001 59 43 28
4.171557e+000 1.746651e+000 -1.328741e+001 92 58 30
3.328796e+000 1.621423e+000 -1.308884e+001 128 96 66
3.314620e+000 1.609010e+000 -1.307580e+001 112 78 49
4.101987e+000 1.704326e+000 -1.325052e+001 88 57 29
3.201320e+000 1.466066e+000 -1.313565e+001 61 55 37
3.240040e+000 1.539911e+000 -1.305633e+001 76 64 40
3.318005e+000 1.557892e+000 -1.306954e+001 145 109 80
3.962987e+000 1.625375e+000 -1.318748e+001 103 75 51
4.048639e+000 1.591417e+000 -1.316717e+001 101 74 47
4.522488e+000 1.668131e+000 -1.324513e+001 108 77 53
3.115219e+000 1.270389e+000 -1.350796e+001 47 39 20
4.280685e+000 1.599598e+000 -1.319190e+001 77 45 20
4.369990e+000 1.614107e+000 -1.320147e+001 83 50 25
3.121075e+000 1.246497e+000 -1.335923e+001 97 75 50
3.575151e+000 1.482039e+000 -1.299942e+001 52 37 23
3.066077e+000 1.157237e+000 -1.329234e+001 196 158 119
3.485412e+000 1.382181e+000 -1.289624e+001 93 77 57
3.960429e+000 1.379134e+000 -1.300039e+001 77 46 26
4.321684e+000 1.438778e+000 -1.309360e+001 106 75 47
2.720730e+000 9.285292e-001 -1.345838e+001 200 133 116
4.600733e+000 1.374978e+000 -1.303046e+001 101 67 42
3.429012e+000 1.239096e+000 -1.278085e+001 130 96 62
3.539804e+000 1.248582e+000 -1.281457e+001 43 27 17
3.663542e+000 1.267808e+000 -1.282674e+001 49 34 16
4.034968e+000 1.266369e+000 -1.292417e+001 115 85 60
2.948838e+000 8.741441e-001 -1.326859e+001 121 50 44
3.338687e+000 1.145002e+000 -1.278410e+001 74 69 40
3.805084e+000 1.180816e+000 -1.284986e+001 119 90 69
4.081660e+000 1.247501e+000 -1.290182e+001 74 44 20
4.640571e+000 1.285048e+000 -1.296676e+001 125 89 50
3.403373e+000 1.106847e+000 -1.275010e+001 166 132 104
2.746864e+000 7.318492e-001 -1.317508e+001 179 96 88
3.701444e+000 1.136927e+000 -1.269712e+001 52 34 20
4.532274e+000 1.154636e+000 -1.286247e+001 123 88 58
2.640544e+000 4.751006e-001 -1.321896e+001 203 160 125
3.277994e+000 7.563975e-001 -1.282813e+001 154 114 59
3.336414e+000 8.486757e-001 -1.275444e+001 53 45 25
3.478060e+000 9.426620e-001 -1.255678e+001 188 154 120
3.489353e+000 9.633867e-001 -1.254497e+001 119 84 52
3.657212e+000 9.639608e-001 -1.261049e+001 76 60 34
4.437698e+000 9.970060e-001 -1.277655e+001 97 61 29
4.466603e+000 9.960937e-001 -1.280109e+001 129 93 59
2.660925e+000 4.404340e-001 -1.319597e+001 189 128 106
2.685267e+000 4.288877e-001 -1.318733e+001 189 129 105
3.140388e+000 4.579216e-001 -1.326879e+001 153 77 79
3.470646e+000 9.335279e-001 -1.253784e+001 167 133 98
3.500315e+000 9.162484e-001 -1.253313e+001 138 103 72
4.062684e+000 8.719420e-001 -1.270778e+001 106 72 44
3.251164e+000 5.825362e-001 -1.294734e+001 193 153 101
3.492958e+000 8.670009e-001 -1.253010e+001 226 195 166
3.543926e+000 8.338833e-001 -1.256870e+001 141 107 77
3.503031e+000 7.567965e-001 -1.252508e+001 221 196 165
3.753924e+000 7.426047e-001 -1.260760e+001 84 72 50
2.820855e+000 2.553663e-001 -1.308767e+001 197 143 127
2.839370e+000 2.373194e-001 -1.310170e+001 161 87 88
4.705045e+000 2.179916e+000 -1.294514e+001 146 109 74
3.181802e+000 1.765561e+000 -1.341149e+001 47 39 24
3.153036e+000 1.724748e+000 -1.331455e+001 81 81 57
3.153036e+000 1.724748e+000 -1.331455e+001 81 81 57
3.525462e+000 1.778021e+000 -1.320828e+001 45 33 19
4.505266e+000 1.911034e+000 -1.354191e+001 185 143 105
4.508082e+000 1.896057e+000 -1.346278e+001 185 143 99
3.377944e+000 1.712288e+000 -1.316818e+001 58 40 30
3.279607e+000 1.640791e+000 -1.311970e+001 213 185 152
3.330988e+000 1.585100e+000 -1.305293e+001 129 94 64
3.528783e+000 1.642472e+000 -1.311928e+001 56 40 26
3.552196e+000 1.650647e+000 -1.311292e+001 42 25 15
3.422223e+000 1.580604e+000 -1.305643e+001 155 140 119
3.538942e+000 1.597529e+000 -1.308293e+001 169 153 120
3.538942e+000 1.597529e+000 -1.308293e+001 169 153 120
4.069300e+000 1.622825e+000 -1.318804e+001 112 82 58
3.276947e+000 1.475336e+000 -1.299174e+001 141 108 72
3.358873e+000 1.477620e+000 -1.298522e+001 125 91 53
4.557958e+000 1.586693e+000 -1.324001e+001 107 73 48
2.989895e+000 1.182026e+000 -1.353730e+001 124 89 58
3.026755e+000 1.240039e+000 -1.335890e+001 54 45 17
3.583566e+000 1.440324e+000 -1.297358e+001 48 29 24
2.525811e+000 9.459150e-001 -1.377578e+001 177 119 98
2.681299e+000 9.589260e-001 -1.376879e+001 187 136 109
3.337391e+000 1.418742e+000 -1.290356e+001 153 117 85
3.304035e+000 1.218406e+000 -1.309987e+001 154 123 95
3.358436e+000 1.356684e+000 -1.290968e+001 101 65 40
3.462746e+000 1.378218e+000 -1.288150e+001 58 41 23
4.277206e+000 1.417916e+000 -1.307015e+001 79 47 22
4.462749e+000 1.363038e+000 -1.304048e+001 119 84 54
3.067523e+000 1.000753e+000 -1.324919e+001 156 95 74
4.478307e+000 1.344101e+000 -1.301709e+001 121 86 55
3.448573e+000 1.179885e+000 -1.270200e+001 140 102 62
3.447104e+000 1.144557e+000 -1.270737e+001 124 89 49
2.843752e+000 7.954058e-001 -1.309167e+001 177 81 82
3.469831e+000 1.109354e+000 -1.265547e+001 141 108 65
3.429083e+000 1.049096e+000 -1.268084e+001 134 102 71
3.483536e+000 1.072002e+000 -1.262158e+001 131 95 61
1.681623e+000 1.487621e-001 -1.368825e+001 166 127 96
3.322047e+000 8.854991e-001 -1.280420e+001 197 164 124
3.480155e+000 9.976446e-001 -1.258128e+001 105 68 41
3.488041e+000 9.911623e-001 -1.259455e+001 105 68 41
3.554549e+000 1.015004e+000 -1.261102e+001 75 60 43
3.737312e+000 1.049916e+000 -1.264217e+001 50 34 19
3.379434e+000 8.831161e-001 -1.264995e+001 73 59 33
3.379500e+000 8.826440e-001 -1.265026e+001 73 59 33
3.515721e+000 9.478159e-001 -1.255593e+001 133 97 63
3.339203e+000 7.471444e-001 -1.277079e+001 154 135 106
3.660325e+000 8.839109e-001 -1.258640e+001 72 58 32
3.969299e+000 9.193669e-001 -1.266717e+001 115 82 51
4.010767e+000 8.931876e-001 -1.266940e+001 119 88 59
4.499501e+000 9.469124e-001 -1.275187e+001 99 66 35
