ply
format ascii 1.0
element face 0
property list uchar int vertex_indices
element vertex 893
property float x
property float y
property float z
property uchar diffuse_red
property uchar diffuse_green
property uchar diffuse_blue
end_header
3.839965e+000 2.655878e+000 -1.383546e+001 81 49 24
5.014348e+000 1.561265e+000 -1.320378e+001 93 57 25
3.827263e+000 9.603697e-001 -1.287937e+001 89 63 40
1.478164e+000 1.363598e+000 -1.377479e+001 158 113 68
4.771105e+000 4.291235e-001 -1.337534e+001 90 65 41
5.503531e+000 4.034954e-001 -1.363740e+001 80 53 26
2.781615e+000 -2.211883e-001 -1.294366e+001 153 137 104
1.886139e+000 -5.752011e-001 -1.384667e+001 60 52 29
1.748270e+000 -1.050629e+000 -1.424398e+001 61 55 33
2.986882e+000 -1.135583e+000 -1.489160e+001 139 115 95
4.147259e+000 -1.174348e+000 -1.518104e+001 78 52 30
-4.196472e+000 -2.109167e+000 -1.529431e+001 132 87 66
4.592227e+000 3.462717e+000 -1.450770e+001 132 97 70
4.330464e+000 2.598612e+000 -1.383761e+001 133 100 70
5.676076e+000 1.503444e+000 -1.324892e+001 98 59 30
4.312568e+000 1.348028e+000 -1.294294e+001 128 92 61
5.251782e+000 1.456300e+000 -1.309425e+001 97 61 29
1.795154e+000 1.205136e+000 -1.309057e+001 45 39 22
4.149765e+000 -4.520021e-001 -1.441078e+001 66 41 17
5.163341e+000 -3.143343e-001 -1.449071e+001 87 63 40
4.950866e+000 -4.814731e-001 -1.463198e+001 97 72 49
4.652058e-001 -5.867386e-001 -1.414462e+001 160 86 85
4.054278e+000 -1.321215e+000 -1.529903e+001 88 64 41
-3.697158e+000 -1.312820e+000 -1.506845e+001 102 64 45
-2.857197e+000 -1.659784e+000 -1.515551e+001 155 120 98
8.337957e-001 -1.886970e+000 -1.513162e+001 120 66 58
1.354328e+000 -1.817139e+000 -1.528175e+001 60 52 35
4.359510e+000 -1.969033e+000 -1.629596e+001 90 68 46
4.857675e+000 3.051144e+000 -1.425893e+001 95 61 33
4.092370e+000 1.965749e+000 -1.325310e+001 80 50 24
3.941158e+000 1.235358e+000 -1.287333e+001 108 74 47
4.227463e+000 1.178577e+000 -1.296296e+001 81 46 21
5.651777e+000 1.300230e+000 -1.320125e+001 79 45 21
1.642961e+000 1.489973e+000 -1.357635e+001 173 132 88
1.511475e+000 1.475166e+000 -1.372141e+001 185 147 102
5.096140e+000 7.339182e-001 -1.324442e+001 81 51 25
4.269508e+000 2.716393e-001 -1.345104e+001 107 80 53
4.963214e+000 3.416872e-001 -1.358751e+001 55 30 7
2.775636e+000 -1.152198e-001 -1.277146e+001 61 52 34
-1.188016e-001 -1.100384e-001 -1.426402e+001 197 145 124
-1.188016e-001 -1.100384e-001 -1.426402e+001 197 145 124
7.528275e-001 -1.294378e-001 -1.455291e+001 114 49 45
5.109884e+000 -5.591263e-001 -1.473379e+001 100 76 52
1.457333e-001 -5.643631e-001 -1.414918e+001 186 134 114
4.831219e+000 -1.064071e+000 -1.520761e+001 113 83 58
5.449318e+000 -8.982308e-001 -1.519849e+001 100 77 53
3.773700e+000 -1.726038e+000 -1.575107e+001 98 76 53
5.775180e+000 1.716574e+000 -1.344423e+001 127 91 55
5.876292e+000 1.201117e+000 -1.296812e+001 143 106 70
1.918323e+000 9.554301e-001 -1.298191e+001 111 105 76
1.878187e+000 7.625848e-001 -1.300797e+001 56 49 27
4.926855e+000 4.209204e-001 -1.344780e+001 103 74 50
5.176208e+000 2.558435e-001 -1.374098e+001 112 82 58
5.351930e-001 -9.705546e-001 -1.449961e+001 100 26 29
1.535765e+000 -1.566797e+000 -1.514494e+001 44 34 24
-3.161035e+000 -1.259315e+000 -1.543738e+001 164 119 98
3.684803e+000 1.573658e+000 -1.287430e+001 76 48 27
1.069156e+000 2.260263e+000 -1.499538e+001 197 157 120
1.716441e+000 1.236161e+000 -1.334502e+001 180 147 113
5.677990e+000 7.498921e-001 -1.326988e+001 109 72 45
2.222300e+000 4.769389e-001 -1.268992e+001 192 160 129
1.959863e+000 -4.333923e-001 -1.398160e+001 47 35 23
4.624836e+000 -4.821270e-001 -1.446368e+001 103 78 50
2.797636e-001 -5.017777e-001 -1.430259e+001 132 64 56
4.119604e+000 -6.924661e-001 -1.459010e+001 67 42 20
2.037647e+000 -8.677546e-001 -1.414664e+001 132 108 82
-2.509122e+000 -1.288496e+000 -1.533069e+001 123 82 62
3.965274e+000 -2.970335e+000 -1.717018e+001 80 53 34
2.682478e+001 -1.951137e+001 2.014582e+002 100 98 121
5.164776e+000 1.366912e+000 -1.315453e+001 124 88 58
2.268712e+000 9.396507e-001 -1.237699e+001 181 150 119
4.304593e+000 1.139710e+000 -1.295864e+001 77 45 22
1.009058e+000 1.222630e+000 -1.389240e+001 169 84 79
1.182494e+000 8.343081e-001 -1.371431e+001 151 72 67
5.927629e-001 -8.895252e-002 -1.446168e+001 119 52 49
4.580483e-001 -4.503643e-001 -1.429132e+001 167 97 91
1.523047e+000 -1.001782e+000 -1.449999e+001 154 119 91
4.045419e+000 1.032450e+000 -1.290649e+001 104 72 47
4.098097e+000 -1.201632e+000 -1.515783e+001 86 59 38
2.785562e+000 -1.391055e+000 -1.506343e+001 40 25 12
1.354487e+002 -2.472356e+001 2.859808e+002 183 173 163
4.086830e+000 1.499751e+000 -1.298491e+001 121 87 53
1.545867e-001 -7.237991e-001 -1.418186e+001 131 59 57
-2.793637e+000 -1.460243e+000 -1.523899e+001 174 139 113
2.190891e+000 3.342386e+000 -1.398814e+001 66 50 33
2.305006e+000 3.367237e+000 -1.406775e+001 50 32 19
1.434135e+000 3.568563e+000 -1.454044e+001 165 131 94
3.694139e+000 3.182980e+000 -1.421798e+001 84 54 31
4.731142e+000 3.021859e+000 -1.423476e+001 99 64 38
4.204334e+000 2.427227e+000 -1.369770e+001 101 67 39
2.252205e+000 1.565480e+000 -1.243309e+001 124 88 51
4.679721e+000 7.516878e-001 -1.309145e+001 62 38 13
5.667363e+000 -1.424166e-001 -1.442393e+001 77 49 25
1.376482e+000 -3.964384e-001 -1.480875e+001 95 43 30
-3.885913e+000 -1.381430e+000 -1.521227e+001 115 77 55
9.308052e-002 -2.394910e+000 -1.678753e+001 170 110 100
4.322737e+000 3.566300e+000 -1.461740e+001 95 64 37
4.534033e+000 3.253626e+000 -1.438021e+001 97 63 35
1.871281e+000 2.715107e+000 -1.360409e+001 128 94 62
4.490453e+000 2.322819e+000 -1.368538e+001 103 67 39
2.305405e+000 1.306525e+000 -1.240826e+001 128 94 59
1.741173e+000 1.558940e+000 -1.340251e+001 147 119 95
3.052583e+000 4.910947e-001 -1.290128e+001 33 23 13
3.095287e+000 5.038950e-001 -1.285174e+001 94 78 56
3.151066e+000 5.230147e-001 -1.288419e+001 47 29 16
-2.658327e-001 1.113065e-001 -1.439204e+001 163 113 85
2.382375e+000 -5.071514e-001 -1.406078e+001 38 27 10
3.538264e+000 -1.446561e+000 -1.532766e+001 57 32 11
-2.000074e+000 -1.362400e+000 -1.555792e+001 151 114 90
-4.115082e+000 -1.576001e+000 -1.529275e+001 138 94 65
5.343338e-001 -2.027315e+000 -1.529403e+001 138 75 65
3.580494e+000 -2.928317e+000 -1.719659e+001 98 71 50
2.256877e+000 3.070969e+000 -1.380497e+001 64 45 26
7.093836e-001 6.633267e-003 -1.463893e+001 178 122 109
5.254417e+000 -2.579612e-001 -1.447812e+001 92 70 47
1.139160e+000 -6.028836e-001 -1.454422e+001 110 49 45
1.370361e+000 -4.647368e-001 -1.477731e+001 151 99 85
1.370361e+000 -4.647368e-001 -1.477731e+001 151 99 85
2.467104e+000 -6.627741e-001 -1.433738e+001 45 37 15
3.300956e+000 -2.119849e+000 -1.610625e+001 73 46 27
3.300956e+000 -2.119849e+000 -1.610625e+001 73 46 27
4.422013e+000 -2.029781e+000 -1.634102e+001 64 42 19
-3.785863e+000 -1.763474e+000 -1.514322e+001 126 83 58
4.313123e+000 -2.506657e+000 -1.684689e+001 76 49 28
1.803836e+000 -2.652058e+000 -1.624965e+001 113 81 53
1.603328e+000 -3.053009e+000 -1.655513e+001 201 171 142
1.326683e+000 3.008524e+000 -1.471994e+001 185 155 117
1.801869e+000 2.300902e+000 -1.341858e+001 159 132 105
5.568761e+000 3.369163e-001 -1.376696e+001 81 53 30
-4.847845e-001 3.235079e-001 -1.472343e+001 143 92 63
-2.901412e-001 5.564965e-002 -1.445206e+001 203 156 126
-1.177989e-001 -6.978171e-001 -1.412334e+001 165 94 92
2.007956e+000 -7.523137e-001 -1.402964e+001 91 67 41
5.340113e+000 -8.482024e-001 -1.514721e+001 61 37 13
2.408955e+000 -1.308680e+000 -1.484183e+001 80 67 48
5.093970e+000 -2.583735e+000 -1.716266e+001 92 68 44
1.062454e+000 -2.990351e+000 -1.681908e+001 174 135 106
4.858543e+000 2.897800e+000 -1.418468e+001 127 93 65
7.043239e-001 2.552347e+000 -1.585582e+001 189 147 112
9.548642e-001 2.163832e+000 -1.490468e+001 110 80 52
9.842323e-001 1.388920e+000 -1.397561e+001 206 134 120
4.183852e+000 5.393815e-001 -1.316286e+001 74 46 25
1.645657e+000 6.664642e-001 -1.348071e+001 126 82 22
1.147579e+000 -3.368165e-001 -1.446156e+001 119 65 56
3.779410e+000 -9.988777e-001 -1.490821e+001 74 48 26
2.679313e+000 -1.545799e+000 -1.506865e+001 54 39 21
4.082429e+000 -2.426964e+000 -1.672797e+001 73 46 25
1.859853e+000 3.230446e+000 -1.388270e+001 212 178 143
5.096280e+000 2.656553e+000 -1.401070e+001 149 114 76
2.413793e+000 1.240163e+000 -1.223741e+001 58 39 22
2.008188e+000 9.299483e-001 -1.259606e+001 59 51 28
3.105944e-001 1.057249e+000 -1.433348e+001 163 72 72
1.782735e+000 8.098087e-001 -1.309142e+001 172 147 113
4.104487e+000 6.136503e-001 -1.309999e+001 93 65 43
5.086642e+000 5.604854e-001 -1.335679e+001 72 46 25
5.389356e+001 -4.206265e+001 1.935875e+002 136 128 125
2.125412e+000 -2.342896e-001 -1.357089e+001 170 139 111
3.510645e+001 -2.802910e+001 1.758761e+002 129 128 144
1.106950e+000 -6.841975e-001 -1.452152e+001 152 104 82
4.358661e+000 -8.817064e-001 -1.491769e+001 65 37 16
4.521837e+000 -1.867878e+000 -1.616078e+001 72 44 22
1.897382e+000 2.943071e+000 -1.366486e+001 178 142 105
3.350570e+000 3.262316e+000 -1.415604e+001 97 66 38
6.295820e+000 2.452452e+000 -1.406499e+001 21 16 13
2.906465e+000 1.661920e+000 -1.260160e+001 152 129 96
3.160220e+000 1.746297e+000 -1.286920e+001 65 47 27
3.951616e+000 -9.405667e-002 -1.389752e+001 98 73 51
5.859413e+001 -4.258252e+001 1.943450e+002 126 121 117
5.655009e+000 -3.217076e-001 -1.458517e+001 89 57 32
1.154173e+000 -1.253426e+000 -1.489677e+001 97 43 41
4.520262e+000 -1.294338e+000 -1.532306e+001 62 37 17
4.749932e+000 -1.295036e+000 -1.551778e+001 105 79 52
-2.530836e+000 -1.488503e+000 -1.538955e+001 79 46 31
5.896886e+002 -6.207347e+001 1.254267e+003 176 166 151
3.457735e+000 -1.872346e+000 -1.588841e+001 96 72 48
3.288239e+000 -3.088314e+000 -1.722683e+001 106 79 58
2.024114e+000 2.303834e+000 -1.304034e+001 211 178 145
2.427201e+000 8.191417e-001 -1.241874e+001 39 23 14
2.304567e+000 7.192765e-001 -1.252245e+001 181 152 122
2.041699e+000 2.179186e-001 -1.303197e+001 132 97 68
4.956486e+001 -4.093337e+001 2.003197e+002 172 165 161
4.956486e+001 -4.093337e+001 2.003197e+002 172 165 161
5.722959e+000 -1.407445e+000 -1.581654e+001 131 100 69
7.012457e+001 -4.236854e+001 2.068082e+002 177 170 165
7.012457e+001 -4.236854e+001 2.068082e+002 177 170 165
3.033506e+001 -3.341673e+001 1.825006e+002 87 85 96
6.855985e-001 -1.225198e+000 -1.443161e+001 122 54 55
2.309327e+002 1.073345e+000 5.239771e+002 245 228 221
1.800367e+000 1.931544e+000 -1.349146e+001 84 71 44
2.409829e+002 -3.649432e+001 5.460694e+002 254 254 254
1.455412e+002 1.458464e+001 3.216894e+002 163 154 147
4.215849e+000 3.568774e+000 -1.450598e+001 121 87 60
4.920655e+000 3.842042e+000 -1.490607e+001 109 73 41
5.425843e+000 4.005047e+000 -1.509661e+001 111 75 43
2.304855e+000 3.408522e+000 -1.404932e+001 105 87 59
2.817357e+000 3.159171e+000 -1.394149e+001 81 68 48
1.652805e+000 2.990446e+000 -1.402678e+001 75 58 33
2.689814e+000 3.053153e+000 -1.383672e+001 226 211 173
2.689814e+000 3.053153e+000 -1.383672e+001 226 211 173
4.911397e+000 3.018759e+000 -1.426587e+001 97 63 36
4.911397e+000 3.018759e+000 -1.426587e+001 97 63 36
5.032436e+000 3.155863e+000 -1.432130e+001 125 91 61
5.966077e+000 3.244793e+000 -1.477310e+001 115 85 58
1.967253e+000 2.582851e+000 -1.338285e+001 177 139 105
2.041761e+000 2.612322e+000 -1.340352e+001 140 103 67
2.718852e+000 2.707349e+000 -1.356965e+001 75 53 30
3.948584e+000 2.739607e+000 -1.389341e+001 98 67 39
5.085442e+000 2.851913e+000 -1.423367e+001 116 82 54
2.520508e+000 2.475814e+000 -1.341972e+001 63 46 31
4.979660e+000 2.381193e+000 -1.383415e+001 124 85 49
2.874092e+000 1.915421e+000 -1.292303e+001 253 236 170
2.907335e+000 1.958519e+000 -1.297758e+001 67 45 24
3.662793e+000 1.963086e+000 -1.319051e+001 103 71 46
4.041295e+000 2.243000e+000 -1.349550e+001 132 100 72
1.569263e+000 1.929150e+000 -1.360120e+001 193 157 116
2.554320e+000 1.714908e+000 -1.267943e+001 166 148 115
2.914124e+000 1.746693e+000 -1.279186e+001 247 232 181
5.184393e+000 -6.196210e-001 -1.484097e+001 71 50 26
1.311685e+000 -6.426074e-001 -1.459477e+001 124 68 57
2.315533e+000 -9.654794e-001 -1.446027e+001 37 23 8
-1.927384e+000 -1.320556e+000 -1.560283e+001 162 125 98
1.510309e+000 -1.765474e+000 -1.533746e+001 46 33 20
1.648666e+000 -2.588873e+000 -1.621973e+001 215 180 152
1.648666e+000 -2.588873e+000 -1.621973e+001 215 180 152
2.129355e+000 3.724600e+000 -1.431305e+001 70 54 32
4.791333e+000 3.803749e+000 -1.483762e+001 103 66 37
5.997000e+000 3.965379e+000 -1.523849e+001 119 77 42
5.997000e+000 3.965379e+000 -1.523849e+001 119 77 42
4.310638e+000 3.462120e+000 -1.450063e+001 124 89 62
1.986940e+000 2.962355e+000 -1.363410e+001 184 151 113
2.103222e+000 2.628499e+000 -1.346287e+001 142 105 76
2.884087e+000 2.515693e+000 -1.337908e+001 62 47 26
4.795982e+000 2.721509e+000 -1.406698e+001 122 87 59
2.831338e+000 2.232129e+000 -1.315496e+001 76 64 42
4.063858e+000 2.424105e+000 -1.376930e+001 99 64 38
4.446784e+000 2.453064e+000 -1.377158e+001 126 92 64
4.785193e+000 2.303848e+000 -1.370689e+001 102 66 32
2.187391e+000 1.972174e+000 -1.272055e+001 148 110 73
4.706258e+000 2.212639e+000 -1.363835e+001 108 69 36
4.221390e+000 1.932222e+000 -1.326552e+001 97 62 34
1.308997e+000 1.854383e+000 -1.391447e+001 211 173 128
2.252290e+000 1.539672e+000 -1.258809e+001 175 140 102
3.067011e+000 1.524545e+000 -1.265480e+001 128 111 85
1.710679e+000 1.526853e+000 -1.347047e+001 125 86 55
1.732937e+000 7.766701e-001 -1.321667e+001 141 100 50
5.874472e+000 7.188113e-001 -1.342559e+001 78 46 21
-1.148879e-001 8.607366e-001 -1.467680e+001 158 100 78
1.855711e-001 8.113438e-001 -1.404057e+001 170 94 86
1.157918e+000 -3.467866e-002 -1.466088e+001 135 66 69
2.216056e+000 -2.055173e-001 -1.350992e+001 103 72 43
4.722181e+000 -2.575862e-001 -1.434990e+001 70 46 22
5.066661e+000 -3.557008e-001 -1.457168e+001 54 32 11
5.245378e+000 -2.931541e-001 -1.457155e+001 52 30 8
1.800818e+000 -4.572404e-001 -1.399419e+001 40 31 14
1.956864e+000 -5.248478e-001 -1.393282e+001 98 81 56
2.428497e+000 -4.514084e-001 -1.404642e+001 39 25 17
5.201156e+000 -4.552398e-001 -1.467471e+001 88 65 43
5.505975e+000 -6.240779e-001 -1.491980e+001 55 31 9
-3.533799e+000 -8.747614e-001 -1.573983e+001 92 70 60
-3.533799e+000 -8.747614e-001 -1.573983e+001 92 70 60
4.518869e+000 -1.111892e+000 -1.519441e+001 97 72 49
1.595546e+000 -1.295187e+000 -1.441028e+001 178 146 105
3.776118e+000 -1.383821e+000 -1.531847e+001 66 43 22
-4.100093e+000 -1.459553e+000 -1.521938e+001 141 94 64
1.774637e+000 -2.432801e+000 -1.604982e+001 126 92 65
2.602854e+000 -2.787571e+000 -1.678006e+001 65 46 29
3.703431e+000 3.744894e+000 -1.453720e+001 121 86 59
4.796416e+000 3.647663e+000 -1.469105e+001 131 98 70
5.260893e+000 3.710046e+000 -1.483104e+001 124 91 60
2.218925e+000 3.221081e+000 -1.387902e+001 65 48 28
5.311425e+000 3.485762e+000 -1.467465e+001 117 84 53
2.690204e+000 2.988635e+000 -1.379424e+001 47 33 20
3.514770e+000 3.060127e+000 -1.409359e+001 81 53 29
4.527608e+000 2.978717e+000 -1.419145e+001 137 104 73
2.459371e+000 2.621593e+000 -1.349862e+001 47 35 19
2.733630e+000 2.730880e+000 -1.358162e+001 69 50 35
2.778567e+000 2.472749e+000 -1.334651e+001 77 60 37
3.899677e+000 2.644033e+000 -1.374341e+001 127 96 67
3.314659e+000 2.509374e+000 -1.378487e+001 141 111 83
5.400886e+000 2.279342e+000 -1.380464e+001 108 67 35
5.400886e+000 2.279342e+000 -1.380464e+001 108 67 35
3.032440e+000 1.839738e+000 -1.288558e+001 132 113 80
4.354474e+000 1.928448e+000 -1.327956e+001 140 104 70
4.955929e+000 1.972832e+000 -1.347380e+001 145 107 70
5.401916e+000 1.785271e+000 -1.308456e+001 128 93 61
2.313879e+000 1.478061e+000 -1.260407e+001 135 99 63
1.856692e+000 1.315708e+000 -1.292904e+001 67 60 32
2.447881e+000 1.213827e+000 -1.275536e+001 117 82 49
1.860598e+000 1.144333e+000 -1.303189e+001 94 84 58
1.937945e+000 1.035688e+000 -1.265757e+001 112 102 74
1.961705e+000 1.084692e+000 -1.240610e+001 141 122 89
1.784117e+000 9.046553e-001 -1.314651e+001 156 137 105
3.036665e+000 5.981535e-001 -1.291982e+001 51 39 27
1.514108e+000 2.313270e-001 -1.364277e+001 157 115 73
4.218668e+000 2.080419e-001 -1.356694e+001 71 44 23
1.480367e+000 2.897911e-002 -1.350448e+001 186 152 117
5.679739e+000 -9.106578e-002 -1.434490e+001 93 64 40
5.044352e+000 -1.823492e-001 -1.436497e+001 62 43 19
5.266143e+000 -6.976040e-001 -1.498189e+001 67 45 22
5.266143e+000 -6.976040e-001 -1.498189e+001 67 45 22
4.112836e+000 -1.256683e+000 -1.517565e+001 70 45 26
4.498145e+000 -1.272664e+000 -1.534653e+001 50 28 6
5.238806e-001 -1.372475e+000 -1.452225e+001 185 144 126
1.409074e+000 -1.358392e+000 -1.503826e+001 92 39 35
1.409074e+000 -1.358392e+000 -1.503826e+001 92 39 35
1.556901e+000 -1.456204e+000 -1.493395e+001 159 116 98
4.309877e+000 -1.587026e+000 -1.570469e+001 73 52 30
1.757213e+000 -2.618189e+000 -1.630481e+001 122 88 62
1.949131e+000 3.776245e+000 -1.432513e+001 56 37 24
4.746977e+000 3.276242e+000 -1.438352e+001 137 104 71
4.973196e+000 3.365380e+000 -1.450735e+001 88 57 28
2.805856e+000 2.580029e+000 -1.355589e+001 69 56 39
1.416125e+000 2.888939e+000 -1.478823e+001 81 63 39
2.014798e+000 2.047973e+000 -1.290425e+001 137 104 71
2.079819e+000 1.860982e+000 -1.285170e+001 136 102 67
3.973252e+000 1.908445e+000 -1.319815e+001 87 55 30
1.820058e+000 1.625186e+000 -1.310115e+001 155 125 95
1.820058e+000 1.625186e+000 -1.310115e+001 155 125 95
2.161226e+000 1.375690e+000 -1.249110e+001 132 96 65
2.395045e+000 1.000692e+000 -1.245243e+001 138 107 76
3.917307e+000 1.154131e+000 -1.283569e+001 81 50 22
1.649606e+000 8.698321e-001 -1.347455e+001 135 86 41
1.669296e+000 3.809730e-001 -1.345952e+001 121 78 36
4.269508e+000 2.716393e-001 -1.345104e+001 107 80 53
5.474759e+000 3.368108e-001 -1.371582e+001 103 75 49
2.626314e+000 9.881545e-002 -1.347946e+001 30 20 12
4.243535e+000 3.950345e-002 -1.385095e+001 72 43 25
4.586949e+000 -1.178660e-001 -1.409024e+001 104 77 52
5.274626e+000 -1.831231e-001 -1.439388e+001 61 42 18
2.007956e+000 -7.523137e-001 -1.402964e+001 91 67 41
2.112987e+000 -5.691637e-001 -1.399207e+001 186 160 133
1.964172e+000 -1.169697e+000 -1.448877e+001 207 177 151
1.964172e+000 -1.169697e+000 -1.448877e+001 207 177 151
-3.382385e+000 -1.254194e+000 -1.502427e+001 147 107 83
3.816507e+000 -1.355577e+000 -1.523488e+001 65 43 22
1.238747e+000 -2.165991e+000 -1.590437e+001 170 112 99
3.695259e+000 -2.664671e+000 -1.699607e+001 70 47 23
1.368210e+000 -2.876214e+000 -1.650653e+001 186 147 116
2.003586e+000 3.530514e+000 -1.409888e+001 59 38 21
5.472320e+000 3.132358e+000 -1.448478e+001 92 61 33
3.539805e+000 2.219227e+000 -1.338161e+001 89 59 34
2.123980e+000 1.646189e+000 -1.256638e+001 141 103 67
1.776416e+000 1.622268e+000 -1.341052e+001 56 45 27
3.891713e+000 1.663368e+000 -1.296402e+001 93 59 31
2.077550e+001 -4.061284e+001 1.818371e+002 148 148 184
5.758830e+000 -1.756283e-001 -1.449518e+001 74 44 18
4.859693e+000 -1.275631e+000 -1.549995e+001 109 83 56
1.033522e+000 -1.431423e+000 -1.479928e+001 104 38 38
1.408907e+000 -1.554880e+000 -1.516282e+001 136 92 81
1.361549e+000 -2.200942e+000 -1.599414e+001 106 45 40
1.408549e+000 -2.532719e+000 -1.650123e+001 108 59 42
5.285108e+000 -2.707693e+000 -1.736840e+001 88 58 33
2.080957e+000 -3.363835e+000 -1.672626e+001 80 66 55
2.313416e+000 4.225975e+000 -1.494586e+001 214 198 180
2.114037e+000 2.772503e+000 -1.360381e+001 58 37 23
2.076224e+000 1.710784e+000 -1.305370e+001 173 138 108
4.327433e+001 -4.201734e+001 1.894342e+002 140 136 137
2.413793e+000 1.240163e+000 -1.223741e+001 58 39 22
1.690960e-001 1.044226e+000 -1.422725e+001 218 160 140
3.095816e+001 -2.500023e+001 1.749804e+002 132 132 155
3.095816e+001 -2.500023e+001 1.749804e+002 132 132 155
2.893529e+000 4.671116e-001 -1.271894e+001 24 17 11
4.716238e+001 -2.098387e+001 2.144047e+002 112 112 124
5.414313e+000 3.653307e-002 -1.429517e+001 97 73 47
5.919905e+000 -8.171582e-002 -1.443158e+001 124 93 64
4.330226e+001 -1.416934e+001 1.978218e+002 108 109 129
5.083171e-001 -2.350698e-001 -1.450240e+001 166 106 95
4.379610e+000 -3.057093e-001 -1.427361e+001 106 79 52
5.376043e+000 -3.084999e-001 -1.458354e+001 90 66 42
1.382079e+000 -6.200228e-001 -1.452670e+001 146 107 89
1.874224e+000 -2.779930e+000 -1.646412e+001 54 45 38
2.862867e+000 -2.941907e+000 -1.680550e+001 139 111 89
5.393619e+000 -3.169429e+000 -1.781263e+001 125 98 66
5.816387e+000 1.878940e+000 -1.342969e+001 97 61 29
1.515113e-001 7.428083e-001 -1.408746e+001 183 103 96
5.724142e+001 -2.079782e+001 1.877644e+002 106 105 121
1.245751e+000 -1.784859e-001 -1.471547e+001 98 40 38
1.094847e+000 -4.590501e-001 -1.451060e+001 94 35 27
4.344220e+000 -6.959046e-001 -1.473515e+001 108 80 52
8.770984e-001 -8.548363e-001 -1.465314e+001 106 41 39
2.886015e+000 -1.207730e+000 -1.506322e+001 44 28 12
4.717363e-001 -1.237341e+000 -1.439300e+001 159 114 94
2.643340e+000 -1.975546e+000 -1.568533e+001 51 39 22
3.532310e+000 -2.172829e+000 -1.630114e+001 73 51 30
5.572308e+000 3.986241e+000 -1.491350e+001 183 140 101
2.802566e+000 3.097883e+000 -1.380409e+001 75 62 46
2.472388e+000 2.572279e+000 -1.329552e+001 71 58 41
2.913838e+000 2.605579e+000 -1.345504e+001 87 70 45
2.672387e+000 2.198159e+000 -1.328633e+001 75 62 40
4.812765e+000 9.549672e-001 -1.306234e+001 73 42 20
4.204327e+001 -3.051960e+001 1.841122e+002 107 111 138
5.629128e+001 -2.185317e+001 1.948872e+002 186 189 234
3.500177e+001 -2.065405e+001 1.873876e+002 159 153 150
3.500177e+001 -2.065405e+001 1.873876e+002 159 153 150
5.121790e+001 -1.787288e+001 1.873946e+002 162 153 155
4.148123e+001 -1.989171e+001 2.046548e+002 92 89 104
7.631464e+001 -1.467296e+001 2.411272e+002 185 174 184
4.806484e+000 -7.954121e-001 -1.488862e+001 104 74 48
1.781672e+000 -1.028830e+000 -1.423371e+001 72 67 48
5.987820e+000 -1.296256e+000 -1.569557e+001 99 68 38
1.176535e+000 -1.798226e+000 -1.533874e+001 173 114 108
1.004642e+000 -1.957628e+000 -1.574220e+001 97 32 36
2.072727e+000 4.167322e+000 -1.511156e+001 97 76 57
3.966555e+000 3.348798e+000 -1.445221e+001 106 76 47
4.221783e+000 7.224992e-001 -1.312384e+001 82 54 32
1.798296e+000 6.590567e-001 -1.305271e+001 184 155 119
4.324639e+000 3.378161e-001 -1.332169e+001 112 82 55
4.517987e+001 -1.929588e+001 1.767623e+002 204 211 253
3.937024e+001 -1.750013e+001 2.117210e+002 159 149 147
-3.314084e-001 1.330962e-002 -1.454204e+001 191 135 112
4.270389e+001 -1.309713e+001 1.672925e+002 194 200 254
2.549040e-001 -2.230445e-001 -1.446481e+001 130 62 53
3.091105e+000 -1.475345e+000 -1.526462e+001 127 101 76
3.091105e+000 -1.475345e+000 -1.526462e+001 127 101 76
3.367386e+000 -1.603196e+000 -1.546360e+001 66 43 27
5.517831e+000 -2.754194e+000 -1.748784e+001 131 100 69
1.703835e+000 -8.524966e-001 -1.435836e+001 55 41 27
-2.866429e+000 -1.861696e+000 -1.519855e+001 93 67 54
5.331594e+000 3.876776e+000 -1.509949e+001 98 65 30
5.173161e+000 2.361964e+000 -1.394828e+001 152 109 74
3.632823e+001 -2.917755e+001 1.639205e+002 113 115 133
1.538075e+000 1.843293e-001 -1.349183e+001 199 161 114
1.975190e+002 -4.004100e+001 5.766570e+002 92 91 107
1.975190e+002 -4.004100e+001 5.766570e+002 92 91 107
1.925081e+000 1.043095e+000 -1.320143e+001 56 48 28
5.601992e+000 -3.539668e+000 -1.796930e+001 164 135 91
4.613847e+001 -1.656549e+001 1.725798e+002 168 169 199
4.613847e+001 -1.656549e+001 1.725798e+002 168 169 199
5.197600e+000 -5.538360e-001 -1.473465e+001 77 51 31
5.583732e+000 2.404112e+000 -1.431530e+001 121 82 47
2.007101e+000 4.011408e+000 -1.453298e+001 73 58 36
2.932487e+000 4.238453e+000 -1.518367e+001 172 146 116
1.961304e+000 3.976969e+000 -1.459280e+001 77 51 36
2.670620e+000 3.795256e+000 -1.438164e+001 65 51 32
3.933096e+000 4.021230e+000 -1.487408e+001 106 71 41
1.745349e+000 3.622260e+000 -1.422701e+001 204 171 138
4.831575e+000 3.772805e+000 -1.480450e+001 137 101 69
6.106416e+000 3.879097e+000 -1.520925e+001 146 102 67
1.581685e+000 3.389967e+000 -1.411736e+001 161 134 103
1.590435e+000 3.299150e+000 -1.393304e+001 78 67 35
1.980482e+000 3.258080e+000 -1.389317e+001 145 113 80
2.220134e+000 3.088691e+000 -1.382062e+001 69 53 29
3.818090e+000 3.320231e+000 -1.433202e+001 88 56 34
1.592611e+000 3.052173e+000 -1.397439e+001 90 75 45
2.900415e+000 3.037960e+000 -1.389013e+001 70 53 33
5.200107e+000 3.182166e+000 -1.445895e+001 117 82 54
1.912643e+000 2.719700e+000 -1.350082e+001 209 175 139
2.372426e+000 2.747005e+000 -1.350982e+001 120 103 77
2.586139e+000 2.837809e+000 -1.380120e+001 37 23 12
2.786164e+000 2.794293e+000 -1.364279e+001 136 114 81
2.786164e+000 2.794293e+000 -1.364279e+001 136 114 81
4.398257e+000 2.654758e+000 -1.389113e+001 97 63 35
9.653912e-001 2.781906e+000 -1.568978e+001 198 159 126
1.346449e+000 2.598100e+000 -1.442216e+001 65 59 31
1.951892e+000 2.452524e+000 -1.336742e+001 138 104 69
2.024401e+000 2.331707e+000 -1.312630e+001 229 196 162
2.777205e+000 2.452901e+000 -1.336482e+001 84 62 40
7.952115e-001 2.649773e+000 -1.585367e+001 145 105 69
1.031898e+000 2.353522e+000 -1.488917e+001 93 73 39
2.508293e+000 2.122433e+000 -1.306198e+001 64 47 26
2.896004e+000 2.273787e+000 -1.324577e+001 176 150 105
2.993488e+000 2.083889e+000 -1.303310e+001 67 49 29
3.307318e+000 2.328778e+000 -1.354055e+001 139 108 79
3.993121e+000 2.258299e+000 -1.350558e+001 98 64 37
6.372456e+000 2.225480e+000 -1.409018e+001 95 62 29
1.078683e+000 2.040376e+000 -1.461265e+001 160 116 79
1.992840e+000 1.823748e+000 -1.307845e+001 124 95 71
2.325789e+000 1.682406e+000 -1.272545e+001 169 129 94
2.601327e+000 1.672444e+000 -1.267743e+001 151 129 101
2.568166e+000 1.646945e+000 -1.269076e+001 70 55 29
2.730756e+000 1.648621e+000 -1.277762e+001 79 64 41
2.996541e+000 1.611924e+000 -1.263719e+001 159 136 108
1.948299e+000 1.489061e+000 -1.314143e+001 128 93 65
2.947068e+000 1.357426e+000 -1.264014e+001 146 129 102
2.947068e+000 1.357426e+000 -1.264014e+001 146 129 102
1.768437e+000 1.380589e+000 -1.350023e+001 182 144 111
1.884641e+000 1.299683e+000 -1.274777e+001 105 94 71
1.884282e+000 1.223395e+000 -1.295816e+001 102 95 67
1.912415e+000 1.182383e+000 -1.269436e+001 97 90 62
1.912415e+000 1.182383e+000 -1.269436e+001 97 90 62
2.543382e+000 1.156070e+000 -1.252468e+001 75 53 32
2.697131e+000 1.304165e+000 -1.249796e+001 40 27 12
1.787190e+000 1.119438e+000 -1.319167e+001 139 111 83
2.569785e+000 1.122630e+000 -1.254037e+001 225 198 144
2.590626e+000 1.095675e+000 -1.251295e+001 58 39 23
1.822882e+000 8.871516e-001 -1.306879e+001 85 69 47
2.233897e+000 7.885187e-001 -1.252495e+001 124 93 64
2.645218e+000 7.954139e-001 -1.252650e+001 58 42 27
2.707769e+000 7.126417e-001 -1.254698e+001 116 99 81
2.768140e+000 7.001217e-001 -1.263968e+001 46 31 15
2.940864e+000 3.619498e-001 -1.272368e+001 57 47 33
2.580646e+000 2.745697e-001 -1.278777e+001 78 62 46
4.349337e+000 1.869828e-001 -1.356205e+001 101 77 51
2.447731e+000 -1.134698e-001 -1.363186e+001 50 34 21
2.518336e+000 -3.167764e-001 -1.387472e+001 40 28 16
3.771129e+000 -3.047055e-001 -1.411731e+001 51 28 11
8.740204e-002 -5.218365e-001 -1.424459e+001 134 67 51
1.321993e+000 -4.860302e-001 -1.476752e+001 94 40 28
1.694436e+000 -4.450527e-001 -1.405716e+001 54 38 23
2.432594e+000 -5.053505e-001 -1.405138e+001 113 95 68
4.877847e+000 -7.059021e-001 -1.487985e+001 102 80 58
2.351727e+000 -7.276115e-001 -1.427386e+001 43 30 13
3.691186e+000 -9.416098e-001 -1.494887e+001 61 36 14
3.691186e+000 -9.416098e-001 -1.494887e+001 61 36 14
-3.787944e+000 -9.524001e-001 -1.532083e+001 145 106 77
1.989498e+000 -1.061847e+000 -1.429759e+001 151 124 97
2.346507e+000 -9.069936e-001 -1.449542e+001 41 28 14
2.432182e+000 -9.457965e-001 -1.456457e+001 37 24 12
2.472858e+000 -9.652299e-001 -1.458657e+001 102 88 64
4.557872e+000 -1.181037e+000 -1.529858e+001 61 36 14
4.612638e+000 -1.323208e+000 -1.544822e+001 60 34 12
4.574925e+000 -1.405589e+000 -1.551546e+001 63 38 17
7.543825e-001 -1.680397e+000 -1.497430e+001 163 102 97
1.820007e+000 -1.476135e+000 -1.466407e+001 122 88 61
2.215312e+000 -1.678829e+000 -1.522478e+001 49 37 20
2.226772e+000 -1.626115e+000 -1.518998e+001 52 40 18
3.719296e+000 -1.572663e+000 -1.559676e+001 67 45 24
1.417698e+000 -1.964616e+000 -1.535908e+001 54 45 28
1.384428e+000 -2.097305e+000 -1.584009e+001 110 40 39
2.135366e+000 -1.984151e+000 -1.556442e+001 62 47 25
2.173853e+000 -1.802726e+000 -1.534872e+001 63 47 31
2.509259e+000 -1.865225e+000 -1.559910e+001 78 62 44
2.502734e+000 -1.960324e+000 -1.576851e+001 71 56 36
2.584003e+000 -1.902808e+000 -1.559871e+001 40 24 9
1.077643e+000 -2.575475e+000 -1.643008e+001 119 68 49
4.022057e+000 -2.834057e+000 -1.702398e+001 81 54 35
6.314022e+000 -2.719444e+000 -1.452668e+001 113 85 45
1.466798e+000 3.821116e+000 -1.478908e+001 80 72 44
1.806809e+000 3.806260e+000 -1.419145e+001 144 107 80
2.546573e+000 3.894302e+000 -1.454463e+001 82 66 44
3.645009e+000 4.004116e+000 -1.478419e+001 168 132 98
4.261197e+000 4.014972e+000 -1.493803e+001 100 64 30
4.159327e+000 3.928655e+000 -1.484319e+001 100 63 34
4.890356e+000 3.977288e+000 -1.501239e+001 104 65 32
6.039327e+000 4.091394e+000 -1.544795e+001 125 86 45
1.718790e+000 3.661672e+000 -1.442259e+001 145 112 84
1.797661e+000 3.414263e+000 -1.401576e+001 233 201 168
2.567902e+000 3.526324e+000 -1.417676e+001 78 62 47
1.747783e+000 3.137666e+000 -1.381563e+001 138 108 70
2.805840e+000 3.352279e+000 -1.401705e+001 66 49 29
2.693776e+000 3.119438e+000 -1.388879e+001 62 44 22
2.873608e+000 3.119853e+000 -1.391369e+001 63 48 29
3.832697e+000 3.355472e+000 -1.424341e+001 116 84 59
3.694139e+000 3.182980e+000 -1.421798e+001 84 54 31
2.612285e+000 2.636730e+000 -1.360520e+001 28 16 2
2.998529e+000 2.591234e+000 -1.356062e+001 81 60 39
4.603939e+000 2.867195e+000 -1.410107e+001 90 55 29
5.071997e+000 2.748548e+000 -1.417036e+001 111 75 41
1.988236e+000 2.363905e+000 -1.320923e+001 186 154 116
2.218488e+000 2.345530e+000 -1.320774e+001 55 38 20
2.322240e+000 2.520858e+000 -1.331411e+001 33 28 18
2.492324e+000 2.244347e+000 -1.293161e+001 66 51 32
3.029057e+000 2.455936e+000 -1.345419e+001 77 57 33
5.088369e-001 2.808941e+000 -1.620562e+001 216 203 188
9.629603e-001 2.569344e+000 -1.532045e+001 172 147 112
2.058190e+000 2.157645e+000 -1.295701e+001 189 157 119
2.316827e+000 1.936344e+000 -1.281365e+001 53 36 22
2.492892e+000 1.863691e+000 -1.272974e+001 80 59 35
2.931778e+000 1.873641e+000 -1.290468e+001 69 52 31
3.880243e+000 2.012727e+000 -1.319939e+001 148 113 81
8.516716e-001 1.998358e+000 -1.479596e+001 179 114 87
2.252218e+000 1.675557e+000 -1.258505e+001 115 77 40
2.338722e+000 1.409581e+000 -1.240569e+001 143 105 69
2.823256e+000 1.437775e+000 -1.270426e+001 57 46 27
5.566782e+000 1.607257e+000 -1.322210e+001 101 64 32
5.566782e+000 1.607257e+000 -1.322210e+001 101 64 32
1.633891e+000 1.277616e+000 -1.362093e+001 131 88 53
1.977641e+000 1.356495e+000 -1.286342e+001 139 103 71
1.942957e+000 1.221327e+000 -1.254957e+001 128 114 87
3.061045e+000 1.228805e+000 -1.258095e+001 63 46 26
5.506178e+000 1.348568e+000 -1.316306e+001 88 53 26
1.552660e+000 1.214356e+000 -1.374210e+001 161 117 78
1.661712e+000 1.160013e+000 -1.342152e+001 153 111 73
1.892971e+000 9.924270e-001 -1.276693e+001 111 101 75
3.872947e+000 9.711531e-001 -1.287278e+001 70 39 18
-2.623849e-002 9.336780e-001 -1.440164e+001 175 98 86
1.227234e+000 1.007724e+000 -1.392741e+001 175 109 93
1.653610e+000 5.754072e-001 -1.350442e+001 135 94 45
2.181928e+000 5.831649e-001 -1.283862e+001 117 84 58
2.218245e+000 7.359412e-001 -1.252900e+001 156 124 95
2.272597e+000 7.323684e-001 -1.250732e+001 155 124 93
3.025959e+000 6.558056e-001 -1.274410e+001 39 25 19
5.722884e+000 6.494313e-001 -1.341732e+001 64 35 11
1.328913e+000 5.351837e-001 -1.398643e+001 95 56 40
2.159963e+000 3.575451e-001 -1.290592e+001 166 131 100
2.413549e+000 4.723389e-001 -1.285630e+001 107 73 46
2.856949e+000 4.053315e-001 -1.277343e+001 62 50 34
2.959542e+000 4.101973e-001 -1.278356e+001 23 14 6
1.982881e+000 2.717509e-001 -1.323409e+001 151 112 80
2.818374e+000 2.686673e-001 -1.264919e+001 67 56 39
2.980642e+000 2.358223e-001 -1.265259e+001 81 66 45
3.552516e+000 1.990939e-001 -1.324210e+001 61 40 23
-2.985167e-001 -1.197298e-001 -1.444594e+001 159 98 83
2.982712e+000 -9.739678e-003 -1.262784e+001 79 63 47
5.474296e+000 1.817597e-002 -1.418422e+001 72 46 23
2.194014e+000 -2.531595e-001 -1.354945e+001 115 81 54
2.323007e+000 -2.658069e-001 -1.373505e+001 49 36 18
4.143458e+000 -1.782518e-001 -1.417158e+001 68 41 22
4.794617e+000 -2.825914e-001 -1.440589e+001 93 69 44
4.794617e+000 -2.825914e-001 -1.440589e+001 93 69 44
5.329092e+000 -4.467995e-001 -1.472171e+001 63 38 17
-4.097422e-003 -4.087814e-001 -1.436083e+001 195 132 115
2.161964e+000 -5.435924e-001 -1.391187e+001 91 66 39
2.453930e+000 -3.957382e-001 -1.406508e+001 74 63 45
3.624896e+000 -6.601121e-001 -1.458101e+001 56 38 18
1.363118e+000 -7.738621e-001 -1.472985e+001 115 60 46
1.597963e+000 -8.081630e-001 -1.462845e+001 53 41 25
1.558407e+000 -1.169433e+000 -1.470984e+001 119 81 45
1.848468e+000 -9.426040e-001 -1.406692e+001 54 42 20
2.735884e+000 -9.633658e-001 -1.456395e+001 61 46 27
2.830961e+000 -9.342905e-001 -1.453323e+001 37 24 13
2.792561e+000 -1.074747e+000 -1.455432e+001 89 71 50
4.498145e+000 -1.272664e+000 -1.534653e+001 50 28 6
1.615093e+000 -1.155184e+000 -1.426560e+001 162 129 94
2.322089e+000 -1.280243e+000 -1.484832e+001 80 68 48
2.311381e+000 -1.352444e+000 -1.487667e+001 43 30 13
6.750810e-001 -1.419396e+000 -1.450691e+001 115 66 52
5.714175e-001 -1.664958e+000 -1.519378e+001 159 106 92
2.331120e+000 -1.604217e+000 -1.515121e+001 37 27 17
2.206017e+000 -1.743556e+000 -1.531789e+001 47 33 18
3.992930e+000 -1.557716e+000 -1.550194e+001 88 66 47
4.712985e+000 -1.695318e+000 -1.610860e+001 72 47 25
4.712985e+000 -1.695318e+000 -1.610860e+001 72 47 25
-2.851405e+000 -1.730145e+000 -1.519657e+001 97 64 45
2.178752e+000 -1.926798e+000 -1.554467e+001 51 38 24
2.506410e+000 -2.382953e+000 -1.624602e+001 156 136 112
2.506410e+000 -2.382953e+000 -1.624602e+001 156 136 112
9.102707e-001 -2.518073e+000 -1.615370e+001 167 108 100
1.271437e+000 -2.812082e+000 -1.649288e+001 146 105 77
1.402754e+000 -2.788737e+000 -1.644639e+001 143 99 72
-3.934109e+000 -2.812730e+000 -1.566107e+001 149 78 84
1.225705e+000 -2.900262e+000 -1.674442e+001 182 141 109
1.361430e+000 -2.950761e+000 -1.644652e+001 152 113 82
1.761806e+000 4.116145e+000 -1.466604e+001 164 132 101
2.461290e+000 4.244062e+000 -1.495766e+001 162 141 116
1.418363e+000 3.928361e+000 -1.482118e+001 91 83 54
1.664550e+000 3.672059e+000 -1.453578e+001 176 145 116
1.738229e+000 3.424783e+000 -1.399590e+001 137 105 73
2.786081e+000 3.655983e+000 -1.431714e+001 74 58 35
2.797862e+000 3.486058e+000 -1.415425e+001 74 59 40
1.476215e+000 3.232804e+000 -1.433338e+001 188 157 123
1.794204e+000 3.186903e+000 -1.386279e+001 247 219 184
4.027422e+000 3.239644e+000 -1.432452e+001 118 89 59
4.310638e+000 3.462120e+000 -1.450063e+001 124 89 62
5.285259e+000 3.393399e+000 -1.458302e+001 97 63 36
1.819831e+000 3.026675e+000 -1.383640e+001 126 93 61
1.968200e+000 2.771596e+000 -1.359668e+001 120 81 50
2.046661e+000 2.514147e+000 -1.323296e+001 128 93 61
2.393459e+000 2.674618e+000 -1.349797e+001 134 114 78
2.200503e+000 2.539033e+000 -1.351232e+001 56 34 21
2.857133e+000 2.442083e+000 -1.339701e+001 150 126 88
2.944156e+000 2.285786e+000 -1.318657e+001 67 50 30
5.377353e+000 2.551080e+000 -1.396645e+001 111 72 39
9.564782e-001 2.457965e+000 -1.505490e+001 73 65 26
2.101788e+000 2.055001e+000 -1.286231e+001 216 180 145
2.101788e+000 2.055001e+000 -1.286231e+001 216 180 145
2.574155e+000 2.056566e+000 -1.294615e+001 62 46 28
4.077905e+000 2.174438e+000 -1.338932e+001 123 89 61
7.781812e-001 2.182121e+000 -1.541088e+001 194 157 121
2.309190e+000 1.886202e+000 -1.286686e+001 144 110 69
4.354474e+000 1.928448e+000 -1.327956e+001 140 104 70
2.340741e+000 1.607202e+000 -1.261620e+001 143 104 68
2.529496e+000 1.766132e+000 -1.265498e+001 77 61 38
2.965475e+000 1.769678e+000 -1.281134e+001 81 63 43
1.975582e+000 1.430056e+000 -1.305301e+001 175 137 106
1.907802e+000 1.244046e+000 -1.272018e+001 65 59 34
3.106891e+000 1.192617e+000 -1.255626e+001 138 120 96
3.106891e+000 1.192617e+000 -1.255626e+001 138 120 96
2.941505e-001 1.201838e+000 -1.430646e+001 210 132 124
1.945501e+000 9.693256e-001 -1.270764e+001 71 60 38
1.945501e+000 9.693256e-001 -1.270764e+001 71 60 38
2.576541e+000 9.484261e-001 -1.251528e+001 38 24 13
2.789226e+000 1.059453e+000 -1.255016e+001 66 49 32
3.875590e-002 1.035466e+000 -1.453894e+001 164 94 80
2.305344e+000 8.936914e-001 -1.230952e+001 125 91 64
2.570369e+000 8.298701e-001 -1.251910e+001 61 44 24
3.268248e+000 8.817506e-001 -1.274986e+001 60 40 16
2.798298e+000 5.644839e-001 -1.261931e+001 67 53 36
3.075624e+000 6.602836e-001 -1.271360e+001 114 94 68
5.070438e+000 5.291413e-001 -1.336062e+001 61 34 15
5.875936e+000 3.626118e-001 -1.377655e+001 79 48 20
1.374466e+000 2.991545e-001 -1.388519e+001 179 140 109
2.190461e+000 2.716800e-001 -1.287520e+001 195 161 129
3.038381e+000 2.199884e-001 -1.267042e+001 38 25 14
4.027478e+000 2.872207e-001 -1.343996e+001 70 48 25
5.450279e+000 1.907135e-001 -1.387686e+001 76 51 28
2.176031e+000 -5.920846e-002 -1.334046e+001 213 182 153
2.284122e+000 9.243020e-002 -1.321028e+001 114 83 55
5.019385e+000 4.882045e-002 -1.385787e+001 87 65 41
5.189125e+000 3.281576e-002 -1.409254e+001 65 42 20
5.189125e+000 3.281576e-002 -1.409254e+001 65 42 20
5.563334e+000 -2.859799e-002 -1.429406e+001 94 68 44
-6.054814e-002 -2.058487e-001 -1.429244e+001 189 124 112
5.579135e+000 -4.480582e-001 -1.488509e+001 57 31 14
5.372725e+000 -7.082132e-001 -1.499539e+001 64 42 19
1.605885e+000 -6.790384e-001 -1.444822e+001 36 27 12
5.168786e+000 -8.967777e-001 -1.512471e+001 63 36 17
5.351486e+000 -7.714051e-001 -1.507984e+001 91 66 44
-4.170474e+000 -1.007658e+000 -1.543743e+001 178 137 110
4.708525e+000 -1.154405e+000 -1.530871e+001 70 43 22
-3.193451e+000 -1.174867e+000 -1.506710e+001 156 115 90
2.007976e+000 -1.370907e+000 -1.471925e+001 111 77 50
4.473959e+000 -1.603072e+000 -1.584730e+001 61 39 18
4.473959e+000 -1.603072e+000 -1.584730e+001 61 39 18
1.622727e+000 -1.508194e+000 -1.465990e+001 145 114 90
3.959975e+000 -1.795772e+000 -1.592208e+001 97 71 51
4.309877e+000 -1.587026e+000 -1.570469e+001 73 52 30
4.595461e+000 -1.692730e+000 -1.599077e+001 96 72 48
1.264493e+000 -1.798395e+000 -1.530072e+001 122 53 56
4.432047e+000 -2.173883e+000 -1.656683e+001 73 49 25
6.517996e-001 -2.106752e+000 -1.540137e+001 168 115 101
1.260701e+000 -2.483192e+000 -1.642073e+001 163 110 92
1.561709e+000 -2.020015e+000 -1.526126e+001 100 82 63
5.093970e+000 -2.583735e+000 -1.716266e+001 92 68 44
1.645132e+000 -2.820871e+000 -1.635716e+001 203 172 144
4.177231e+000 -3.082135e+000 -1.745574e+001 79 54 32
1.575749e+000 -3.239080e+000 -1.681999e+001 200 168 140
1.911804e+000 4.237423e+000 -1.487789e+001 218 201 183
2.864740e+000 4.286841e+000 -1.531154e+001 214 198 179
5.352727e+000 4.125046e+000 -1.536839e+001 135 97 61
1.342383e+000 3.763372e+000 -1.490124e+001 57 49 26
1.662623e+000 3.466800e+000 -1.416844e+001 167 137 108
4.527261e+000 3.582424e+000 -1.463516e+001 101 67 40
5.109600e+000 3.759728e+000 -1.493906e+001 125 90 60
1.306088e+000 3.559214e+000 -1.494119e+001 90 80 55
1.861738e+000 2.959876e+000 -1.368017e+001 214 180 144
3.514770e+000 3.060127e+000 -1.409359e+001 81 53 29
1.829835e+000 2.651848e+000 -1.388208e+001 157 126 98
2.358281e+000 2.456073e+000 -1.325389e+001 40 27 18
3.736300e+000 2.512359e+000 -1.371343e+001 114 80 53
4.173999e+000 2.365387e+000 -1.365731e+001 130 95 66
8.323616e-001 2.781301e+000 -1.610321e+001 191 151 117
1.840500e+000 2.207155e+000 -1.334341e+001 82 70 42
1.950551e+000 2.240955e+000 -1.316256e+001 139 105 72
2.142604e+000 2.156704e+000 -1.292907e+001 136 98 61
4.330155e-001 2.419697e+000 -1.615344e+001 201 159 109
3.030298e+000 1.405017e+000 -1.249980e+001 128 110 80
1.296450e+000 8.814553e-001 -1.363930e+001 191 154 115
2.211642e+000 8.032692e-001 -1.260462e+001 112 82 57
2.403352e+000 7.303258e-001 -1.245725e+001 107 76 47
3.058087e+000 5.953435e-001 -1.277356e+001 36 23 14
2.412757e+000 5.245567e-001 -1.270280e+001 33 20 12
2.882704e+000 2.794742e-001 -1.267650e+001 34 23 17
5.507537e+000 3.968366e-002 -1.404921e+001 64 42 19
-1.575457e+000 -5.000201e-001 -1.514101e+001 201 160 122
1.689289e+000 -5.233456e-001 -1.390493e+001 81 73 52
1.689289e+000 -5.233456e-001 -1.390493e+001 81 73 52
5.473526e+000 -7.206755e-001 -1.503002e+001 96 72 48
9.522366e-001 -7.334756e-001 -1.456924e+001 149 75 76
2.853270e+000 -6.844066e-001 -1.428558e+001 39 24 11
5.110677e+000 -7.464408e-001 -1.494270e+001 68 43 21
5.110677e+000 -7.464408e-001 -1.494270e+001 68 43 21
5.657071e+000 -9.960186e-001 -1.541586e+001 89 59 33
1.816719e+000 -1.022826e+000 -1.419448e+001 56 49 32
4.595823e+000 -1.113646e+000 -1.526976e+001 101 74 49
-3.925502e+000 -1.421313e+000 -1.512205e+001 157 113 84
2.546824e-001 -1.139917e+000 -1.435460e+001 187 135 117
1.729810e+000 -1.349328e+000 -1.449668e+001 130 95 67
1.896117e+000 -1.582696e+000 -1.491518e+001 164 134 108
3.244421e+000 -1.689640e+000 -1.550878e+001 68 42 25
2.697711e+000 -1.806425e+000 -1.551350e+001 47 33 19
2.825715e+000 -2.111458e+000 -1.607856e+001 121 96 76
1.381150e+000 -2.372479e+000 -1.626499e+001 174 128 104
4.955314e+000 -2.555356e+000 -1.701942e+001 69 44 22
1.597281e+000 -2.528439e+000 -1.627857e+001 134 94 69
1.613961e+000 -2.816761e+000 -1.673771e+001 138 99 73
2.758578e+000 -3.009025e+000 -1.691422e+001 98 72 53
3.849006e+000 -3.086741e+000 -1.738562e+001 74 49 27
1.718536e+000 3.893205e+000 -1.436825e+001 242 209 176
3.252593e+000 4.088694e+000 -1.497614e+001 125 90 60
4.809600e+000 4.086687e+000 -1.515453e+001 168 126 88
5.289465e+000 4.054868e+000 -1.493540e+001 134 95 59
5.168201e+000 3.265900e+000 -1.460024e+001 86 55 26
1.234416e+000 3.128303e+000 -1.483108e+001 128 112 78
2.862738e+001 -3.574666e+001 1.966930e+002 130 128 141
3.479264e+000 2.561234e+000 -1.371779e+001 79 51 29
2.336506e+000 2.130547e+000 -1.312150e+001 77 61 38
1.104968e+000 1.954554e+000 -1.453539e+001 192 148 111
4.577649e+000 1.774403e+000 -1.315842e+001 95 60 28
2.000100e+000 1.521771e+000 -1.318977e+001 118 82 56
2.919074e+001 -1.530444e+001 1.797233e+002 102 97 101
1.562790e+000 1.319974e+000 -1.369511e+001 168 122 79
3.988166e-001 1.254199e+000 -1.434969e+001 184 98 93
6.251297e+000 1.157654e+000 -1.334462e+001 131 93 57
2.654527e+000 8.795305e-001 -1.259682e+001 134 112 76
2.502709e+000 6.169778e-001 -1.265696e+001 52 38 24
2.694164e+002 -5.068176e+000 6.369284e+002 174 169 166
2.871763e+000 3.721707e-001 -1.280557e+001 62 48 31
4.114795e+000 5.020226e-001 -1.318531e+001 71 44 23
3.479901e+000 2.395359e-001 -1.320443e+001 105 85 63
1.660570e+000 -3.292563e-002 -1.368746e+001 93 62 42
2.753286e+000 -5.584012e-001 -1.433201e+001 79 68 47
1.241425e+000 -7.982037e-001 -1.484968e+001 105 45 36
3.864204e+000 -9.091172e-001 -1.485913e+001 80 52 30
5.351930e-001 -9.705546e-001 -1.449961e+001 100 26 29
3.715689e+000 -1.398791e+000 -1.533470e+001 69 45 27
-2.569774e+000 -1.580992e+000 -1.517540e+001 85 50 37
2.476913e+000 -1.511664e+000 -1.520670e+001 23 14 11
8.367543e-001 -2.007516e+000 -1.530821e+001 171 124 109
8.367543e-001 -2.007516e+000 -1.530821e+001 171 124 109
1.803718e+000 -1.771820e+000 -1.518882e+001 85 58 37
1.863921e+000 -1.907610e+000 -1.524451e+001 118 95 72
1.239841e+000 -2.432552e+000 -1.664142e+001 109 42 40
2.780504e+000 -2.293307e+000 -1.624204e+001 126 100 79
4.747364e+000 -3.294772e+000 -1.786239e+001 93 63 39
1.799269e+000 3.609497e+000 -1.402100e+001 196 163 130
1.302021e+000 3.686309e+000 -1.512474e+001 114 103 75
1.832287e+000 3.452496e+000 -1.400414e+001 199 166 131
-8.332298e-001 -5.861382e+001 2.472426e+002 155 141 115
2.072392e+000 3.045261e+000 -1.376736e+001 43 29 20
8.788335e+000 -4.393098e+001 2.177464e+002 195 187 174
4.645271e+000 2.752005e+000 -1.411268e+001 132 98 70
1.389568e+000 2.551503e+000 -1.441239e+001 75 67 44
6.751191e-001 2.786089e+000 -1.623607e+001 157 109 69
6.209896e-001 2.444933e+000 -1.597075e+001 47 28 23
3.581852e+000 2.056639e+000 -1.321538e+001 95 63 40
2.537706e+001 -2.169865e+001 1.727336e+002 136 138 160
6.055996e-001 2.192949e+000 -1.568523e+001 195 155 119
2.790634e+001 -1.863094e+001 1.910285e+002 118 115 128
3.151517e+000 1.475149e+000 -1.260557e+001 45 32 16
3.202742e+001 -1.703682e+001 2.087447e+002 78 78 90
3.221396e+000 1.166283e+000 -1.260231e+001 67 49 25
2.921458e+001 -1.455945e+001 2.007162e+002 114 112 125
5.618483e-001 1.276997e+000 -1.423713e+001 209 141 128
1.996031e+000 5.895025e-001 -1.311424e+001 134 91 61
3.518110e+000 4.314361e-001 -1.301514e+001 118 92 67
6.032165e+000 4.060365e-001 -1.376374e+001 121 90 62
3.592796e+000 1.366197e-001 -1.340647e+001 60 39 20
2.654515e+000 -1.306494e-001 -1.374616e+001 20 12 12
1.789660e+000 -3.587732e-001 -1.408489e+001 116 85 60
1.726339e+000 -6.721037e-001 -1.410332e+001 77 70 47
-3.661394e+000 -1.017651e+000 -1.524691e+001 135 94 66
4.621251e+000 -1.027657e+000 -1.521079e+001 107 77 51
4.974360e+000 -1.797816e+000 -1.632771e+001 74 49 27
1.944300e+000 -2.372550e+000 -1.607084e+001 43 32 20
3.291461e+000 -2.312228e+000 -1.627982e+001 104 76 54
1.206964e+000 -2.566633e+000 -1.650976e+001 160 114 92
1.898500e+000 -2.563717e+000 -1.625781e+001 46 36 25
3.421010e+000 -3.306060e+000 -1.747887e+001 88 63 41
4.646658e+000 -3.416759e+000 -1.776699e+001 187 156 110
5.330007e+000 -3.622813e+000 -1.852779e+001 160 131 92
4.884988e+000 9.136377e+001 3.084779e+002 125 121 115
2.621125e+001 5.881357e+001 1.822936e+002 138 120 118
2.635391e+000 3.891577e+000 -1.435293e+001 75 61 42
2.037722e+000 3.368477e+000 -1.401791e+001 50 36 22
2.596623e+000 3.176014e+000 -1.389098e+001 106 83 58
4.276938e+000 2.852995e+000 -1.409441e+001 147 112 79
4.276938e+000 2.852995e+000 -1.409441e+001 147 112 79
3.548010e+001 -3.371677e+001 1.884209e+002 169 162 154
9.649657e-001 2.390677e+000 -1.499549e+001 101 83 50
9.649657e-001 2.390677e+000 -1.499549e+001 101 83 50
2.990407e+000 2.244892e+000 -1.313568e+001 82 64 40
1.523963e+000 1.979661e+000 -1.376171e+001 198 159 116
6.272955e+000 1.944044e+000 -1.331020e+001 164 121 67
2.372541e+000 1.713213e+000 -1.265595e+001 54 32 18
3.826352e+000 1.751993e+000 -1.301427e+001 127 95 65
2.208960e+001 -2.031290e+001 1.794357e+002 139 148 199
3.157672e+000 1.476135e+000 -1.261005e+001 44 30 13
2.703361e+000 6.938985e-001 -1.265637e+001 63 48 25
3.340007e+000 5.508934e-001 -1.297462e+001 104 79 58
4.228463e+000 1.180413e-001 -1.329785e+001 80 55 33
4.580483e-001 -4.503643e-001 -1.429132e+001 167 97 91
2.916219e+000 -7.001190e-001 -1.443422e+001 60 44 29
5.547180e+000 -1.155668e+000 -1.547199e+001 74 48 25
1.081087e+002 3.842100e+001 2.634046e+002 255 255 255
3.271091e+001 1.223288e+002 3.795112e+002 156 145 139
2.366223e+000 3.291988e+000 -1.391076e+001 61 49 32
2.787913e+000 3.374265e+000 -1.410252e+001 77 57 42
7.943218e+000 -4.314386e+001 1.955998e+002 207 195 181
2.458125e+000 2.868896e+000 -1.362363e+001 57 43 29
2.440854e+001 -3.378751e+001 1.846076e+002 92 97 117
2.603781e+000 2.413239e+000 -1.336711e+001 64 48 31
1.143344e+000 2.522364e+000 -1.510900e+001 77 65 39
3.794811e+000 2.292404e+000 -1.357978e+001 130 99 70
3.969007e+000 2.093701e+000 -1.334862e+001 127 92 64
3.668432e+001 -2.587623e+001 1.692476e+002 146 159 212
3.625729e+000 1.885053e+000 -1.302947e+001 79 48 27
3.363894e+001 -2.422263e+001 1.981753e+002 104 102 119
1.749735e+002 -3.983507e+001 3.701847e+002 255 255 251
1.099852e+002 -2.177498e+001 3.704117e+002 97 98 119
4.474922e+001 -1.338822e+001 1.882061e+002 98 102 131
4.941328e+000 1.138796e+000 -1.307884e+001 70 39 18
2.877508e+000 8.323391e-001 -1.278927e+001 22 14 7
2.877508e+000 8.323391e-001 -1.278927e+001 22 14 7
4.375718e+002 1.422046e+001 1.146346e+003 168 160 149
5.934513e+000 -1.394195e-001 -1.444511e+001 115 87 57
1.668737e+000 -8.509128e-001 -1.446293e+001 43 34 21
4.772151e+000 -1.940716e+000 -1.625502e+001 111 85 58
5.765095e+000 -3.021794e+000 -1.773045e+001 108 78 43
1.672331e+001 5.824166e+001 2.285227e+002 212 202 193
-6.532368e+000 1.138814e+002 3.650418e+002 58 54 52
4.346271e+000 1.955060e+000 -1.317364e+001 143 107 71
3.184240e+000 9.991152e-001 -1.259765e+001 52 33 16
