ply
format ascii 1.0
element face 0
property list uchar int vertex_indices
element vertex 889
property float x
property float y
property float z
property uchar diffuse_red
property uchar diffuse_green
property uchar diffuse_blue
end_header
2.576294e+000 7.013974e-001 -1.309215e+001 197 140 119
2.600533e+000 4.912613e-001 -1.299575e+001 225 184 164
2.600533e+000 4.912613e-001 -1.299575e+001 225 184 164
3.298174e+000 2.821109e-001 -1.295809e+001 162 130 103
3.180047e+000 4.685401e-001 -1.329922e+001 156 106 88
3.180047e+000 4.685401e-001 -1.329922e+001 156 106 88
2.598517e+000 2.571528e-001 -1.309060e+001 183 97 104
2.456745e+000 1.293430e-001 -1.333597e+001 160 86 93
3.155010e+000 -7.385514e-002 -1.333561e+001 131 64 59
5.067947e+000 -8.465925e-001 -1.305289e+001 189 157 108
5.060493e+000 -9.034159e-001 -1.302612e+001 137 108 67
1.926183e+000 -2.745230e-002 -1.345311e+001 227 198 174
1.550719e+000 -8.853174e-002 -1.347991e+001 159 116 79
5.039104e+000 -1.177735e+000 -1.339594e+001 135 103 66
1.257066e+000 -7.212338e-001 -1.364237e+001 120 54 63
1.419397e+000 -8.016897e-001 -1.370838e+001 102 75 56
3.374362e+000 1.336823e+000 -1.263738e+001 228 208 176
4.062199e+000 9.564734e-001 -1.260945e+001 85 59 38
4.162361e+000 1.041759e+000 -1.261358e+001 136 100 68
3.257299e+000 8.945331e-001 -1.268023e+001 176 149 120
3.577580e+000 7.071081e-001 -1.262256e+001 56 36 23
3.464031e+000 6.590901e-001 -1.270767e+001 152 117 87
4.446358e+000 5.909370e-001 -1.287628e+001 140 106 75
2.928888e+000 8.277858e-001 -1.297603e+001 189 100 104
2.928888e+000 8.277858e-001 -1.297603e+001 189 100 104
3.676656e+000 3.896195e-001 -1.295506e+001 85 55 29
2.624594e+000 1.890492e-001 -1.306900e+001 210 154 142
2.462946e+000 3.153142e-001 -1.325444e+001 94 50 41
4.267421e+000 5.481832e-002 -1.348701e+001 133 103 77
5.146784e+000 -7.174715e-001 -1.300156e+001 151 121 81
2.925242e+000 -1.662023e-001 -1.338121e+001 117 53 50
3.606786e+000 -1.095174e-001 -1.344590e+001 75 57 42
2.955907e+000 -2.911666e-001 -1.338125e+001 153 94 90
5.107468e+000 -8.964728e-001 -1.312247e+001 127 98 62
2.227628e+000 -1.571664e-001 -1.365158e+001 130 83 74
4.852634e+000 1.513909e+000 -1.287786e+001 117 106 112
3.792938e+000 9.098259e-001 -1.255916e+001 108 92 65
4.211574e+000 1.044264e+000 -1.267024e+001 157 123 91
4.683909e+000 1.025444e+000 -1.272283e+001 181 141 105
4.594968e+000 1.085232e+000 -1.279242e+001 174 137 106
3.636626e+000 6.024452e-001 -1.263236e+001 89 73 58
4.855105e+000 9.350795e-001 -1.294471e+001 162 124 88
4.595213e+000 9.958245e-001 -1.295700e+001 146 113 86
5.364898e+000 -1.556053e-001 -1.276580e+001 130 100 62
3.678871e+000 3.754768e-001 -1.308787e+001 113 90 68
3.415051e+000 1.676545e-001 -1.308573e+001 181 155 134
3.415051e+000 1.676545e-001 -1.308573e+001 181 155 134
2.508142e+000 3.390348e-001 -1.316264e+001 168 103 93
3.645456e+000 1.747143e-001 -1.317598e+001 92 67 42
3.653719e+000 1.958669e-001 -1.324592e+001 76 51 25
5.159267e+000 -6.490063e-001 -1.288238e+001 137 107 68
2.800054e+000 -2.172781e-002 -1.314191e+001 143 59 57
3.624336e+000 1.432127e-002 -1.325432e+001 105 88 58
3.148829e+000 1.215489e-001 -1.331245e+001 174 109 93
1.057762e+000 -2.122462e-001 -1.347109e+001 142 98 69
5.073460e+000 -1.108663e+000 -1.337973e+001 128 102 63
1.069177e+000 -6.521336e-001 -1.353294e+001 198 117 124
4.941307e+000 -1.301545e+000 -1.338516e+001 181 153 105
1.323725e+000 -7.998474e-001 -1.362805e+001 89 39 38
1.301656e+000 -8.057623e-001 -1.375665e+001 62 38 26
3.515203e+000 8.093297e-001 -1.245801e+001 213 182 154
3.742157e+000 1.004371e+000 -1.256019e+001 36 27 18
4.531500e+000 1.083480e+000 -1.275103e+001 140 101 70
4.306470e+000 9.361121e-001 -1.267784e+001 167 131 99
4.686033e+000 1.003954e+000 -1.280111e+001 168 130 94
3.108699e+000 5.309778e-001 -1.281395e+001 202 162 113
2.475378e+000 5.538825e-001 -1.317972e+001 224 188 164
2.796312e+000 2.978985e-001 -1.312058e+001 211 147 145
4.327797e+000 3.202882e-001 -1.329546e+001 107 75 47
2.541233e+000 3.507521e-002 -1.313085e+001 193 134 133
3.339213e+000 -3.078485e-001 -1.334305e+001 144 117 96
1.604514e+000 -2.179564e-001 -1.342167e+001 191 163 141
1.189780e+000 -6.323249e-001 -1.352393e+001 156 96 90
3.396687e+000 1.008139e+000 -1.254785e+001 80 73 47
3.396687e+000 1.008139e+000 -1.254785e+001 80 73 47
3.895591e+000 1.113840e+000 -1.261601e+001 74 62 43
4.091392e+000 1.039451e+000 -1.263269e+001 112 81 57
4.912374e+000 1.216744e+000 -1.283007e+001 146 103 69
3.824221e+000 6.336935e-001 -1.253298e+001 68 51 35
4.978115e+000 1.025534e+000 -1.284370e+001 178 139 98
3.218003e+000 7.493674e-001 -1.282586e+001 180 130 43
3.659365e+000 5.508003e-001 -1.286655e+001 23 17 14
2.901147e+000 6.889719e-001 -1.297838e+001 205 129 133
3.333726e+000 2.479635e-001 -1.298748e+001 82 77 51
3.070259e+000 1.159704e-001 -1.323159e+001 137 61 60
3.685933e+000 1.501625e-002 -1.320264e+001 71 54 36
3.665559e+000 -1.145617e-001 -1.326370e+001 64 49 30
3.681358e+000 -8.889922e-002 -1.343386e+001 64 48 32
3.626566e+000 -3.348865e-001 -1.338343e+001 61 45 32
1.986869e+000 -2.610821e-001 -1.406459e+001 84 67 49
3.350604e+000 8.171126e-001 -1.259242e+001 81 77 52
4.418240e+000 1.099033e+000 -1.279118e+001 159 124 90
3.943185e+000 7.073357e-001 -1.261796e+001 158 126 101
3.740527e+000 3.554154e-001 -1.279080e+001 50 37 27
2.734109e+000 -1.437187e-002 -1.324844e+001 125 58 59
2.734109e+000 -1.437187e-002 -1.324844e+001 125 58 59
2.749409e+000 -1.681514e-002 -1.351713e+001 165 101 102
2.749409e+000 -1.681514e-002 -1.351713e+001 165 101 102
3.520686e+000 1.394219e+000 -1.261783e+001 186 153 119
2.478005e+000 8.983561e-002 -1.363566e+001 173 100 104
1.402400e+000 -2.442676e-001 -1.337411e+001 89 50 33
1.977208e+000 5.893159e-002 -1.372032e+001 177 141 118
3.582873e+000 4.865333e-001 -1.265221e+001 40 32 29
4.103424e+000 7.509789e-001 -1.280308e+001 91 65 43
4.103424e+000 7.509789e-001 -1.280308e+001 91 65 43
3.419044e+000 3.642083e-001 -1.290801e+001 167 137 109
4.542224e+000 5.182887e-001 -1.322223e+001 86 56 33
1.941502e+000 -3.080424e-001 -1.370359e+001 171 136 116
2.581181e+000 3.658378e-001 -1.301580e+001 216 180 156
3.584810e+000 2.259585e-001 -1.269426e+001 27 21 17
3.288077e+000 -3.206719e-002 -1.325581e+001 157 122 92
3.061106e+000 6.550708e-001 -1.319285e+001 118 55 46
4.380539e+000 3.689962e-001 -1.363220e+001 107 75 51
2.288462e+000 -1.394370e-001 -1.369464e+001 129 76 72
1.440745e+000 -3.021700e-001 -1.379871e+001 92 59 42
4.462273e+000 -1.517491e-002 -1.366077e+001 120 94 70
4.803293e+000 -2.226531e-001 -1.413284e+001 101 72 39
3.727940e+000 -2.849215e-001 -1.378443e+001 141 118 100
3.707169e+000 -4.469933e-001 -1.395808e+001 145 118 101
3.715816e+000 -5.946362e-001 -1.409014e+001 177 152 132
-4.092374e+001 6.673448e+001 -7.634841e+001 156 152 143
-4.092374e+001 6.673448e+001 -7.634841e+001 156 152 143
-4.504941e+001 7.737918e+001 -8.435834e+001 189 181 178
-1.868672e+001 7.262299e+001 -8.623388e+001 223 215 211
-3.925354e+001 6.174075e+001 -7.883725e+001 160 117 110
3.709403e+000 -4.532051e-001 -1.401832e+001 153 129 109
-3.970567e+001 6.078993e+001 -6.936784e+001 200 193 183
5.230349e+000 -3.126441e-001 -1.248876e+001 134 102 61
4.513287e+000 5.472352e-001 -1.295127e+001 87 55 30
4.389542e+000 4.826504e-001 -1.302717e+001 103 68 40
4.389542e+000 4.826504e-001 -1.302717e+001 103 68 40
4.527760e+000 4.804185e-001 -1.306130e+001 89 59 34
3.688077e+000 3.327763e-001 -1.296367e+001 74 57 41
4.519593e+000 4.091270e-001 -1.317944e+001 113 81 56
4.519593e+000 4.091270e-001 -1.317944e+001 113 81 56
4.545966e+000 3.555633e-001 -1.325514e+001 90 58 33
5.063465e+000 -4.089533e-001 -1.305403e+001 151 119 72
3.614547e+000 5.612928e-002 -1.325697e+001 249 235 200
2.407111e+000 3.546492e-001 -1.326397e+001 193 139 121
2.822784e+000 -1.121345e-001 -1.322160e+001 131 70 59
3.223293e+000 -1.134689e-001 -1.342957e+001 74 60 44
2.513587e+000 1.909174e-001 -1.362507e+001 130 54 56
4.617732e+000 -1.434206e-002 -1.374725e+001 74 47 26
4.125984e+000 -1.720480e-001 -1.376436e+001 81 55 33
4.353575e+000 -8.934458e-002 -1.374372e+001 86 56 28
4.353575e+000 -8.934458e-002 -1.374372e+001 86 56 28
2.940121e+000 -3.441850e-001 -1.353636e+001 173 110 103
3.109888e+000 -3.039691e-001 -1.357635e+001 149 105 93
4.358150e+000 -2.100212e-001 -1.388664e+001 115 82 51
2.102719e+000 -2.256427e-001 -1.360380e+001 91 64 44
4.194532e+000 -2.482798e-001 -1.392425e+001 109 79 55
4.559577e+000 -2.176299e-001 -1.401303e+001 97 63 36
3.085608e+000 -3.617192e-001 -1.378674e+001 153 72 77
3.334612e+000 -4.201122e-001 -1.375002e+001 107 75 50
1.758099e+000 -9.761126e-002 -1.413001e+001 179 171 159
2.858409e+000 -4.929147e-001 -1.398766e+001 131 68 66
2.875532e+000 -5.097399e-001 -1.398442e+001 190 134 123
4.096961e+000 -5.039366e-001 -1.419121e+001 106 76 50
2.875419e+000 -5.189750e-001 -1.410706e+001 158 102 82
3.879757e+000 -5.574686e-001 -1.415463e+001 85 57 34
3.011796e+000 -6.592672e-001 -1.409743e+001 141 105 78
4.168551e+000 -7.259732e-001 -1.458927e+001 75 52 31
4.167097e+000 -7.301068e-001 -1.458766e+001 75 52 31
5.119698e+000 -1.913338e-002 -1.263418e+001 161 125 77
3.237750e+000 6.508137e-001 -1.273127e+001 174 126 58
3.743033e+000 2.632843e-001 -1.266978e+001 54 38 25
2.591581e+000 6.531211e-001 -1.306302e+001 196 137 113
4.395405e+000 3.831558e-001 -1.316487e+001 91 60 35
4.457276e+000 3.135823e-001 -1.326895e+001 103 71 46
3.819905e+000 1.885948e-001 -1.318644e+001 135 107 82
5.075644e+000 -8.034255e-001 -1.307919e+001 169 135 82
2.835679e+000 -1.041617e-001 -1.333056e+001 142 90 76
2.892508e+000 -1.308289e-001 -1.334732e+001 133 71 62
2.862191e+000 -2.343272e-001 -1.351277e+001 139 83 70
4.345934e+000 -1.388285e-001 -1.382201e+001 96 66 38
2.914454e+000 -3.110645e-001 -1.352615e+001 156 99 82
4.455878e+000 -2.926539e-001 -1.406656e+001 94 63 34
4.113275e+000 -4.571265e-001 -1.414811e+001 85 58 31
3.990855e+000 -5.177688e-001 -1.414995e+001 86 58 34
2.974085e+000 -5.946922e-001 -1.403279e+001 170 94 95
4.360344e+000 -5.935832e-001 -1.437310e+001 127 96 65
4.355201e+000 -6.442420e-001 -1.443401e+001 122 91 63
4.159896e+000 6.469960e-001 -1.269875e+001 127 93 64
4.253524e+000 6.605513e-001 -1.270113e+001 124 85 55
5.037492e+000 9.378654e-001 -1.293628e+001 162 124 84
4.301602e+000 5.841131e-001 -1.280631e+001 144 110 82
3.728976e+000 3.251757e-001 -1.296661e+001 65 46 29
4.359204e+000 4.295727e-001 -1.307009e+001 118 81 54
4.158004e+000 2.100552e-001 -1.329044e+001 96 64 36
2.796449e+000 -7.653226e-002 -1.335323e+001 175 115 107
4.156153e+000 -1.019791e-001 -1.365493e+001 77 52 30
4.048800e+000 -2.606552e-001 -1.389590e+001 80 55 30
4.462497e+000 -2.432931e-001 -1.400448e+001 119 90 60
4.464716e+000 -2.391101e-001 -1.400711e+001 119 90 60
4.450776e+000 -2.776759e-001 -1.404237e+001 127 94 64
1.453879e+000 -5.049210e-001 -1.344809e+001 81 47 35
3.089170e+000 -4.053942e-001 -1.380404e+001 128 47 57
4.704838e+000 -2.873358e-001 -1.419135e+001 141 108 67
3.712118e+000 -4.414694e-001 -1.402143e+001 138 108 82
3.994355e+000 -5.479779e-001 -1.420642e+001 79 51 29
3.031782e+000 -6.542631e-001 -1.408865e+001 188 152 126
4.026682e+000 -6.384282e-001 -1.428260e+001 107 76 54
3.147803e+000 -7.104286e-001 -1.423558e+001 168 131 105
4.086141e+000 -6.616973e-001 -1.439533e+001 108 77 56
3.127181e+000 -7.891975e-001 -1.451123e+001 110 91 70
3.422432e+000 7.537411e-001 -1.243458e+001 160 126 98
4.005645e+000 6.727074e-001 -1.262062e+001 99 68 40
4.515175e+000 7.718556e-001 -1.270016e+001 126 88 53
3.706659e+000 3.679282e-001 -1.253329e+001 45 35 26
4.266552e+000 3.613526e-001 -1.311633e+001 139 105 77
4.588325e+000 2.891962e-001 -1.333949e+001 133 102 74
4.178906e+000 8.245501e-002 -1.342631e+001 138 104 76
3.234071e+000 -5.218767e-002 -1.332002e+001 148 100 60
4.089424e+000 1.975645e-003 -1.349817e+001 107 81 56
4.159583e+000 -1.869888e-002 -1.353662e+001 61 38 22
4.160193e+000 -1.637754e-002 -1.353799e+001 61 38 22
3.244770e+000 -2.081073e-001 -1.341819e+001 93 80 62
3.611153e+000 -3.385537e-001 -1.374841e+001 47 33 18
4.241507e+000 -2.409088e-001 -1.392604e+001 109 78 57
4.201740e+000 -2.932227e-001 -1.397887e+001 89 59 36
3.228177e+000 -3.837664e-001 -1.382382e+001 174 121 112
1.489948e+000 -5.950540e-001 -1.353562e+001 81 52 36
4.686891e+000 -3.662154e-001 -1.423271e+001 149 111 74
1.257428e+000 -7.635373e-001 -1.369011e+001 115 46 49
1.388772e+000 -7.200661e-001 -1.380226e+001 105 76 57
2.785832e+000 -5.796105e-001 -1.433829e+001 178 136 120
3.863797e+000 -7.510681e-001 -1.439085e+001 110 84 59
3.863797e+000 -7.510681e-001 -1.439085e+001 110 84 59
4.645752e+000 5.553785e-001 -1.299797e+001 87 53 26
3.208186e+000 4.830844e-001 -1.307538e+001 142 110 89
3.538139e+000 1.813466e-001 -1.312613e+001 55 39 23
3.447486e+000 3.753510e-002 -1.319513e+001 56 38 17
3.447486e+000 3.753510e-002 -1.319513e+001 56 38 17
4.638665e+000 1.164482e-001 -1.354753e+001 78 47 24
4.709568e+000 1.393875e-001 -1.355797e+001 111 77 42
4.169535e+000 2.322298e-002 -1.348592e+001 85 53 30
3.221769e+000 -1.413420e-001 -1.345875e+001 50 43 27
4.210737e+000 -9.044545e-002 -1.368783e+001 117 91 68
3.234270e+000 -3.259297e-001 -1.349104e+001 118 109 80
4.768084e+000 -1.772307e-001 -1.404060e+001 154 120 83
2.055509e+000 -1.591886e-001 -1.419617e+001 89 53 44
1.242942e+000 -7.527465e-001 -1.366498e+001 156 87 92
2.557694e+000 -5.465708e-001 -1.417232e+001 168 123 110
3.851162e+000 -7.594866e-001 -1.443103e+001 90 64 39
4.502913e+000 -6.592171e-001 -1.487060e+001 86 64 40
3.686215e+000 3.120633e-001 -1.257134e+001 206 182 144
3.687467e+000 3.197672e-001 -1.257306e+001 206 182 144
3.449156e+000 3.997594e-001 -1.273639e+001 239 209 183
4.781394e+000 6.046312e-001 -1.298390e+001 100 65 32
4.302709e+000 5.109784e-001 -1.294411e+001 99 68 40
3.714150e+000 3.213837e-001 -1.298412e+001 64 46 27
4.184747e+000 -7.369288e-002 -1.363423e+001 70 43 22
4.102790e+000 -1.455360e-001 -1.376027e+001 114 86 64
4.193136e+000 -1.552837e-001 -1.378870e+001 76 50 28
4.596122e+000 -1.113324e-001 -1.385949e+001 90 62 33
4.088087e+000 -2.328523e-001 -1.384095e+001 122 95 68
2.806888e+000 -3.725601e-001 -1.396659e+001 158 94 95
4.803727e+000 -4.800697e-001 -1.437329e+001 147 114 63
3.795922e+000 -7.639841e-001 -1.442357e+001 107 81 56
3.018600e+000 -8.305110e-001 -1.426914e+001 181 152 122
3.018067e+000 -8.348295e-001 -1.426541e+001 181 152 122
3.876742e+000 -7.729667e-001 -1.447237e+001 110 84 61
3.879490e+000 -7.669359e-001 -1.447776e+001 110 84 61
4.489696e+000 6.330614e-001 -1.283185e+001 93 60 35
3.418984e+000 2.655724e-001 -1.289165e+001 191 161 132
2.790083e+000 2.753068e-001 -1.311324e+001 205 136 131
3.007163e+000 -2.248329e-001 -1.345795e+001 117 44 48
3.095187e+000 -6.744854e-001 -1.417260e+001 124 76 52
3.112569e+000 -7.923183e-001 -1.434440e+001 125 88 61
4.022725e+000 6.365471e-001 -1.268284e+001 96 68 44
3.330147e+000 1.854425e-001 -1.294706e+001 85 79 52
3.725891e+000 2.872389e-001 -1.297433e+001 92 71 46
3.716885e+000 2.302046e-001 -1.303731e+001 69 51 29
3.723134e+000 2.468513e-001 -1.304434e+001 69 51 29
3.096503e+000 2.910446e-001 -1.317369e+001 108 59 44
3.319432e+000 5.452165e-002 -1.311344e+001 87 79 56
3.865959e+000 -6.334991e-001 -1.423460e+001 123 93 69
3.189378e+000 -8.372244e-001 -1.432386e+001 211 184 157
2.935365e+000 -5.134000e-001 -1.393848e+001 183 119 117
3.683650e+000 -7.320631e-001 -1.424922e+001 108 84 62
3.676612e+000 -6.884127e-001 -1.456764e+001 97 80 60
2.767466e+000 -2.685312e-001 -1.373732e+001 179 125 113
4.523065e+000 -2.903978e-001 -1.401685e+001 101 68 40
3.391241e+000 -6.093483e-001 -1.401134e+001 34 24 17
4.671985e+000 4.755438e-001 -1.314250e+001 112 79 51
3.678279e+000 9.845426e-002 -1.320521e+001 117 100 82
3.745029e+000 1.550509e-002 -1.336401e+001 137 112 91
4.185327e+000 -7.003518e-002 -1.361528e+001 94 69 49
4.008972e+000 -1.978017e-001 -1.376694e+001 86 62 40
4.254498e+000 -1.796033e-001 -1.384212e+001 78 52 29
3.728506e+000 -2.841959e-001 -1.381039e+001 129 103 85
4.206196e+000 -2.628490e-001 -1.394403e+001 78 50 26
4.570695e+000 -2.369933e-001 -1.403392e+001 87 56 28
4.089901e+000 -4.728847e-001 -1.414602e+001 118 90 66
4.341096e+000 -4.392910e-001 -1.421213e+001 116 86 60
4.231818e+000 -5.069627e-001 -1.425033e+001 102 74 47
4.588904e+000 -5.097322e-001 -1.435334e+001 105 72 40
3.977898e+000 -5.986196e-001 -1.425370e+001 101 74 53
4.246778e+000 -6.891585e-001 -1.445575e+001 84 56 32
4.487594e+000 6.432668e-001 -1.280326e+001 132 96 69
4.204746e+000 4.957661e-001 -1.294049e+001 84 53 31
4.834813e+000 4.931952e-002 -1.370045e+001 150 117 81
3.977200e+000 -6.593614e-002 -1.356007e+001 103 76 57
4.322685e+000 -6.299534e-002 -1.367390e+001 81 54 32
2.452983e+000 -1.027692e-002 -1.372003e+001 143 64 70
3.753949e+000 -1.849057e-001 -1.367345e+001 118 91 73
4.146141e+000 -1.742530e-001 -1.378557e+001 95 70 48
3.187769e+000 -3.026233e-001 -1.367565e+001 103 55 45
4.727060e+000 -1.788474e-001 -1.399395e+001 130 98 60
1.335740e+000 -6.058515e-001 -1.349422e+001 129 89 64
4.392997e+000 -3.621894e-001 -1.414321e+001 99 68 43
3.826371e+000 -6.045519e-001 -1.418127e+001 106 81 61
4.373458e+000 -5.397188e-001 -1.432027e+001 123 92 67
4.395750e+000 -5.851281e-001 -1.436564e+001 99 70 46
4.396171e+000 -5.845653e-001 -1.436623e+001 99 70 46
4.421912e+000 6.160834e-001 -1.281523e+001 133 97 70
4.321782e+000 5.134084e-001 -1.295198e+001 100 69 41
4.065300e+000 1.761607e-001 -1.330173e+001 106 75 50
4.208921e+000 -3.727845e-001 -1.406474e+001 118 91 65
4.485053e+000 -4.109988e-001 -1.423855e+001 74 46 22
4.485053e+000 -4.109988e-001 -1.423855e+001 74 46 22
2.379786e+000 -8.050729e-002 -1.474736e+001 160 156 148
4.291163e+000 -6.629780e-001 -1.443920e+001 97 68 45
4.711940e+000 1.744572e-001 -1.349443e+001 122 85 57
4.186274e+000 -2.032262e-001 -1.382737e+001 116 92 66
4.482033e+000 -2.326345e-001 -1.399829e+001 115 85 57
4.081041e+000 -6.334712e-001 -1.431558e+001 88 61 40
4.307933e+000 -6.060179e-001 -1.436433e+001 126 96 70
4.307233e+000 -7.259662e-001 -1.454350e+001 115 87 66
4.318186e+000 6.173273e-001 -1.277969e+001 153 119 91
3.125874e+000 -6.835640e-001 -1.410117e+001 202 169 141
4.553493e+000 -5.316340e-001 -1.440243e+001 91 65 40
3.131539e+000 5.455014e-001 -1.297597e+001 161 120 100
3.923112e+000 3.050160e-001 -1.310165e+001 63 36 17
3.158502e+000 -7.355544e-002 -1.336456e+001 133 66 65
3.158502e+000 -7.355544e-002 -1.336456e+001 133 66 65
3.729752e+000 -7.272295e-002 -1.347917e+001 129 106 90
4.147291e+000 -6.184937e-002 -1.359515e+001 105 79 58
3.171831e+000 -3.077250e-001 -1.354934e+001 45 35 23
4.379436e+000 -1.640056e-001 -1.382440e+001 103 75 51
3.183344e+000 -2.970181e-001 -1.364868e+001 116 50 54
4.212821e+000 -3.014684e-001 -1.400549e+001 105 77 56
3.960221e+000 -3.630312e-001 -1.396786e+001 83 56 35
3.960221e+000 -3.630312e-001 -1.396786e+001 83 56 35
4.200648e+000 -5.351325e-001 -1.424842e+001 90 60 35
4.214036e+000 -5.643409e-001 -1.427840e+001 94 64 40
4.214095e+000 -5.644399e-001 -1.427830e+001 94 64 40
4.390578e+000 -5.136120e-001 -1.430047e+001 68 40 19
4.239070e+000 -6.205424e-001 -1.435030e+001 72 42 17
4.277288e+000 5.353985e-001 -1.288542e+001 114 86 62
4.662916e+000 -3.801568e-002 -1.377768e+001 104 70 44
4.388893e+000 -9.735432e-002 -1.375694e+001 114 87 61
3.849241e+000 -2.963748e-001 -1.382082e+001 68 46 25
3.883451e+000 -4.751776e-001 -1.407349e+001 85 58 37
4.005148e+000 -5.446883e-001 -1.418591e+001 107 80 59
4.471368e+000 -6.411821e-001 -1.444901e+001 111 81 57
3.855298e+000 -7.824267e-001 -1.450791e+001 84 65 43
4.954707e+000 4.793612e-001 -1.326536e+001 159 126 81
4.344021e+000 -7.516573e-002 -1.370296e+001 112 86 63
2.333114e+000 -6.611594e-002 -1.470799e+001 155 155 148
4.182585e+000 -6.381470e-001 -1.432554e+001 123 94 70
4.783996e+000 5.078973e-001 -1.315764e+001 115 80 52
1.330746e+000 -6.279687e-001 -1.351893e+001 88 52 38
3.917916e+000 4.328661e-001 -1.287105e+001 104 81 66
4.384659e+000 -2.563078e-001 -1.398350e+001 136 107 77
3.852323e+000 3.344202e-001 -1.305876e+001 146 121 101
3.470404e+000 5.727584e-001 -1.253525e+001 245 212 169
4.162528e+000 6.514343e-001 -1.269881e+001 121 88 57
3.560457e+000 5.488012e-001 -1.270274e+001 55 35 11
3.596891e+000 4.875080e-001 -1.273898e+001 109 94 68
5.083457e+000 -6.473600e-001 -1.290959e+001 141 109 54
3.507038e+000 4.270245e-001 -1.282722e+001 58 32 7
3.705300e+000 3.940837e-001 -1.290838e+001 71 49 18
3.703335e+000 3.847179e-001 -1.292174e+001 59 42 16
3.687294e+000 2.579304e-001 -1.307572e+001 54 39 8
4.437187e+000 4.052954e-001 -1.315286e+001 71 40 11
4.495660e+000 3.612913e-001 -1.323323e+001 83 52 21
5.037112e+000 -5.210086e-001 -1.319605e+001 147 112 58
2.918175e+000 5.981843e-001 -1.303432e+001 185 101 94
4.047318e+000 2.478089e-001 -1.317333e+001 127 94 61
4.153029e+000 2.398263e-001 -1.327655e+001 120 86 51
4.591834e+000 3.160793e-001 -1.331564e+001 98 65 32
4.591834e+000 3.160793e-001 -1.331564e+001 98 65 32
4.924704e+000 3.957113e-001 -1.340058e+001 118 80 35
3.240672e+000 -1.364269e-002 -1.315304e+001 161 125 68
3.240672e+000 -1.364269e-002 -1.315304e+001 161 125 68
3.378903e+000 1.584189e-002 -1.317002e+001 245 223 184
2.756816e+000 -2.371099e-002 -1.317658e+001 128 66 47
4.492841e+000 9.203009e-002 -1.350797e+001 125 91 54
2.558861e+000 1.792219e-002 -1.324889e+001 136 67 53
2.787591e+000 -6.372439e-002 -1.328673e+001 128 69 51
2.854953e+000 -1.038663e-001 -1.330982e+001 171 116 95
4.969613e+000 -6.499621e-001 -1.354481e+001 153 120 67
3.971480e+000 -5.388886e-002 -1.353682e+001 67 38 8
4.463861e+000 -8.705743e-003 -1.366637e+001 108 77 49
4.604207e+000 -4.395011e-002 -1.373686e+001 74 44 16
3.175470e+000 -2.909033e-001 -1.352841e+001 49 40 19
3.333458e+000 -2.652826e-001 -1.352597e+001 178 150 116
4.399860e+000 -7.598608e-002 -1.376673e+001 118 86 53
2.253300e+000 -1.311362e-002 -1.355620e+001 64 34 23
3.097105e+000 -2.592530e-001 -1.358563e+001 130 60 53
4.279013e+000 -1.498215e-001 -1.381358e+001 65 34 6
3.239027e+000 -3.382527e-001 -1.373718e+001 151 107 79
4.217641e+000 -2.215515e-001 -1.391192e+001 70 43 13
4.217641e+000 -2.215515e-001 -1.391192e+001 70 43 13
4.208878e+000 -2.511649e-001 -1.392875e+001 73 42 12
4.344990e+000 -2.650654e-001 -1.397368e+001 119 83 46
4.492264e+000 -1.874059e-001 -1.391475e+001 91 58 26
1.925328e+000 -1.902991e-001 -1.359345e+001 95 65 39
1.906041e+000 -1.635883e-001 -1.362995e+001 81 56 33
2.832762e+000 -5.080054e-001 -1.372213e+001 140 80 65
3.274464e+000 -4.415992e-001 -1.377955e+001 169 127 89
2.891515e+000 -5.163058e-001 -1.375769e+001 138 81 65
3.022254e+000 -4.525872e-001 -1.380916e+001 134 82 61
3.022254e+000 -4.525872e-001 -1.380916e+001 134 82 61
4.004778e+000 -4.042992e-001 -1.407221e+001 76 42 14
4.032888e+000 -4.002155e-001 -1.407516e+001 72 41 12
4.160753e+000 -3.683494e-001 -1.405075e+001 93 66 39
4.202460e+000 -3.972996e-001 -1.409006e+001 108 77 47
4.301575e+000 -4.294649e-001 -1.417994e+001 116 84 51
4.247455e+000 -4.683099e-001 -1.418987e+001 111 78 45
2.934327e+000 -5.520216e-001 -1.394022e+001 216 158 137
3.289360e+000 -6.476100e-001 -1.399131e+001 100 65 27
3.880240e+000 -5.508075e-001 -1.415924e+001 76 46 18
3.948777e+000 -5.470037e-001 -1.416427e+001 87 57 29
4.501150e+000 -5.148648e-001 -1.434384e+001 107 76 43
2.814109e+000 -5.419468e-001 -1.407948e+001 189 118 106
3.257455e+000 -7.654437e-001 -1.409504e+001 147 106 68
3.905263e+000 -6.001608e-001 -1.420798e+001 78 47 18
4.459800e+000 -5.788312e-001 -1.438851e+001 95 66 37
4.623550e+000 -6.873016e-001 -1.447519e+001 114 81 36
3.183150e+000 -8.552075e-001 -1.431211e+001 210 177 131
4.155575e+000 -7.345615e-001 -1.460916e+001 69 43 14
4.155575e+000 -7.345615e-001 -1.460916e+001 69 43 14
2.474652e+000 -1.946027e-001 -1.454944e+001 144 76 63
2.549173e+000 -3.204604e-001 -1.451212e+001 145 71 60
2.559693e+000 -3.638093e-001 -1.457787e+001 136 70 55
4.898170e+000 7.822532e-001 -1.278004e+001 155 115 64
3.676661e+000 2.944411e-001 -1.261097e+001 157 135 84
3.676968e+000 2.768658e-001 -1.264711e+001 158 139 98
3.432079e+000 3.232330e-001 -1.285132e+001 156 118 79
3.602449e+000 3.456451e-001 -1.300038e+001 80 61 32
4.317780e+000 2.716826e-001 -1.328643e+001 102 68 33
4.551932e+000 2.864188e-001 -1.331867e+001 104 71 38
4.553823e+000 2.916160e-001 -1.332020e+001 104 71 38
4.718351e+000 3.380383e-001 -1.333218e+001 125 91 54
3.378603e+000 -2.783463e-002 -1.319836e+001 226 192 154
3.978138e+000 1.044290e-001 -1.328827e+001 92 61 30
4.577654e+000 1.930850e-001 -1.342731e+001 121 88 55
4.577654e+000 1.930850e-001 -1.342731e+001 121 88 55
2.544331e+000 3.197280e-002 -1.318062e+001 141 67 56
2.853294e+000 -6.968674e-002 -1.315566e+001 141 69 57
3.006852e+000 -7.411096e-002 -1.325211e+001 205 150 126
3.022784e+000 -8.832341e-002 -1.325915e+001 115 40 34
3.102215e+000 2.649355e-002 -1.328543e+001 132 51 48
3.361956e+000 -1.127748e-001 -1.330121e+001 147 112 70
3.926749e+000 3.553390e-002 -1.341036e+001 117 88 57
4.517580e+000 1.265193e-001 -1.348568e+001 126 91 55
4.613679e+000 1.155364e-001 -1.354629e+001 93 59 21
4.610508e+000 1.088440e-001 -1.354393e+001 93 59 21
2.707014e+000 -1.909361e-002 -1.323921e+001 144 84 68
2.982095e+000 -1.454476e-001 -1.327368e+001 121 62 44
3.351211e+000 -2.068339e-001 -1.344886e+001 170 139 108
4.071518e+000 -8.663608e-002 -1.357287e+001 90 59 30
4.269972e+000 -8.888139e-002 -1.368389e+001 70 42 14
4.272249e+000 -8.327319e-002 -1.368615e+001 70 42 14
4.515520e+000 -5.710524e-002 -1.373488e+001 84 51 23
2.465405e+000 2.547325e-001 -1.361067e+001 130 59 51
3.201659e+000 -2.970693e-001 -1.365500e+001 142 85 71
3.201620e+000 -2.986812e-001 -1.365411e+001 142 85 71
4.266767e+000 -1.538219e-001 -1.378177e+001 110 78 47
3.166753e+000 -3.009740e-001 -1.366314e+001 187 131 111
3.289220e+000 -3.947445e-001 -1.370528e+001 241 209 168
4.122860e+000 -2.520840e-001 -1.385922e+001 62 30 7
4.177694e+000 -2.765293e-001 -1.389069e+001 106 75 44
4.205615e+000 -2.764567e-001 -1.397828e+001 75 45 14
3.061742e+000 -4.724948e-001 -1.383397e+001 149 87 74
2.979607e+000 -4.614158e-001 -1.389058e+001 87 37 24
3.101635e+000 -4.937968e-001 -1.398000e+001 117 64 33
4.089839e+000 -4.821868e-001 -1.415532e+001 114 83 52
4.211732e+000 -4.687010e-001 -1.418624e+001 115 80 50
4.267212e+000 -4.073624e-001 -1.413908e+001 113 80 49
4.267034e+000 -4.076166e-001 -1.413891e+001 113 80 49
4.014139e+000 -5.257311e-001 -1.417109e+001 89 55 27
4.014900e+000 -5.232184e-001 -1.417249e+001 89 55 27
4.289081e+000 -5.235670e-001 -1.425315e+001 133 98 62
4.332611e+000 -5.245417e-001 -1.428398e+001 119 83 47
4.324837e+000 -5.800245e-001 -1.434022e+001 101 66 29
1.228799e+000 -7.465250e-001 -1.380641e+001 107 50 42
4.309424e+000 -6.624367e-001 -1.440516e+001 123 89 52
3.217428e+000 -8.259567e-001 -1.420287e+001 249 217 174
3.279853e+000 -7.857343e-001 -1.422940e+001 143 110 68
4.366917e+000 -6.848092e-001 -1.447062e+001 115 82 47
4.402451e+000 -7.136310e-001 -1.456867e+001 83 54 23
3.233903e+000 -8.591768e-001 -1.433483e+001 128 92 56
4.444781e+000 -6.899362e-001 -1.462175e+001 79 49 21
2.568524e+000 -3.562342e-001 -1.456135e+001 185 129 102
3.480374e+000 7.294962e-001 -1.243357e+001 178 141 97
3.498936e+000 5.662237e-001 -1.251836e+001 137 98 55
3.618962e+000 4.726443e-001 -1.256999e+001 90 73 53
3.707529e+000 3.737318e-001 -1.253284e+001 45 34 17
3.465870e+000 4.895815e-001 -1.266764e+001 233 201 160
3.645313e+000 4.187748e-001 -1.262179e+001 91 77 55
3.640455e+000 3.510685e-001 -1.267215e+001 88 76 54
4.991769e+000 7.874756e-001 -1.287502e+001 125 89 39
4.991769e+000 7.874756e-001 -1.287502e+001 125 89 39
3.679566e+000 4.266205e-001 -1.277115e+001 55 45 33
3.436840e+000 3.503717e-001 -1.282858e+001 221 186 148
3.594200e+000 4.417330e-001 -1.281061e+001 36 24 10
3.428077e+000 1.739063e-001 -1.301017e+001 117 87 51
3.402043e+000 1.282510e-001 -1.306210e+001 217 188 152
4.535400e+000 3.095493e-001 -1.329222e+001 134 101 66
4.635727e+000 3.011102e-001 -1.335061e+001 117 84 49
4.934617e+000 3.552829e-001 -1.336588e+001 166 127 68
3.356657e+000 -2.150488e-002 -1.322083e+001 130 89 50
4.241341e+000 1.688140e-001 -1.335894e+001 77 46 16
4.529501e+000 2.457484e-001 -1.339449e+001 87 56 22
4.508697e+000 1.939280e-001 -1.341779e+001 123 89 51
3.254338e+000 -1.150800e-001 -1.323605e+001 157 121 78
2.859073e+000 -1.094100e-001 -1.333109e+001 139 82 63
3.475857e+000 -1.495489e-001 -1.341911e+001 74 58 33
3.539020e+000 -9.236976e-002 -1.340099e+001 84 64 32
4.548564e+000 6.785548e-002 -1.356466e+001 126 92 55
3.970399e+000 -1.880971e-001 -1.372917e+001 80 53 25
4.244271e+000 -2.049301e-001 -1.386310e+001 111 80 49
4.835525e+000 -7.944415e-002 -1.394949e+001 90 59 18
2.606662e+000 9.285828e-002 -1.371698e+001 171 94 88
3.262280e+000 -3.985585e-001 -1.376211e+001 135 91 54
4.261763e+000 -3.891615e-001 -1.410534e+001 110 76 44
1.254415e+000 -6.878119e-001 -1.354498e+001 134 70 58
2.983821e+000 -4.981070e-001 -1.390262e+001 181 125 98
1.297961e+000 -7.426254e-001 -1.364739e+001 136 77 71
2.882042e+000 -5.008476e-001 -1.406070e+001 119 63 44
2.845309e+000 -5.176654e-001 -1.408599e+001 139 71 55
4.261753e+000 -5.781913e-001 -1.432641e+001 128 94 57
2.943154e+000 -6.137575e-001 -1.414593e+001 129 75 40
4.780753e+000 -5.984834e-001 -1.457921e+001 137 100 47
1.127364e+000 -7.345591e-001 -1.384325e+001 112 51 51
1.127364e+000 -7.345591e-001 -1.384325e+001 112 51 51
3.040330e+000 -7.711864e-001 -1.418606e+001 150 110 69
3.200962e+000 -8.292998e-001 -1.427060e+001 131 93 54
4.129872e+000 -7.034718e-001 -1.441670e+001 105 74 43
3.251990e+000 -8.603180e-001 -1.435574e+001 72 50 29
4.536625e+000 -8.727827e-002 -1.577457e+001 91 65 32
3.706402e+000 4.396647e-001 -1.250708e+001 133 114 79
3.636864e+000 4.578324e-001 -1.259635e+001 38 25 16
4.648909e+000 5.606735e-001 -1.299808e+001 80 45 18
4.603810e+000 3.612241e-001 -1.327072e+001 81 52 22
4.340314e+000 1.817136e-001 -1.337251e+001 95 61 26
3.229567e+000 -1.998059e-002 -1.320967e+001 139 92 39
4.683618e+000 2.922690e-002 -1.367038e+001 107 73 36
4.276649e+000 -1.947935e-001 -1.386585e+001 77 47 21
4.284441e+000 -3.406334e-001 -1.399091e+001 128 94 56
3.261096e+000 -6.112570e-001 -1.394377e+001 224 193 150
3.261096e+000 -6.112570e-001 -1.394377e+001 224 193 150
4.688496e+000 -4.140763e-001 -1.430945e+001 145 107 58
4.667104e+000 -4.547592e-001 -1.428603e+001 145 107 58
3.157376e+000 -6.160726e-001 -1.397909e+001 205 167 120
3.455532e+000 -8.458725e-001 -1.401670e+001 254 226 161
3.455006e+000 -8.489977e-001 -1.401515e+001 254 226 161
3.764964e+000 -5.604618e-001 -1.411780e+001 86 55 26
3.174705e+000 -6.711372e-001 -1.404585e+001 140 92 51
2.762004e+000 -6.114174e-001 -1.408484e+001 169 112 92
3.159040e+000 -7.370260e-001 -1.424178e+001 171 132 93
3.159040e+000 -7.370260e-001 -1.424178e+001 171 132 93
3.980291e+000 -7.212210e-001 -1.441165e+001 107 76 45
2.816937e+000 -5.598821e-001 -1.441243e+001 138 96 71
4.298161e+000 -7.323751e-001 -1.461754e+001 84 55 23
4.456984e+000 -7.021153e-001 -1.462149e+001 78 49 19
4.805536e+000 7.793754e-001 -1.278331e+001 119 80 39
4.805536e+000 7.793754e-001 -1.278331e+001 119 80 39
4.856313e+000 6.973449e-001 -1.285268e+001 166 128 79
3.602667e+000 5.212541e-001 -1.279065e+001 53 39 26
3.509101e+000 4.347706e-001 -1.282310e+001 56 30 6
3.006327e+000 6.893858e-001 -1.302467e+001 172 79 72
4.109361e+000 2.002870e-001 -1.327615e+001 126 92 55
3.112194e+000 -8.761352e-002 -1.336102e+001 179 116 103
3.431800e+000 -8.161676e-002 -1.336098e+001 50 32 16
4.532781e+000 7.871128e-002 -1.354911e+001 124 91 52
4.533069e+000 7.654527e-002 -1.354793e+001 124 91 52
3.298208e+000 -2.722523e-001 -1.342236e+001 83 51 29
3.415764e+000 -1.584423e-001 -1.342855e+001 45 28 9
3.357589e+000 -2.051627e-001 -1.343962e+001 141 113 81
2.451231e+000 2.668393e-001 -1.346229e+001 161 86 80
3.340359e+000 -2.614995e-001 -1.352318e+001 150 124 91
2.869901e+000 -4.889691e-001 -1.372633e+001 160 99 82
2.772901e+000 -3.837941e-001 -1.400398e+001 125 61 49
3.302199e+000 -7.077729e-001 -1.410302e+001 41 21 7
3.875520e+000 -7.106705e-001 -1.434291e+001 108 77 48
4.190242e+000 -6.858941e-001 -1.447187e+001 116 83 48
4.760299e+000 -6.948551e-001 -1.468130e+001 138 102 48
3.886052e+000 -7.753928e-001 -1.457436e+001 74 48 22
4.245729e+000 -7.356252e-001 -1.465748e+001 78 51 22
5.019824e+000 8.991588e-001 -1.272219e+001 186 150 90
3.850763e+000 5.230348e-001 -1.283225e+001 87 62 40
4.847871e+000 6.165753e-001 -1.296174e+001 157 120 75
3.659913e+000 3.040034e-001 -1.288361e+001 52 28 1
3.499460e+000 3.417737e-001 -1.289696e+001 141 114 87
3.652888e+000 2.077215e-001 -1.315372e+001 227 210 171
2.931015e+000 4.057272e-001 -1.311511e+001 135 54 45
2.793021e+000 -1.045085e-002 -1.315619e+001 139 55 47
2.602672e+000 9.322035e-002 -1.369748e+001 167 90 82
3.794855e+000 -3.910208e-001 -1.393646e+001 97 62 30
3.925225e+000 -4.274444e-001 -1.403407e+001 68 38 12
2.758424e+000 -3.037431e-001 -1.396552e+001 151 92 78
3.157750e+000 -5.267233e-001 -1.396434e+001 108 57 33
2.503741e+000 -3.393253e-002 -1.411249e+001 112 52 43
3.158232e+000 -6.766251e-001 -1.402923e+001 150 104 63
3.253443e+000 -6.959120e-001 -1.401878e+001 198 165 122
1.462228e+000 -7.090673e-001 -1.376958e+001 83 49 31
1.227142e+000 -7.785757e-001 -1.371445e+001 140 80 70
2.909487e+000 -5.775682e-001 -1.412767e+001 199 151 106
3.226764e+000 -8.028236e-001 -1.419497e+001 171 137 97
3.891566e+000 -7.488497e-001 -1.440553e+001 110 79 48
4.073231e+000 -7.306977e-001 -1.447285e+001 118 85 50
3.318040e+000 3.321139e-001 -1.291692e+001 165 122 88
4.435315e+000 4.666801e-001 -1.305543e+001 139 104 66
3.248085e+000 2.491091e-002 -1.315410e+001 161 124 68
4.178708e+000 1.618405e-001 -1.333268e+001 137 103 65
1.217733e+000 -6.411887e-001 -1.352615e+001 155 93 81
1.301459e+000 -7.270405e-001 -1.370671e+001 98 49 39
2.874421e+000 -5.109406e-001 -1.404019e+001 118 60 42
2.874819e+000 -5.126827e-001 -1.403934e+001 118 60 42
4.513552e+000 -7.385365e-001 -1.468859e+001 100 68 35
3.598300e+000 4.113700e-001 -1.263564e+001 36 27 18
3.682879e+000 3.256898e-001 -1.261322e+001 177 155 105
3.774353e+000 5.298997e-001 -1.285207e+001 33 23 14
4.515619e+000 5.693599e-001 -1.295249e+001 88 55 24
3.084151e+000 -2.070205e-001 -1.349758e+001 198 133 115
2.729830e+000 -1.002836e-001 -1.365469e+001 126 66 55
2.938279e+000 -4.419169e-001 -1.387380e+001 88 35 27
3.877261e+000 4.426326e-001 -1.280285e+001 90 65 41
3.521145e+000 -8.689935e-001 -1.405286e+001 50 37 25
4.257745e+000 -7.212218e-001 -1.455911e+001 111 81 45
4.476667e+000 3.927091e-001 -1.314251e+001 102 72 44
3.684434e+000 -5.985876e-001 -1.409772e+001 146 113 75
3.684434e+000 -5.985876e-001 -1.409772e+001 146 113 75
3.342352e+000 -8.622948e-001 -1.405650e+001 44 35 17
4.633505e+000 4.179392e-001 -1.319468e+001 110 76 48
4.634066e+000 4.179138e-001 -1.319440e+001 110 76 48
3.609611e+000 1.491826e-002 -1.330625e+001 229 203 159
4.187780e+000 -6.580050e-002 -1.361484e+001 100 74 49
4.324276e+000 -3.132886e-001 -1.402979e+001 122 89 58
4.493367e+000 1.231921e-001 -1.347772e+001 91 59 29
4.465835e+000 1.137536e-001 -1.348473e+001 96 62 34
4.487194e+000 -2.960701e-002 -1.367965e+001 112 85 57
2.470279e+000 -2.023211e-002 -1.373861e+001 183 103 109
2.923047e+000 -5.519340e-001 -1.404514e+001 150 98 85
3.930424e+000 -7.579537e-001 -1.447208e+001 89 61 37
4.236604e+000 5.687398e-001 -1.281579e+001 99 65 37
4.236997e+000 5.690263e-001 -1.281593e+001 99 65 37
3.106030e+000 -3.915170e-001 -1.378630e+001 180 122 110
4.212567e+000 -5.314152e-001 -1.424859e+001 102 71 43
3.565978e+000 4.374655e-003 -1.306382e+001 32 22 20
3.300122e+000 -7.224637e-001 -1.409730e+001 40 28 17
3.939884e+000 3.394008e-001 -1.302673e+001 64 38 24
4.254209e+000 -3.329530e-001 -1.403522e+001 119 89 63
3.749832e+000 -1.185559e-002 -1.338878e+001 132 107 85
5.214452e+000 -7.064656e-001 -1.326804e+001 186 153 105
4.359628e+000 -2.119565e-001 -1.391600e+001 106 79 50
4.759859e+000 -6.039861e-001 -1.448841e+001 136 105 62
4.811989e+000 -3.240147e-001 -1.577822e+001 41 40 37
3.927919e+000 3.480752e-001 -1.297016e+001 67 44 28
4.604144e+000 6.123256e-001 -1.292599e+001 108 72 36
4.984290e+000 6.569534e-001 -1.304116e+001 146 110 58
4.669303e+000 4.744604e-001 -1.314382e+001 106 73 36
5.113645e+000 -8.881830e-001 -1.316182e+001 131 97 49
4.665734e+000 3.564169e-001 -1.328272e+001 96 64 28
4.989127e+000 -9.743171e-002 -1.332777e+001 167 134 80
5.095234e+000 -9.520514e-001 -1.324365e+001 128 94 48
3.097489e+000 2.881495e-002 -1.326809e+001 156 73 69
4.455003e+000 1.558875e-001 -1.344253e+001 141 106 65
4.444133e+000 8.430809e-002 -1.351767e+001 91 57 22
4.652870e+000 1.220305e-002 -1.365374e+001 115 82 49
2.426172e+000 3.057908e-001 -1.336363e+001 169 91 79
3.971689e+000 -5.739321e-002 -1.353645e+001 67 38 8
4.035346e+000 -1.013931e-001 -1.361508e+001 99 72 42
4.627146e+000 5.902279e-003 -1.370811e+001 68 40 10
3.751225e+000 -1.910882e-001 -1.367320e+001 118 87 57
2.946198e+000 -3.023198e-001 -1.350704e+001 146 96 61
4.259054e+000 -1.712091e-001 -1.384583e+001 67 36 8
3.711481e+000 -3.531481e-001 -1.373855e+001 122 92 58
4.133424e+000 -2.581065e-001 -1.389291e+001 67 36 8
4.831142e+000 -1.240653e-001 -1.405556e+001 89 55 17
4.457819e+000 -2.608972e-001 -1.402230e+001 87 52 20
4.458282e+000 -2.635800e-001 -1.402131e+001 87 52 20
4.005649e+000 -4.032456e-001 -1.407202e+001 76 42 14
4.302552e+000 -5.224717e-001 -1.427649e+001 111 74 38
1.924231e+000 -2.260901e-001 -1.417082e+001 80 57 33
2.968192e+000 -7.174623e-001 -1.437365e+001 165 124 69
3.913879e+000 -7.604738e-001 -1.455262e+001 72 46 19
2.557152e+000 -3.814464e-001 -1.459506e+001 192 136 111
2.598550e+000 -4.084287e-001 -1.458085e+001 183 128 98
2.613125e+000 -3.906651e-001 -1.459934e+001 144 90 65
4.473485e+000 -6.975082e-001 -1.483578e+001 76 51 21
4.418510e+000 -6.629454e-001 -1.489128e+001 98 76 45
3.542171e+000 5.490284e-001 -1.256266e+001 53 31 8
3.570840e+000 5.261152e-001 -1.263102e+001 56 38 24
3.602966e+000 4.988791e-001 -1.259187e+001 84 67 43
3.416548e+000 3.808086e-001 -1.280950e+001 133 94 53
4.259330e+000 4.852972e-001 -1.292590e+001 124 91 58
3.007565e+000 6.955827e-001 -1.298929e+001 189 100 91
4.493997e+000 4.430684e-001 -1.315971e+001 102 73 43
4.549566e+000 3.969759e-001 -1.320882e+001 112 81 51
3.381419e+000 5.307793e-002 -1.313681e+001 238 209 172
3.253745e+000 -1.335970e-002 -1.312989e+001 184 153 106
3.225099e+000 -5.132503e-002 -1.324075e+001 164 119 51
3.796339e+000 1.801620e-002 -1.339739e+001 130 100 64
4.284903e+000 5.891185e-002 -1.348663e+001 123 90 55
3.359264e+000 -1.534737e-001 -1.332155e+001 207 171 131
3.903472e+000 -1.295488e-003 -1.343210e+001 82 51 22
4.188395e+000 -1.579621e-002 -1.356934e+001 86 55 26
5.035624e+000 -1.201409e+000 -1.354923e+001 217 181 108
3.492146e+000 -2.334343e-001 -1.357588e+001 39 23 7
4.354663e+000 -1.130686e-001 -1.378363e+001 120 87 56
4.463880e+000 -1.649268e-001 -1.389818e+001 79 43 13
3.341822e+000 -3.760026e-001 -1.371354e+001 118 86 48
4.223676e+000 -1.959624e-001 -1.388059e+001 78 47 19
4.223676e+000 -1.959624e-001 -1.388059e+001 78 47 19
4.505010e+000 -1.957853e-001 -1.393314e+001 115 82 47
4.394486e+000 -2.937370e-001 -1.407256e+001 117 82 42
4.266669e+000 -3.395649e-001 -1.406178e+001 120 87 49
4.302398e+000 -3.680678e-001 -1.410632e+001 67 36 8
4.187404e+000 -4.672372e-001 -1.418185e+001 90 57 26
2.701354e+000 -2.763857e-001 -1.401347e+001 132 70 55
4.323601e+000 -4.800045e-001 -1.425439e+001 95 61 26
4.454918e+000 -5.383356e-001 -1.433173e+001 115 81 44
3.130808e+000 -6.795677e-001 -1.408102e+001 177 135 93
1.965980e+000 -1.868959e-001 -1.410558e+001 66 43 22
4.461301e+000 -6.521201e-001 -1.446875e+001 92 58 23
1.255756e+000 -7.307178e-001 -1.386495e+001 107 70 57
4.052454e+000 -7.134368e-001 -1.441682e+001 103 75 44
2.466846e+000 -9.626574e-002 -1.447339e+001 125 57 50
3.927643e+000 -7.664927e-001 -1.447146e+001 80 49 18
3.153518e+000 -8.503363e-001 -1.437433e+001 141 106 66
4.121663e+000 -7.520907e-001 -1.467355e+001 70 43 16
3.309362e+000 -9.022796e-001 -1.455692e+001 60 44 21
3.777250e+000 -7.355240e-001 -1.470336e+001 94 76 52
4.383417e+000 -6.755831e-001 -1.486721e+001 65 43 19
3.843597e+000 -6.851434e-001 -1.479596e+001 77 56 29
2.863139e+000 -2.016427e-001 -1.498154e+001 133 108 78
3.681979e+000 2.562337e-001 -1.266997e+001 49 38 22
4.302093e+000 4.878372e-001 -1.299016e+001 115 80 49
4.171131e+000 3.737737e-001 -1.309655e+001 127 93 55
4.080098e+000 2.916093e-001 -1.313690e+001 130 97 60
4.298406e+000 1.397779e-001 -1.338321e+001 124 90 52
2.653978e+000 -4.680451e-002 -1.315090e+001 127 59 50
4.019902e+000 8.562044e-002 -1.336016e+001 88 55 24
4.281403e+000 1.210115e-001 -1.341727e+001 106 71 38
3.936724e+000 -6.142531e-002 -1.352387e+001 73 43 15
4.621211e+000 2.488420e-002 -1.360379e+001 96 63 28
2.833888e+000 -9.787729e-002 -1.333085e+001 139 82 60
3.257744e+000 -3.149959e-001 -1.343588e+001 104 88 62
4.122693e+000 -4.092963e-002 -1.356735e+001 114 83 55
3.363312e+000 -2.932270e-001 -1.356421e+001 99 68 39
3.614849e+000 -2.126480e-001 -1.360083e+001 47 33 15
4.514941e+000 -5.605964e-002 -1.376236e+001 115 82 49
4.085899e+000 -1.980065e-001 -1.380938e+001 75 47 18
4.837850e+000 -7.491512e-002 -1.395140e+001 90 59 18
3.296052e+000 -3.723608e-001 -1.366775e+001 189 158 119
3.872905e+000 -3.313283e-001 -1.386316e+001 112 80 45
4.128671e+000 -2.904027e-001 -1.393820e+001 70 37 8
4.695142e+000 -2.571097e-001 -1.407324e+001 138 100 53
3.971636e+000 -4.933475e-001 -1.411580e+001 79 50 18
3.226437e+000 -6.754664e-001 -1.400135e+001 150 106 62
4.261043e+000 -4.901198e-001 -1.422811e+001 132 97 62
4.954521e+000 -1.614168e+000 -1.404270e+001 153 122 62
1.938899e+000 -1.870519e-001 -1.415449e+001 103 75 51
1.997204e+000 -2.179558e-001 -1.413445e+001 70 47 27
2.803023e+000 -6.073067e-001 -1.412406e+001 161 106 86
3.174036e+000 -7.047116e-001 -1.414143e+001 155 114 70
4.032475e+000 -6.589142e-001 -1.433948e+001 76 49 21
4.452072e+000 -6.357742e-001 -1.442680e+001 92 59 24
4.205583e+000 -7.197386e-001 -1.450505e+001 90 57 24
2.635888e+000 -4.954997e-001 -1.448876e+001 131 75 60
3.960340e+000 -7.181854e-001 -1.473816e+001 61 38 18
3.960340e+000 -7.181854e-001 -1.473816e+001 61 38 18
3.740520e+000 -6.836281e-001 -1.480108e+001 103 83 56
4.398615e+000 -5.030140e-001 -1.505572e+001 89 67 36
3.387698e+000 7.743308e-001 -1.243720e+001 86 72 38
3.677472e+000 3.999055e-001 -1.254198e+001 53 41 24
4.217594e+000 6.723660e-001 -1.269792e+001 143 108 68
3.418423e+000 1.894796e-001 -1.297957e+001 190 160 122
4.860762e+000 4.183779e-001 -1.332486e+001 138 102 53
4.348917e+000 1.968248e-001 -1.337614e+001 95 61 26
3.912534e+000 -1.004453e-001 -1.356732e+001 99 68 40
2.899499e+000 -3.802187e-001 -1.356484e+001 138 77 59
4.316330e+000 -1.767972e-001 -1.383848e+001 80 49 20
2.796924e+000 -4.368566e-001 -1.363217e+001 146 80 66
3.187948e+000 -2.904823e-001 -1.369715e+001 103 46 35
1.249535e+000 -7.674065e-001 -1.366140e+001 155 86 81
2.345819e+000 1.431330e-001 -1.427522e+001 150 95 65
2.194451e+000 -3.326129e-002 -1.423580e+001 98 47 30
2.816164e+000 -5.689105e-001 -1.440986e+001 138 96 71
4.453497e+000 -7.113251e-001 -1.461858e+001 78 49 19
4.679426e+000 -6.903944e-001 -1.470908e+001 133 100 57
3.189422e+000 -8.360636e-001 -1.437585e+001 167 135 96
3.847384e+000 -7.513557e-001 -1.468618e+001 63 41 18
4.363825e+000 -6.277463e-001 -1.492214e+001 108 82 57
4.359228e+000 3.203607e-001 -1.321376e+001 132 98 60
4.444148e+000 2.012452e-001 -1.339084e+001 139 104 66
4.630250e+000 2.160945e-001 -1.343939e+001 90 59 30
3.406265e+000 -2.144148e-001 -1.352260e+001 39 26 15
3.263654e+000 -3.117245e-001 -1.368216e+001 103 65 42
4.612196e+000 -2.669076e-001 -1.409967e+001 109 74 34
4.169946e+000 -3.896166e-001 -1.408832e+001 69 42 19
4.983088e+000 -1.430430e+000 -1.385302e+001 148 113 58
4.984092e+000 -1.450762e+000 -1.389042e+001 140 108 57
3.335676e+000 -5.446024e-001 -1.393993e+001 60 39 20
3.051456e+000 -5.407120e-001 -1.400271e+001 133 75 52
3.319195e+000 -6.432501e-001 -1.400650e+001 56 38 19
4.154056e+000 -5.464974e-001 -1.424062e+001 98 64 35
3.045075e+000 -5.687118e-001 -1.405001e+001 140 87 58
3.709591e+000 -7.010079e-001 -1.421109e+001 115 89 54
2.845408e+000 -5.867182e-001 -1.411872e+001 147 82 64
1.265857e+000 -7.033278e-001 -1.384220e+001 69 41 32
2.857626e+000 -5.749657e-001 -1.427004e+001 164 109 82
4.194466e+000 -7.372259e-001 -1.470335e+001 102 76 43
3.277893e+000 -8.620937e-001 -1.460822e+001 59 47 25
3.706435e+000 -6.889647e-001 -1.476247e+001 59 41 19
3.706435e+000 -6.889647e-001 -1.476247e+001 59 41 19
3.756760e+000 -6.953388e-001 -1.477197e+001 103 84 54
4.701499e+000 4.602441e-001 -1.317644e+001 144 108 71
4.063366e+000 1.190440e-001 -1.334308e+001 87 54 23
4.398985e+000 -6.427290e-002 -1.372906e+001 121 88 53
4.093864e+000 -1.659005e-001 -1.375312e+001 116 85 54
3.367222e+000 -3.499655e-001 -1.368941e+001 39 21 7
3.662211e+000 -4.560588e-001 -1.398936e+001 151 122 84
2.033372e+000 -2.738760e-001 -1.377537e+001 144 107 79
3.453273e+000 -8.058226e-001 -1.387604e+001 117 92 40
3.458595e+000 -8.810049e-001 -1.410757e+001 235 204 142
3.459341e+000 -8.798116e-001 -1.410848e+001 235 204 142
3.771763e+000 -6.574594e-001 -1.422888e+001 73 43 15
3.649167e+000 -8.396579e-001 -1.453234e+001 108 84 58
3.714259e+000 -7.932434e-001 -1.453338e+001 80 54 29
4.283921e+000 3.865706e-001 -1.308032e+001 132 98 60
3.008400e+000 -2.986002e-001 -1.354737e+001 120 46 41
2.056181e+000 -1.850630e-001 -1.412341e+001 127 82 61
2.056181e+000 -1.850630e-001 -1.412341e+001 127 82 61
3.308986e+000 -7.687925e-001 -1.418945e+001 73 56 39
2.867375e+000 -5.366087e-001 -1.436176e+001 103 53 30
3.156800e+000 -8.526927e-001 -1.444060e+001 145 113 75
4.447028e+000 1.012598e-001 -1.557343e+001 112 88 53
3.747652e+000 4.008446e-001 -1.283493e+001 33 23 14
3.679307e+000 -6.708757e-002 -1.339350e+001 56 38 14
4.728472e+000 7.031179e-003 -1.366263e+001 167 131 81
3.907762e+000 -2.311446e-001 -1.376113e+001 116 82 51
2.798434e+000 -5.625931e-001 -1.430729e+001 154 91 75
2.798434e+000 -5.625931e-001 -1.430729e+001 154 91 75
2.938759e+000 -7.459634e-001 -1.445196e+001 184 151 107
4.067534e+000 -7.362095e-001 -1.448163e+001 117 83 48
4.508987e+000 -6.844193e-001 -1.459788e+001 93 59 30
4.712581e+000 5.451435e-001 -1.300321e+001 113 79 41
2.921469e+000 -6.328675e-001 -1.425540e+001 111 64 36
4.514644e+000 -5.406105e-001 -1.485667e+001 84 58 29
4.617320e+000 2.260500e-001 -1.337516e+001 93 60 27
1.927951e+000 -2.479840e-001 -1.374320e+001 167 125 93
1.927951e+000 -2.479840e-001 -1.374320e+001 167 125 93
2.700223e+000 -5.743337e-001 -1.421882e+001 128 60 51
4.128908e+000 2.413516e-002 -1.347667e+001 72 44 22
2.853455e+000 -1.034588e-001 -1.337023e+001 124 59 53
4.044331e+000 -1.889411e-001 -1.376100e+001 99 73 48
4.464279e+000 -3.024095e-001 -1.407709e+001 112 78 50
4.464279e+000 -3.024095e-001 -1.407709e+001 112 78 50
3.424215e+000 -4.907744e-001 -1.391299e+001 47 29 19
4.075004e+000 -6.100358e-001 -1.428703e+001 86 63 39
3.768804e+000 -7.566628e-001 -1.467015e+001 54 35 18
4.473401e+000 5.834713e-001 -1.291380e+001 102 68 40
3.436189e+000 2.717790e-001 -1.290784e+001 169 138 107
3.417326e+000 1.510743e-001 -1.302934e+001 149 122 95
4.211458e+000 3.018021e-001 -1.319714e+001 97 63 36
4.214796e+000 3.108047e-001 -1.319948e+001 97 63 36
4.272074e+000 -8.502919e-002 -1.370917e+001 101 75 52
3.939276e+000 -5.329250e-001 -1.415304e+001 105 75 49
4.500255e+000 -5.172235e-001 -1.434220e+001 106 75 47
2.925911e+000 -5.694822e-001 -1.426726e+001 102 57 38
3.675741e+000 2.936086e-001 -1.261053e+001 162 137 96
3.315699e+000 9.651269e-002 -1.300683e+001 115 109 80
3.308625e+000 -4.178732e-001 -1.372021e+001 128 94 64
2.493858e+000 -2.873295e-001 -1.451593e+001 180 115 111
3.228849e+000 3.620274e-002 -1.314088e+001 175 146 109
4.664613e+000 2.635646e-001 -1.339983e+001 128 97 68
4.244444e+000 1.000261e-001 -1.340683e+001 136 105 77
4.702998e+000 1.781535e-001 -1.344922e+001 106 71 35
3.174692e+000 -2.940706e-001 -1.354282e+001 43 41 23
2.607260e+000 9.503510e-002 -1.371674e+001 164 87 92
4.475720e+000 -2.426204e-001 -1.399345e+001 116 82 54
2.812015e+000 -5.091751e-001 -1.371373e+001 159 105 98
2.707489e+000 -2.727844e-001 -1.400950e+001 132 77 67
