ply
format ascii 1.0
element face 0
property list uchar int vertex_indices
element vertex 896
property float x
property float y
property float z
property uchar diffuse_red
property uchar diffuse_green
property uchar diffuse_blue
end_header
3.038082e+000 9.992781e-001 -1.163716e+001 112 98 71
4.924592e+000 1.589069e+000 -1.227338e+001 124 92 65
4.924592e+000 1.589069e+000 -1.227338e+001 124 92 65
5.714684e+000 2.864020e+000 -1.657996e+001 146 114 73
5.714684e+000 2.864020e+000 -1.657996e+001 146 114 73
5.426220e+000 3.168882e+000 -1.369204e+001 128 93 61
5.459040e+000 3.151278e+000 -1.368650e+001 90 55 23
5.459040e+000 3.151278e+000 -1.368650e+001 90 55 23
5.594506e+000 3.194355e+000 -1.371466e+001 181 142 104
4.289044e+000 2.947572e+000 -1.329877e+001 90 58 31
5.171865e+000 2.949682e+000 -1.340036e+001 131 97 69
2.186963e+000 2.079223e+000 -1.408302e+001 147 108 75
3.456616e+000 2.758756e+000 -1.294208e+001 93 80 60
4.371923e+000 2.526588e+000 -1.298374e+001 66 39 20
4.537873e+000 2.429850e+000 -1.294675e+001 93 66 43
4.702424e+000 2.106083e+000 -1.270621e+001 99 68 40
4.776833e+000 2.053484e+000 -1.265381e+001 111 80 55
5.532162e+000 1.561371e+000 -1.231476e+001 83 49 18
5.737847e+000 1.557494e+000 -1.232074e+001 109 72 38
6.287938e+000 1.316175e+000 -1.215519e+001 174 135 77
5.904857e+000 9.588302e-001 -1.212751e+001 131 96 60
5.200457e+000 3.077261e+000 -1.353460e+001 123 88 56
4.675762e+000 2.753496e+000 -1.316427e+001 108 78 52
5.007754e+000 2.598475e+000 -1.310052e+001 89 55 30
5.284152e+000 2.615781e+000 -1.314960e+001 105 73 48
3.549567e+000 2.366952e+000 -1.270048e+001 161 141 108
3.208340e+000 2.196582e+000 -1.254622e+001 91 74 54
3.208340e+000 2.196582e+000 -1.254622e+001 91 74 54
3.956039e+000 2.124083e+000 -1.263428e+001 121 93 71
3.464959e+000 2.969932e+000 -1.312058e+001 51 31 20
4.392671e+000 2.967560e+000 -1.338114e+001 136 101 73
5.211737e+000 2.708970e+000 -1.321356e+001 110 78 50
3.927083e+000 2.200849e+000 -1.266496e+001 120 92 68
3.333471e+000 1.156133e+000 -1.163072e+001 140 107 67
4.779122e+000 2.130818e+000 -1.272314e+001 104 73 45
3.064729e+000 1.415213e+000 -1.215245e+001 82 63 48
5.728849e+000 3.025746e+000 -1.340204e+001 137 97 62
5.294957e+000 2.545645e+000 -1.308376e+001 119 88 59
5.020378e+000 2.370312e+000 -1.292208e+001 86 55 27
4.572030e+000 1.756117e+000 -1.235237e+001 106 76 51
5.448086e+000 1.614967e+000 -1.233371e+001 138 102 67
5.264002e+000 1.443054e+000 -1.220155e+001 135 101 66
5.643691e+000 2.693702e+000 -1.326438e+001 95 61 33
5.065116e+000 1.398662e+000 -1.211544e+001 136 99 63
5.870712e+000 3.305761e+000 -1.463057e+001 138 103 61
3.761125e+000 3.107894e+000 -1.341940e+001 134 104 78
3.836749e+000 3.196725e+000 -1.346484e+001 149 119 91
3.778318e+000 3.108495e+000 -1.338675e+001 165 135 109
4.694155e+000 3.164850e+000 -1.369707e+001 95 61 34
5.439155e+000 3.229736e+000 -1.387110e+001 77 43 16
3.179852e+000 3.010640e+000 -1.308694e+001 147 133 104
3.797022e+000 3.044443e+000 -1.332672e+001 168 138 112
3.239920e+000 2.708461e+000 -1.286802e+001 103 89 67
2.862157e+000 2.601049e+000 -1.284150e+001 145 111 82
3.851556e+000 2.631968e+000 -1.297850e+001 121 91 66
4.233180e+000 2.673930e+000 -1.304833e+001 99 69 43
4.514233e+000 2.611326e+000 -1.305185e+001 82 56 36
4.608831e+000 2.628161e+000 -1.305477e+001 108 80 58
5.217473e+000 2.717810e+000 -1.321264e+001 102 74 50
1.052485e+000 1.307238e+000 -1.433763e+001 194 138 115
2.330063e+000 1.884065e+000 -1.353232e+001 48 41 14
4.238532e+000 2.551071e+000 -1.297811e+001 74 44 22
5.192458e+000 2.487929e+000 -1.304261e+001 69 35 12
5.375638e+000 2.610252e+000 -1.314684e+001 80 48 25
5.375638e+000 2.610252e+000 -1.314684e+001 80 48 25
2.435352e+000 1.909550e+000 -1.339070e+001 73 65 36
4.450027e+000 2.148250e+000 -1.273264e+001 98 68 46
4.450027e+000 2.148250e+000 -1.273264e+001 98 68 46
4.898758e+000 2.019707e+000 -1.264702e+001 74 42 19
5.791262e+000 1.838328e+000 -1.257945e+001 112 78 50
5.239228e+000 1.670717e+000 -1.236840e+001 105 71 43
5.825501e+000 1.510781e+000 -1.229842e+001 89 55 24
2.732697e+000 9.343580e-001 -1.241508e+001 211 168 134
3.503514e+000 1.529357e+000 -1.188015e+001 134 120 94
3.735497e+000 1.483039e+000 -1.196512e+001 84 70 57
3.822165e+000 1.462797e+000 -1.188925e+001 125 107 85
5.573000e+000 1.435302e+000 -1.223876e+001 110 76 47
2.948064e+000 3.088416e+000 -1.324092e+001 169 137 112
4.725863e+000 3.161704e+000 -1.368306e+001 112 82 56
4.313843e+000 3.090978e+000 -1.342258e+001 135 104 75
4.640666e+000 2.952298e+000 -1.334390e+001 75 47 24
5.534722e+000 3.039852e+000 -1.355678e+001 79 45 18
5.534722e+000 3.039852e+000 -1.355678e+001 79 45 18
5.977113e+000 3.030058e+000 -1.365154e+001 169 125 73
1.413209e+000 1.246709e+000 -1.501481e+001 174 124 97
4.867618e+000 2.605913e+000 -1.309519e+001 85 55 29
4.867618e+000 2.605913e+000 -1.309519e+001 85 55 29
3.885088e+000 2.433464e+000 -1.284203e+001 119 91 67
9.602360e-001 1.103578e+000 -1.416875e+001 190 135 109
5.651581e+000 2.288230e+000 -1.301937e+001 75 44 19
2.059389e+000 1.162438e+000 -1.335185e+001 153 72 68
3.118015e+000 1.966634e+000 -1.229168e+001 121 86 55
4.818924e+000 1.840690e+000 -1.248370e+001 92 66 41
5.241358e+000 1.840729e+000 -1.253845e+001 138 104 70
3.329582e+000 1.759067e+000 -1.211623e+001 46 29 17
3.329582e+000 1.759067e+000 -1.211623e+001 46 29 17
4.847088e+000 1.773312e+000 -1.239363e+001 108 74 47
3.679125e+000 1.633967e+000 -1.213850e+001 57 43 29
-4.085961e-001 -1.017687e+000 -1.362299e+001 158 130 106
4.999005e+000 3.177370e+000 -1.369752e+001 80 46 21
3.142262e+000 3.017329e+000 -1.311236e+001 65 49 35
4.604069e+000 3.098975e+000 -1.351310e+001 85 51 23
4.217687e+000 3.003258e+000 -1.333715e+001 114 84 56
4.446894e+000 2.946827e+000 -1.328584e+001 101 70 42
4.768330e+000 2.933505e+000 -1.334344e+001 122 92 63
5.521111e+000 2.992296e+000 -1.352104e+001 114 80 52
5.090641e+000 2.831348e+000 -1.328905e+001 73 45 19
5.271467e+000 2.774300e+000 -1.327181e+001 102 75 48
2.918982e+000 2.543237e+000 -1.274503e+001 118 83 56
5.277536e+000 2.620071e+000 -1.315333e+001 102 75 48
1.372434e+000 1.304312e+000 -1.457040e+001 186 134 117
2.989129e+000 2.448527e+000 -1.265565e+001 221 193 163
1.643715e+000 1.402414e+000 -1.380158e+001 189 122 113
2.282329e+000 1.635944e+000 -1.344274e+001 195 143 104
2.971840e+000 2.178314e+000 -1.247847e+001 150 116 88
4.512923e+000 2.117605e+000 -1.269385e+001 66 38 16
2.389496e+000 1.246918e+000 -1.313558e+001 177 118 94
3.084731e+000 1.918556e+000 -1.224185e+001 205 175 141
4.544916e+000 1.483347e+000 -1.211041e+001 95 65 41
5.785905e+000 1.556246e+000 -1.238968e+001 117 83 49
5.092371e+000 3.194598e+000 -1.374745e+001 80 46 21
2.132607e+000 2.222580e+000 -1.416478e+001 193 160 119
5.357490e+000 2.848815e+000 -1.336533e+001 66 38 16
4.584686e+000 2.626528e+000 -1.308797e+001 72 47 26
4.744349e+000 2.643548e+000 -1.310205e+001 108 77 55
4.686540e+000 2.578290e+000 -1.304981e+001 95 71 45
5.560896e+000 2.542233e+000 -1.318610e+001 68 39 15
4.134024e+000 2.340697e+000 -1.280377e+001 63 36 17
4.143318e+000 2.335310e+000 -1.281229e+001 63 36 17
5.075793e+000 2.315864e+000 -1.292756e+001 78 47 21
5.141415e+000 2.076889e+000 -1.274053e+001 92 61 33
5.925059e+000 2.099462e+000 -1.281763e+001 88 62 38
5.837794e+000 1.842958e+000 -1.264817e+001 90 55 27
6.052575e+000 1.844012e+000 -1.281864e+001 95 65 41
5.281821e+000 1.646697e+000 -1.233408e+001 139 104 72
5.205154e+000 1.543993e+000 -1.227180e+001 127 92 61
5.734023e+000 1.298488e+000 -1.218268e+001 132 95 61
5.829589e+000 1.102536e+000 -1.214973e+001 89 55 29
1.599268e+000 -2.448596e-001 -1.293432e+001 208 153 133
5.255022e+000 3.067516e+000 -1.356181e+001 78 44 17
1.427143e+000 1.285076e+000 -1.444246e+001 143 62 59
1.427255e+000 1.298464e+000 -1.442501e+001 143 62 59
3.046422e+000 1.742312e+000 -1.221259e+001 126 96 62
5.393204e+000 3.080380e+000 -1.357591e+001 125 91 63
4.504920e+000 2.613603e+000 -1.306407e+001 77 50 31
4.389516e+000 1.847493e+000 -1.241877e+001 110 82 58
4.628715e+000 1.873542e+000 -1.247825e+001 109 77 52
3.032725e+000 1.225916e+000 -1.210213e+001 129 90 59
4.941456e+000 2.130539e+000 -1.273200e+001 116 86 58
5.469761e+000 2.059566e+000 -1.275758e+001 108 74 48
-1.069361e+000 -6.829640e-001 -1.365730e+001 154 114 81
3.786143e+000 2.000316e+000 -1.237201e+001 44 29 18
1.714322e+000 1.022399e+000 -1.323540e+001 146 72 64
5.857880e+000 3.511866e+000 -1.469193e+001 140 103 58
5.841593e+000 3.287343e+000 -1.470610e+001 121 89 48
5.902852e+000 3.397019e+000 -1.429253e+001 129 91 47
5.099369e+000 3.247459e+000 -1.398675e+001 132 99 65
5.949082e+000 3.500322e+000 -1.394800e+001 156 112 64
5.391812e+000 3.222989e+000 -1.385007e+001 73 39 14
5.930729e+000 3.244523e+000 -1.398303e+001 112 71 31
3.139927e+000 3.170354e+000 -1.331951e+001 234 217 165
5.394823e+000 3.209868e+000 -1.383168e+001 103 73 42
1.904055e+000 1.912140e+000 -1.447358e+001 164 126 77
1.395708e+000 1.250976e+000 -1.495095e+001 143 81 68
1.393869e+000 1.235863e+000 -1.496731e+001 143 81 68
3.418440e+000 3.028736e+000 -1.319168e+001 90 76 63
3.472156e+000 3.056028e+000 -1.319244e+001 70 50 32
5.479208e+000 3.056050e+000 -1.356479e+001 83 49 24
5.479208e+000 3.056050e+000 -1.356479e+001 83 49 24
1.088291e+000 1.283456e+000 -1.443388e+001 182 130 109
2.666541e+000 2.486572e+000 -1.319063e+001 196 166 132
2.854157e+000 2.606441e+000 -1.286901e+001 80 66 43
3.230850e+000 2.767072e+000 -1.290163e+001 113 99 73
3.230850e+000 2.767072e+000 -1.290163e+001 113 99 73
2.199741e+000 1.607886e+000 -1.383327e+001 117 72 46
2.357678e+000 1.900111e+000 -1.345514e+001 48 41 12
3.253233e+000 2.614520e+000 -1.279584e+001 43 30 14
2.360306e+000 1.760932e+000 -1.341232e+001 179 144 103
2.487714e+000 1.854630e+000 -1.340147e+001 107 74 39
5.207531e+000 2.555908e+000 -1.310914e+001 59 28 7
5.346106e-001 2.169786e-002 -1.443710e+001 140 97 72
3.329709e+000 2.261111e+000 -1.254890e+001 78 63 42
3.608308e+000 2.270338e+000 -1.258758e+001 69 54 32
4.435143e+000 2.189869e+000 -1.272683e+001 74 46 24
4.435143e+000 2.189869e+000 -1.272683e+001 74 46 24
-9.459540e-001 -5.011817e-001 -1.423058e+001 140 114 94
-8.985200e-001 -5.456327e-001 -1.404581e+001 155 127 110
3.282728e+000 2.035564e+000 -1.234152e+001 79 66 50
3.359557e+000 2.064546e+000 -1.238178e+001 207 190 151
4.956243e+000 1.709268e+000 -1.238147e+001 85 58 30
4.956243e+000 1.709268e+000 -1.238147e+001 85 58 30
6.272645e+000 2.091847e+000 -1.221124e+001 163 124 67
2.753791e+000 9.381063e-001 -1.243590e+001 169 125 85
2.834168e+000 1.045344e+000 -1.229767e+001 159 124 92
2.966103e+000 1.344702e+000 -1.213766e+001 151 130 103
6.324741e+000 1.995987e+000 -1.196012e+001 152 115 60
3.385978e+000 1.416942e+000 -1.185866e+001 97 81 62
6.286803e+000 1.120819e+000 -1.215710e+001 141 103 51
3.402058e+000 1.316682e+000 -1.174023e+001 117 97 70
4.236957e+000 1.238313e+000 -1.183264e+001 130 100 72
3.468618e+000 1.133009e+000 -1.168897e+001 91 75 48
3.012972e+000 3.188000e+000 -1.342135e+001 122 110 86
5.242698e+000 3.233122e+000 -1.393671e+001 82 51 22
5.944491e+000 3.338917e+000 -1.392053e+001 179 134 86
2.852401e+000 3.124213e+000 -1.338740e+001 139 109 81
3.152116e+000 3.116064e+000 -1.327762e+001 45 31 20
4.751182e+000 3.183322e+000 -1.369360e+001 68 37 16
5.509531e+000 3.206970e+000 -1.379752e+001 89 55 27
2.897349e+000 3.054523e+000 -1.318662e+001 227 197 168
4.451136e+000 3.130670e+000 -1.346880e+001 125 91 63
1.177041e+000 1.278743e+000 -1.488626e+001 165 118 100
3.127409e+000 2.966969e+000 -1.308613e+001 86 73 57
3.173662e+000 3.044903e+000 -1.316266e+001 53 39 25
3.345635e+000 3.011074e+000 -1.319167e+001 32 25 14
5.218475e+000 3.035218e+000 -1.346898e+001 101 69 44
5.492058e+000 3.072104e+000 -1.359737e+001 106 72 46
2.618006e+000 2.554915e+000 -1.332381e+001 188 155 122
3.009479e+000 2.868657e+000 -1.301208e+001 122 88 62
3.196180e+000 2.876844e+000 -1.299650e+001 52 37 26
2.439644e+000 1.962386e+000 -1.394782e+001 60 43 23
3.496640e+000 2.840948e+000 -1.303658e+001 253 249 189
1.183452e+000 1.146223e+000 -1.430836e+001 154 86 67
2.807084e+000 2.582721e+000 -1.299842e+001 91 83 62
3.439799e+000 2.736047e+000 -1.294364e+001 47 35 23
2.331078e+000 1.869537e+000 -1.349331e+001 91 82 49
2.737229e+000 2.364059e+000 -1.300563e+001 61 57 32
2.956223e+000 2.581581e+000 -1.277280e+001 158 127 94
2.962390e+000 2.617734e+000 -1.278001e+001 216 195 164
3.409536e+000 2.638383e+000 -1.292118e+001 30 22 15
4.435650e+000 2.625968e+000 -1.304754e+001 61 37 17
4.588362e+000 2.616825e+000 -1.308655e+001 66 39 18
3.031641e+000 2.536778e+000 -1.276038e+001 118 85 54
3.461267e+000 2.487135e+000 -1.279640e+001 84 75 60
3.482256e+000 2.502754e+000 -1.276733e+001 41 28 19
5.187133e+000 2.495800e+000 -1.303708e+001 69 39 13
3.376238e-001 -5.667342e-002 -1.474784e+001 122 84 61
1.450065e+000 1.249522e+000 -1.371465e+001 155 89 67
1.807717e+000 1.364608e+000 -1.354653e+001 180 105 98
2.998857e+000 2.420836e+000 -1.263656e+001 162 133 102
3.160221e+000 2.423397e+000 -1.266336e+001 92 79 62
3.192821e+000 2.419171e+000 -1.269736e+001 44 29 14
3.300493e+000 2.455865e+000 -1.269245e+001 53 41 23
5.052992e-001 2.366694e-002 -1.446273e+001 127 85 63
2.982167e+000 2.337205e+000 -1.259102e+001 216 186 150
3.211545e+000 2.285035e+000 -1.255990e+001 38 24 12
3.311013e+000 2.283986e+000 -1.258425e+001 58 45 29
3.583972e+000 2.350834e+000 -1.265524e+001 248 234 184
-7.686877e-001 -1.614460e-001 -1.436214e+001 169 83 55
3.224548e+000 2.234385e+000 -1.254467e+001 41 27 16
3.605222e+000 2.235988e+000 -1.258506e+001 244 223 180
4.469401e+000 2.140542e+000 -1.270508e+001 93 67 44
-9.544955e-001 -5.692878e-001 -1.433778e+001 141 105 83
1.730072e+000 8.842365e-001 -1.332424e+001 132 57 51
2.970967e+000 1.949310e+000 -1.252374e+001 152 122 96
2.347540e+000 1.280279e+000 -1.289288e+001 163 90 73
4.905085e+000 1.956278e+000 -1.260552e+001 79 49 25
-8.801924e-001 -5.522310e-001 -1.400486e+001 129 93 71
3.723653e+000 1.953867e+000 -1.231372e+001 37 22 11
4.468455e+000 1.920516e+000 -1.251179e+001 73 47 24
6.211788e+000 1.822057e+000 -1.269641e+001 126 95 56
3.024889e+000 1.853425e+000 -1.221621e+001 184 157 124
4.890734e+000 1.754169e+000 -1.243614e+001 79 51 28
3.748026e+000 1.794851e+000 -1.217365e+001 138 123 100
6.283889e+000 2.100402e+000 -1.224000e+001 181 142 85
2.809216e+000 1.027023e+000 -1.229405e+001 199 165 128
2.876052e+000 1.018079e+000 -1.224457e+001 140 105 73
2.978399e+000 1.217415e+000 -1.211593e+001 134 94 61
3.684644e+000 1.578832e+000 -1.202348e+001 39 29 17
3.173547e+000 1.564335e+000 -1.183551e+001 225 196 162
3.882380e+000 1.505672e+000 -1.192241e+001 70 53 35
2.915589e+000 8.909586e-001 -1.211858e+001 127 117 95
3.833220e+000 1.423153e+000 -1.183133e+001 46 31 20
3.842130e+000 1.398094e+000 -1.180296e+001 61 45 30
4.928806e+000 1.268450e+000 -1.200008e+001 118 83 45
6.279909e+000 1.177289e+000 -1.220638e+001 134 97 44
3.420666e+000 1.244610e+000 -1.172690e+001 176 148 100
3.425770e+000 1.220552e+000 -1.174313e+001 176 148 100
5.829671e+000 1.078801e+000 -1.211497e+001 126 90 56
3.420039e+000 1.192331e+000 -1.165452e+001 174 157 114
3.527739e+000 1.173831e+000 -1.163173e+001 254 255 213
3.527739e+000 1.173831e+000 -1.163173e+001 254 255 213
3.292571e+000 1.057345e+000 -1.155100e+001 140 107 72
5.746825e+000 3.306173e+000 -1.543097e+001 126 94 55
2.800180e+000 3.180468e+000 -1.362244e+001 149 121 91
2.899826e+000 3.172806e+000 -1.360669e+001 126 97 65
5.145960e+000 3.218803e+000 -1.414143e+001 109 77 38
5.447427e+000 3.237598e+000 -1.410597e+001 93 58 26
4.243724e+000 3.170702e+000 -1.379656e+001 109 73 46
4.698087e+000 3.184890e+000 -1.375825e+001 94 58 32
4.888465e+000 3.232635e+000 -1.392276e+001 133 96 64
2.856091e+000 3.128912e+000 -1.332543e+001 210 183 156
4.199233e+000 3.153936e+000 -1.361014e+001 97 65 40
4.385261e+000 3.165215e+000 -1.356251e+001 106 73 42
2.820222e+000 2.927840e+000 -1.327616e+001 121 101 77
3.049569e+000 3.081501e+000 -1.320031e+001 97 81 58
4.205533e+000 3.047712e+000 -1.338447e+001 119 86 61
2.151353e+000 2.026306e+000 -1.416205e+001 187 152 114
2.913827e+000 2.935612e+000 -1.305625e+001 209 182 152
3.180804e+000 3.037455e+000 -1.312661e+001 111 95 76
3.184187e+000 3.004028e+000 -1.309504e+001 131 117 90
4.468375e+000 3.044471e+000 -1.338001e+001 88 58 34
2.250429e+000 2.037143e+000 -1.406408e+001 176 140 106
2.958136e+000 2.932011e+000 -1.303758e+001 108 76 51
3.528264e+000 2.978685e+000 -1.309645e+001 42 30 18
5.039368e+000 2.980841e+000 -1.339591e+001 94 62 34
5.043425e+000 2.976493e+000 -1.340150e+001 94 62 34
5.171608e+000 2.955175e+000 -1.340210e+001 119 85 58
1.167032e+000 1.302660e+000 -1.453722e+001 151 78 67
1.381467e+000 1.246264e+000 -1.455160e+001 136 60 54
2.852435e+000 2.650281e+000 -1.309972e+001 70 54 38
3.478301e+000 2.867264e+000 -1.305070e+001 34 29 17
5.566055e+000 2.867870e+000 -1.339517e+001 63 35 15
3.011966e+000 2.728056e+000 -1.287530e+001 104 72 45
3.273865e+000 2.694826e+000 -1.286529e+001 39 29 20
1.713445e+000 1.346922e+000 -1.402539e+001 148 70 58
3.869049e+000 2.553116e+000 -1.292582e+001 121 92 68
4.434505e+000 2.636072e+000 -1.308447e+001 88 63 41
4.855336e+000 2.591224e+000 -1.304985e+001 103 76 47
2.327634e+000 1.804697e+000 -1.343169e+001 136 108 62
2.506130e+000 1.886042e+000 -1.334841e+001 173 141 103
4.117558e+000 2.512722e+000 -1.292097e+001 87 62 42
5.217634e+000 2.527642e+000 -1.307293e+001 100 70 46
5.219243e+000 2.524953e+000 -1.307575e+001 100 70 46
5.830038e-001 1.027434e-001 -1.465435e+001 111 72 50
3.532983e+000 2.408795e+000 -1.266950e+001 223 203 166
3.568856e+000 2.404922e+000 -1.271647e+001 44 29 17
5.330668e+000 2.435860e+000 -1.302675e+001 79 48 29
2.480518e+000 1.580168e+000 -1.313722e+001 168 129 90
3.007567e+000 2.353580e+000 -1.256269e+001 130 95 63
3.341397e+000 2.363162e+000 -1.259586e+001 36 26 17
4.404012e+000 2.298897e+000 -1.280386e+001 106 78 54
2.631846e+000 1.452952e+000 -1.297226e+001 167 126 84
4.672164e+000 2.069552e+000 -1.265517e+001 85 54 28
5.063942e+000 2.086006e+000 -1.276856e+001 79 47 22
4.949706e+000 1.936679e+000 -1.258907e+001 77 50 23
2.106762e+000 1.069042e+000 -1.287186e+001 156 77 70
2.408038e+000 1.274042e+000 -1.282809e+001 196 147 115
3.092697e+000 1.900897e+000 -1.225592e+001 224 195 163
3.986631e+000 1.908039e+000 -1.237593e+001 116 90 65
5.218146e+000 1.851168e+000 -1.255921e+001 106 71 41
5.492389e+000 1.922759e+000 -1.262378e+001 98 63 35
3.106182e+000 1.842476e+000 -1.208599e+001 231 204 174
3.142595e+000 1.844950e+000 -1.215963e+001 147 114 82
4.677449e+000 1.774576e+000 -1.240277e+001 89 63 38
5.222934e+000 1.831606e+000 -1.247628e+001 147 109 76
6.091791e+000 1.779071e+000 -1.264392e+001 110 79 51
4.847130e+000 1.735512e+000 -1.237805e+001 89 59 32
1.427394e+000 2.055119e-002 -1.308171e+001 197 140 123
1.481625e+000 1.488415e-001 -1.309378e+001 181 128 104
2.791972e+000 9.762166e-001 -1.244476e+001 156 110 76
3.067165e+000 1.409875e+000 -1.215653e+001 78 61 46
3.165338e+000 1.619332e+000 -1.194530e+001 222 194 160
5.756090e+000 1.448252e+000 -1.227977e+001 121 87 57
2.793417e+000 8.485225e-001 -1.227208e+001 192 159 124
3.034254e+000 1.154848e+000 -1.200597e+001 113 78 48
5.555901e+000 1.312027e+000 -1.216113e+001 115 81 45
3.175567e+000 1.467291e+000 -1.175035e+001 211 178 145
5.474824e+000 1.172573e+000 -1.210614e+001 103 66 37
3.668237e+000 1.204357e+000 -1.178690e+001 87 73 47
3.886351e+000 1.247166e+000 -1.176749e+001 47 35 21
3.855130e+000 1.242687e+000 -1.173298e+001 175 160 133
3.854103e+000 1.244447e+000 -1.173195e+001 175 160 133
3.953944e+000 1.303344e+000 -1.177846e+001 80 60 35
3.488088e+000 1.143471e+000 -1.166276e+001 211 192 149
3.488088e+000 1.143471e+000 -1.166276e+001 211 192 149
3.469818e+000 1.106356e+000 -1.164281e+001 61 50 32
3.754837e+000 1.076566e+000 -1.170989e+001 143 127 102
5.018545e+000 3.235408e+000 -1.385947e+001 88 57 29
5.384964e+000 3.258457e+000 -1.397787e+001 121 88 57
2.943392e+000 3.128422e+000 -1.338291e+001 133 98 69
2.135428e+000 2.122303e+000 -1.419026e+001 157 115 72
2.997627e+000 3.038455e+000 -1.315620e+001 124 89 61
4.348948e+000 3.098715e+000 -1.345040e+001 106 72 45
5.927291e+000 3.128194e+000 -1.376865e+001 89 52 26
1.673208e+000 1.223397e+000 -1.522951e+001 184 143 111
2.209478e+000 2.001607e+000 -1.413403e+001 158 121 88
5.222911e+000 3.049451e+000 -1.351279e+001 72 40 18
5.209392e+000 3.065328e+000 -1.349408e+001 72 40 18
1.358539e+000 1.289021e+000 -1.475593e+001 190 143 117
1.755203e+000 1.289706e+000 -1.478442e+001 175 125 88
2.955059e+000 2.882428e+000 -1.301617e+001 185 152 121
1.306409e+000 1.288123e+000 -1.447330e+001 172 94 89
2.561087e+000 2.421979e+000 -1.333045e+001 103 87 62
5.192632e+000 2.866110e+000 -1.333934e+001 79 48 27
4.720338e+000 2.762703e+000 -1.317422e+001 66 38 15
2.528395e+000 1.896749e+000 -1.354224e+001 85 67 39
2.758742e+000 2.412293e+000 -1.282575e+001 65 63 34
3.226551e+000 2.564273e+000 -1.272606e+001 44 30 19
1.487623e+000 1.249155e+000 -1.355019e+001 162 107 77
2.075639e+000 1.540695e+000 -1.349555e+001 168 84 80
2.091035e+000 1.451458e+000 -1.342236e+001 184 94 94
2.382098e+000 1.753129e+000 -1.332530e+001 192 150 113
4.827423e+000 2.330799e+000 -1.293045e+001 95 69 44
5.259061e+000 2.293928e+000 -1.291713e+001 76 46 22
2.272472e+000 1.289349e+000 -1.326077e+001 173 106 97
3.665324e-001 -2.812436e-001 -1.421164e+001 166 117 98
2.691677e+000 1.529899e+000 -1.289624e+001 173 128 89
3.149142e+000 2.045415e+000 -1.242653e+001 125 89 55
3.388678e+000 2.099942e+000 -1.239926e+001 39 27 19
4.459254e+000 2.104153e+000 -1.268479e+001 67 40 18
4.865826e+000 2.097852e+000 -1.269467e+001 88 57 30
5.567532e+000 2.047006e+000 -1.274818e+001 117 83 55
5.541876e+000 2.006162e+000 -1.275822e+001 86 52 25
3.015056e+000 1.776838e+000 -1.231248e+001 114 83 55
4.177873e+000 1.951124e+000 -1.245367e+001 79 55 35
2.408476e+000 1.094933e+000 -1.272782e+001 178 113 83
4.699811e+000 1.799741e+000 -1.242966e+001 68 42 19
2.965531e+000 1.447230e+000 -1.222655e+001 91 84 61
2.999913e+000 1.432379e+000 -1.215393e+001 137 121 95
3.211872e+000 1.656011e+000 -1.202298e+001 129 91 54
4.833482e+000 1.580883e+000 -1.225548e+001 96 62 33
3.205071e+000 1.619071e+000 -1.192736e+001 151 115 79
4.872492e+000 1.531579e+000 -1.218741e+001 99 65 37
4.803413e+000 1.499650e+000 -1.214213e+001 100 66 38
3.185248e+000 1.520508e+000 -1.180765e+001 211 181 147
5.547329e+000 1.388522e+000 -1.220371e+001 105 70 40
5.727922e+000 1.232658e+000 -1.215859e+001 101 65 31
5.727922e+000 1.232658e+000 -1.215859e+001 101 65 31
2.748785e+000 3.101479e+000 -1.364506e+001 56 50 38
4.248973e+000 3.170663e+000 -1.368250e+001 124 89 61
4.795130e+000 3.192882e+000 -1.375606e+001 123 94 66
5.006731e+000 3.244938e+000 -1.393003e+001 128 95 62
5.194428e+000 3.253889e+000 -1.386313e+001 85 52 27
5.784370e+000 3.251896e+000 -1.390012e+001 164 126 87
2.668565e+000 3.024085e+000 -1.341155e+001 73 77 54
3.196267e+000 3.176105e+000 -1.330707e+001 64 44 31
2.422450e+000 2.256840e+000 -1.423246e+001 200 162 128
2.421031e+000 2.262694e+000 -1.422650e+001 200 162 128
5.355284e+000 3.104285e+000 -1.358893e+001 115 81 53
1.514218e+000 1.233647e+000 -1.501446e+001 184 135 105
1.185164e+000 1.309866e+000 -1.464535e+001 152 95 82
1.188191e+000 1.261872e+000 -1.470032e+001 152 95 82
2.144170e+000 1.842873e+000 -1.409899e+001 144 107 72
2.695809e+000 2.727561e+000 -1.318286e+001 138 100 63
2.847174e+000 2.757983e+000 -1.310387e+001 160 136 113
5.093222e+000 2.831439e+000 -1.328881e+001 72 45 23
5.190827e+000 2.729993e+000 -1.316083e+001 102 73 47
1.227712e+000 1.183034e+000 -1.377905e+001 166 117 84
2.340186e+000 1.723990e+000 -1.338871e+001 147 102 69
4.642792e+000 2.529841e+000 -1.302020e+001 75 47 25
1.571296e+000 1.283252e+000 -1.365381e+001 192 125 110
2.591686e+000 1.903588e+000 -1.307027e+001 187 156 116
3.130126e+000 2.374168e+000 -1.267376e+001 44 24 11
5.094703e+000 2.378825e+000 -1.295286e+001 119 89 63
5.164857e+000 2.408490e+000 -1.298047e+001 80 49 25
4.470390e-001 -3.407200e-002 -1.443933e+001 131 88 64
-1.054411e+000 -3.987296e-001 -1.447701e+001 171 135 111
2.274134e+000 1.194711e+000 -1.315489e+001 166 104 89
1.899685e+000 9.900428e-001 -1.294266e+001 174 84 84
2.783825e+000 1.614783e+000 -1.242264e+001 64 59 33
2.931262e+000 1.801657e+000 -1.233903e+001 148 127 100
2.359917e+000 1.093752e+000 -1.267779e+001 197 129 116
2.784221e+000 1.467416e+000 -1.238253e+001 62 57 34
2.824538e+000 1.561371e+000 -1.233293e+001 113 105 69
2.245362e+000 8.249390e-001 -1.277621e+001 177 96 93
2.245362e+000 8.249390e-001 -1.277621e+001 177 96 93
2.913515e+000 1.029193e+000 -1.229063e+001 172 137 99
3.144989e+000 1.503401e+000 -1.184701e+001 163 130 98
2.865191e+000 7.942345e-001 -1.219719e+001 84 71 61
5.244402e+000 1.291996e+000 -1.207878e+001 115 79 47
2.975745e+000 6.503811e-001 -1.203096e+001 63 59 35
4.046056e+000 1.090562e+000 -1.178202e+001 141 115 90
4.747790e+000 3.200923e+000 -1.382488e+001 90 59 31
2.781263e+000 3.058515e+000 -1.343053e+001 61 53 39
2.351540e+000 2.197382e+000 -1.423812e+001 159 116 81
2.276581e+000 1.969655e+000 -1.397638e+001 133 95 70
2.276581e+000 1.969655e+000 -1.397638e+001 133 95 70
4.849138e+000 2.866239e+000 -1.328657e+001 107 77 51
4.849394e+000 2.867385e+000 -1.328620e+001 107 77 51
1.952390e+000 1.413069e+000 -1.415188e+001 160 124 90
5.097302e+000 2.783213e+000 -1.322757e+001 120 90 65
5.509780e+000 2.704316e+000 -1.325318e+001 79 49 25
5.650676e+000 2.754732e+000 -1.332432e+001 90 59 31
2.795976e+000 2.521906e+000 -1.270748e+001 119 111 72
2.947087e+000 2.364463e+000 -1.264799e+001 108 80 53
2.325391e+000 1.508755e+000 -1.327052e+001 196 152 116
4.213745e+000 2.305331e+000 -1.279003e+001 87 60 38
4.213745e+000 2.305331e+000 -1.279003e+001 87 60 38
5.160576e+000 2.331097e+000 -1.292943e+001 74 42 19
2.543370e+000 1.361321e+000 -1.301755e+001 178 137 91
2.941092e+000 1.791317e+000 -1.272445e+001 148 116 92
1.804585e+000 9.983429e-001 -1.302515e+001 191 117 110
-7.938230e-001 -8.348550e-001 -1.371958e+001 103 68 49
-5.688118e-001 -1.076442e+000 -1.369072e+001 171 137 112
6.232922e+000 1.627888e+000 -1.245066e+001 162 121 64
2.847747e+000 1.002097e+000 -1.225579e+001 155 116 83
2.964130e+000 1.277752e+000 -1.215597e+001 155 126 96
4.874077e+000 1.433879e+000 -1.212618e+001 112 81 52
2.938761e+000 1.132013e+000 -1.204360e+001 194 169 138
2.908975e+000 7.163946e-001 -1.214848e+001 161 141 109
2.757142e+000 3.177409e+000 -1.370336e+001 186 161 131
2.951344e+000 3.157871e+000 -1.346485e+001 49 31 21
3.035469e+000 2.903071e+000 -1.304312e+001 45 24 15
1.592286e+000 1.272623e+000 -1.453892e+001 135 73 48
4.808035e+000 2.757353e+000 -1.318513e+001 118 86 62
1.918353e+000 1.498160e+000 -1.359956e+001 158 78 71
4.689154e+000 2.469983e+000 -1.297164e+001 108 78 54
4.166236e-001 -1.930095e-002 -1.458265e+001 173 124 107
1.358879e+000 1.139139e+000 -1.341458e+001 195 151 122
1.589316e+000 1.099704e+000 -1.346722e+001 148 73 55
2.581932e+000 1.446447e+000 -1.304999e+001 113 68 43
2.562218e+000 1.318402e+000 -1.304342e+001 174 133 89
1.523153e-001 -5.768805e-001 -1.398440e+001 111 83 61
1.523153e-001 -5.768805e-001 -1.398440e+001 111 83 61
2.229722e+000 1.100100e+000 -1.275418e+001 202 129 122
-6.281155e-001 -8.864044e-001 -1.382548e+001 141 99 74
2.939523e+000 1.291029e+000 -1.233986e+001 42 35 20
5.375258e+000 1.132930e+000 -1.207836e+001 145 109 75
5.706235e+000 1.141733e+000 -1.215216e+001 139 103 69
5.572359e+000 1.092348e+000 -1.208561e+001 94 59 28
2.820860e+000 3.161220e+000 -1.344470e+001 204 179 148
5.214196e+000 3.214462e+000 -1.384793e+001 92 60 35
5.214196e+000 3.214462e+000 -1.384793e+001 92 60 35
2.630685e+000 2.771448e+000 -1.327405e+001 186 160 125
1.606159e+000 1.350951e+000 -1.417334e+001 129 72 48
2.945302e-001 -5.415722e-001 -1.391776e+001 189 149 116
4.403931e+000 1.814214e+000 -1.243363e+001 111 83 60
1.693999e+000 6.240186e-001 -1.291535e+001 183 100 93
2.491235e+000 9.480692e-001 -1.268506e+001 197 142 112
5.724254e+000 1.393622e+000 -1.216887e+001 140 102 66
2.878292e+000 3.058866e+000 -1.327419e+001 245 219 192
2.875937e+000 3.062599e+000 -1.326991e+001 245 219 192
2.954091e+000 2.750871e+000 -1.294874e+001 210 185 154
5.593381e+000 2.568551e+000 -1.315316e+001 96 66 42
2.764794e-001 -3.087744e-001 -1.401201e+001 117 85 60
3.201359e+000 1.969743e+000 -1.231001e+001 54 30 18
1.986300e+000 9.152036e-001 -1.288687e+001 195 123 113
4.786341e+000 1.645649e+000 -1.234109e+001 112 79 52
6.266519e+000 1.291627e+000 -1.235319e+001 107 72 34
6.266519e+000 1.291627e+000 -1.235319e+001 107 72 34
3.597173e+000 2.953364e+000 -1.306426e+001 43 34 19
2.827759e+000 2.614902e+000 -1.297859e+001 62 54 36
2.970687e+000 2.506290e+000 -1.265748e+001 183 154 120
2.999281e+000 2.266607e+000 -1.252476e+001 162 133 100
2.834638e+000 1.648390e+000 -1.289640e+001 115 76 50
2.836222e+000 1.643867e+000 -1.290005e+001 115 76 50
3.046535e+000 2.028552e+000 -1.236973e+001 186 155 124
3.099892e+000 1.842108e+000 -1.219631e+001 211 185 158
4.536404e+000 1.507419e+000 -1.210203e+001 85 61 36
3.924721e+000 1.396885e+000 -1.191580e+001 57 40 24
4.974462e+000 3.058767e+000 -1.346521e+001 134 99 67
4.974462e+000 3.058767e+000 -1.346521e+001 134 99 67
2.634961e+000 1.725671e+000 -1.302084e+001 193 155 114
2.440736e+000 1.322970e+000 -1.315782e+001 122 80 56
-7.403906e-001 -6.206465e-001 -1.397752e+001 191 150 125
5.057755e+000 1.245654e+000 -1.204552e+001 144 108 72
1.915878e+000 1.331046e+000 -1.345516e+001 201 126 120
2.514505e+000 1.589811e+000 -1.334491e+001 189 151 112
5.653063e+000 3.088293e+000 -1.548244e+001 124 94 57
5.804439e+000 3.314542e+000 -1.462496e+001 162 129 86
5.871973e+000 3.231967e+000 -1.430787e+001 151 112 69
2.724523e+000 3.164543e+000 -1.371278e+001 207 186 155
3.564785e+000 3.142510e+000 -1.387413e+001 172 151 127
4.114173e+000 3.170338e+000 -1.396277e+001 118 88 61
4.229494e+000 3.164200e+000 -1.399624e+001 92 61 37
5.293598e+000 3.249573e+000 -1.406379e+001 151 113 78
8.906340e-001 1.215448e+000 -1.508014e+001 202 154 136
1.902468e+000 2.022499e+000 -1.449739e+001 175 138 93
2.042513e+000 2.336313e+000 -1.426157e+001 239 209 170
2.995841e+000 3.203818e+000 -1.351081e+001 249 234 171
3.103224e+000 3.214685e+000 -1.351202e+001 64 51 35
1.210999e+000 1.212800e+000 -1.495759e+001 142 80 73
3.038654e+000 3.176999e+000 -1.339971e+001 62 46 31
3.175704e+000 3.185074e+000 -1.331187e+001 78 59 45
1.538956e+000 1.240986e+000 -1.478907e+001 149 85 71
3.128055e+000 3.149060e+000 -1.327617e+001 240 227 187
5.417128e+000 3.089461e+000 -1.360093e+001 113 78 50
1.015185e+000 1.183655e+000 -1.448840e+001 175 110 99
2.291223e+000 2.019680e+000 -1.398937e+001 130 95 68
5.955777e+000 3.050567e+000 -1.363225e+001 184 138 87
3.125707e+000 2.950476e+000 -1.305019e+001 99 88 66
5.198922e+000 2.906228e+000 -1.336278e+001 115 83 55
3.143074e+000 2.861264e+000 -1.300637e+001 174 162 130
3.206988e+000 2.837402e+000 -1.299688e+001 206 191 158
3.826816e+000 2.864156e+000 -1.314036e+001 170 144 117
4.643068e+000 2.797780e+000 -1.318778e+001 65 35 9
4.891072e+000 2.817851e+000 -1.326528e+001 112 79 54
1.666414e+000 1.405787e+000 -1.389992e+001 160 95 83
2.356146e+000 1.909491e+000 -1.344763e+001 49 43 17
3.249676e+000 2.771757e+000 -1.291314e+001 52 39 26
3.404611e+000 2.780944e+000 -1.297696e+001 128 118 94
2.710126e+000 2.354233e+000 -1.301682e+001 121 115 89
3.564317e+000 2.587854e+000 -1.280487e+001 57 43 29
3.610179e+000 2.482711e+000 -1.271451e+001 62 46 31
4.963912e+000 2.444416e+000 -1.293696e+001 106 75 47
-9.683575e-001 -4.992735e-001 -1.421334e+001 145 122 113
3.930710e+000 2.298767e+000 -1.275009e+001 165 139 114
2.111575e+000 1.073422e+000 -1.329190e+001 162 93 86
3.010898e+000 2.275431e+000 -1.250746e+001 163 133 99
3.333352e+000 2.251594e+000 -1.255431e+001 85 70 50
3.605664e+000 2.276478e+000 -1.258280e+001 69 55 35
3.356200e+000 2.099290e+000 -1.243803e+001 68 51 35
3.086136e+000 2.083227e+000 -1.237670e+001 145 110 72
3.272852e+000 2.005757e+000 -1.239349e+001 50 38 26
3.073372e+000 1.893704e+000 -1.227500e+001 189 158 129
6.207541e+000 1.794208e+000 -1.267360e+001 112 83 43
1.766904e+000 4.364598e-001 -1.282542e+001 195 126 120
4.955174e+000 1.738503e+000 -1.238857e+001 120 86 58
6.202640e+000 1.722218e+000 -1.261186e+001 151 113 70
3.750765e+000 1.512065e+000 -1.195533e+001 89 72 52
6.235921e+000 1.230964e+000 -1.228034e+001 125 89 39
3.540491e+000 1.414663e+000 -1.176248e+001 64 52 36
4.861839e+000 1.260678e+000 -1.200809e+001 140 107 74
3.249865e+000 1.146131e+000 -1.163065e+001 178 149 119
5.844412e+000 3.713106e+000 -1.459147e+001 191 153 101
5.858312e+000 3.567575e+000 -1.468194e+001 155 119 71
5.835379e+000 3.473103e+000 -1.467206e+001 141 107 61
2.619470e+000 2.880282e+000 -1.423127e+001 225 199 167
5.380265e+000 3.220970e+000 -1.431310e+001 117 82 47
3.058772e+000 3.258558e+000 -1.357364e+001 86 72 56
3.356508e+000 3.254385e+000 -1.369347e+001 254 245 207
3.444973e+000 3.227388e+000 -1.372113e+001 96 88 65
5.178393e+000 3.237628e+000 -1.405024e+001 141 107 72
1.970247e+000 2.173095e+000 -1.431714e+001 200 164 116
2.000276e+000 2.193408e+000 -1.430619e+001 166 129 76
2.769790e+000 3.083604e+000 -1.351795e+001 142 120 89
3.020952e+000 3.214428e+000 -1.352910e+001 64 52 38
1.610831e+000 1.208392e+000 -1.507957e+001 172 113 100
2.465173e+000 2.287128e+000 -1.419095e+001 185 159 126
2.793181e+000 3.064416e+000 -1.349190e+001 164 133 104
2.923182e+000 3.138059e+000 -1.343214e+001 132 102 78
3.032639e+000 3.132948e+000 -1.330348e+001 134 122 100
3.417407e+000 3.163064e+000 -1.334883e+001 114 99 76
4.070044e+000 3.136847e+000 -1.350216e+001 77 49 25
4.306674e+000 3.163068e+000 -1.357584e+001 141 107 77
1.319708e+000 1.178925e+000 -1.490363e+001 154 85 80
1.636422e+000 1.305740e+000 -1.478035e+001 182 131 105
2.308591e+000 2.136794e+000 -1.410464e+001 161 120 90
2.434814e+000 2.228636e+000 -1.405630e+001 128 98 65
5.491447e+000 3.167447e+000 -1.366508e+001 116 81 49
5.517136e+000 3.130982e+000 -1.359122e+001 118 82 48
1.041331e+000 1.287707e+000 -1.437270e+001 198 154 128
1.045962e+000 1.291255e+000 -1.437074e+001 198 154 128
2.865898e+000 3.018576e+000 -1.313130e+001 234 213 182
3.082396e+000 3.060204e+000 -1.316448e+001 44 29 16
3.087140e+000 3.032284e+000 -1.314019e+001 48 35 18
3.548729e+000 3.046418e+000 -1.320140e+001 45 29 16
5.374264e+000 3.001353e+000 -1.349583e+001 90 58 33
4.318336e+000 2.945604e+000 -1.327887e+001 129 98 70
3.112700e+000 2.881840e+000 -1.301395e+001 60 44 28
3.117884e+000 2.856331e+000 -1.298433e+001 53 37 20
3.529184e+000 2.904908e+000 -1.301520e+001 39 26 16
4.466675e+000 2.819997e+000 -1.320284e+001 106 74 49
4.466675e+000 2.819997e+000 -1.320284e+001 106 74 49
4.500869e+000 2.797327e+000 -1.319157e+001 124 93 65
4.496701e+000 2.803030e+000 -1.318627e+001 124 93 65
1.873757e+000 1.416648e+000 -1.394327e+001 149 79 60
2.072338e+000 1.572127e+000 -1.374975e+001 160 94 82
2.651150e+000 2.320155e+000 -1.318030e+001 129 106 80
2.939912e+000 2.734526e+000 -1.291878e+001 173 148 117
3.257326e+000 2.801666e+000 -1.292945e+001 42 30 19
3.481220e+000 2.796280e+000 -1.299095e+001 60 49 31
3.517010e+000 2.796863e+000 -1.298021e+001 56 43 31
5.164508e+000 2.749553e+000 -1.320854e+001 79 49 23
5.164508e+000 2.749553e+000 -1.320854e+001 79 49 23
1.385901e+000 1.245553e+000 -1.381939e+001 155 96 80
2.961675e+000 2.620562e+000 -1.277783e+001 231 206 176
3.004759e+000 2.690916e+000 -1.285547e+001 140 105 77
3.529202e+000 2.633599e+000 -1.284651e+001 190 174 124
5.458132e-001 -2.749844e-002 -1.439680e+001 182 124 114
2.467164e+000 1.814989e+000 -1.322369e+001 206 174 135
2.592710e+000 2.016512e+000 -1.310875e+001 62 67 44
2.706284e+000 2.327865e+000 -1.282352e+001 67 66 43
2.957740e+000 2.578277e+000 -1.277480e+001 173 143 116
2.951252e+000 2.581795e+000 -1.273841e+001 244 223 195
3.221981e+000 2.510366e+000 -1.273189e+001 52 35 25
3.405027e+000 2.496309e+000 -1.281218e+001 60 46 36
3.479291e+000 2.517661e+000 -1.279142e+001 45 31 18
4.293280e+000 2.493536e+000 -1.291853e+001 107 83 59
4.293280e+000 2.493536e+000 -1.291853e+001 107 83 59
4.425751e+000 2.537786e+000 -1.297111e+001 101 74 52
4.500296e+000 2.458777e+000 -1.294069e+001 72 46 23
5.064329e+000 2.566976e+000 -1.308403e+001 98 67 38
5.567658e+000 2.556933e+000 -1.317637e+001 68 36 13
2.614737e+000 1.985458e+000 -1.299461e+001 78 77 54
2.726297e+000 2.395983e+000 -1.271086e+001 149 146 112
2.793798e+000 2.439139e+000 -1.265862e+001 80 74 47
3.194675e+000 2.399670e+000 -1.266667e+001 53 37 22
3.245822e+000 2.403586e+000 -1.266350e+001 48 32 19
3.285221e+000 2.410400e+000 -1.266183e+001 53 41 25
4.523952e+000 2.461937e+000 -1.292369e+001 107 81 55
5.700236e+000 2.458200e+000 -1.309918e+001 114 80 52
3.525167e+000 2.291431e+000 -1.263470e+001 51 39 25
3.586687e+000 2.363849e+000 -1.269425e+001 61 48 31
5.219847e+000 2.254565e+000 -1.291287e+001 83 53 27
3.359008e+000 2.260279e+000 -1.249277e+001 40 27 18
3.644465e+000 2.283886e+000 -1.258972e+001 54 43 28
4.972100e+000 2.230712e+000 -1.281829e+001 69 41 17
3.218645e+000 2.147405e+000 -1.249385e+001 118 104 78
3.597124e+000 2.182770e+000 -1.253241e+001 56 41 32
4.927212e+000 2.041230e+000 -1.266540e+001 118 88 62
3.361283e+000 2.063344e+000 -1.238238e+001 184 168 142
3.373169e+000 2.016425e+000 -1.238196e+001 37 23 13
3.672967e+000 2.021348e+000 -1.241903e+001 55 42 24
1.291281e+000 1.072558e-001 -1.319560e+001 184 124 106
3.124613e+000 1.905728e+000 -1.227773e+001 155 121 87
4.475443e+000 1.906277e+000 -1.251896e+001 88 62 37
1.439663e+000 8.845789e-002 -1.313453e+001 216 171 144
2.766401e+000 1.388229e+000 -1.243572e+001 196 168 122
3.777340e+000 1.776266e+000 -1.216943e+001 49 36 20
3.073013e+000 1.391776e+000 -1.216648e+001 85 68 48
3.374215e+000 1.581401e+000 -1.197792e+001 43 31 17
4.518103e+000 1.389935e+000 -1.209968e+001 121 91 63
4.539038e+000 1.488331e+000 -1.209941e+001 111 79 57
3.421351e+000 1.373730e+000 -1.179881e+001 69 53 30
3.489101e+000 1.331007e+000 -1.175757e+001 255 244 203
3.171115e+000 1.186862e+000 -1.167565e+001 207 177 143
2.707355e+000 3.115016e+000 -1.394429e+001 200 175 145
1.662217e+000 1.057492e+000 -1.574920e+001 169 125 108
3.012663e+000 3.211274e+000 -1.359683e+001 58 45 32
3.367877e+000 3.203226e+000 -1.380488e+001 57 48 30
3.305101e+000 3.182115e+000 -1.365895e+001 107 95 73
1.205003e+000 1.137743e+000 -1.529040e+001 153 83 75
2.517781e+000 2.288299e+000 -1.441609e+001 143 103 68
2.769483e+000 3.029638e+000 -1.352882e+001 49 41 30
4.927377e+000 3.222091e+000 -1.390411e+001 106 71 39
5.406036e+000 3.248628e+000 -1.393614e+001 102 67 37
5.390745e+000 3.268661e+000 -1.391498e+001 102 67 37
1.175445e+000 1.291290e+000 -1.486681e+001 171 129 112
1.627849e+000 1.185195e+000 -1.521848e+001 150 92 77
2.856348e+000 3.114747e+000 -1.339907e+001 149 117 92
3.138419e+000 3.176409e+000 -1.335660e+001 65 49 33
4.058013e+000 3.158993e+000 -1.355890e+001 81 53 29
5.558929e+000 3.104654e+000 -1.386545e+001 100 64 34
5.475866e+000 3.191150e+000 -1.371475e+001 125 87 58
2.587903e+000 2.613252e+000 -1.360225e+001 149 132 102
3.072781e+000 3.102051e+000 -1.321366e+001 59 44 28
5.403624e+000 3.166602e+000 -1.364772e+001 88 53 24
5.403624e+000 3.166602e+000 -1.364772e+001 88 53 24
5.589850e+000 3.158990e+000 -1.370547e+001 128 90 54
5.517843e+000 3.087973e+000 -1.360944e+001 96 60 34
1.969913e+000 1.557572e+000 -1.442444e+001 69 44 28
1.183824e+000 1.150188e+000 -1.431792e+001 151 83 67
1.825640e+000 1.274538e+000 -1.436424e+001 146 110 83
3.005871e+000 2.958126e+000 -1.309121e+001 138 105 72
3.096632e+000 2.970687e+000 -1.308248e+001 46 33 18
4.599608e+000 2.968908e+000 -1.332970e+001 117 86 58
2.250872e+000 1.785500e+000 -1.375506e+001 139 102 73
3.252875e+000 2.869817e+000 -1.293992e+001 48 35 23
2.365810e+000 1.944294e+000 -1.346693e+001 104 98 62
2.365810e+000 1.944294e+000 -1.346693e+001 104 98 62
3.044711e+000 2.758637e+000 -1.292634e+001 143 115 76
2.434438e+000 1.750619e+000 -1.339957e+001 162 129 88
2.691924e+000 2.297651e+000 -1.311213e+001 80 72 51
4.551757e+000 2.609778e+000 -1.306704e+001 69 44 22
2.345696e+000 1.662289e+000 -1.338698e+001 169 121 86
2.700348e+000 2.368640e+000 -1.285870e+001 49 47 24
2.916830e+000 2.521812e+000 -1.278916e+001 110 78 47
3.517733e+000 2.596774e+000 -1.283750e+001 49 40 25
3.586524e+000 2.621848e+000 -1.281966e+001 41 27 17
3.822180e+000 2.577567e+000 -1.291091e+001 142 116 91
2.401472e+000 1.616064e+000 -1.329315e+001 176 138 100
2.694200e+000 2.277911e+000 -1.282889e+001 154 134 108
3.563063e+000 2.414348e+000 -1.270916e+001 49 35 24
3.371460e-001 -2.098089e-001 -1.408745e+001 162 117 98
3.049650e+000 2.385680e+000 -1.262709e+001 122 87 55
3.325052e+000 2.322409e+000 -1.259548e+001 104 87 66
5.372502e+000 2.274514e+000 -1.292100e+001 95 64 36
2.506001e+000 1.387678e+000 -1.309403e+001 121 79 51
2.667429e+000 1.514636e+000 -1.298580e+001 126 87 48
4.572266e+000 2.215948e+000 -1.277473e+001 112 83 54
5.245969e+000 2.158762e+000 -1.284595e+001 84 54 26
5.245969e+000 2.158762e+000 -1.284595e+001 84 54 26
1.545474e+000 8.002804e-001 -1.319766e+001 192 129 114
4.672017e+000 2.069493e+000 -1.265521e+001 92 61 32
4.867586e+000 2.100700e+000 -1.269527e+001 95 64 36
3.160362e+000 1.983062e+000 -1.236216e+001 138 104 67
3.278837e+000 1.982793e+000 -1.234480e+001 43 27 19
3.681860e+000 2.103749e+000 -1.243327e+001 62 48 29
5.019398e+000 2.009499e+000 -1.264630e+001 113 82 54
1.380846e+000 9.751582e-002 -1.318318e+001 224 185 156
3.306069e+000 2.002206e+000 -1.230478e+001 121 106 87
4.943846e+000 1.911050e+000 -1.256535e+001 123 92 63
2.636307e+000 1.121778e+000 -1.260452e+001 212 175 133
2.795779e+000 1.549822e+000 -1.236110e+001 107 106 76
2.895897e+000 1.488335e+000 -1.231775e+001 119 113 81
4.895958e+000 1.787700e+000 -1.245455e+001 115 86 56
2.644564e+000 8.727204e-001 -1.259142e+001 191 148 108
2.984410e+000 1.543950e+000 -1.213680e+001 90 84 60
3.740118e+000 1.675393e+000 -1.211944e+001 163 149 125
2.901030e+000 1.037618e+000 -1.219257e+001 195 164 134
2.919211e+000 1.005920e+000 -1.208694e+001 61 51 33
3.551709e+000 1.403617e+000 -1.180724e+001 55 42 33
5.474173e+000 1.171890e+000 -1.210534e+001 119 83 49
6.255113e+000 1.049142e+000 -1.223265e+001 147 109 60
3.493760e+000 1.309073e+000 -1.173028e+001 67 61 42
3.527639e+000 1.140895e+000 -1.169599e+001 72 60 39
4.400860e+000 1.007321e+000 -1.189172e+001 135 104 73
5.208454e+000 9.388985e-001 -1.201857e+001 98 65 33
5.218209e+000 9.206336e-001 -1.202819e+001 98 65 33
3.345259e+000 1.132062e+000 -1.163802e+001 152 118 90
5.808871e+000 3.222087e+000 -1.431074e+001 120 84 44
4.117743e+000 3.188962e+000 -1.384353e+001 120 90 63
5.370704e+000 3.248210e+000 -1.403791e+001 101 66 36
5.275492e+000 3.226391e+000 -1.379380e+001 86 52 24
2.608081e+000 3.030536e+000 -1.348835e+001 119 117 84
2.596460e+000 2.903300e+000 -1.353653e+001 81 80 52
3.037494e+000 3.139431e+000 -1.338472e+001 146 137 106
3.024956e+000 3.169634e+000 -1.335340e+001 146 137 106
3.337687e+000 3.149208e+000 -1.343047e+001 247 227 185
2.309081e+000 2.122470e+000 -1.400500e+001 192 168 137
3.403962e+000 3.120686e+000 -1.336732e+001 61 43 28
3.401830e+000 3.123857e+000 -1.336443e+001 61 43 28
3.494847e+000 3.161734e+000 -1.327724e+001 41 24 16
4.479213e+000 3.106541e+000 -1.345001e+001 104 71 40
4.661980e+000 3.110479e+000 -1.349549e+001 123 92 64
5.179797e+000 3.109640e+000 -1.355204e+001 93 57 31
5.295721e+000 3.140774e+000 -1.360805e+001 95 61 34
5.462267e+000 3.143858e+000 -1.364157e+001 123 86 59
2.508390e+000 2.147587e+000 -1.392585e+001 118 109 78
2.562631e+000 2.522368e+000 -1.355609e+001 179 153 120
2.642322e+000 2.688322e+000 -1.345756e+001 102 91 61
2.943838e+000 3.035244e+000 -1.314406e+001 142 108 80
4.556657e+000 3.063712e+000 -1.333060e+001 120 89 61
2.283721e+000 1.906191e+000 -1.388956e+001 165 146 116
2.308567e+000 1.889163e+000 -1.383708e+001 65 58 39
3.024309e+000 2.841205e+000 -1.297788e+001 137 100 70
4.209925e+000 2.730380e+000 -1.306311e+001 98 66 41
5.802766e+000 2.756737e+000 -1.329173e+001 110 82 60
1.009629e+000 8.507867e-001 -1.400173e+001 195 159 133
1.445774e+000 1.246328e+000 -1.372030e+001 159 92 73
3.056606e+000 2.669726e+000 -1.285150e+001 120 90 62
2.986791e+000 2.652256e+000 -1.280220e+001 156 127 95
3.219710e+000 2.655386e+000 -1.289572e+001 49 36 28
3.294814e+000 2.581574e+000 -1.279251e+001 43 30 21
2.836646e+000 2.425803e+000 -1.265077e+001 168 147 112
3.084885e+000 2.443314e+000 -1.267448e+001 139 106 68
3.715685e+000 2.423377e+000 -1.272309e+001 47 33 19
2.904508e+000 1.677798e+000 -1.278707e+001 130 88 66
3.064422e+000 2.147029e+000 -1.249805e+001 110 74 50
1.835941e+000 9.846078e-001 -1.296380e+001 202 121 120
1.861693e+000 9.132679e-001 -1.293525e+001 203 117 118
2.429891e+000 1.262298e+000 -1.279857e+001 216 173 138
-9.473190e-001 -8.419007e-001 -1.357764e+001 134 96 77
3.676629e+000 1.915259e+000 -1.234758e+001 52 39 24
3.469752e+000 1.812840e+000 -1.223826e+001 46 33 21
3.231802e+000 1.750790e+000 -1.212435e+001 139 103 67
3.719184e+000 1.748433e+000 -1.218337e+001 53 40 25
4.037289e+000 1.674121e+000 -1.221318e+001 138 112 89
3.804984e+000 1.668816e+000 -1.207837e+001 44 30 17
3.163437e+000 1.574423e+000 -1.189789e+001 215 185 157
3.761446e+000 1.564581e+000 -1.202560e+001 37 28 18
3.819927e+000 1.563851e+000 -1.196075e+001 57 45 28
3.802189e+000 1.372807e+000 -1.188103e+001 59 48 37
4.685819e+000 1.395467e+000 -1.206782e+001 126 95 67
5.555793e+000 1.317496e+000 -1.215998e+001 135 100 63
6.156495e+000 1.196399e+000 -1.221278e+001 188 150 106
3.483070e+000 1.405511e+000 -1.181025e+001 52 44 33
3.554340e+000 1.403783e+000 -1.180265e+001 55 43 34
5.694861e+000 1.084680e+000 -1.209135e+001 112 76 42
4.759328e+000 1.064888e+000 -1.192938e+001 164 129 98
5.946498e+000 7.396593e-001 -1.214546e+001 182 150 109
2.702505e+000 3.119223e+000 -1.380906e+001 146 117 84
2.918960e+000 3.188337e+000 -1.364349e+001 48 34 25
5.383954e+000 3.257363e+000 -1.397878e+001 133 98 66
2.465846e+000 2.237832e+000 -1.433872e+001 148 112 78
5.020105e+000 3.234761e+000 -1.385997e+001 94 61 33
2.084144e+000 2.167926e+000 -1.421719e+001 173 132 72
2.521965e+000 2.322151e+000 -1.417713e+001 159 138 103
5.156342e+000 3.201481e+000 -1.371472e+001 128 91 64
2.494573e+000 2.314980e+000 -1.394112e+001 141 137 100
5.703538e+000 3.222387e+000 -1.367704e+001 168 126 88
1.154927e+000 1.291752e+000 -1.446608e+001 178 127 103
2.624139e+000 2.806444e+000 -1.328224e+001 217 196 164
3.156354e+000 2.991446e+000 -1.304338e+001 50 37 27
1.636211e+000 1.124962e+000 -1.423949e+001 175 114 99
1.821908e+000 1.365928e+000 -1.403481e+001 175 118 101
4.786204e+000 2.866592e+000 -1.328333e+001 115 84 55
2.111626e+000 1.577671e+000 -1.380447e+001 168 112 93
2.274429e-001 -1.893469e-001 -1.482244e+001 120 91 67
1.057548e+000 9.961328e-001 -1.400144e+001 199 160 132
1.057548e+000 9.961328e-001 -1.400144e+001 199 160 132
2.300056e+000 1.835704e+000 -1.346700e+001 81 72 41
2.387379e+000 1.899050e+000 -1.342016e+001 36 30 9
2.762311e+000 2.573852e+000 -1.280581e+001 99 97 66
4.746439e+000 2.642466e+000 -1.310325e+001 121 91 67
5.961352e-001 4.861626e-002 -1.440277e+001 129 86 67
5.383247e+000 2.506144e+000 -1.307023e+001 90 60 34
5.374345e+000 2.519131e+000 -1.305824e+001 90 60 34
3.111363e+000 2.282128e+000 -1.260600e+001 137 100 66
2.712198e+000 1.525197e+000 -1.297647e+001 114 75 39
2.472400e+000 1.373437e+000 -1.289281e+001 198 156 126
3.708499e+000 2.060462e+000 -1.237722e+001 45 33 20
2.951767e+000 1.570577e+000 -1.223473e+001 112 108 76
2.951767e+000 1.570577e+000 -1.223473e+001 112 108 76
2.928894e+000 1.246714e+000 -1.226827e+001 174 153 128
5.626953e+000 1.518920e+000 -1.228051e+001 150 114 80
4.463666e+000 1.371230e+000 -1.197434e+001 115 81 53
4.866347e+000 1.382088e+000 -1.207195e+001 93 59 31
5.528063e+000 1.188676e+000 -1.213035e+001 151 115 79
3.079666e+000 1.037048e+000 -1.184783e+001 134 106 84
3.188147e+000 1.311292e+000 -1.177336e+001 152 119 88
3.764241e+000 1.131330e+000 -1.177660e+001 148 134 106
4.705075e+000 9.902616e-001 -1.191599e+001 110 74 42
3.410590e+000 1.075394e+000 -1.168733e+001 48 35 26
4.111971e+000 8.392009e-001 -1.181781e+001 175 149 124
