ply
format ascii 1.0
element face 0
property list uchar int vertex_indices
element vertex 895
property float x
property float y
property float z
property uchar diffuse_red
property uchar diffuse_green
property uchar diffuse_blue
end_header
2.566478e+000 8.641722e-001 -1.251605e+001 216 182 140
2.523434e+000 -3.434734e-001 -1.314196e+001 165 115 98
-4.761928e-001 -5.971721e-001 -1.382771e+001 142 96 62
1.966202e+000 -1.343925e+000 -1.385898e+001 173 111 101
1.966202e+000 -1.343925e+000 -1.385898e+001 173 111 101
2.125990e+000 -1.407435e+000 -1.378954e+001 169 109 98
1.623067e+000 -1.641972e+000 -1.491841e+001 133 72 66
3.509227e+000 2.775948e+000 -1.301097e+001 73 57 42
2.854256e+000 2.293714e+000 -1.277547e+001 122 96 69
4.404637e+000 2.062788e+000 -1.262067e+001 81 49 24
5.249755e+000 1.262186e+000 -1.216306e+001 93 57 25
4.395697e+000 8.299205e-001 -1.191840e+001 89 63 40
2.685622e+000 1.130810e+000 -1.257752e+001 158 113 68
5.074296e+000 4.403133e-001 -1.228246e+001 90 65 41
5.607492e+000 4.206819e-001 -1.249559e+001 80 53 26
3.635803e+000 -3.065128e-002 -1.197061e+001 153 137 104
2.979424e+000 -2.891391e-001 -1.263048e+001 60 52 29
2.881390e+000 -6.386101e-001 -1.294214e+001 61 55 33
3.786588e+000 -7.025662e-001 -1.341741e+001 139 115 95
4.618729e+000 -7.280794e-001 -1.359683e+001 78 52 30
-1.483213e+000 -1.403777e+000 -1.378540e+001 132 87 66
4.940516e+000 2.638695e+000 -1.310591e+001 132 97 70
4.757286e+000 2.017581e+000 -1.262044e+001 133 100 70
5.709192e+000 1.213843e+000 -1.217796e+001 98 59 30
4.732943e+000 1.106680e+000 -1.193501e+001 128 92 61
5.413894e+000 1.183662e+000 -1.207489e+001 97 61 29
2.919375e+000 1.015873e+000 -1.208605e+001 45 39 22
4.623071e+000 -2.013865e-001 -1.303237e+001 66 41 17
5.355035e+000 -1.015866e-001 -1.309606e+001 87 63 40
5.199774e+000 -2.230997e-001 -1.319492e+001 97 72 49
1.942424e+000 -2.964672e-001 -1.288028e+001 160 86 85
4.558381e+000 -8.368336e-001 -1.370073e+001 88 64 41
-1.109851e+000 -8.191420e-001 -1.358649e+001 102 64 45
-4.944475e-001 -1.074766e+000 -1.363462e+001 155 120 98
2.210405e+000 -1.251081e+000 -1.360320e+001 120 66 58
2.592868e+000 -1.202188e+000 -1.372164e+001 60 52 35
4.776711e+000 -1.308491e+000 -1.442593e+001 90 68 46
5.133126e+000 2.340014e+000 -1.292613e+001 95 61 33
4.582176e+000 1.558039e+000 -1.218008e+001 80 50 24
4.477880e+000 1.029940e+000 -1.191532e+001 108 74 47
4.683081e+000 9.875007e-001 -1.198164e+001 81 46 21
5.693258e+000 1.067592e+000 -1.214501e+001 79 45 21
2.807900e+000 1.224258e+000 -1.244218e+001 173 132 88
2.709821e+000 1.211818e+000 -1.253368e+001 185 147 102
5.299263e+000 6.602072e-001 -1.217266e+001 81 51 25
4.701242e+000 3.260175e-001 -1.230975e+001 107 80 53
5.206709e+000 3.759258e-001 -1.242457e+001 55 30 7
3.632087e+000 4.708872e-002 -1.184216e+001 61 52 34
1.514293e+000 5.503962e-002 -1.296243e+001 197 145 124
1.514293e+000 5.503962e-002 -1.296243e+001 197 145 124
2.153919e+000 3.884822e-002 -1.316340e+001 114 49 45
5.316840e+000 -2.796855e-001 -1.327289e+001 100 76 52
1.708154e+000 -2.785662e-001 -1.287065e+001 186 134 114
5.123114e+000 -6.479688e-001 -1.362756e+001 113 83 58
5.549513e+000 -5.242880e-001 -1.358816e+001 100 77 53
4.350438e+000 -1.131192e+000 -1.402201e+001 98 76 53
5.766562e+000 1.363210e+000 -1.229412e+001 127 91 55
5.848526e+000 9.946835e-001 -1.197633e+001 143 106 70
3.007810e+000 8.322328e-001 -1.200048e+001 111 105 76
2.978137e+000 6.909093e-001 -1.201511e+001 56 49 27
5.197684e+000 4.346795e-001 -1.235870e+001 103 74 50
5.362406e+000 3.133363e-001 -1.254565e+001 112 82 58
1.992568e+000 -5.786581e-001 -1.314001e+001 100 26 29
2.723380e+000 -1.015650e+000 -1.359450e+001 44 34 24
-7.166897e-001 -7.811477e-001 -1.383909e+001 164 119 98
4.289993e+000 1.276025e+000 -1.190644e+001 76 48 27
2.387046e+000 1.782490e+000 -1.345284e+001 197 157 120
2.862886e+000 1.039145e+000 -1.227841e+001 180 147 113
5.704819e+000 6.693721e-001 -1.218228e+001 109 72 45
3.229793e+000 4.814288e-001 -1.178318e+001 192 160 129
3.037290e+000 -1.862143e-001 -1.274610e+001 47 35 23
4.967687e+000 -2.235122e-001 -1.307406e+001 103 78 50
1.806328e+000 -2.327390e-001 -1.297517e+001 132 64 56
4.606535e+000 -3.774352e-001 -1.317768e+001 67 42 20
3.094164e+000 -5.047790e-001 -1.286908e+001 132 108 82
-2.434766e-001 -8.061982e-001 -1.377965e+001 123 82 62
4.487988e+000 -2.038338e+000 -1.507134e+001 80 53 34
5.340738e+000 1.116523e+000 -1.209315e+001 124 88 58
3.265535e+000 8.207747e-001 -1.156061e+001 181 150 119
4.736499e+000 9.578747e-001 -1.196775e+001 77 45 22
2.342893e+000 1.028567e+000 -1.266093e+001 169 84 79
2.469668e+000 7.445983e-001 -1.253564e+001 151 72 67
2.037669e+000 6.905586e-002 -1.309982e+001 119 52 49
1.937310e+000 -1.958530e-001 -1.297629e+001 167 97 91
2.715955e+000 -6.022035e-001 -1.312525e+001 154 119 91
4.560966e+000 8.834154e-001 -1.195790e+001 104 72 47
4.588090e+000 -7.486175e-001 -1.358839e+001 86 59 38
3.638457e+000 -8.892651e-001 -1.354205e+001 40 25 12
4.583587e+000 1.222091e+000 -1.200012e+001 121 87 53
1.715913e+000 -3.965897e-001 -1.291559e+001 131 59 57
-4.452446e-001 -9.275802e-001 -1.367993e+001 174 139 113
3.210820e+000 2.574922e+000 -1.275228e+001 66 50 33
3.293230e+000 2.591096e+000 -1.280571e+001 50 32 19
2.655745e+000 2.736149e+000 -1.313660e+001 165 131 94
4.312728e+000 2.454704e+000 -1.293674e+001 84 54 31
5.047194e+000 2.323245e+000 -1.292195e+001 99 64 38
4.667101e+000 1.894373e+000 -1.251846e+001 101 67 39
3.253293e+000 1.278438e+000 -1.160039e+001 124 88 51
5.007874e+000 6.752019e-001 -1.207358e+001 62 38 13
5.711581e+000 2.344946e-002 -1.304102e+001 77 49 25
2.613183e+000 -1.590079e-001 -1.336918e+001 95 43 30
-1.238493e+000 -8.657365e-001 -1.366217e+001 115 77 55
1.665096e+000 -1.623242e+000 -1.482547e+001 170 110 100
4.755473e+000 2.721573e+000 -1.320686e+001 95 64 37
4.902469e+000 2.489770e+000 -1.301791e+001 97 63 35
2.975631e+000 2.116938e+000 -1.245652e+001 128 94 62
4.872703e+000 1.816745e+000 -1.250931e+001 103 67 39
3.291061e+000 1.088096e+000 -1.157477e+001 128 94 59
2.880372e+000 1.274827e+000 -1.231596e+001 147 119 95
3.834117e+000 4.896556e-001 -1.193840e+001 33 23 13
3.863633e+000 4.987067e-001 -1.189507e+001 94 78 56
3.900085e+000 5.119493e-001 -1.190551e+001 47 29 16
1.407661e+000 2.177659e-001 -1.303930e+001 163 113 85
3.344867e+000 -2.406458e-001 -1.279705e+001 38 27 10
4.184175e+000 -9.292363e-001 -1.372760e+001 57 32 11
1.390331e-001 -8.559438e-001 -1.388389e+001 151 114 90
-1.406952e+000 -1.007599e+000 -1.373631e+001 138 94 65
1.990799e+000 -1.357106e+000 -1.374640e+001 138 75 65
4.197667e+000 -1.999586e+000 -1.504463e+001 98 71 50
3.257753e+000 2.375213e+000 -1.260888e+001 64 45 26
2.121815e+000 1.385655e-001 -1.322708e+001 178 122 109
5.418993e+000 -6.052949e-002 -1.308359e+001 92 70 47
2.435572e+000 -3.088854e-001 -1.315233e+001 110 49 45
2.604888e+000 -2.085096e-001 -1.332591e+001 151 99 85
2.604888e+000 -2.085096e-001 -1.332591e+001 151 99 85
3.406691e+000 -3.547746e-001 -1.299894e+001 45 37 15
4.008810e+000 -1.419696e+000 -1.429091e+001 73 46 27
4.008810e+000 -1.419696e+000 -1.429091e+001 73 46 27
4.805802e+000 -1.345361e+000 -1.440968e+001 64 42 19
-1.163467e+000 -1.143309e+000 -1.360440e+001 126 83 58
4.737899e+000 -1.699121e+000 -1.482479e+001 76 49 28
2.922903e+000 -1.818315e+000 -1.445518e+001 113 81 53
2.770172e+000 -2.105398e+000 -1.465049e+001 201 171 142
2.578669e+000 2.334036e+000 -1.328594e+001 185 155 117
2.924913e+000 1.816514e+000 -1.232565e+001 159 132 105
5.631844e+000 3.710543e-001 -1.254323e+001 81 53 30
1.247696e+000 3.735509e-001 -1.328547e+001 143 92 63
1.389930e+000 1.770597e-001 -1.308884e+001 203 156 126
1.515482e+000 -3.742373e-001 -1.282830e+001 165 94 92
3.072011e+000 -4.200244e-001 -1.278160e+001 91 67 41
5.475420e+000 -4.888897e-001 -1.356062e+001 61 37 13
3.361785e+000 -8.275075e-001 -1.336944e+001 80 67 48
5.298445e+000 -1.750808e+000 -1.504204e+001 92 68 44
2.372938e+000 -2.057895e+000 -1.483661e+001 174 135 106
5.131801e+000 2.227147e+000 -1.286228e+001 127 93 65
2.121291e+000 2.001849e+000 -1.412052e+001 189 147 112
2.304096e+000 1.716035e+000 -1.340783e+001 110 80 52
2.325298e+000 1.150911e+000 -1.272913e+001 206 134 120
4.650975e+000 5.218586e-001 -1.212372e+001 74 46 25
2.808424e+000 6.208583e-001 -1.236586e+001 126 82 22
2.439122e+000 -1.129441e-001 -1.306027e+001 119 65 56
4.358331e+000 -6.015254e-001 -1.341312e+001 74 48 26
3.563691e+000 -1.005300e+000 -1.356869e+001 54 39 21
4.572399e+000 -1.643382e+000 -1.474745e+001 73 46 25
2.967402e+000 2.491362e+000 -1.266085e+001 212 178 143
5.305714e+000 2.053808e+000 -1.274835e+001 149 114 76
3.366568e+000 1.037601e+000 -1.143332e+001 58 39 22
3.074514e+000 8.134715e-001 -1.171183e+001 59 51 28
1.831307e+000 9.089982e-001 -1.298798e+001 163 72 72
2.909157e+000 7.258986e-001 -1.208010e+001 172 147 113
4.590567e+000 5.758731e-001 -1.207158e+001 93 65 43
5.296168e+000 5.347701e-001 -1.226137e+001 72 46 25
3.157284e+000 -3.988151e-002 -1.243313e+001 170 139 111
2.412017e+000 -3.683249e-001 -1.313547e+001 152 104 82
4.775605e+000 -5.149733e-001 -1.340820e+001 65 37 16
4.895629e+000 -1.234694e+000 -1.432883e+001 72 44 22
2.997357e+000 2.286373e+000 -1.251628e+001 178 142 105
4.057928e+000 2.513278e+000 -1.288612e+001 97 66 38
6.139574e+000 1.890388e+000 -1.276424e+001 21 16 13
3.733012e+000 1.347568e+000 -1.173239e+001 152 129 96
3.915130e+000 1.406641e+000 -1.192036e+001 65 47 27
4.484948e+000 5.989005e-002 -1.266637e+001 98 73 51
5.696762e+000 -1.061717e-001 -1.314316e+001 89 57 32
2.450256e+000 -7.901458e-001 -1.345830e+001 97 43 41
4.892180e+000 -8.156703e-001 -1.370757e+001 62 37 17
5.050733e+000 -8.142482e-001 -1.383089e+001 105 79 52
-2.545359e-001 -9.501718e-001 -1.380044e+001 79 46 31
4.120066e+000 -1.237794e+000 -1.412070e+001 96 72 48
3.994983e+000 -2.125166e+000 -1.511249e+001 106 79 58
3.085588e+000 1.814974e+000 -1.203180e+001 211 178 145
3.381065e+000 7.319689e-001 -1.158995e+001 39 23 14
3.290298e+000 6.587779e-001 -1.166096e+001 181 152 122
3.100236e+000 2.921306e-001 -1.205243e+001 132 97 68
5.723000e+000 -8.880487e-001 -1.399400e+001 131 100 69
2.102448e+000 -7.649989e-001 -1.308337e+001 122 54 55
2.922977e+000 1.545976e+000 -1.237450e+001 84 71 44
4.672682e+000 2.718457e+000 -1.310516e+001 121 87 60
5.177076e+000 2.910866e+000 -1.340446e+001 109 73 41
5.528980e+000 3.015325e+000 -1.352021e+001 111 75 43
3.291691e+000 2.619574e+000 -1.278706e+001 105 87 59
3.664060e+000 2.434090e+000 -1.269999e+001 81 68 48
2.816226e+000 2.316620e+000 -1.276172e+001 75 58 33
3.572780e+000 2.360220e+000 -1.263246e+001 226 211 173
3.572780e+000 2.360220e+000 -1.263246e+001 226 211 173
5.172661e+000 2.316987e+000 -1.293445e+001 97 63 36
5.172661e+000 2.316987e+000 -1.293445e+001 97 63 36
5.261262e+000 2.416045e+000 -1.298042e+001 125 91 61
5.919611e+000 2.468453e+000 -1.330047e+001 115 85 58
3.046520e+000 2.021414e+000 -1.229858e+001 177 139 105
3.102681e+000 2.045844e+000 -1.232869e+001 140 103 67
3.592416e+000 2.106442e+000 -1.242582e+001 75 53 30
4.482948e+000 2.122697e+000 -1.266294e+001 98 67 39
5.288162e+000 2.190087e+000 -1.288889e+001 116 82 54
3.448169e+000 1.939029e+000 -1.231559e+001 63 46 31
5.222253e+000 1.855320e+000 -1.261729e+001 124 85 49
3.705820e+000 1.530208e+000 -1.195392e+001 253 236 170
3.729568e+000 1.561197e+000 -1.199253e+001 67 45 24
4.278140e+000 1.561346e+000 -1.215144e+001 103 71 46
4.545906e+000 1.760305e+000 -1.236269e+001 132 100 72
2.752797e+000 1.543003e+000 -1.244356e+001 193 157 116
3.473010e+000 1.385541e+000 -1.177610e+001 166 148 115
3.734223e+000 1.406692e+000 -1.185493e+001 247 232 181
5.368871e+000 -3.236207e-001 -1.334935e+001 71 50 26
2.561955e+000 -3.383445e-001 -1.318927e+001 124 68 57
3.297127e+000 -5.773777e-001 -1.310356e+001 37 23 8
1.883550e-001 -8.279698e-001 -1.393842e+001 162 125 98
2.704796e+000 -1.163005e+000 -1.374962e+001 46 33 20
2.803254e+000 -1.765314e+000 -1.439648e+001 215 180 152
2.803254e+000 -1.765314e+000 -1.439648e+001 215 180 152
3.166307e+000 2.853939e+000 -1.299587e+001 70 54 32
5.086833e+000 2.885848e+000 -1.335882e+001 103 66 37
5.937590e+000 2.984352e+000 -1.363792e+001 119 77 42
5.937590e+000 2.984352e+000 -1.363792e+001 119 77 42
4.739468e+000 2.640435e+000 -1.309961e+001 124 89 62
3.061999e+000 2.299556e+000 -1.249191e+001 184 151 113
3.142283e+000 2.049085e+000 -1.233494e+001 142 105 76
3.711857e+000 1.965982e+000 -1.228411e+001 62 47 26
5.093562e+000 2.104668e+000 -1.279563e+001 122 87 59
3.675242e+000 1.761443e+000 -1.212656e+001 76 64 42
4.563602e+000 1.891810e+000 -1.256479e+001 99 64 38
4.843704e+000 1.913070e+000 -1.258059e+001 126 92 64
5.089954e+000 1.803517e+000 -1.253878e+001 102 66 32
3.206394e+000 1.575867e+000 -1.181373e+001 148 110 73
5.010851e+000 1.728373e+000 -1.243627e+001 108 69 36
4.672504e+000 1.532025e+000 -1.218323e+001 97 62 34
2.563603e+000 1.489620e+000 -1.267763e+001 211 173 128
3.250604e+000 1.256991e+000 -1.169630e+001 175 140 102
3.846693e+000 1.244930e+000 -1.175974e+001 128 111 85
2.855951e+000 1.248861e+000 -1.234565e+001 125 86 55
2.874293e+000 7.025265e-001 -1.218702e+001 141 100 50
5.842726e+000 6.461244e-001 -1.229337e+001 78 46 21
1.521493e+000 7.658197e-001 -1.323561e+001 158 100 78
1.739909e+000 7.297693e-001 -1.277516e+001 170 94 86
2.449955e+000 1.072477e-001 -1.323895e+001 135 66 69
3.226799e+000 -1.931051e-002 -1.240498e+001 103 72 43
5.040051e+000 -6.026036e-002 -1.299683e+001 70 46 22
5.285740e+000 -1.317522e-001 -1.315473e+001 54 32 11
5.410264e+000 -8.603615e-002 -1.314606e+001 52 30 8
2.920504e+000 -2.033372e-001 -1.275314e+001 40 31 14
3.033811e+000 -2.531586e-001 -1.270810e+001 98 81 56
3.378973e+000 -1.998808e-001 -1.278658e+001 39 25 17
5.380092e+000 -2.037273e-001 -1.322091e+001 88 65 43
5.592895e+000 -3.258123e-001 -1.339191e+001 55 31 9
-9.902918e-001 -4.994213e-001 -1.407351e+001 92 70 60
-9.902918e-001 -4.994213e-001 -1.407351e+001 92 70 60
4.892678e+000 -6.833239e-001 -1.361818e+001 97 72 49
2.769619e+000 -8.184780e-001 -1.307204e+001 178 146 105
4.353355e+000 -8.819606e-001 -1.370789e+001 66 43 22
-1.397894e+000 -9.233166e-001 -1.368380e+001 141 94 64
2.895552e+000 -1.648184e+000 -1.425503e+001 126 92 65
3.498844e+000 -1.909812e+000 -1.480086e+001 65 46 29
4.304663e+000 2.851964e+000 -1.313626e+001 121 86 59
5.087412e+000 2.770762e+000 -1.324272e+001 131 98 70
5.423005e+000 2.813874e+000 -1.335574e+001 124 91 60
3.229989e+000 2.484636e+000 -1.266428e+001 65 48 28
5.459628e+000 2.651325e+000 -1.323954e+001 117 84 53
3.574034e+000 2.313563e+000 -1.260194e+001 47 33 20
4.177355e+000 2.363872e+000 -1.283407e+001 81 53 29
4.893677e+000 2.288233e+000 -1.286710e+001 137 104 73
3.404389e+000 2.046555e+000 -1.237935e+001 47 35 19
3.606287e+000 2.126989e+000 -1.245005e+001 69 50 35
3.637705e+000 1.937563e+000 -1.227093e+001 77 60 37
4.453219e+000 2.058155e+000 -1.257367e+001 127 96 67
4.017138e+000 1.953412e+000 -1.255389e+001 141 111 83
5.507627e+000 1.772275e+000 -1.256349e+001 108 67 35
5.507627e+000 1.772275e+000 -1.256349e+001 108 67 35
3.823469e+000 1.476192e+000 -1.193768e+001 132 113 80
4.774795e+000 1.531501e+000 -1.221152e+001 140 104 70
5.200606e+000 1.558059e+000 -1.234306e+001 145 107 70
5.509096e+000 1.416442e+000 -1.204321e+001 128 93 61
3.297175e+000 1.213020e+000 -1.171684e+001 135 99 63
2.964642e+000 1.096532e+000 -1.196444e+001 67 60 32
3.383118e+000 1.012941e+000 -1.176599e+001 117 82 49
2.964780e+000 9.695628e-001 -1.202559e+001 94 84 58
3.022138e+000 8.906642e-001 -1.175498e+001 112 102 74
3.041350e+000 9.277469e-001 -1.158141e+001 141 122 89
2.909201e+000 7.947979e-001 -1.211437e+001 156 137 105
3.817671e+000 5.669281e-001 -1.193084e+001 51 39 27
2.711607e+000 3.023442e-001 -1.248834e+001 157 115 73
4.672549e+000 2.799871e-001 -1.240858e+001 71 44 23
2.687533e+000 1.542934e-001 -1.239091e+001 186 152 117
5.724526e+000 6.065970e-002 -1.298864e+001 93 64 40
5.266459e+000 -5.279842e-003 -1.299235e+001 62 43 19
5.418879e+000 -3.790500e-001 -1.343059e+001 67 45 22
5.426889e+000 -3.802761e-001 -1.345096e+001 67 45 22
4.600263e+000 -7.896257e-001 -1.361012e+001 70 45 26
4.874071e+000 -7.995206e-001 -1.371978e+001 50 28 6
1.983709e+000 -8.724563e-001 -1.314876e+001 185 144 126
2.632739e+000 -8.650024e-001 -1.353407e+001 92 39 35
2.632739e+000 -8.650024e-001 -1.353407e+001 92 39 35
2.739526e+000 -9.345821e-001 -1.343935e+001 159 116 98
4.739593e+000 -1.029160e+000 -1.398616e+001 73 52 30
2.883636e+000 -1.785415e+000 -1.445258e+001 122 88 62
3.034237e+000 2.891148e+000 -1.300116e+001 56 37 24
5.056602e+000 2.505465e+000 -1.302544e+001 137 104 71
5.216357e+000 2.567236e+000 -1.311440e+001 88 57 28
3.656620e+000 2.014918e+000 -1.242241e+001 69 56 39
2.643534e+000 2.246684e+000 -1.333681e+001 81 63 39
3.079116e+000 1.628957e+000 -1.193300e+001 137 104 71
3.125174e+000 1.491541e+000 -1.188906e+001 136 102 67
4.499835e+000 1.519019e+000 -1.215151e+001 87 55 30
2.938775e+000 1.323895e+000 -1.209817e+001 155 125 95
2.938775e+000 1.323895e+000 -1.209817e+001 155 125 95
3.185758e+000 1.138746e+000 -1.163310e+001 132 96 65
3.355702e+000 8.640889e-001 -1.160528e+001 138 107 76
4.457747e+000 9.705655e-001 -1.188450e+001 81 50 22
2.810457e+000 7.694381e-001 -1.235730e+001 135 86 41
2.826352e+000 4.119313e-001 -1.235616e+001 121 78 36
4.701242e+000 3.260175e-001 -1.230975e+001 107 80 53
5.550556e+000 3.705560e-001 -1.247686e+001 103 75 49
3.521346e+000 2.031042e-001 -1.235503e+001 30 20 12
4.692987e+000 1.570988e-001 -1.262007e+001 72 43 25
4.943036e+000 4.180361e-002 -1.280747e+001 104 77 52
5.428259e+000 -5.852620e-003 -1.301039e+001 61 42 18
3.072011e+000 -4.200244e-001 -1.278160e+001 91 67 41
3.145357e+000 -2.848956e-001 -1.273354e+001 186 160 133
3.039188e+000 -7.259678e-001 -1.311939e+001 207 177 151
3.039188e+000 -7.259678e-001 -1.311939e+001 207 177 151
-8.815818e-001 -7.776494e-001 -1.355143e+001 147 107 83
4.388834e+000 -8.634015e-001 -1.366671e+001 65 43 22
2.506538e+000 -1.457433e+000 -1.417643e+001 170 112 99
4.285327e+000 -1.812442e+000 -1.491882e+001 70 47 23
2.598350e+000 -1.975340e+000 -1.461050e+001 186 147 116
3.073375e+000 2.710808e+000 -1.282820e+001 59 38 21
5.563970e+000 2.388279e+000 -1.307274e+001 92 61 33
4.191767e+000 1.750459e+000 -1.230359e+001 89 59 34
3.159879e+000 1.337277e+000 -1.169469e+001 141 103 67
2.903009e+000 1.317516e+000 -1.229549e+001 56 45 27
4.441762e+000 1.341496e+000 -1.198044e+001 93 59 31
5.766453e+000 -2.077199e-004 -1.306902e+001 74 44 18
5.130523e+000 -7.996733e-001 -1.381568e+001 109 83 56
2.357923e+000 -9.188395e-001 -1.336836e+001 104 38 38
2.632845e+000 -1.009372e+000 -1.362895e+001 136 92 81
2.595513e+000 -1.482667e+000 -1.423837e+001 106 45 40
2.629961e+000 -1.724835e+000 -1.460764e+001 108 59 42
5.404648e+000 -1.824986e+000 -1.510816e+001 88 58 33
3.110282e+000 -2.316697e+000 -1.471107e+001 80 66 55
3.297171e+000 3.212763e+000 -1.344956e+001 214 198 180
3.153860e+000 2.160067e+000 -1.246646e+001 58 37 23
3.124365e+000 1.383848e+000 -1.205034e+001 173 138 108
3.366568e+000 1.037601e+000 -1.143332e+001 58 39 22
1.727988e+000 9.011424e-001 -1.292540e+001 218 160 140
3.718701e+000 4.727502e-001 -1.180741e+001 24 17 11
5.525160e+000 1.534197e-001 -1.292799e+001 97 73 47
5.883234e+000 6.761589e-002 -1.302912e+001 124 93 64
1.974298e+000 -3.802019e-002 -1.312505e+001 166 106 95
4.803041e+000 -9.563010e-002 -1.296097e+001 106 79 52
5.488077e+000 -9.609895e-002 -1.312093e+001 90 66 42
2.613063e+000 -3.217781e-001 -1.313667e+001 146 107 89
2.970702e+000 -1.906588e+000 -1.458501e+001 54 45 38
3.699799e+000 -2.033863e+000 -1.487811e+001 139 111 89
5.488382e+000 -2.161209e+000 -1.545458e+001 125 98 66
5.801128e+000 1.481211e+000 -1.229576e+001 97 61 29
1.713851e+000 6.795124e-001 -1.281056e+001 183 103 96
2.514169e+000 1.610710e-003 -1.327979e+001 98 40 38
2.403448e+000 -2.035909e-001 -1.313133e+001 94 35 27
4.768558e+000 -3.801005e-001 -1.328367e+001 108 80 52
2.242934e+000 -4.934444e-001 -1.323760e+001 106 41 39
3.711727e+000 -7.553356e-001 -1.354151e+001 44 28 12
1.946080e+000 -7.751794e-001 -1.307178e+001 159 114 94
3.532073e+000 -1.317056e+000 -1.400000e+001 51 39 22
4.175308e+000 -1.459414e+000 -1.443887e+001 73 51 30
5.636959e+000 3.004333e+000 -1.340368e+001 183 140 101
3.656990e+000 2.394479e+000 -1.261781e+001 75 62 46
3.413964e+000 2.010612e+000 -1.222969e+001 71 58 41
3.729711e+000 2.026690e+000 -1.231963e+001 87 70 45
3.561163e+000 1.738553e+000 -1.222963e+001 75 62 40
5.096556e+000 8.211616e-001 -1.203620e+001 73 42 20
5.094096e+000 -4.512549e-001 -1.337745e+001 104 74 48
2.906641e+000 -6.223341e-001 -1.293232e+001 72 67 48
5.926528e+000 -8.101615e-001 -1.393762e+001 99 68 38
2.462451e+000 -1.189685e+000 -1.377397e+001 173 114 108
2.336306e+000 -1.309142e+000 -1.408789e+001 97 32 36
3.121893e+000 3.168627e+000 -1.356133e+001 97 76 57
4.496383e+000 2.565028e+000 -1.307759e+001 106 76 47
4.672913e+000 6.541887e-001 -1.207902e+001 82 54 32
2.918800e+000 6.149296e-001 -1.204049e+001 184 155 119
4.748954e+000 3.744704e-001 -1.223082e+001 112 82 55
1.358744e+000 1.458938e-001 -1.316052e+001 191 135 112
1.787929e+000 -2.907253e-002 -1.311192e+001 130 62 53
3.859781e+000 -9.503826e-001 -1.368326e+001 127 101 76
3.859781e+000 -9.503826e-001 -1.368326e+001 127 101 76
4.061144e+000 -1.043189e+000 -1.382491e+001 66 43 27
5.597477e+000 -1.870604e+000 -1.526621e+001 131 100 69
2.848774e+000 -4.933434e-001 -1.302427e+001 55 41 27
-4.998710e-001 -1.221325e+000 -1.365816e+001 93 67 54
5.466438e+000 2.927671e+000 -1.353166e+001 98 65 30
5.339401e+000 1.829752e+000 -1.264699e+001 152 109 74
2.726156e+000 2.676627e-001 -1.237159e+001 199 161 114
3.012355e+000 8.957002e-001 -1.215576e+001 56 48 28
5.650120e+000 -2.432992e+000 -1.560272e+001 164 135 91
5.370637e+000 -2.747358e-001 -1.325249e+001 77 51 31
5.623775e+000 1.855304e+000 -1.290389e+001 121 82 47
3.078224e+000 3.066098e+000 -1.316945e+001 73 58 36
3.746882e+000 3.214470e+000 -1.361162e+001 172 146 116
3.040361e+000 3.030521e+000 -1.317829e+001 77 51 36
3.557500e+000 2.896132e+000 -1.302556e+001 65 51 32
4.473774e+000 3.054193e+000 -1.339802e+001 106 71 41
2.884734e+000 2.779397e+000 -1.292592e+001 204 171 138
5.116698e+000 2.864086e+000 -1.333814e+001 137 101 69
6.014986e+000 2.921142e+000 -1.361655e+001 146 102 67
2.766778e+000 2.610251e+000 -1.284041e+001 161 134 103
2.770980e+000 2.545033e+000 -1.270853e+001 78 67 35
3.056479e+000 2.513160e+000 -1.267700e+001 145 113 80
3.230693e+000 2.387974e+000 -1.261933e+001 69 53 29
4.389995e+000 2.546182e+000 -1.299290e+001 88 56 34
2.771566e+000 2.362968e+000 -1.272891e+001 90 75 45
3.727802e+000 2.350462e+000 -1.268141e+001 70 53 33
5.377842e+000 2.431779e+000 -1.307379e+001 117 82 54
3.007086e+000 2.121963e+000 -1.238851e+001 209 175 139
3.344377e+000 2.142150e+000 -1.240463e+001 120 103 77
3.495937e+000 2.201795e+000 -1.259567e+001 37 23 12
3.640048e+000 2.168551e+000 -1.247667e+001 136 114 81
3.641338e+000 2.169282e+000 -1.247968e+001 136 114 81
4.806266e+000 2.057903e+000 -1.266031e+001 97 63 35
2.316248e+000 2.174398e+000 -1.402468e+001 198 159 126
2.591959e+000 2.033427e+000 -1.305980e+001 65 59 31
3.034820e+000 1.926529e+000 -1.228751e+001 138 104 69
3.090721e+000 1.841008e+000 -1.212326e+001 229 196 162
3.634158e+000 1.920684e+000 -1.227277e+001 84 62 40
2.189033e+000 2.070516e+000 -1.410550e+001 145 105 69
2.361574e+000 1.853456e+000 -1.339117e+001 93 73 39
3.439142e+000 1.681947e+000 -1.205276e+001 64 47 26
3.720263e+000 1.789686e+000 -1.218419e+001 176 150 105
3.791875e+000 1.652013e+000 -1.203293e+001 67 49 29
4.021924e+000 1.830176e+000 -1.241381e+001 139 108 79
4.520695e+000 1.775723e+000 -1.239121e+001 98 64 37
6.189872e+000 1.725454e+000 -1.277280e+001 95 62 29
2.397051e+000 1.629068e+000 -1.321331e+001 160 116 79
3.062812e+000 1.465754e+000 -1.206298e+001 124 95 71
3.305942e+000 1.362006e+000 -1.180549e+001 169 129 94
3.506586e+000 1.353786e+000 -1.177028e+001 151 129 101
3.482534e+000 1.335333e+000 -1.178049e+001 70 55 29
3.601280e+000 1.336015e+000 -1.184532e+001 79 64 41
3.794647e+000 1.308706e+000 -1.174482e+001 159 136 108
3.030388e+000 1.221761e+000 -1.211149e+001 128 93 65
3.758064e+000 1.122825e+000 -1.174407e+001 146 129 102
3.758064e+000 1.122825e+000 -1.174407e+001 146 129 102
2.900471e+000 1.144348e+000 -1.238981e+001 182 144 111
2.984620e+000 1.084525e+000 -1.182802e+001 105 94 71
2.983518e+000 1.028035e+000 -1.197824e+001 102 95 67
3.002653e+000 9.977132e-001 -1.178002e+001 97 90 62
3.002653e+000 9.977132e-001 -1.178002e+001 97 90 62
3.463517e+000 9.770958e-001 -1.165828e+001 75 53 32
3.575744e+000 1.084656e+000 -1.163749e+001 40 27 12
2.913113e+000 9.524739e-001 -1.215370e+001 139 111 83
3.483724e+000 9.528715e-001 -1.167270e+001 225 198 144
3.498723e+000 9.330249e-001 -1.165155e+001 58 39 23
2.938298e+000 7.823688e-001 -1.206281e+001 85 69 47
3.238444e+000 7.095154e-001 -1.166155e+001 124 93 64
3.538148e+000 7.133302e-001 -1.166039e+001 58 42 27
3.580916e+000 6.520701e-001 -1.166602e+001 116 99 81
3.628180e+000 6.433715e-001 -1.174564e+001 46 31 15
3.751709e+000 3.955712e-001 -1.180366e+001 57 47 33
3.492855e+000 3.326388e-001 -1.186494e+001 78 62 46
4.772266e+000 2.646234e-001 -1.242150e+001 101 77 51
3.393853e+000 4.792626e-002 -1.248081e+001 50 34 21
3.448529e+000 -1.018472e-001 -1.267738e+001 40 28 16
4.355757e+000 -9.409744e-002 -1.283521e+001 51 28 11
1.665379e+000 -2.476779e-001 -1.294833e+001 134 67 51
2.569688e+000 -2.242528e-001 -1.332370e+001 94 40 28
2.842933e+000 -1.944670e-001 -1.280345e+001 54 38 23
3.380866e+000 -2.393124e-001 -1.278815e+001 113 95 68
5.148123e+000 -3.864526e-001 -1.337557e+001 102 80 58
3.322929e+000 -4.023344e-001 -1.295717e+001 43 30 13
4.297063e+000 -5.602510e-001 -1.344931e+001 61 36 14
4.297063e+000 -5.602510e-001 -1.344931e+001 61 36 14
-1.177239e+000 -5.556511e-001 -1.377417e+001 145 106 77
3.057372e+000 -6.470940e-001 -1.297986e+001 151 124 97
3.318729e+000 -5.342515e-001 -1.312437e+001 41 28 14
3.381183e+000 -5.627908e-001 -1.317499e+001 37 24 12
3.411379e+000 -5.770813e-001 -1.319170e+001 102 88 64
4.916128e+000 -7.323710e-001 -1.368023e+001 61 36 14
4.959089e+000 -8.370794e-001 -1.380211e+001 60 34 12
4.931135e+000 -8.965941e-001 -1.384711e+001 63 38 17
2.152815e+000 -1.100918e+000 -1.349715e+001 163 102 97
2.931108e+000 -9.492977e-001 -1.324057e+001 122 88 61
3.220780e+000 -1.099934e+000 -1.366401e+001 49 37 20
3.227727e+000 -1.060180e+000 -1.362902e+001 52 40 18
4.315399e+000 -1.021473e+000 -1.392520e+001 67 45 24
2.638488e+000 -1.310621e+000 -1.377979e+001 54 45 28
2.611620e+000 -1.406149e+000 -1.412044e+001 110 40 39
3.160457e+000 -1.322363e+000 -1.390736e+001 62 47 25
3.193738e+000 -1.192740e+000 -1.377131e+001 63 47 31
3.433921e+000 -1.235390e+000 -1.393027e+001 78 62 44
3.429777e+000 -1.306347e+000 -1.406327e+001 71 56 36
3.487577e+000 -1.262570e+000 -1.392773e+001 40 24 9
2.387209e+000 -1.762161e+000 -1.458944e+001 119 68 49
4.525828e+000 -1.937550e+000 -1.495534e+001 81 54 35
6.112901e+000 -1.811349e+000 -1.304654e+001 113 85 45
2.681777e+000 2.925414e+000 -1.334104e+001 80 72 44
2.935615e+000 2.927128e+000 -1.294782e+001 144 107 80
3.468968e+000 2.972861e+000 -1.315954e+001 82 66 44
4.268686e+000 3.046921e+000 -1.334169e+001 168 132 98
4.705174e+000 3.041589e+000 -1.342746e+001 100 64 30
4.633426e+000 2.981974e+000 -1.336362e+001 100 63 34
5.156114e+000 3.008254e+000 -1.348135e+001 104 65 32
5.964371e+000 3.072849e+000 -1.378454e+001 125 86 45
2.863930e+000 2.803892e+000 -1.305499e+001 145 112 84
2.924432e+000 2.630238e+000 -1.277761e+001 233 201 168
3.481542e+000 2.701083e+000 -1.287153e+001 78 62 47
2.886586e+000 2.426961e+000 -1.262133e+001 138 108 70
3.663013e+000 2.583989e+000 -1.279190e+001 66 49 29
3.576141e+000 2.408665e+000 -1.267203e+001 62 44 22
3.704399e+000 2.405006e+000 -1.267857e+001 63 48 29
4.401713e+000 2.572654e+000 -1.293270e+001 116 84 59
4.299098e+000 2.445826e+000 -1.290199e+001 84 54 31
3.516575e+000 2.057937e+000 -1.246252e+001 28 16 2
3.795608e+000 2.020674e+000 -1.241920e+001 81 60 39
4.956050e+000 2.210614e+000 -1.281646e+001 90 55 29
5.300636e+000 2.126494e+000 -1.289210e+001 111 75 41
3.061905e+000 1.861658e+000 -1.216991e+001 186 154 116
3.228152e+000 1.845804e+000 -1.216117e+001 55 38 20
3.303449e+000 1.971367e+000 -1.223172e+001 33 28 18
3.430889e+000 1.774334e+000 -1.197468e+001 66 51 32
3.817420e+000 1.922400e+000 -1.234208e+001 77 57 33
1.979878e+000 2.188380e+000 -1.437143e+001 216 203 188
2.312168e+000 2.013679e+000 -1.372395e+001 172 147 112
3.113182e+000 1.711568e+000 -1.198707e+001 189 157 119
3.299938e+000 1.547764e+000 -1.187365e+001 53 36 22
3.430940e+000 1.496919e+000 -1.182917e+001 80 59 35
3.746106e+000 1.498362e+000 -1.193345e+001 69 52 31
4.433752e+000 1.595679e+000 -1.215463e+001 148 113 81
2.230102e+000 1.597727e+000 -1.334186e+001 179 114 87
3.252093e+000 1.357537e+000 -1.170370e+001 115 77 40
3.317319e+000 1.164420e+000 -1.158163e+001 143 105 69
3.659621e+000 1.177512e+000 -1.175732e+001 57 46 27
5.636299e+000 1.290778e+000 -1.216820e+001 101 64 32
5.636299e+000 1.290778e+000 -1.216820e+001 101 64 32
2.800684e+000 1.068188e+000 -1.246893e+001 131 88 53
3.051915e+000 1.125249e+000 -1.190916e+001 139 103 71
3.026057e+000 1.026535e+000 -1.167606e+001 128 114 87
3.841652e+000 1.029088e+000 -1.170548e+001 63 46 26
5.593658e+000 1.104185e+000 -1.212446e+001 88 53 26
2.740928e+000 1.022412e+000 -1.256305e+001 161 117 78
2.820664e+000 9.821829e-001 -1.232201e+001 153 111 73
2.993464e+000 8.612287e-001 -1.185972e+001 111 101 75
4.428721e+000 8.377732e-001 -1.191535e+001 70 39 18
1.584385e+000 8.191587e-001 -1.303798e+001 175 98 86
2.501107e+000 8.703910e-001 -1.268222e+001 175 109 93
2.815074e+000 5.541482e-001 -1.238018e+001 135 94 45
3.192649e+000 5.574835e-001 -1.186085e+001 117 84 58
3.228789e+000 6.718987e-001 -1.167865e+001 156 124 95
3.265473e+000 6.679930e-001 -1.164276e+001 155 124 93
3.817018e+000 6.106034e-001 -1.182944e+001 39 25 19
5.740874e+000 5.969586e-001 -1.229525e+001 64 35 11
2.574953e+000 5.244099e-001 -1.272089e+001 95 56 40
3.185125e+000 3.941257e-001 -1.194663e+001 166 131 100
3.372019e+000 4.778728e-001 -1.191554e+001 107 73 46
3.690866e+000 4.273916e-001 -1.184007e+001 62 50 34
3.765881e+000 4.307527e-001 -1.184792e+001 23 14 6
3.054642e+000 3.312895e-001 -1.218718e+001 151 112 80
3.658184e+000 3.273791e-001 -1.173330e+001 67 56 39
3.781772e+000 3.034772e-001 -1.175612e+001 81 66 45
4.197309e+000 2.750600e-001 -1.219028e+001 61 40 23
1.381366e+000 4.799048e-002 -1.309713e+001 159 98 83
3.781882e+000 1.240071e-001 -1.173513e+001 79 63 47
5.574242e+000 1.401626e-001 -1.286619e+001 72 46 23
3.210193e+000 -5.412938e-002 -1.243029e+001 115 81 54
3.301343e+000 -6.341787e-002 -1.255283e+001 49 36 18
4.616643e+000 -1.644939e-003 -1.284939e+001 68 41 22
5.092680e+000 -7.825840e-002 -1.303095e+001 93 69 44
5.092680e+000 -7.825840e-002 -1.303095e+001 93 69 44
5.465546e+000 -1.971441e-001 -1.324380e+001 63 38 17
1.598994e+000 -1.639335e-001 -1.301969e+001 195 132 115
3.185064e+000 -2.670286e-001 -1.269215e+001 91 66 39
3.395797e+000 -1.587374e-001 -1.278941e+001 74 63 45
4.246185e+000 -3.532900e-001 -1.316373e+001 56 38 18
2.599314e+000 -4.354350e-001 -1.329796e+001 115 60 46
2.771289e+000 -4.609127e-001 -1.322325e+001 53 41 25
2.741553e+000 -7.257898e-001 -1.328500e+001 119 81 45
2.955423e+000 -5.594692e-001 -1.281261e+001 54 42 20
3.601368e+000 -5.747268e-001 -1.316127e+001 61 46 27
3.669841e+000 -5.534744e-001 -1.313727e+001 37 24 13
3.646344e+000 -6.580135e-001 -1.317454e+001 89 71 50
4.874071e+000 -7.995206e-001 -1.371978e+001 50 28 6
2.783105e+000 -7.149160e-001 -1.295683e+001 162 129 94
3.300702e+000 -8.079919e-001 -1.338681e+001 80 68 48
3.292891e+000 -8.609446e-001 -1.340866e+001 43 30 13
2.094161e+000 -9.060869e-001 -1.312862e+001 115 66 52
2.017837e+000 -1.086657e+000 -1.363828e+001 159 106 92
3.306518e+000 -1.046075e+000 -1.361516e+001 37 27 17
3.213432e+000 -1.146679e+000 -1.372794e+001 47 33 18
4.513294e+000 -1.009616e+000 -1.385114e+001 88 66 47
5.033013e+000 -1.110438e+000 -1.430065e+001 72 47 25
5.033013e+000 -1.110438e+000 -1.430065e+001 72 47 25
-4.857382e-001 -1.123603e+000 -1.364468e+001 97 64 45
3.195348e+000 -1.282693e+000 -1.390804e+001 51 38 24
3.431096e+000 -1.614823e+000 -1.441163e+001 156 136 112
3.431096e+000 -1.614823e+000 -1.441163e+001 156 136 112
2.265210e+000 -1.714963e+000 -1.436253e+001 167 108 100
2.534780e+000 -1.951193e+000 -1.471275e+001 146 105 77
2.622614e+000 -1.910943e+000 -1.456256e+001 143 99 72
-1.274414e+000 -1.907671e+000 -1.399695e+001 149 78 84
2.495442e+000 -1.996092e+000 -1.480106e+001 182 141 109
2.591695e+000 -2.028387e+000 -1.456002e+001 152 113 82
2.899439e+000 3.139866e+000 -1.325662e+001 164 132 101
3.405167e+000 3.221728e+000 -1.344782e+001 162 141 116
2.647058e+000 3.005232e+000 -1.337113e+001 91 83 54
2.827237e+000 2.818260e+000 -1.316085e+001 176 145 116
2.880671e+000 2.637429e+000 -1.276041e+001 137 105 73
3.642759e+000 2.797747e+000 -1.298859e+001 74 58 35
3.649700e+000 2.671121e+000 -1.285648e+001 74 59 40
2.689322e+000 2.498848e+000 -1.300898e+001 188 157 123
2.921054e+000 2.463029e+000 -1.265771e+001 247 219 184
4.538232e+000 2.483966e+000 -1.297791e+001 118 89 59
4.739468e+000 2.640435e+000 -1.309961e+001 124 89 62
5.437537e+000 2.582933e+000 -1.316440e+001 97 63 36
2.940247e+000 2.348425e+000 -1.264662e+001 126 93 61
3.046426e+000 2.158174e+000 -1.245335e+001 120 81 50
3.103990e+000 1.970329e+000 -1.218484e+001 128 93 61
3.357240e+000 2.086606e+000 -1.238401e+001 134 114 78
3.212401e+000 1.982824e+000 -1.236694e+001 56 34 21
3.693848e+000 1.913953e+000 -1.230381e+001 150 126 88
3.756444e+000 1.799953e+000 -1.214994e+001 67 50 30
5.501794e+000 1.973374e+000 -1.270746e+001 111 72 39
2.306159e+000 1.931378e+000 -1.352267e+001 73 65 26
3.142975e+000 1.634478e+000 -1.190605e+001 216 180 145
3.144679e+000 1.636497e+000 -1.191718e+001 216 180 145
3.488799e+000 1.634992e+000 -1.197454e+001 62 46 28
4.576574e+000 1.711923e+000 -1.229337e+001 123 89 61
2.175710e+000 1.728491e+000 -1.377306e+001 194 157 121
3.294170e+000 1.511078e+000 -1.191212e+001 144 110 69
4.774795e+000 1.531501e+000 -1.221152e+001 140 104 70
3.317210e+000 1.307247e+000 -1.172595e+001 143 104 68
3.454692e+000 1.422481e+000 -1.175442e+001 77 61 38
3.769786e+000 1.422038e+000 -1.186174e+001 81 63 43
3.049878e+000 1.178538e+000 -1.204575e+001 175 137 106
3.005091e+000 1.045562e+000 -1.182277e+001 65 59 34
3.873605e+000 1.001939e+000 -1.168151e+001 138 120 96
3.873605e+000 1.001939e+000 -1.168151e+001 138 120 96
1.819299e+000 1.016448e+000 -1.298605e+001 210 132 124
3.028089e+000 8.426028e-001 -1.179854e+001 71 60 38
3.028089e+000 8.426028e-001 -1.179854e+001 71 60 38
3.489480e+000 8.259290e-001 -1.165941e+001 38 24 13
3.644665e+000 9.061970e-001 -1.168156e+001 66 49 32
1.633345e+000 8.939935e-001 -1.314360e+001 164 94 80
3.291622e+000 7.869310e-001 -1.150936e+001 125 91 64
3.482373e+000 7.384678e-001 -1.165143e+001 61 44 24
3.989203e+000 7.740699e-001 -1.181931e+001 60 40 16
3.651361e+000 5.445255e-001 -1.173920e+001 67 53 36
3.849933e+000 6.131738e-001 -1.179571e+001 114 94 68
5.279593e+000 5.116907e-001 -1.225437e+001 61 34 15
5.847341e+000 3.891499e-001 -1.255079e+001 79 48 20
2.609295e+000 3.521155e-001 -1.266450e+001 179 140 109
3.205927e+000 3.310814e-001 -1.191981e+001 195 161 129
3.822515e+000 2.917094e-001 -1.176419e+001 38 25 14
4.540682e+000 3.383482e-001 -1.233330e+001 70 48 25
5.558074e+000 2.656343e-001 -1.264594e+001 76 51 28
3.195308e+000 8.838919e-002 -1.226685e+001 213 182 153
3.272114e+000 1.993177e-001 -1.215992e+001 114 83 55
5.251020e+000 1.630661e-001 -1.263241e+001 87 65 41
5.372348e+000 1.510424e-001 -1.280260e+001 65 42 20
5.372348e+000 1.510424e-001 -1.280260e+001 65 42 20
5.624710e+000 1.063424e-001 -1.291936e+001 94 68 44
1.556946e+000 -1.541122e-002 -1.298105e+001 189 124 112
5.644897e+000 -1.982761e-001 -1.336620e+001 57 31 14
5.502239e+000 -3.877340e-001 -1.345872e+001 64 42 19
2.776006e+000 -3.651457e-001 -1.307520e+001 36 27 12
5.357087e+000 -5.252046e-001 -1.355634e+001 63 36 17
5.479508e+000 -4.325470e-001 -1.350232e+001 91 66 44
-1.458177e+000 -5.955980e-001 -1.387183e+001 178 137 110
5.024816e+000 -7.132207e-001 -1.369100e+001 70 43 22
-7.347864e-001 -7.170444e-001 -1.354954e+001 156 115 90
3.069988e+000 -8.720849e-001 -1.327790e+001 111 77 50
4.854133e+000 -1.039371e+000 -1.407854e+001 61 39 18
4.858880e+000 -1.041648e+000 -1.409669e+001 61 39 18
2.794694e+000 -9.793018e-001 -1.329321e+001 145 114 90
4.484300e+000 -1.182381e+000 -1.414942e+001 97 71 51
4.739593e+000 -1.029160e+000 -1.398616e+001 73 52 30
4.945480e+000 -1.106462e+000 -1.419889e+001 96 72 48
2.526168e+000 -1.188254e+000 -1.373434e+001 122 53 56
4.825773e+000 -1.457203e+000 -1.462116e+001 73 49 25
2.077054e+000 -1.412979e+000 -1.380965e+001 168 115 101
2.520087e+000 -1.690780e+000 -1.455960e+001 163 110 92
2.746573e+000 -1.356598e+000 -1.374038e+001 100 82 63
5.298445e+000 -1.750808e+000 -1.504204e+001 92 68 44
2.801504e+000 -1.935431e+000 -1.450237e+001 203 172 144
4.638323e+000 -2.115456e+000 -1.526205e+001 79 54 32
2.748609e+000 -2.239321e+000 -1.483671e+001 200 168 140
3.005979e+000 3.220379e+000 -1.339148e+001 218 201 183
3.686885e+000 3.237207e+000 -1.366493e+001 214 198 179
5.481876e+000 3.108221e+000 -1.373523e+001 135 97 61
2.591326e+000 2.883603e+000 -1.342212e+001 57 49 26
2.825229e+000 2.667103e+000 -1.288327e+001 167 137 108
4.884154e+000 2.717609e+000 -1.317013e+001 101 67 40
5.293550e+000 2.833435e+000 -1.337049e+001 125 90 60
2.564316e+000 2.735121e+000 -1.345023e+001 90 80 55
2.970037e+000 2.297094e+000 -1.252107e+001 214 180 144
4.177355e+000 2.363872e+000 -1.283407e+001 81 53 29
2.946941e+000 2.075529e+000 -1.268260e+001 157 126 98
3.330071e+000 1.925434e+000 -1.219384e+001 40 27 18
4.332457e+000 1.959751e+000 -1.253325e+001 114 80 53
4.643509e+000 1.848030e+000 -1.248028e+001 130 95 66
2.213504e+000 2.155551e+000 -1.423400e+001 191 151 117
2.952775e+000 1.748296e+000 -1.227186e+001 82 70 42
3.034525e+000 1.773506e+000 -1.214287e+001 139 105 72
3.176325e+000 1.713334e+000 -1.198123e+001 136 98 61
1.921641e+000 1.903754e+000 -1.433070e+001 201 159 109
3.819335e+000 1.157683e+000 -1.164374e+001 128 110 80
2.553134e+000 7.788915e-001 -1.248025e+001 191 154 115
3.222486e+000 7.203762e-001 -1.172102e+001 112 82 57
3.362484e+000 6.667832e-001 -1.161573e+001 107 76 47
3.836418e+000 5.655115e-001 -1.183445e+001 36 23 14
3.366978e+000 5.155003e-001 -1.178540e+001 33 20 12
3.709137e+000 3.354365e-001 -1.176843e+001 34 23 17
5.595299e+000 1.559213e-001 -1.276299e+001 64 42 19
4.473708e-001 -2.277862e-001 -1.359572e+001 201 160 122
2.838189e+000 -2.506968e-001 -1.267448e+001 81 73 52
2.838189e+000 -2.506968e-001 -1.267448e+001 81 73 52
5.569013e+000 -3.957836e-001 -1.346948e+001 96 72 48
2.299501e+000 -4.074042e-001 -1.321632e+001 149 75 76
3.689148e+000 -3.712234e-001 -1.296454e+001 39 24 11
5.315196e+000 -4.157962e-001 -1.342201e+001 68 43 21
5.316185e+000 -4.159684e-001 -1.342468e+001 68 43 21
5.693381e+000 -5.942444e-001 -1.373723e+001 89 59 33
2.931014e+000 -6.181410e-001 -1.290369e+001 56 49 32
4.947986e+000 -6.845561e-001 -1.367244e+001 101 74 49
-1.266812e+000 -8.944370e-001 -1.359564e+001 157 113 84
1.786642e+000 -7.015868e-001 -1.302809e+001 187 135 117
2.866785e+000 -8.571135e-001 -1.312472e+001 130 95 67
2.988044e+000 -1.028242e+000 -1.343144e+001 164 134 108
3.968348e+000 -1.105936e+000 -1.385400e+001 68 42 25
3.571095e+000 -1.191577e+000 -1.386153e+001 47 33 19
3.662656e+000 -1.414893e+000 -1.427720e+001 121 96 76
2.609595e+000 -1.608634e+000 -1.443921e+001 174 128 104
5.195870e+000 -1.729725e+000 -1.493294e+001 69 44 22
2.767907e+000 -1.723071e+000 -1.445053e+001 134 94 69
2.773184e+000 -1.921014e+000 -1.472245e+001 138 99 73
3.616839e+000 -2.076351e+000 -1.492536e+001 98 72 53
4.400361e+000 -2.123053e+000 -1.522650e+001 74 49 27
2.867971e+000 2.981303e+000 -1.304727e+001 242 209 176
3.985352e+000 3.116646e+000 -1.350029e+001 125 90 60
5.096720e+000 3.086891e+000 -1.358149e+001 168 126 88
5.462056e+000 3.078027e+000 -1.348835e+001 134 95 59
5.354822e+000 2.492381e+000 -1.317570e+001 86 55 26
2.510017e+000 2.419340e+000 -1.335834e+001 128 112 78
4.146114e+000 1.998913e+000 -1.254725e+001 79 51 29
3.313537e+000 1.688554e+000 -1.209683e+001 77 61 38
2.414493e+000 1.562970e+000 -1.313487e+001 192 148 111
4.941542e+000 1.420644e+000 -1.213848e+001 95 60 28
3.067469e+000 1.245541e+000 -1.214789e+001 118 82 56
2.747935e+000 1.098344e+000 -1.251415e+001 168 122 79
1.899100e+000 1.056366e+000 -1.303209e+001 184 98 93
6.124771e+000 9.635365e-001 -1.227217e+001 131 93 57
3.543647e+000 7.744722e-001 -1.170892e+001 134 112 76
3.433158e+000 5.828997e-001 -1.175227e+001 52 38 24
3.703737e+000 4.034394e-001 -1.187946e+001 62 48 31
4.597077e+000 4.943231e-001 -1.212743e+001 71 44 23
4.142445e+000 3.046382e-001 -1.215406e+001 105 85 63
2.822417e+000 1.083266e-001 -1.254202e+001 93 62 42
3.611578e+000 -2.779180e-001 -1.297752e+001 79 68 47
2.509415e+000 -4.525390e-001 -1.337714e+001 105 45 36
4.422172e+000 -5.362646e-001 -1.338133e+001 80 52 30
1.992568e+000 -5.786581e-001 -1.314001e+001 100 26 29
4.311161e+000 -8.930445e-001 -1.372179e+001 69 45 27
-2.852136e-001 -1.018472e+000 -1.364876e+001 85 50 37
3.412427e+000 -9.777671e-001 -1.364973e+001 23 14 11
2.211472e+000 -1.340520e+000 -1.373880e+001 171 124 109
2.210649e+000 -1.338791e+000 -1.372753e+001 171 124 109
2.919336e+000 -1.167092e+000 -1.363490e+001 85 58 37
2.966133e+000 -1.268104e+000 -1.368825e+001 118 95 72
2.503893e+000 -1.646345e+000 -1.468027e+001 109 42 40
3.629420e+000 -1.547159e+000 -1.439517e+001 126 100 79
5.041028e+000 -2.264388e+000 -1.554005e+001 93 63 39
2.931878e+000 2.784566e+000 -1.282394e+001 196 163 130
2.564726e+000 2.837981e+000 -1.362352e+001 114 103 75
2.947834e+000 2.652285e+000 -1.274909e+001 199 166 131
3.124278e+000 2.359539e+000 -1.258996e+001 43 29 20
4.984393e+000 2.127883e+000 -1.282841e+001 132 98 70
2.624570e+000 1.999728e+000 -1.305425e+001 75 67 44
2.099714e+000 2.167122e+000 -1.437231e+001 157 109 69
2.060568e+000 1.922711e+000 -1.420010e+001 47 28 23
4.215952e+000 1.627651e+000 -1.215760e+001 95 63 40
2.049575e+000 1.736524e+000 -1.397417e+001 195 155 119
3.905033e+000 1.207145e+000 -1.171255e+001 45 32 16
3.952275e+000 9.807052e-001 -1.169980e+001 67 49 25
2.015917e+000 1.069924e+000 -1.292301e+001 209 141 128
3.069130e+000 5.652352e-001 -1.212222e+001 134 91 61
4.166271e+000 4.443836e-001 -1.200402e+001 118 92 67
5.948768e+000 4.198045e-001 -1.252648e+001 121 90 62
4.225031e+000 2.291382e-001 -1.230595e+001 60 39 20
3.542268e+000 3.506844e-002 -1.255530e+001 20 12 12
2.911186e+000 -1.310417e-001 -1.281385e+001 116 85 60
2.862258e+000 -3.592734e-001 -1.280970e+001 77 70 47
-1.086061e+000 -6.040373e-001 -1.372186e+001 135 94 66
4.971911e+000 -6.227820e-001 -1.364049e+001 107 77 51
5.208390e+000 -1.177280e+000 -1.440646e+001 74 49 27
3.020134e+000 -1.605744e+000 -1.427733e+001 43 32 20
3.993356e+000 -1.556344e+000 -1.439531e+001 104 76 54
2.482092e+000 -1.752498e+000 -1.463016e+001 160 114 92
2.990824e+000 -1.751383e+000 -1.444812e+001 46 36 25
4.089718e+000 -2.280959e+000 -1.528716e+001 88 63 41
4.973402e+000 -2.357490e+000 -1.549342e+001 187 156 110
5.448030e+000 -2.492961e+000 -1.599413e+001 160 131 92
3.536740e+000 2.973993e+000 -1.303104e+001 75 61 42
3.096501e+000 2.590419e+000 -1.275899e+001 50 36 22
3.503736e+000 2.447547e+000 -1.266325e+001 106 83 58
4.714489e+000 2.200100e+000 -1.279917e+001 147 112 79
4.714489e+000 2.200100e+000 -1.279917e+001 147 112 79
2.312170e+000 1.881849e+000 -1.347659e+001 101 83 50
2.312170e+000 1.881849e+000 -1.347659e+001 101 83 50
3.787628e+000 1.767037e+000 -1.209713e+001 82 64 40
2.720867e+000 1.580580e+000 -1.256555e+001 198 159 116
6.123768e+000 1.525861e+000 -1.222506e+001 164 121 67
3.339976e+000 1.384511e+000 -1.175553e+001 54 32 18
4.394223e+000 1.406185e+000 -1.201722e+001 127 95 65
3.910923e+000 1.208612e+000 -1.172170e+001 44 30 13
3.580593e+000 6.388896e-001 -1.175614e+001 63 48 25
4.048957e+000 5.334601e-001 -1.201081e+001 104 79 58
4.688790e+000 2.148938e-001 -1.223535e+001 80 55 33
1.937310e+000 -1.958530e-001 -1.297629e+001 167 97 91
3.731606e+000 -3.825707e-001 -1.306611e+001 60 44 29
5.614931e+000 -7.092958e-001 -1.377266e+001 74 48 25
3.336295e+000 2.532995e+000 -1.267859e+001 61 49 32
3.643360e+000 2.592268e+000 -1.282617e+001 77 57 42
3.402062e+000 2.224628e+000 -1.246395e+001 57 43 29
3.510167e+000 1.895030e+000 -1.228617e+001 64 48 31
2.442783e+000 1.977710e+000 -1.356178e+001 77 65 39
4.369442e+000 1.797592e+000 -1.242446e+001 130 99 70
4.498329e+000 1.654145e+000 -1.226473e+001 127 92 64
4.251747e+000 1.505325e+000 -1.203643e+001 79 48 27
5.193673e+000 9.551550e-001 -1.206245e+001 70 39 18
3.705348e+000 7.389350e-001 -1.184632e+001 22 14 7
3.705348e+000 7.389350e-001 -1.184632e+001 22 14 7
5.889457e+000 2.610135e-002 -1.303118e+001 115 87 57
2.822341e+000 -4.913849e-001 -1.309117e+001 43 34 21
5.071805e+000 -1.286091e+000 -1.438934e+001 111 85 58
5.762662e+000 -2.056003e+000 -1.540951e+001 108 78 43
4.771769e+000 1.552910e+000 -1.214693e+001 143 107 71
3.924170e+000 8.586772e-001 -1.169151e+001 52 33 16
5.566058e+000 6.509079e-001 -1.217013e+001 90 58 33
4.748954e+000 3.744704e-001 -1.223082e+001 112 82 55
5.260772e+000 1.561477e-001 -1.264823e+001 88 65 41
4.823625e+000 -2.570448e-002 -1.297218e+001 96 69 44
4.403842e+000 -2.238034e+000 -1.543304e+001 89 64 42
2.798795e+000 2.312585e+000 -1.295341e+001 56 45 25
5.051174e+000 1.317324e+000 -1.205979e+001 131 95 59
4.858463e+000 7.570959e-001 -1.202929e+001 120 85 57
4.858463e+000 7.570959e-001 -1.202929e+001 120 85 57
5.428144e+000 8.924478e-001 -1.205963e+001 111 75 43
2.641346e+000 1.656898e+000 -1.307089e+001 187 144 99
4.473957e+000 3.211402e-001 -1.246869e+001 62 40 22
2.907968e+000 -8.372951e-001 -1.317340e+001 131 97 67
-2.404540e-001 -1.236891e+000 -1.426797e+001 63 42 37
4.209690e+000 -2.119799e+000 -1.538381e+001 74 49 29
3.368158e+000 2.815258e+000 -1.315824e+001 69 56 38
2.899309e+000 3.540175e-001 -1.200466e+001 177 138 98
-2.164979e-001 -1.041791e+000 -1.207515e+001 85 54 41
3.691364e+000 2.939048e+000 -1.320513e+001 129 105 80
5.301244e+000 3.097738e+000 -1.363240e+001 98 59 25
2.919369e+000 2.766813e+000 -1.290695e+001 166 134 98
2.774767e+000 2.556178e+000 -1.275848e+001 78 67 35
2.842275e+000 2.450715e+000 -1.266781e+001 173 140 108
3.354938e+000 2.416429e+000 -1.273358e+001 50 40 20
3.879257e+000 2.450346e+000 -1.282952e+001 140 109 81
2.583229e+000 2.547747e+000 -1.335391e+001 157 122 85
3.547917e+000 2.337087e+000 -1.262897e+001 74 58 28
4.503202e+000 2.436538e+000 -1.295593e+001 85 55 29
5.262113e+000 2.416801e+000 -1.297868e+001 125 91 61
2.596516e+000 2.326519e+000 -1.320212e+001 189 159 126
3.512351e+000 2.141335e+000 -1.257180e+001 28 15 2
4.708523e+000 2.101105e+000 -1.264881e+001 125 92 59
4.708523e+000 2.101105e+000 -1.264881e+001 125 92 59
6.023999e+000 2.098883e+000 -1.299709e+001 114 85 65
3.020122e+000 1.890807e+000 -1.236600e+001 132 97 62
3.242314e+000 1.947475e+000 -1.238117e+001 62 41 22
3.242314e+000 1.947475e+000 -1.238117e+001 62 41 22
3.221280e+000 1.806189e+000 -1.213568e+001 143 113 74
4.012057e+000 1.886759e+000 -1.247377e+001 137 107 78
4.142845e+000 1.940159e+000 -1.239276e+001 100 74 47
5.261313e+000 1.831644e+000 -1.214603e+001 112 73 40
5.964734e+000 2.066079e+000 -1.293036e+001 118 84 57
3.943699e+000 1.790839e+000 -1.221894e+001 159 129 101
5.438688e+000 1.713374e+000 -1.243690e+001 150 110 75
4.508982e+000 1.462433e+000 -1.210637e+001 87 54 29
2.015922e+000 1.764358e+000 -1.416243e+001 206 167 128
2.570582e+000 1.448306e+000 -1.268720e+001 185 147 102
3.135167e+000 1.429984e+000 -1.176174e+001 175 141 106
3.432295e+000 1.338895e+000 -1.179777e+001 65 48 23
3.692165e+000 1.135480e+000 -1.184786e+001 54 42 29
2.417240e+000 1.119495e+000 -1.263598e+001 182 119 84
6.200833e+000 9.706962e-001 -1.231579e+001 76 42 14
6.296470e+000 8.383759e-001 -1.177494e+001 151 112 60
3.810633e+000 6.962642e-001 -1.169578e+001 57 38 24
