ply
format ascii 1.0
element face 0
property list uchar int vertex_indices
element vertex 869
property float x
property float y
property float z
property uchar diffuse_red
property uchar diffuse_green
property uchar diffuse_blue
end_header
-2.102719e-001 3.584330e-001 -7.404275e+000 126 114 102
-2.102719e-001 3.584330e-001 -7.404275e+000 126 114 102
4.438851e-001 5.713896e-001 -6.975043e+000 184 177 167
4.438851e-001 5.713896e-001 -6.975043e+000 184 177 167
-5.798019e-001 -2.082477e-001 -6.699862e+000 180 74 42
3.821265e-001 -3.018990e-001 -6.929143e+000 216 210 197
3.856376e-001 -5.339311e-001 -6.920984e+000 251 251 241
-1.340400e+000 -5.345596e+000 -1.028387e+001 19 9 10
-2.503124e-001 1.457508e-002 -7.792000e+000 89 8 9
-6.051710e-001 -2.833688e-001 -6.704464e+000 212 107 66
1.166134e+000 -4.154297e-002 -6.241791e+000 32 11 18
-1.424941e+000 -5.269028e+000 -1.022366e+001 62 51 49
4.480369e-001 1.191485e+000 -6.913511e+000 211 51 56
-2.051821e-001 5.118383e-001 -7.702146e+000 203 195 184
-2.639395e-001 1.208584e-001 -7.882347e+000 132 17 24
6.026157e-001 -8.092548e-001 -6.798578e+000 45 34 32
9.846376e-002 3.086570e-001 -7.087861e+000 132 117 106
-3.854059e+000 -7.481437e+000 -1.528144e+001 15 13 18
9.575202e-001 2.937437e-001 -6.419782e+000 226 61 70
1.801953e-001 -5.279656e-001 -6.973177e+000 71 45 31
1.782629e-001 -5.210879e-001 -6.966715e+000 71 45 31
9.314821e-001 -3.224435e-001 -6.368300e+000 199 176 122
-2.326965e-001 1.121219e+000 -7.647863e+000 201 50 57
1.984424e-001 6.226169e-001 -7.189384e+000 140 128 116
4.914824e-001 -3.987927e-001 -6.874366e+000 99 84 64
7.316013e-001 -2.666353e-001 -6.584619e+000 255 252 247
-3.541241e-001 -1.715866e-001 -7.074833e+000 120 52 33
1.462740e-001 1.053599e+000 -7.288954e+000 219 212 206
8.752584e-001 1.472013e-001 -6.459411e+000 225 214 208
6.690886e-002 1.174251e+000 -7.302402e+000 219 54 62
2.235624e-001 7.428214e-001 -7.206904e+000 200 193 185
6.253358e-002 6.281767e-001 -7.261792e+000 161 147 136
-1.551500e-001 1.839323e-001 -7.165217e+000 140 127 113
5.430235e-001 5.436038e-001 -6.832005e+000 140 128 115
-1.834979e-001 3.388231e-002 -6.960609e+000 125 111 102
-1.513630e-001 1.361105e-002 -6.898774e+000 135 120 112
-9.664005e-001 -3.039097e-001 -6.629435e+000 141 75 51
-3.501048e-001 -1.151411e-001 -6.829330e+000 93 35 28
-8.751361e-001 -2.516219e-001 -6.482402e+000 77 23 21
-8.057533e-001 -2.703655e-001 -6.520780e+000 114 28 9
-3.385664e-001 -4.339644e-001 -6.775791e+000 183 174 167
-1.745170e-002 -4.232073e-001 -6.907753e+000 196 180 165
5.173690e-001 -3.261001e-001 -6.774709e+000 161 145 128
-1.424388e-001 4.530719e-001 -7.482277e+000 164 153 143
4.644085e-002 6.690174e-001 -7.279194e+000 222 212 203
2.427108e-001 7.256773e-001 -7.184259e+000 190 181 172
-7.934316e-001 -1.965697e-001 -7.108738e+000 141 63 46
2.922809e-001 3.353050e-001 -7.041883e+000 162 150 138
7.884438e-001 5.189313e-001 -6.597186e+000 209 201 191
-1.749828e+000 -3.907204e+000 -1.068071e+001 29 25 26
-7.858767e-001 -3.615822e-001 -6.543564e+000 224 114 84
9.178459e-001 -7.307567e-001 -6.470354e+000 249 96 104
-2.342559e-001 9.983840e-001 -7.766178e+000 171 28 35
-2.993220e-001 -8.496058e-002 -6.860006e+000 84 20 11
-9.019723e-001 -3.586960e-001 -6.568747e+000 255 163 129
-3.272375e-001 -1.632078e-001 -6.738561e+000 116 44 32
-3.272375e-001 -1.632078e-001 -6.738561e+000 116 44 32
-1.711796e-001 -3.031184e-001 -6.888256e+000 240 231 226
-1.656749e-001 -2.116596e-001 -6.833534e+000 227 222 216
-7.332130e-002 -1.905557e-001 -6.822928e+000 253 248 242
2.016375e-001 -1.004823e-001 -6.841945e+000 221 214 206
8.901266e-001 6.171480e-001 -6.458867e+000 203 58 66
-4.322935e-001 -4.217072e-001 -6.669646e+000 198 194 187
-5.466795e-002 -5.221495e-001 -7.015531e+000 36 27 22
4.089659e-001 -6.941454e-001 -6.969604e+000 252 252 240
-2.538607e-002 1.310509e+000 -7.409247e+000 190 39 46
5.772826e-001 5.581218e-001 -6.806907e+000 171 159 145
7.151780e-001 5.962672e-001 -6.591185e+000 248 249 240
-4.022948e-001 -4.128807e-001 -6.686243e+000 222 213 207
8.126690e-001 4.419875e-001 -6.516721e+000 184 169 156
5.143254e-001 5.368487e-002 -6.682441e+000 191 181 168
4.449576e-001 -1.340062e-001 -6.710516e+000 217 210 200
6.011548e-001 -7.679515e-001 -6.782294e+000 56 42 40
6.011548e-001 -7.679515e-001 -6.782294e+000 56 42 40
-5.180480e-001 -3.477778e-002 -7.073150e+000 44 12 13
7.473671e-001 8.245798e-001 -6.608972e+000 88 7 15
-5.545376e-001 -3.787616e-001 -6.679711e+000 247 188 154
-7.568497e-002 -1.432151e-001 -6.809722e+000 239 232 229
-1.176279e-001 -3.378642e-001 -6.892143e+000 66 47 26
4.959981e-001 -1.406189e-001 -6.690016e+000 230 226 217
-4.676986e-001 8.441926e-001 -8.033325e+000 195 39 46
4.469813e-001 2.937386e-001 -7.005371e+000 141 129 119
8.128377e-001 7.149457e-001 -6.515260e+000 237 81 90
-8.619755e-001 -2.059930e-001 -6.493193e+000 74 22 10
-2.012235e-001 -1.086452e-001 -6.829039e+000 207 188 180
7.629125e-001 5.583410e-001 -6.580757e+000 253 253 251
-5.826032e-001 -3.716551e-001 -6.726075e+000 247 184 142
-4.180619e-001 -4.175344e-001 -6.691215e+000 190 178 171
-3.688918e-001 -3.498774e-001 -6.711257e+000 167 144 133
4.223760e-001 -4.148287e-001 -6.803141e+000 254 252 203
1.041954e+000 1.946348e-001 -6.327262e+000 207 45 57
-1.909473e-001 3.994755e-001 -7.549555e+000 133 121 109
3.183399e-001 4.687555e-001 -7.124463e+000 187 177 168
4.432971e-001 2.999004e-001 -6.997628e+000 141 130 119
7.177449e-001 7.545829e-001 -6.548053e+000 243 82 92
9.243084e-001 -5.595841e-001 -6.485398e+000 244 230 198
7.729114e-002 1.353089e+000 -7.350208e+000 14 3 9
-4.965906e-001 5.727740e-001 -8.049926e+000 188 177 168
-4.114003e-001 2.760856e-001 -8.023628e+000 42 31 29
1.497926e-001 5.192576e-001 -7.176541e+000 231 222 216
5.287572e-001 -8.112988e-001 -6.886667e+000 254 255 247
1.101939e+000 1.486204e-001 -6.280830e+000 221 60 68
1.043848e+000 -2.340894e-001 -6.362790e+000 77 11 15
-1.638286e-001 6.784406e-001 -7.457102e+000 169 160 145
3.399841e-001 -3.999670e-001 -6.928409e+000 80 62 41
8.571251e-001 3.197900e-001 -6.460789e+000 255 251 246
9.664505e-001 -6.525555e-001 -6.469742e+000 172 35 40
5.823334e-001 5.246777e-001 -6.803801e+000 136 122 111
-4.587810e-002 -5.385108e-002 -6.896419e+000 136 119 111
-3.591912e-001 -4.007121e-001 -6.758731e+000 169 151 137
3.389716e-001 -5.562021e-001 -6.852475e+000 254 255 246
9.877642e-001 -7.920639e-002 -6.408359e+000 233 226 218
-7.057300e-001 -1.830189e-001 -6.782878e+000 63 22 19
7.191278e-001 5.162150e-001 -6.610601e+000 255 255 251
-5.744061e-002 2.400761e-002 -7.399075e+000 118 104 93
-4.342806e-001 1.593032e-001 -7.922358e+000 39 30 28
1.975283e-001 -2.789871e-001 -6.941971e+000 243 234 225
-6.951279e+000 -6.073761e+000 -2.198299e+001 135 124 120
-4.486595e+000 -6.694574e+000 -1.504972e+001 111 109 122
-4.740336e+000 -6.569522e+000 -1.510069e+001 165 163 172
-4.614192e-001 -5.360026e-002 -6.820284e+000 117 51 38
-1.445826e-001 6.404485e-003 -6.879499e+000 131 116 109
-1.989681e+000 -3.294624e+000 -1.079824e+001 41 35 39
6.454454e-001 2.212613e-001 -6.764910e+000 184 176 165
1.055854e+000 1.336574e-001 -6.334795e+000 227 69 77
1.054636e+000 1.314062e-001 -6.335556e+000 227 69 77
-5.013182e+000 -1.208447e+001 -1.756717e+001 43 59 116
5.782421e-001 5.890933e-001 -6.848524e+000 157 147 136
3.433886e-001 1.823392e-001 -7.029269e+000 131 115 100
1.113056e+000 1.838803e-001 -6.250612e+000 207 52 57
2.205464e-001 1.009024e+000 -7.225073e+000 203 196 188
2.198311e-001 1.009622e+000 -7.222856e+000 203 196 188
-2.463249e-001 1.269084e-001 -7.107717e+000 129 115 104
-2.049966e-001 6.520309e-002 -6.925510e+000 126 112 103
-2.011152e-001 5.843337e-002 -6.936328e+000 126 112 103
1.587150e-001 1.547310e-001 -6.911474e+000 197 187 175
-3.975340e-003 6.443514e-001 -7.335452e+000 210 201 191
2.940293e-001 1.150772e+000 -7.139162e+000 209 42 51
-2.987063e-001 8.002445e-003 -6.935386e+000 108 90 76
-2.984958e-001 9.374274e-003 -6.934318e+000 108 90 76
8.855717e-001 6.180450e-001 -6.454783e+000 203 58 65
-2.364881e-001 8.524826e-001 -7.752872e+000 209 200 191
-1.992277e-001 9.557946e-001 -7.642682e+000 187 175 163
-1.779245e-001 4.970032e-001 -7.473565e+000 157 147 137
-2.815808e-001 -2.149458e-001 -7.709603e+000 202 195 182
-2.428180e-001 1.579012e-001 -7.237751e+000 120 106 95
7.816929e-001 8.239251e-001 -6.564877e+000 122 32 36
-7.203428e-001 -3.082018e-001 -6.534694e+000 49 19 16
8.404870e-001 5.180142e-002 -6.788776e+000 239 233 221
5.712801e-001 -6.291411e-001 -6.828725e+000 246 233 178
-6.362834e-001 5.906752e-001 -8.227228e+000 185 42 46
2.214198e-002 1.344636e+000 -7.377615e+000 81 18 27
-1.564107e-001 6.607441e-001 -7.455174e+000 168 159 145
-2.144963e+000 -2.849872e+000 -1.093237e+001 45 39 41
-2.194790e-001 4.556131e-001 -7.631739e+000 173 165 152
-3.122993e-001 -1.407842e-002 -7.884929e+000 107 58 49
-2.137991e-001 3.398684e-001 -7.510454e+000 156 146 134
2.459993e-001 6.894028e-001 -7.286595e+000 219 215 206
5.317242e-001 1.141057e+000 -6.820570e+000 200 52 61
-3.180425e-001 -2.088181e-001 -7.739621e+000 176 169 155
-2.517113e-001 1.538107e-001 -7.264118e+000 152 138 127
-1.790592e+000 -3.750990e+000 -1.055733e+001 62 56 58
-1.784953e+000 -3.892877e+000 -1.066873e+001 64 58 60
-2.651917e-001 1.202868e-001 -7.013356e+000 101 84 76
-6.389194e-001 -8.756950e-002 -6.747193e+000 104 43 33
-9.814544e-001 -3.143763e-001 -6.626700e+000 48 16 11
-1.721036e-001 4.082796e-002 -6.897001e+000 139 127 116
3.619508e-001 1.832769e-001 -7.051365e+000 150 137 120
5.540133e-001 5.531299e-001 -6.785660e+000 126 114 99
-7.084851e-002 -1.946801e-001 -6.828010e+000 252 247 243
-1.574276e+000 -4.617593e+000 -1.024010e+001 45 41 38
4.083730e-001 8.676994e-002 -6.823069e+000 180 168 154
-1.493907e+000 -4.945905e+000 -1.027769e+001 62 54 52
8.401872e-001 5.367185e-001 -6.542699e+000 166 31 38
1.086920e+000 -5.192584e-001 -6.288776e+000 227 95 99
-2.922020e-001 5.170729e-001 -7.763938e+000 224 217 207
1.171727e-001 1.025711e+000 -7.281064e+000 212 205 197
1.173220e-001 1.021510e+000 -7.282624e+000 212 205 197
-2.153792e+000 -3.089385e+000 -1.072141e+001 60 54 54
-2.612262e-001 2.267085e-001 -7.721648e+000 207 189 185
-1.772912e+000 -3.692129e+000 -1.058821e+001 25 19 21
-4.575111e-002 2.477115e-001 -7.150461e+000 121 112 98
-1.726262e+000 -3.775387e+000 -1.062219e+001 53 49 50
-1.722069e+000 -3.714566e+000 -1.055064e+001 53 49 50
-2.073617e-001 9.617165e-002 -7.051254e+000 154 138 127
5.067879e-001 5.245083e-001 -6.921967e+000 160 150 138
7.556058e-001 8.560589e-001 -6.600288e+000 159 45 49
-4.185864e-001 -1.823116e-001 -6.698895e+000 122 30 17
1.776802e-001 2.200796e-002 -6.865160e+000 194 184 175
8.431030e-001 5.737746e-001 -6.514076e+000 217 71 78
-1.261988e+000 -5.374339e+000 -1.025868e+001 73 68 71
1.085576e+000 -4.733371e-001 -6.274157e+000 153 33 37
-3.195985e-001 1.774045e-001 -7.942596e+000 215 73 82
-2.109095e-001 2.509804e-001 -7.420290e+000 174 161 145
-6.304953e-002 4.423123e-001 -7.300950e+000 148 136 124
-2.544497e-001 -1.489489e-001 -7.717030e+000 174 166 153
-4.859282e-001 -3.469237e-003 -7.083003e+000 92 38 33
3.697573e-002 -5.920837e-002 -6.895248e+000 164 154 144
3.697573e-002 -5.920837e-002 -6.895248e+000 164 154 144
5.148372e-001 1.654564e-002 -6.690015e+000 198 188 179
5.480688e-001 1.591144e-002 -6.694144e+000 173 161 149
3.451705e-001 -4.726243e-001 -6.909866e+000 119 102 62
-1.801925e-001 4.506551e-001 -7.575299e+000 148 138 126
-3.362738e-001 1.996079e-002 -6.949222e+000 68 23 18
-8.178828e-001 -2.338362e-001 -6.514353e+000 163 82 52
2.018172e-001 5.487811e-002 -6.868379e+000 171 159 147
5.884581e-001 -1.343939e-003 -6.676319e+000 197 187 177
4.492597e-001 -1.137332e+000 -7.309872e+000 245 230 171
4.422077e-001 -5.451187e-001 -6.909847e+000 78 60 27
8.403974e-001 2.012439e-001 -6.485907e+000 254 254 246
-1.806967e-001 2.739339e-001 -7.354730e+000 131 117 101
5.706943e-001 1.590861e-001 -6.892244e+000 158 150 139
5.025612e-001 -4.756465e-001 -6.821001e+000 114 96 56
9.655117e-001 2.591928e-001 -6.430467e+000 232 71 79
3.529944e-001 1.072420e+000 -7.008656e+000 240 236 232
5.668514e-001 9.427775e-001 -6.811566e+000 217 57 64
1.038891e+000 -8.092871e-001 -6.465887e+000 244 88 99
-9.215305e-002 1.302344e+000 -7.495743e+000 24 17 18
1.693602e-001 2.664228e-001 -7.075838e+000 136 124 110
5.877667e-001 -5.655591e-001 -6.797293e+000 232 215 159
5.737139e-001 -5.425220e-001 -6.771870e+000 232 215 159
-1.549684e-001 1.093560e+000 -7.529030e+000 144 26 31
-6.743950e-002 7.628768e-001 -7.345127e+000 222 218 209
-6.743950e-002 7.628768e-001 -7.345127e+000 222 218 209
2.642357e-001 8.628660e-001 -7.104501e+000 155 146 131
6.348570e-001 -1.807509e-001 -6.632875e+000 251 248 243
9.575375e-001 -4.338879e-001 -6.403324e+000 216 197 138
2.295813e-003 1.334134e+000 -7.406586e+000 81 15 23
-2.023501e-001 1.003423e+000 -7.486053e+000 178 159 153
-1.607223e-001 8.702081e-001 -7.449424e+000 198 191 181
-2.235715e-001 3.788937e-001 -7.622129e+000 212 201 189
-1.646658e-001 4.946389e-001 -7.554315e+000 165 153 138
-2.588516e-001 -1.834448e-002 -7.791671e+000 159 85 79
-8.231304e-001 -3.117640e-001 -7.066672e+000 38 28 28
-1.975733e-001 1.012199e-001 -7.119038e+000 107 90 80
-5.511375e-001 -2.356633e-001 -6.693175e+000 236 131 101
-5.603354e-001 -2.649778e-001 -6.652928e+000 126 21 1
-4.742927e-001 -1.365451e-001 -6.686105e+000 120 29 12
1.557506e-002 -2.850232e-002 -6.908222e+000 190 177 168
6.950162e-002 -8.774668e-002 -6.941943e+000 170 157 147
-5.331371e-001 -4.086375e-001 -6.680298e+000 95 90 90
-4.992338e-001 -4.109068e-001 -6.662981e+000 212 200 178
-3.429673e-001 -3.972024e-001 -6.752735e+000 175 150 146
-1.386663e-001 -3.127275e-001 -6.853706e+000 163 146 127
9.061038e-002 -5.587553e-001 -7.058810e+000 155 138 120
3.664785e-001 -8.188075e-002 -6.801139e+000 254 250 241
5.675639e-001 8.055616e-002 -6.755714e+000 192 180 166
2.700134e-001 -4.419660e-001 -6.764615e+000 225 219 207
2.700134e-001 -4.419660e-001 -6.764615e+000 225 219 207
5.073878e-001 -1.216149e-001 -6.706265e+000 222 217 211
-1.266348e-001 8.020310e-001 -7.580769e+000 217 210 200
-1.280614e-001 7.103483e-001 -7.442701e+000 164 153 141
-1.302227e-001 4.519981e-001 -7.460660e+000 168 156 147
-2.418282e-001 -2.340895e-002 -7.759272e+000 155 125 114
-2.035905e-001 3.402712e-001 -7.484012e+000 163 151 141
-3.478244e-001 1.106977e-001 -6.962709e+000 121 63 51
-3.206382e-001 7.238601e-002 -6.988252e+000 83 42 40
-3.318301e-001 2.253835e-002 -6.929841e+000 67 27 25
-1.083507e-003 2.758978e-001 -6.994053e+000 161 149 136
-1.467394e-001 4.410495e-002 -6.938192e+000 133 120 110
-1.056730e-001 5.787930e-002 -6.930686e+000 137 124 114
-1.033427e+000 -2.502738e-001 -6.501180e+000 146 128 79
-1.033427e+000 -2.502738e-001 -6.501180e+000 146 128 79
-3.167295e-001 -1.690714e-001 -6.769422e+000 114 54 44
-1.962437e-001 -2.998533e-001 -6.895507e+000 87 68 37
2.092363e-003 -2.762518e-002 -6.917707e+000 140 123 116
-7.848348e-001 -3.554865e-001 -6.543483e+000 213 115 70
3.986462e-001 1.069513e-001 -6.839730e+000 166 150 136
-3.175744e-001 -4.343929e-001 -6.764940e+000 252 250 246
-3.474022e-001 -4.328130e-001 -6.735398e+000 229 220 215
3.738396e-001 -2.496290e-001 -6.924259e+000 254 255 247
4.174592e-001 -1.065035e-001 -6.790216e+000 235 231 222
5.426839e-001 7.324452e-002 -6.722264e+000 185 176 161
5.084213e-001 -4.996217e-001 -6.980140e+000 155 139 123
4.044868e-001 -5.837230e-001 -6.936342e+000 229 225 211
3.740544e-001 -5.328639e-001 -6.888128e+000 229 225 211
5.521448e-001 -4.868448e-001 -6.863232e+000 179 172 146
4.934678e-001 -2.712632e-001 -6.797709e+000 177 171 159
1.025200e+000 4.201537e-001 -6.375314e+000 214 70 78
1.069454e+000 3.986669e-001 -6.355504e+000 75 69 66
1.038335e+000 3.682535e-001 -6.322766e+000 239 89 101
8.184617e-001 -2.006211e-001 -6.127247e+000 205 186 130
1.155771e+000 4.905024e-002 -6.225585e+000 226 85 101
1.172395e+000 1.197110e-001 -6.185703e+000 80 71 72
1.172395e+000 1.197110e-001 -6.185703e+000 80 71 72
1.050443e+000 -4.477129e-001 -6.307405e+000 169 147 98
-3.872972e-002 1.132404e+000 -7.395882e+000 210 201 197
-2.207061e-001 6.156904e-001 -7.676158e+000 168 157 144
2.997445e-001 1.243203e+000 -7.101539e+000 222 62 70
2.997445e-001 1.243203e+000 -7.101539e+000 222 62 70
-9.878918e-001 -2.841886e-001 -6.635687e+000 33 9 12
-2.545410e-001 3.975623e-002 -6.908490e+000 131 119 108
2.570179e-001 3.110235e-001 -6.969098e+000 149 135 124
2.570179e-001 3.110235e-001 -6.969098e+000 149 135 124
-9.983424e-001 -1.966650e-001 -6.434394e+000 117 93 57
-9.684800e-001 -2.344488e-001 -6.489166e+000 55 27 11
5.905196e-001 6.213911e-001 -6.823429e+000 209 204 190
-8.766056e-001 -2.121054e-001 -6.465218e+000 187 159 114
-3.412202e-001 -2.081660e-001 -6.722212e+000 238 123 103
-3.412202e-001 -2.081660e-001 -6.722212e+000 238 123 103
-1.696457e-001 -3.057355e-001 -6.891094e+000 243 236 228
-1.613618e-001 -2.183472e-001 -6.843889e+000 226 221 216
-1.065186e-001 -4.498991e-001 -6.953077e+000 248 241 231
-1.185719e-001 -3.150941e-001 -6.873875e+000 71 53 29
7.730763e-001 7.219110e-001 -6.426122e+000 195 43 55
9.317740e-001 5.162414e-001 -6.615186e+000 181 35 45
9.291680e-001 5.165542e-001 -6.391675e+000 17 7 18
5.817210e-001 -7.215236e-001 -6.804266e+000 177 159 139
6.676612e-001 -3.627998e-001 -6.674840e+000 158 147 129
9.767482e-001 2.047636e-001 -6.411117e+000 232 68 73
1.022380e+000 -5.815656e-001 -6.311049e+000 180 33 44
1.348880e+000 5.823494e-001 -5.968899e+000 71 62 63
-1.426549e-001 1.225421e+000 -7.564071e+000 208 70 75
-2.369574e-001 3.712778e-001 -7.617080e+000 198 190 178
-1.905385e-001 4.602973e-001 -7.493324e+000 177 165 153
-2.485755e-001 -1.337231e-001 -7.552316e+000 194 188 174
-2.313167e-001 -5.641798e-002 -6.857167e+000 145 111 102
2.196515e-001 -1.941630e-001 -6.873301e+000 224 218 206
4.123365e-001 -3.573114e-001 -6.891452e+000 98 81 61
5.429431e-001 -3.243831e-001 -6.791388e+000 253 248 240
5.429431e-001 -3.243831e-001 -6.791388e+000 253 248 240
6.162551e-001 -4.972191e-001 -6.843403e+000 202 196 174
1.096558e+000 -7.591894e-003 -6.223666e+000 181 47 54
1.177510e+000 4.604140e-003 -6.236336e+000 224 90 94
-2.310779e-001 2.760188e-001 -7.726949e+000 154 140 129
-1.976234e-001 4.093662e-001 -7.648328e+000 218 211 197
-1.325793e-001 7.043337e-001 -7.405306e+000 133 119 110
3.261116e-001 1.288406e+000 -7.027984e+000 226 64 74
-2.456058e-001 -1.647433e-001 -7.741388e+000 176 166 154
-6.416998e-001 -2.719422e-001 -6.702384e+000 138 43 34
-9.241178e-001 -2.078893e-001 -6.432473e+000 154 114 87
-9.241178e-001 -2.078893e-001 -6.432473e+000 154 114 87
-6.089262e-001 -3.522842e-001 -6.671740e+000 45 35 34
-1.041284e-001 -3.065611e-001 -6.902197e+000 250 250 243
8.944192e-001 5.114619e-001 -6.377091e+000 243 81 94
1.043744e+000 1.724853e-001 -6.344033e+000 203 52 57
1.014028e+000 -4.467168e-001 -6.373682e+000 204 181 131
-3.280303e-002 1.312706e+000 -7.383001e+000 190 42 46
-1.745797e-001 3.287817e-001 -7.662405e+000 145 133 121
-1.745797e-001 3.287817e-001 -7.662405e+000 145 133 121
-2.040774e-001 3.109581e-001 -7.479924e+000 127 115 103
3.479521e-001 5.671698e-001 -7.375543e+000 205 197 186
-3.850856e-001 -4.110253e-002 -6.863998e+000 53 11 13
-2.384672e-001 -1.719763e-001 -6.820375e+000 209 194 183
-2.384672e-001 -1.719763e-001 -6.820375e+000 209 194 183
-2.872088e-001 -2.335336e-001 -6.749278e+000 102 25 19
4.881578e-001 -4.508566e-001 -6.799281e+000 132 110 69
6.034256e-001 -7.004853e-001 -6.768003e+000 229 217 203
7.881476e-001 -8.099678e-001 -6.666247e+000 255 254 249
1.034037e+000 -2.499147e-001 -6.303297e+000 196 171 115
-5.652759e-001 5.102903e-001 -8.103817e+000 43 31 31
-3.931389e-002 1.318955e+000 -7.366859e+000 192 43 49
-1.849460e-001 1.009810e+000 -7.462937e+000 139 121 111
-1.818062e-001 9.992851e-001 -7.475166e+000 139 121 111
-2.186473e-001 5.249343e-001 -7.659737e+000 213 205 194
-1.536550e-001 6.027069e-001 -7.447486e+000 139 125 114
-1.718959e-001 8.797288e-002 -6.975799e+000 126 109 99
6.350941e-001 9.824315e-001 -6.680216e+000 215 63 71
-4.443992e-001 -1.721450e-001 -6.645654e+000 134 30 21
-8.108942e-002 -2.582939e-001 -6.802946e+000 62 39 29
1.021370e+000 2.104854e-001 -6.161126e+000 221 67 75
1.109737e+000 1.263104e-001 -6.240622e+000 221 67 75
-2.797640e-001 1.687091e-001 -7.557618e+000 76 4 11
-2.309957e-001 2.541932e-001 -7.455174e+000 181 169 157
-1.908159e-001 1.824849e-001 -7.290773e+000 120 106 97
-9.235671e-001 -1.640953e-001 -6.457300e+000 34 11 6
-9.235671e-001 -1.640953e-001 -6.457300e+000 34 11 6
8.118085e-001 7.898394e-002 -6.610451e+000 224 217 209
5.635075e-001 -7.623372e-001 -6.734221e+000 116 106 111
5.669172e-001 -7.705846e-001 -6.739489e+000 116 106 111
6.768007e-001 -4.842285e-001 -6.620658e+000 254 254 203
8.527073e-001 -3.207937e-001 -6.490025e+000 84 67 47
1.115154e+000 -9.388407e-002 -6.260201e+000 249 94 102
-5.038536e-001 5.629039e-001 -8.039359e+000 189 179 167
-7.952420e-002 1.234291e+000 -7.480725e+000 175 38 46
-2.647565e-002 -1.981958e-001 -6.834747e+000 231 223 220
4.754870e-001 -5.584525e-001 -6.810013e+000 145 125 91
1.121644e+000 1.255029e-001 -6.296228e+000 228 73 81
9.455066e-001 -6.346799e-001 -6.451270e+000 166 35 40
-2.323379e-001 9.412798e-001 -7.628783e+000 167 153 140
-1.505081e-001 8.765908e-001 -7.487399e+000 218 214 205
-5.628597e-001 -1.155500e-001 -6.750161e+000 125 32 14
3.549668e-001 -6.005656e-001 -6.905386e+000 228 224 210
7.955155e-001 -1.771101e-001 -6.498187e+000 238 233 227
-1.361501e-001 -2.478976e-001 -6.896835e+000 241 238 233
8.441656e-001 4.914624e-001 -6.480219e+000 148 26 33
-3.644433e-001 -6.937764e-001 -7.051036e+000 161 25 25
3.722181e-001 2.122848e-001 -7.019887e+000 122 109 93
1.026259e+000 7.718148e-002 -6.165642e+000 193 56 64
-3.466425e-001 -1.659834e-001 -7.080242e+000 56 14 15
-1.561602e-001 1.072510e+000 -6.549170e+000 209 200 194
-2.146316e-001 1.795688e-001 -7.171477e+000 137 127 117
-4.527506e+000 -7.627277e+000 -1.571126e+001 129 128 134
-5.075415e-001 -3.936845e-001 -6.566568e+000 99 81 63
-8.553003e+000 -9.223984e+000 -2.208013e+001 110 99 97
-5.420173e-003 1.326299e+000 -7.389781e+000 78 8 14
-1.760202e-001 5.518226e-001 -7.610238e+000 155 145 133
-2.750533e-001 -5.471047e-003 -7.857915e+000 87 7 6
-2.594085e-001 -3.511565e-002 -7.900650e+000 87 7 6
-2.892189e-001 -2.345169e-001 -7.808435e+000 211 203 192
-1.789568e-001 4.336870e-002 -6.972673e+000 152 136 128
-3.341850e-001 -8.752826e-002 -6.850518e+000 85 19 7
-5.688347e-001 -2.512936e-001 -6.674244e+000 147 20 3
7.934043e-001 7.942910e-001 -6.540313e+000 221 83 87
4.108595e-001 -6.530118e-001 -6.958094e+000 227 223 210
4.045553e-001 -6.431589e-001 -6.948424e+000 227 223 210
9.434189e-001 2.857510e-001 -6.440195e+000 250 87 97
-3.265032e-001 5.434645e-002 -6.969131e+000 92 43 39
-1.238431e+000 -5.359783e+000 -1.018611e+001 14 10 13
8.914653e-001 5.904314e-001 -6.491708e+000 214 65 75
1.193414e+000 2.829004e-001 -6.188685e+000 92 85 85
8.799686e-001 -6.779222e-001 -6.435219e+000 250 105 111
-3.905807e-001 7.846431e-001 -7.857996e+000 205 189 180
-2.671389e-001 1.054223e+000 -7.749285e+000 175 28 34
-1.722142e+000 -3.743216e+000 -1.058541e+001 49 45 46
-1.736112e+000 -4.047562e+000 -1.066132e+001 59 53 57
-4.298060e-003 -2.067908e-002 -6.947480e+000 137 120 112
8.730106e-002 5.866503e-002 -6.933414e+000 200 190 178
2.988439e-001 1.320134e+000 -7.112806e+000 16 2 8
-2.554225e-001 2.214688e-001 -7.730179e+000 206 194 178
-1.057143e-001 3.109886e-001 -6.986598e+000 118 104 93
-3.265838e-001 -5.255463e-002 -6.877210e+000 73 18 22
1.017749e+000 4.942162e-001 -6.382095e+000 67 57 58
-6.954334e-002 1.144491e+000 -7.405190e+000 187 46 45
-1.423785e+000 -5.246411e+000 -1.020864e+001 89 76 67
6.826061e-001 7.832806e-001 -6.713504e+000 207 53 61
5.528886e-001 -4.048383e-001 -6.828141e+000 134 121 104
-3.732844e-001 2.476007e-001 -8.082626e+000 30 36 25
-2.050854e-001 3.073829e-001 -7.479974e+000 127 115 103
-1.220352e+000 -1.151685e+001 -1.046328e+001 57 59 72
-7.257667e-002 1.135262e+000 -7.451880e+000 200 50 59
6.304221e-001 8.548209e-001 -6.763742e+000 220 61 68
6.974816e-001 -8.328307e-001 -6.743943e+000 252 246 237
7.941996e-001 -9.385167e-001 -6.716447e+000 201 64 68
8.915766e-001 -8.126767e-001 -6.583525e+000 253 247 241
1.174879e+000 -1.618603e-001 -6.218434e+000 16 10 14
-2.803185e-001 -1.142330e-001 -7.800248e+000 213 207 195
7.032385e-001 5.299324e-001 -6.595498e+000 254 254 249
-2.960315e-001 -2.903292e-002 -7.862496e+000 171 110 93
-2.217995e-001 -7.470886e-002 -7.717496e+000 197 185 167
5.919339e-002 6.356913e-001 -7.297183e+000 193 185 174
6.770788e-002 6.420629e-001 -7.274563e+000 197 187 175
1.171651e-001 7.846809e-001 -7.149454e+000 181 174 164
-7.847220e-001 -1.857543e-001 -7.090980e+000 122 35 18
-1.465835e+000 -4.898124e+000 -1.038561e+001 29 23 26
-7.520401e-001 -2.118238e-001 -7.082251e+000 99 21 14
-1.705765e-001 1.453895e-001 -7.201514e+000 114 98 85
-9.158519e-002 5.318795e-002 -6.986368e+000 170 157 143
-5.519282e-001 -1.393265e-001 -6.693939e+000 126 31 9
-1.465413e-001 1.036472e-002 -6.876883e+000 135 118 108
2.554063e-001 1.772421e-001 -7.011192e+000 155 141 128
4.214636e-001 -6.554825e-001 -6.935287e+000 252 249 235
4.214636e-001 -6.554825e-001 -6.935287e+000 252 249 235
1.159372e+000 1.225997e-001 -6.255189e+000 32 16 19
1.021144e+000 -6.476264e-001 -6.365233e+000 163 17 27
-1.934348e+000 -3.496027e+000 -1.081890e+001 47 42 46
-1.844034e+000 -3.728789e+000 -1.072311e+001 51 46 50
-1.737514e+000 -4.021281e+000 -1.063392e+001 63 59 60
1.428773e-001 9.938384e-001 -7.300046e+000 208 201 191
5.212243e-002 6.629880e-001 -7.292566e+000 235 226 217
-2.887320e-001 1.121607e-001 -7.108633e+000 128 111 101
-1.393360e+000 -4.998816e+000 -1.034590e+001 69 61 65
-1.240753e+000 -5.321645e+000 -1.025256e+001 43 33 36
-6.485098e-002 5.336121e-002 -6.971000e+000 126 112 99
1.812874e-002 -2.524868e-001 -6.882231e+000 248 244 234
4.819206e-001 1.655757e-001 -6.928168e+000 135 122 105
3.932384e-001 7.675459e-002 -6.807189e+000 191 177 164
3.565452e-001 -4.216611e-002 -6.786754e+000 248 241 231
3.565452e-001 -4.216611e-002 -6.786754e+000 248 241 231
6.103356e-001 -7.239279e-001 -6.818150e+000 231 218 201
1.054456e+000 3.752868e-001 -6.333484e+000 26 10 15
4.092976e-001 -3.869707e+000 -7.819410e+000 179 181 193
1.118762e+000 3.133037e-002 -6.188812e+000 99 87 84
-1.621376e-002 1.346579e+000 -7.325141e+000 70 10 20
-1.643086e-001 6.399430e-001 -7.496616e+000 167 157 146
-1.272517e-001 7.102511e-001 -7.442921e+000 169 157 145
-1.695243e+000 -4.128068e+000 -1.057104e+001 55 49 52
-1.695408e+000 -4.087120e+000 -1.069661e+001 31 25 27
-2.309292e-001 1.802248e-001 -7.346520e+000 155 141 128
-6.306367e-001 -6.213311e-002 -6.901540e+000 101 41 29
-1.306935e+000 -5.357101e+000 -1.040766e+001 78 69 74
-1.357433e+000 -5.391197e+000 -1.021780e+001 124 114 116
-6.413836e-001 -1.219576e-001 -6.688562e+000 114 38 26
5.214121e-001 1.296447e-001 -6.825376e+000 146 133 117
7.373048e-001 8.365109e-001 -6.541124e+000 73 4 9
7.180034e-001 7.818323e-001 -6.536120e+000 250 96 104
6.917811e-001 -1.959136e+000 -7.164364e+000 167 173 175
2.883444e-001 1.155301e+000 -7.123011e+000 211 55 54
4.368867e-001 1.051363e+000 -6.937389e+000 237 75 85
-5.988302e-001 -1.341199e-001 -6.704189e+000 132 42 21
-5.020856e-001 -2.781908e-001 -6.663125e+000 163 22 24
7.232252e-001 7.852232e-002 -6.839417e+000 186 174 162
9.603522e-001 2.145780e-001 -6.431361e+000 253 224 210
9.581804e-001 4.842204e-001 -6.347306e+000 249 97 103
9.984149e-001 -4.413631e-002 -6.323010e+000 236 87 87
1.023336e+000 -4.477436e-001 -6.288449e+000 248 231 179
-4.319559e-001 7.230106e-001 -7.924184e+000 193 183 173
-1.343423e-001 7.157712e-001 -7.608373e+000 200 191 176
2.381438e-001 8.761781e-001 -7.206084e+000 199 191 182
2.358807e-001 8.780091e-001 -7.204228e+000 199 191 182
-3.948935e-001 -1.988810e-001 -6.696762e+000 128 37 22
1.016813e+000 2.441308e-001 -6.414828e+000 241 84 93
-2.646839e-003 1.329017e+000 -7.452832e+000 18 8 10
-1.048282e-001 7.486239e-001 -7.564973e+000 171 161 149
-1.048282e-001 7.486239e-001 -7.564973e+000 171 161 149
1.047003e+000 1.264463e-001 -6.326374e+000 228 73 81
1.655360e-002 1.185563e+000 -7.347211e+000 214 48 58
3.830598e-001 1.236647e+000 -6.984749e+000 213 51 62
3.894627e-001 9.805680e-001 -7.000911e+000 218 208 199
3.841810e-001 9.854291e-001 -6.993523e+000 218 208 199
5.732160e-001 9.348058e-001 -6.819955e+000 220 58 66
3.383474e-001 1.735250e-001 -6.859071e+000 152 139 122
7.067946e-001 9.069383e-001 -6.653354e+000 205 60 66
4.422420e-001 -3.025997e-001 -6.883591e+000 254 254 246
-9.673203e-001 -1.127964e+001 -1.019811e+001 45 43 56
1.255014e+000 -2.162317e-001 -6.122933e+000 255 245 192
-2.435164e-001 3.205370e-001 -7.558689e+000 197 184 173
-2.831410e-001 -2.632699e-001 -7.894399e+000 207 197 185
3.406800e-001 9.144008e-002 -6.811851e+000 212 203 190
-2.181229e-001 1.101413e+000 -7.714324e+000 214 63 69
9.392153e-001 4.591214e-001 -6.378702e+000 247 81 93
-4.169099e-001 2.785685e-001 -7.986931e+000 40 28 28
1.206366e+000 -2.849502e-001 -6.155145e+000 254 251 196
-3.520469e-001 5.818574e-001 -7.847972e+000 225 218 207
1.881858e-001 6.937224e-001 -7.165090e+000 197 189 180
-1.065608e+000 -4.403489e-002 -6.372022e+000 44 19 4
-3.500101e-002 1.300634e+000 -7.454954e+000 130 23 33
-9.646184e-001 -2.480646e-003 -6.282069e+000 210 134 120
-5.706257e-002 1.131927e+000 -7.699658e+000 150 26 34
-9.537261e-001 3.353054e-002 -6.314400e+000 60 25 15
-2.502119e-002 1.154102e+000 -7.423820e+000 204 45 60
3.902111e-001 1.243352e+000 -7.109220e+000 220 69 78
2.073338e-001 1.285070e+000 -6.004382e+000 63 51 51
-1.033480e-001 5.235579e-001 -7.377977e+000 190 180 168
1.924467e-001 7.098482e-001 -7.250664e+000 190 181 172
-2.453640e-001 1.653309e-001 -7.280134e+000 114 97 88
-2.443353e-001 1.667516e-001 -7.230300e+000 122 106 93
-1.648975e-001 2.110251e-001 -7.105539e+000 111 95 82
1.614544e-004 1.770413e-001 -7.097664e+000 131 114 101
-5.278570e-001 -7.450534e-002 -6.741982e+000 151 67 46
-5.278570e-001 -7.450534e-002 -6.741982e+000 151 67 46
-1.018305e-001 9.313499e-002 -6.963714e+000 132 117 104
1.624651e-001 2.092961e-001 -6.975212e+000 167 151 135
5.814885e-001 6.550958e-001 -6.814306e+000 205 197 184
-1.457910e-002 1.323930e+000 -7.354101e+000 179 35 45
-1.435662e+000 -4.873712e+000 -1.036672e+001 67 58 61
2.347278e-001 9.995099e-001 -7.212902e+000 207 200 192
2.347278e-001 9.995099e-001 -7.212902e+000 207 200 192
-7.412918e-001 -1.211342e-001 -6.997902e+000 75 16 8
8.184543e-001 5.038784e-001 -6.545806e+000 198 52 59
3.191967e-001 1.140639e+000 -7.085801e+000 209 48 56
-1.276803e-001 2.316379e-001 -7.201757e+000 120 107 91
2.541657e-001 2.700636e-001 -7.019284e+000 123 107 92
1.053677e+000 1.382464e-001 -6.331161e+000 235 81 89
-4.829839e-001 -2.574072e-001 -6.684243e+000 239 136 95
-3.799835e-002 1.081978e+000 -7.394046e+000 214 205 198
-1.268567e+000 -5.250068e+000 -1.027524e+001 48 39 42
3.643278e-001 1.268818e+000 -7.006967e+000 175 38 44
-5.438155e-001 -4.297229e-002 -6.765883e+000 139 64 45
-1.810548e-001 1.300479e-001 -6.997041e+000 119 103 90
-6.021548e-001 -1.202213e-001 -6.689640e+000 114 28 13
-5.197759e-001 -3.847484e-002 -6.768798e+000 107 31 15
-3.642767e-001 -4.104648e-002 -6.886286e+000 48 13 12
-2.029029e-001 8.337315e-002 -6.934876e+000 150 133 125
-4.446647e-001 -1.287870e-001 -6.684804e+000 114 27 12
8.096036e-002 9.576600e-002 -6.954119e+000 211 199 187
-5.493879e-001 -3.773777e-001 -6.650756e+000 87 89 104
2.982233e-001 2.440917e-001 -6.930555e+000 133 117 101
5.983557e-001 1.071011e+000 -6.780507e+000 213 61 71
2.495900e-001 -3.286040e+000 -7.981961e+000 151 154 166
3.282634e-001 -3.571252e+000 -7.955253e+000 221 230 238
4.559034e-001 -2.773567e+000 -7.672879e+000 189 199 198
1.026412e+000 1.056060e-001 -6.341243e+000 206 68 72
1.067769e+000 -3.020518e+000 -6.898325e+000 141 142 136
-4.071988e-001 1.001583e+000 -7.816072e+000 168 36 45
-2.717218e-001 8.968549e-001 -7.767776e+000 219 62 70
-1.471734e+000 -4.740114e+000 -1.037247e+001 70 65 69
-2.015751e-001 -6.549283e-004 -7.719701e+000 146 93 82
-2.156692e-001 -5.542809e-002 -7.683416e+000 212 204 191
-1.479179e-001 4.676697e-001 -7.412524e+000 183 171 159
-6.224447e-001 -8.946121e-002 -6.715615e+000 102 20 8
-5.360053e-001 -5.993319e-002 -6.755431e+000 112 30 15
-8.555737e-002 5.744637e-002 -6.937746e+000 172 164 151
-9.375740e-001 -1.777665e-002 -6.291607e+000 197 128 114
-5.213412e-002 4.472903e-002 -6.918523e+000 137 125 113
2.785936e-001 2.213208e-001 -6.927838e+000 154 140 120
2.173293e-001 -5.958835e-001 -6.885754e+000 113 111 104
4.123133e-001 6.348847e-002 -6.805113e+000 143 130 114
4.663163e-001 -2.740289e+000 -7.637872e+000 133 142 141
7.858920e-001 1.468406e-001 -6.563179e+000 245 238 228
1.022928e+000 -1.270428e-001 -6.365647e+000 223 82 86
-3.176796e-001 1.023970e+000 -7.790189e+000 165 29 37
-2.149883e-001 6.575015e-001 -7.695980e+000 173 164 149
-1.512997e+000 -4.586019e+000 -1.037579e+001 66 61 65
-1.357425e-001 6.235083e-001 -7.594744e+000 182 170 156
-1.268798e+000 -5.275675e+000 -1.018578e+001 90 84 88
3.121020e-001 1.183935e+000 -7.108749e+000 230 75 82
-7.763809e-001 -4.921442e+000 -9.557024e+000 84 76 77
-3.488605e-001 -2.186487e-002 -6.879937e+000 77 42 36
2.821209e-001 3.410798e-001 -7.060803e+000 172 160 146
-5.989154e-001 -2.557589e-001 -6.652915e+000 198 106 65
-4.701451e-001 -1.293241e-001 -6.729228e+000 88 25 16
6.285406e-002 1.635087e-001 -6.973072e+000 166 150 137
5.278411e-001 1.212988e-001 -6.830021e+000 142 129 113
5.085822e-001 -1.894875e+000 -7.467112e+000 112 118 115
7.005885e-001 1.809491e-001 -6.770618e+000 208 200 185
7.352916e-001 7.909708e-001 -6.543313e+000 107 14 25
8.427532e-001 5.362696e-001 -6.541049e+000 167 33 42
1.141410e+000 -1.800305e+000 -6.639606e+000 178 180 175
-2.211940e-001 1.022915e+000 -7.714234e+000 169 32 39
-2.372877e-001 3.576650e-001 -7.615582e+000 206 196 184
3.736655e-001 1.130944e+000 -7.017435e+000 234 78 82
3.863795e-001 1.056515e+000 -6.992821e+000 211 178 166
-7.155129e-001 -2.995819e-001 -6.515635e+000 64 22 24
9.665917e-002 -9.675552e-002 -6.858685e+000 235 227 214
4.321179e-001 -5.806028e-001 -6.893786e+000 248 244 227
8.187100e-001 8.197638e-001 -6.577732e+000 21 11 12
6.228403e-001 -3.533432e-001 -6.710555e+000 178 165 147
1.043343e+000 1.719282e-001 -6.345711e+000 215 59 70
-4.965773e-001 4.441602e-001 -7.915987e+000 220 209 191
-1.942749e-001 4.128707e-001 -7.652872e+000 215 207 194
-2.050651e-001 4.236194e-001 -7.487170e+000 131 117 106
-3.062969e-001 2.545609e-001 -7.909020e+000 185 46 50
-2.260464e-001 2.802339e-001 -7.721740e+000 157 139 127
-2.113602e-001 2.114918e-001 -7.341803e+000 159 146 130
1.034493e-001 7.574329e-001 -7.251531e+000 182 172 162
4.433654e-001 2.952138e-001 -7.004325e+000 145 136 121
6.245025e-001 6.494851e-001 -6.743243e+000 235 226 211
7.222513e-001 8.362504e-001 -6.584492e+000 89 13 18
9.563315e-001 4.788987e-001 -6.366503e+000 234 78 88
-2.021499e-001 5.082887e-001 -7.688067e+000 228 220 209
-2.355533e-001 4.166876e-003 -7.801178e+000 75 11 16
-1.216102e-001 2.182152e-001 -7.189062e+000 123 111 96
-2.234577e-001 -1.906060e-001 -6.822359e+000 230 220 213
8.699970e-001 1.005989e-001 -6.538304e+000 229 222 211
1.031376e+000 -3.764554e-001 -6.301379e+000 174 151 101
6.801576e-001 -5.101106e-001 -6.649213e+000 254 252 203
7.910445e-001 -2.336295e-001 -6.527210e+000 245 237 228
-4.196587e-001 9.398439e-001 -7.836201e+000 211 63 69
7.721030e-002 4.246531e-001 -7.195537e+000 151 142 127
-6.711759e-001 -1.690956e-001 -6.678379e+000 74 20 18
5.039647e-001 -6.216590e-001 -6.841060e+000 145 122 98
7.975297e-001 -1.652653e-001 -6.497173e+000 231 222 213
1.575248e-001 6.170445e-001 -7.217421e+000 144 132 122
2.671247e-001 -8.918862e-002 -6.823285e+000 252 250 240
3.525401e-001 2.457849e-001 -6.995425e+000 136 123 107
-3.444187e-002 1.332944e+000 -7.399405e+000 85 13 23
-1.780150e-001 5.307093e-001 -7.482961e+000 162 148 134
-2.132141e-001 1.825304e-001 -7.165132e+000 118 103 89
1.534981e-001 7.108857e-001 -7.221077e+000 191 184 174
-6.188890e-001 -9.439964e-002 -6.754594e+000 126 56 44
-4.844141e-001 -1.546274e-001 -6.697734e+000 126 31 15
4.524832e-001 -2.661246e+000 -7.615922e+000 180 193 183
4.009573e-001 -5.749773e-001 -6.931877e+000 232 228 216
-4.151684e-001 7.768194e-001 -7.850392e+000 174 152 139
1.420518e-001 9.872118e-001 -7.279782e+000 205 198 190
-2.697771e-001 1.178763e-001 -7.302978e+000 123 109 96
-3.519420e-001 6.337509e-002 -7.108893e+000 67 24 18
-2.338259e-001 9.324103e-002 -7.060890e+000 140 124 111
-1.186489e-001 1.699364e-001 -7.136669e+000 115 99 86
-7.841441e-002 2.190732e-001 -7.077129e+000 174 165 150
-2.608546e-002 2.118758e-001 -7.149283e+000 161 148 132
-6.329490e-001 -1.176428e-001 -6.730241e+000 81 17 8
-5.854080e-001 -7.434794e-002 -6.768195e+000 86 21 12
1.414965e-001 2.410816e-001 -6.971530e+000 163 147 131
4.262078e-002 -2.591793e-001 -6.872475e+000 209 197 184
5.386955e-001 5.956587e-001 -6.750152e+000 160 148 133
4.364781e-001 -1.533483e-001 -6.765978e+000 238 232 220
4.455890e-001 -5.641596e-002 -6.730719e+000 201 192 177
7.798336e-001 -5.261767e-001 -6.506705e+000 225 212 179
1.223513e+000 -2.335287e+000 -6.504117e+000 169 167 170
-2.564432e-001 3.087924e-001 -7.784916e+000 175 163 149
-2.564432e-001 3.087924e-001 -7.784916e+000 175 163 149
-1.713754e-001 6.165275e-001 -7.558336e+000 148 136 122
-5.413969e-001 -1.015500e-001 -6.724659e+000 180 88 59
-5.413969e-001 -1.015500e-001 -6.724659e+000 180 88 59
1.247718e-001 -2.870160e-002 -6.864415e+000 179 169 156
7.136434e-001 8.620651e-002 -6.709195e+000 208 198 189
8.656573e-001 5.272512e-001 -6.575202e+000 230 84 95
9.767728e-001 4.909743e-001 -6.358794e+000 30 15 15
1.094835e+000 -4.908647e-001 -6.278708e+000 162 56 53
-3.840149e-001 8.647847e-001 -7.764841e+000 224 69 77
-9.612675e-002 2.656457e-001 -7.234028e+000 135 121 108
-2.268056e-001 1.354311e-001 -7.003248e+000 155 139 124
-5.739856e-002 1.016370e-001 -6.983220e+000 128 115 99
3.986597e-001 1.373293e-001 -6.841088e+000 197 183 170
7.318231e-001 1.077490e-001 -6.726266e+000 194 184 172
9.783141e-001 -3.972279e-001 -6.338576e+000 216 193 139
-5.534298e-003 3.293524e-002 -6.934544e+000 196 186 176
4.423733e-001 5.700422e-001 -6.976608e+000 193 181 174
5.872824e-001 -7.961511e-001 -6.827546e+000 252 252 242
1.000934e+000 -7.021456e-001 -6.376398e+000 237 98 109
1.297421e+000 -4.151197e-001 -6.128022e+000 255 246 198
1.297421e+000 -4.151197e-001 -6.128022e+000 255 246 198
-4.680173e-001 7.258748e-001 -7.967034e+000 178 38 48
-3.250440e-002 1.307764e+000 -7.383848e+000 200 53 55
1.206489e-001 5.893203e-001 -7.184050e+000 149 137 121
4.128334e-001 7.001783e-001 -6.956694e+000 252 245 237
7.656541e-001 8.861602e-001 -6.618911e+000 40 26 27
6.820136e-001 -6.743720e-001 -6.743249e+000 213 202 182
8.866727e-001 2.048003e-001 -6.470854e+000 175 157 145
9.413831e-001 -2.256723e-001 -6.442848e+000 216 202 193
1.299084e+000 -2.498158e-001 -6.141122e+000 250 242 186
8.876263e-001 8.417197e-002 -6.545355e+000 230 224 212
-2.504340e-001 -3.608957e-001 -7.705817e+000 238 231 220
6.616688e-001 7.555360e-001 -6.734577e+000 216 209 198
-5.622511e-001 -9.092429e-002 -6.733383e+000 117 27 18
8.878784e-001 -2.862193e-001 -6.447245e+000 85 70 54
-2.040327e-001 9.334520e-001 -7.666969e+000 174 158 147
7.134280e-001 5.283378e-001 -6.601424e+000 254 251 244
-2.791187e-001 -1.321001e-001 -7.804970e+000 208 201 185
1.146126e+000 -6.822535e-002 -6.278968e+000 180 46 54
-2.022519e-001 7.274640e-001 -7.636595e+000 224 217 207
-2.030840e-001 4.185904e-002 -7.674226e+000 124 59 57
-1.652035e-001 5.036525e-001 -7.484441e+000 181 168 152
-8.331264e-001 -3.034078e-001 -7.034595e+000 210 139 115
-9.650817e-001 -3.670805e-001 -6.725931e+000 218 193 173
-9.623495e-001 -3.475573e-001 -6.736021e+000 130 47 25
-3.202439e-001 1.039568e-001 -7.059473e+000 81 40 31
2.198880e-001 1.334050e+000 -7.142492e+000 182 42 51
-7.443020e-001 -2.997942e-001 -6.510105e+000 45 15 13
-7.388167e-001 -2.950888e-001 -6.495388e+000 163 160 148
1.943564e-001 1.252041e-001 -6.914662e+000 183 171 156
1.943564e-001 1.252041e-001 -6.914662e+000 183 171 156
3.487308e-001 -3.944696e-002 -6.776006e+000 254 245 236
6.485119e-001 -1.245991e+000 -7.079500e+000 127 126 122
5.047707e-001 -4.707321e-001 -6.903180e+000 154 137 115
7.122336e-001 -1.518936e+000 -7.069082e+000 157 159 156
7.697861e-001 -1.495613e+000 -6.980409e+000 174 176 175
7.932398e-001 7.323622e-001 -6.545704e+000 250 75 85
1.005409e+000 -1.755484e+000 -6.783911e+000 183 183 185
1.093865e+000 -3.009296e+000 -6.797854e+000 162 157 163
1.093865e+000 -3.009296e+000 -6.797854e+000 162 157 163
1.034120e+000 -1.796440e+000 -6.739376e+000 182 181 187
9.935331e-001 -1.156399e+000 -6.662062e+000 171 166 170
9.188587e-001 6.530715e-001 -6.491973e+000 81 68 68
9.898526e-001 -7.688929e-003 -6.323126e+000 232 92 100
1.343335e+000 -6.068176e-001 -6.123716e+000 155 149 153
-3.275632e-001 6.460708e-001 -7.789108e+000 237 233 222
-1.251497e-001 8.180522e-001 -7.432086e+000 212 202 193
-2.457995e-001 -1.458317e-001 -7.632536e+000 178 165 150
1.274156e-001 1.012122e+000 -7.290317e+000 217 210 200
4.910007e-002 6.653359e-001 -7.279644e+000 237 229 218
-9.800996e-001 -3.680307e-001 -6.735166e+000 39 17 15
-2.367001e-001 1.491454e-001 -7.089451e+000 140 124 111
-3.565002e-002 -3.754515e+000 -8.343809e+000 184 192 194
-4.345841e-001 -9.006312e-002 -6.819165e+000 82 18 14
-4.344848e-001 -5.562538e-002 -6.807115e+000 87 23 13
-3.629049e-001 -4.961758e-002 -6.938811e+000 53 13 13
-5.194426e-001 -2.237283e-001 -6.682133e+000 250 148 120
3.169700e-001 2.399721e-001 -6.987374e+000 159 142 126
3.739351e-001 -5.339650e-001 -6.952486e+000 168 148 111
6.542223e-001 9.873294e-001 -6.688577e+000 216 73 82
8.923441e-001 -2.289066e+000 -6.928372e+000 170 170 172
8.945044e-001 -1.356835e+000 -6.881066e+000 169 169 169
6.665762e-001 -3.088319e-001 -6.643042e+000 183 171 159
9.832482e-001 -1.835738e+000 -6.848270e+000 153 154 156
8.440006e-001 7.412367e-001 -6.520769e+000 76 63 64
1.203504e+000 -2.443444e+000 -6.521847e+000 167 165 168
1.028106e+000 -4.382759e-001 -6.306671e+000 191 168 118
1.290442e+000 -2.282063e-001 -6.099908e+000 149 140 141
1.338171e+000 -1.773325e-001 -6.126529e+000 142 138 138
-3.654738e-001 2.825885e-001 -8.025266e+000 56 47 42
-3.260745e-001 6.357237e-002 -7.852060e+000 153 25 32
-1.635388e-001 5.794462e-001 -7.622857e+000 204 194 182
-2.670759e-002 1.118138e+000 -7.426880e+000 223 207 194
6.414862e-003 1.327450e+000 -7.375316e+000 75 8 16
-2.060255e-001 5.196005e-001 -7.459875e+000 147 134 119
3.899476e-002 6.109950e-001 -7.295186e+000 214 205 194
-8.383078e-001 -2.411912e-001 -6.470622e+000 47 11 17
4.831842e-001 1.237773e+000 -6.935698e+000 72 58 55
7.124989e-001 -1.566406e+000 -7.143779e+000 158 163 157
5.447915e-001 -3.301052e-001 -6.835721e+000 180 169 149
6.636555e-001 -1.098560e+000 -7.015084e+000 154 153 149
5.347133e-001 -3.221302e-001 -6.787480e+000 254 250 238
7.264094e-001 9.099416e-001 -6.650619e+000 213 70 78
7.671189e-001 8.715758e-001 -6.603225e+000 23 14 17
9.692759e-001 -1.852066e+000 -6.826479e+000 179 180 182
9.491592e-001 -1.727865e+000 -6.808982e+000 190 190 192
7.087408e-001 -3.924570e-001 -6.503522e+000 231 211 155
1.135480e+000 2.915265e-003 -6.224731e+000 229 103 110
-2.303152e-001 2.778625e-001 -7.393126e+000 177 165 149
3.121760e-001 1.244583e+000 -7.077029e+000 209 49 61
6.033921e-001 -4.966444e-001 -6.834694e+000 214 209 190
7.971259e-001 -7.246273e-001 -6.657091e+000 254 253 249
-5.847416e-001 5.623592e-001 -8.172249e+000 230 75 79
-1.123002e-001 7.375224e-001 -7.477966e+000 136 123 110
-1.175184e-001 7.864968e-001 -7.400824e+000 169 155 143
-4.628805e-001 -1.386241e-001 -7.239073e+000 124 117 119
-4.759702e-001 -1.713113e-002 -7.095518e+000 90 38 25
-4.795787e-001 -1.192484e-002 -7.091662e+000 90 38 25
3.339450e-001 1.282408e+000 -7.044562e+000 229 73 86
-8.466294e-001 -2.454677e-001 -6.514764e+000 51 22 10
1.311329e-001 -5.296781e-002 -6.849966e+000 254 255 243
4.724308e-001 3.561010e-001 -6.979749e+000 211 201 192
6.899036e-001 -9.140168e-001 -6.807418e+000 169 51 49
8.301801e-001 -1.750530e+000 -6.920773e+000 156 158 157
8.239635e-001 -7.516947e-001 -6.630504e+000 220 211 196
1.328432e+000 -4.959643e-001 -6.150437e+000 127 123 124
-2.099787e-001 3.755036e-001 -7.586350e+000 147 134 117
-5.472257e-001 -1.378638e-001 -7.243740e+000 129 127 126
-6.861493e-001 -2.527355e-001 -6.619849e+000 149 70 48
3.578555e-001 1.074123e+000 -7.019591e+000 249 241 239
6.485748e-002 -1.860355e-002 -6.916049e+000 141 128 115
6.485748e-002 -1.860355e-002 -6.916049e+000 141 128 115
4.354779e-001 7.687052e-001 -6.997015e+000 249 245 236
3.971758e-001 -6.386678e-001 -6.881181e+000 228 222 210
5.030428e-001 -2.505867e-001 -6.752655e+000 253 246 236
6.883973e-001 -8.314126e-001 -6.734688e+000 248 237 228
6.729705e-001 -8.104773e-001 -6.725263e+000 248 237 228
6.797432e-001 -1.298154e-001 -6.586777e+000 245 241 232
1.065257e+000 -5.859386e-001 -6.354497e+000 178 35 39
1.143424e+000 3.555567e-002 -6.250136e+000 125 15 24
1.143424e+000 3.555567e-002 -6.250136e+000 125 15 24
1.319591e+000 -4.264006e-001 -6.146535e+000 255 251 205
-2.973943e-001 -3.827094e-001 -7.832331e+000 223 216 205
-2.520188e-001 -1.066560e-001 -6.830399e+000 94 33 32
-3.215740e-001 -2.214624e-001 -6.664947e+000 112 25 18
-3.086551e-001 5.647433e-001 -7.762261e+000 229 222 212
-6.020169e-001 -3.034305e-001 -6.655143e+000 246 208 163
-1.556042e-001 -1.516804e-001 -6.827273e+000 253 246 240
1.368079e-001 2.013190e-001 -6.996555e+000 222 214 203
-4.715330e-001 8.827387e-001 -7.954230e+000 215 62 67
-5.194176e-001 5.519570e-001 -8.038626e+000 194 184 172
-6.142958e-001 6.528414e-001 -8.108018e+000 202 46 50
-2.263959e-001 1.251604e-001 -7.645172e+000 88 17 24
-2.263959e-001 1.251604e-001 -7.645172e+000 88 17 24
-1.504733e-001 9.084903e-001 -7.422560e+000 229 222 212
5.321071e-001 6.003281e-001 -6.929482e+000 233 226 216
1.247958e+000 -3.277046e-001 -6.185814e+000 255 251 203
4.956759e-001 1.179061e-001 -6.754028e+000 154 141 123
9.355816e-001 6.561168e-002 -6.500410e+000 253 246 240
-3.880961e-001 1.028435e+000 -7.909805e+000 21 12 15
1.491452e-001 1.306841e+000 -7.467826e+000 16 7 10
-3.621418e-001 6.257267e-001 -7.822606e+000 226 220 208
-1.373928e+000 -1.181358e+001 -1.083394e+001 96 98 111
7.621238e-001 5.926767e-001 -6.590894e+000 244 76 87
-7.802354e-002 8.040066e-001 -7.606019e+000 222 214 203
-7.019497e-002 3.534033e-001 -7.315948e+000 145 132 115
-1.797638e-001 6.595766e-001 -7.476967e+000 168 155 141
1.041388e+000 -1.017073e+000 -6.581085e+000 142 141 139
5.928007e-001 5.433707e-001 -6.825523e+000 170 158 142
-2.568635e-001 -2.349039e-001 -7.760112e+000 178 166 150
-2.195827e-001 2.767672e-001 -7.580079e+000 175 163 151
-1.203714e-001 7.743007e-001 -7.436120e+000 187 175 161
2.074469e-001 1.161009e+000 -7.223501e+000 216 61 69
1.168911e-001 -3.730260e+000 -8.186503e+000 179 188 183
-6.137129e-001 -7.754580e-002 -6.761678e+000 83 19 10
-3.135437e-001 -1.667970e-003 -6.946255e+000 63 23 19
7.171384e-001 -1.605985e+000 -7.120509e+000 116 122 118
-6.501255e-001 6.246184e-001 -8.223009e+000 44 33 30
-4.059400e-001 7.688375e-001 -7.859239e+000 169 155 139
-2.189487e-001 1.415210e-001 -7.228366e+000 152 136 121
-2.189487e-001 1.415210e-001 -7.228366e+000 152 136 121
-2.133166e-001 1.515132e-001 -7.237888e+000 121 105 90
2.371921e-001 2.919917e-001 -7.039939e+000 145 131 118
3.074596e-001 2.480179e-001 -6.986819e+000 159 142 126
6.456152e-001 -9.166441e-002 -6.641900e+000 239 231 220
1.015731e+000 -2.965555e+000 -6.914248e+000 164 162 165
8.615425e-001 5.818966e-001 -6.525118e+000 192 49 57
1.013906e+000 -2.615518e-001 -6.409778e+000 139 113 100
-1.486222e-001 5.965418e-001 -7.611448e+000 191 179 165
-1.959316e-001 3.493017e-001 -7.467809e+000 172 158 145
4.603073e-001 -9.320178e-004 -6.727718e+000 177 166 147
8.816288e-001 -2.824815e-001 -6.486674e+000 158 141 129
9.598561e-001 -3.786105e-001 -6.330066e+000 227 205 154
1.027516e+000 -6.438683e-001 -6.344735e+000 235 106 111
8.298691e-002 6.037784e-001 -7.231480e+000 158 145 129
5.128956e-001 5.197031e-001 -6.926304e+000 166 157 144
