ply
format ascii 1.0
element face 0
property list uchar int vertex_indices
element vertex 870
property float x
property float y
property float z
property uchar diffuse_red
property uchar diffuse_green
property uchar diffuse_blue
end_header
5.927472e-001 -7.119128e-002 -6.628079e+000 222 215 209
-2.067893e-001 -2.241997e-001 -6.822624e+000 80 58 21
-6.229803e-001 -3.728067e-001 -6.733926e+000 48 29 27
-3.483825e-001 -3.779611e-001 -6.699171e+000 180 170 168
-1.859158e-001 4.456074e-001 -7.408714e+000 209 202 192
-5.095725e-002 3.118449e-001 -7.147104e+000 166 156 146
-5.095725e-002 3.118449e-001 -7.147104e+000 166 156 146
4.820413e-001 -9.228577e-002 -6.734829e+000 195 190 184
-9.012136e-001 -1.909718e-001 -6.341486e+000 190 163 108
8.238534e-001 -1.929118e-001 -6.538005e+000 195 188 182
3.995616e-001 -4.378378e-001 -6.891402e+000 183 163 112
8.848177e-001 -4.656858e-001 -6.495155e+000 178 154 106
2.282761e-001 -7.475191e-001 -7.391224e+000 72 62 35
5.810812e-001 9.887984e-001 -6.762133e+000 202 42 51
-1.246650e-001 5.779806e-001 -7.359567e+000 150 141 131
1.037939e-001 3.509136e-001 -6.932595e+000 181 168 159
-8.141940e-001 -1.390460e-001 -6.453029e+000 146 69 42
-3.296273e-001 -2.446908e-001 -6.635455e+000 121 73 56
-3.296273e-001 -2.446908e-001 -6.635455e+000 121 73 56
1.001092e-001 -4.149886e-001 -6.925942e+000 47 30 18
4.903472e-001 -4.359112e-001 -6.964131e+000 102 84 47
4.494646e-001 -5.310876e-001 -7.036579e+000 85 66 41
8.695228e-001 -5.863503e-001 -6.578352e+000 180 158 145
8.763222e-001 -1.017285e+000 -6.687405e+000 224 60 67
8.763222e-001 -1.017285e+000 -6.687405e+000 224 60 67
8.461167e-001 1.854240e-001 -6.459662e+000 158 143 136
5.578044e-001 -4.901829e-002 -6.631674e+000 191 184 175
-6.915227e-001 -3.492027e-001 -6.569362e+000 255 211 172
6.590162e-001 8.515158e-001 -6.621743e+000 194 34 44
8.806458e-001 5.105635e-001 -6.364390e+000 19 0 9
-2.221177e-001 6.722100e-001 -7.665340e+000 223 216 209
2.161132e-001 5.778553e-001 -7.090904e+000 149 139 129
4.065477e-001 4.786529e-001 -6.895351e+000 222 213 208
-4.135390e-001 -8.325934e-002 -6.595467e+000 87 23 15
1.059871e+000 -6.348033e-002 -6.274977e+000 248 77 87
6.308592e-001 -1.215837e-001 -6.614607e+000 241 241 233
8.086011e-001 -2.961535e-001 -6.512671e+000 111 91 67
9.064447e-001 -3.206234e-001 -6.494436e+000 165 141 95
7.988273e-001 -3.688651e-001 -6.537779e+000 188 166 113
5.417338e-001 -5.624754e-001 -6.791113e+000 205 195 184
5.433725e-001 6.211793e-001 -6.719184e+000 209 202 194
-2.524543e-001 -2.061097e-001 -6.939843e+000 93 66 37
4.308760e-001 -2.843860e-001 -6.896801e+000 247 245 241
1.770078e-001 -4.816364e-001 -6.961590e+000 61 39 25
9.770789e-001 -6.872813e-001 -6.505364e+000 255 78 92
3.021449e-001 6.854069e-001 -7.040640e+000 228 221 214
3.584126e-001 -1.089849e+000 -7.453682e+000 144 123 80
-5.956450e-001 -4.842856e-001 -6.905974e+000 45 33 33
1.082502e+000 -5.790787e-001 -6.376203e+000 24 8 11
-1.032717e-001 1.147386e+000 -7.504553e+000 148 23 29
-8.530506e-002 7.616826e-001 -7.398027e+000 212 206 197
7.318274e-001 7.770400e-001 -6.570236e+000 98 12 21
7.790045e-002 5.982324e-001 -7.285182e+000 155 145 135
8.098582e-001 6.610694e-001 -6.524378e+000 188 53 56
-1.360005e-001 4.461665e-001 -7.414547e+000 151 141 131
3.119699e-001 2.312388e-001 -6.979658e+000 143 129 118
-1.508112e-001 4.505660e-002 -6.887492e+000 135 120 113
-6.152081e-002 6.630047e-002 -6.968081e+000 122 110 103
-4.706665e-002 3.430235e-002 -6.937066e+000 153 143 133
1.459930e-001 4.093266e-002 -6.733137e+000 156 146 137
-6.313771e-001 -1.840704e-001 -6.719784e+000 156 71 47
-6.313771e-001 -1.840704e-001 -6.719784e+000 156 71 47
-5.407240e-001 -1.443742e-001 -6.702930e+000 176 90 62
-5.470831e-001 -1.489337e-001 -6.745644e+000 176 90 62
-3.061325e-001 -1.641819e-001 -6.728120e+000 145 58 35
-3.379077e-001 -1.871917e-001 -6.669351e+000 196 88 56
4.439147e-001 -3.958223e-002 -6.705439e+000 197 189 181
-6.104318e-001 -2.723495e-001 -6.772840e+000 187 84 56
-5.657000e-001 -2.626391e-001 -6.773043e+000 191 72 37
3.305388e-002 -2.547204e-001 -6.912718e+000 242 236 231
-1.043894e-001 -3.207537e-001 -6.971377e+000 44 33 15
-4.659834e-001 -3.731920e-001 -6.663145e+000 201 179 160
1.228002e-001 -3.700614e-001 -6.956313e+000 141 120 74
4.157131e-001 -6.213960e-001 -6.945841e+000 241 238 228
6.135481e-001 -7.952261e-001 -6.921438e+000 229 79 86
9.748588e-001 -6.370044e-001 -6.367278e+000 180 21 31
9.678543e-001 -6.582887e-001 -6.351569e+000 23 4 1
-3.554870e-001 7.399281e-001 -7.826401e+000 195 186 185
7.728566e-001 7.460605e-001 -6.560047e+000 18 6 10
5.847513e-002 6.363441e-001 -7.272620e+000 212 206 200
5.687677e-002 6.352521e-001 -7.253229e+000 212 206 200
6.953429e-001 5.409174e-001 -6.619084e+000 234 229 226
6.974242e-001 5.406386e-001 -6.628660e+000 234 229 226
1.151234e-001 2.666731e-001 -6.976335e+000 136 120 107
-2.999344e-002 2.200360e-001 -7.130064e+000 152 139 130
-4.769427e-002 9.309376e-002 -6.982707e+000 128 114 105
2.950185e-001 1.966344e-001 -6.945840e+000 140 127 111
-1.734035e-001 6.348879e-002 -6.909849e+000 123 110 102
-1.734035e-001 6.348879e-002 -6.909849e+000 123 110 102
-1.089698e-001 9.549980e-003 -6.881266e+000 147 134 126
9.590551e-003 -2.896504e-002 -6.883438e+000 125 112 104
1.939116e-002 -1.064955e-002 -6.884439e+000 169 160 151
-3.207594e-001 -1.266663e-001 -6.746151e+000 65 4 1
-3.209611e-001 -1.267451e-001 -6.745857e+000 65 4 1
-2.105828e-001 -7.716446e-002 -6.828125e+000 172 87 71
-2.113669e-001 -1.257346e-001 -6.802565e+000 207 180 171
-7.363595e-001 -2.907584e-001 -6.537928e+000 230 112 81
-7.363595e-001 -2.907584e-001 -6.537928e+000 230 112 81
-5.721344e-001 -3.337716e-001 -6.786037e+000 66 24 20
-4.787606e-001 -3.628766e-001 -6.643680e+000 57 54 68
-2.625645e-001 -3.598576e-001 -6.812876e+000 179 166 158
3.733060e-001 -2.325237e-001 -6.893846e+000 230 227 220
-8.001780e-002 -4.409347e-001 -6.976050e+000 254 252 247
-6.234499e-002 -4.793834e-001 -7.067717e+000 46 35 29
6.918752e-001 -5.058554e-001 -6.568693e+000 211 186 130
1.179639e+000 -3.875489e-001 -6.254294e+000 198 175 121
2.076823e-001 -8.992823e-001 -7.168603e+000 41 31 23
3.913224e-001 -1.033350e+000 -7.290070e+000 150 128 79
9.892841e-001 -6.087602e-001 -6.386586e+000 211 46 55
5.166924e-001 1.105420e+000 -6.933732e+000 182 43 46
-3.404446e-001 7.182008e-001 -7.784837e+000 156 140 131
6.702466e-001 7.902435e-001 -6.583733e+000 113 9 17
-5.190777e-001 4.972588e-001 -8.051307e+000 34 24 16
-2.053238e-001 6.056529e-001 -7.682286e+000 205 198 188
-2.560894e-001 4.993810e-001 -7.725989e+000 217 210 200
-1.959183e-001 3.995573e-001 -7.484150e+000 144 131 120
-7.868988e-002 3.894237e-001 -7.358244e+000 172 162 152
6.620264e-001 4.930447e-001 -6.659811e+000 229 226 221
6.625167e-001 4.928617e-001 -6.662630e+000 229 226 221
1.096985e-001 2.141551e-001 -6.999883e+000 175 165 156
-1.999772e-001 1.215692e-001 -7.012428e+000 138 124 115
-5.988490e-002 2.307677e-002 -6.932140e+000 115 102 93
-5.030132e-003 3.015897e-003 -6.914233e+000 123 113 104
-1.946039e-001 -1.075495e-001 -6.878141e+000 184 161 155
1.633660e-001 -4.622202e-002 -6.856014e+000 206 197 188
-8.066677e-001 -1.870042e-001 -6.514193e+000 77 22 2
-7.842586e-001 -2.080447e-001 -6.470551e+000 54 5 8
-3.137125e-001 -1.880931e-001 -6.706677e+000 219 97 66
-2.126061e-001 -2.243643e-001 -6.892232e+000 93 69 26
-6.533331e-001 -2.949752e-001 -6.627496e+000 225 183 143
-1.736885e-001 -2.803831e-001 -6.895867e+000 97 79 41
-2.374748e-001 -3.242088e-001 -6.855933e+000 203 193 181
-2.138544e-001 -4.451282e-001 -6.920284e+000 45 36 31
-3.627319e-001 -5.131716e-001 -6.876175e+000 234 233 229
1.059118e+000 -3.279631e-001 -6.299684e+000 152 124 77
5.106158e-001 -6.415007e-001 -6.811304e+000 160 147 126
5.898172e-001 -7.483511e-001 -6.866859e+000 174 33 33
9.574117e-001 -6.107868e-001 -6.372854e+000 214 52 58
-6.939116e-002 1.062016e+000 -7.430325e+000 173 35 41
-2.342063e-001 9.780739e-001 -7.697715e+000 195 44 52
-2.342063e-001 9.780739e-001 -7.697715e+000 195 44 52
-3.332044e-001 8.103375e-001 -7.742382e+000 210 44 53
-1.867743e-001 8.254583e-001 -7.661567e+000 203 195 185
-1.863373e-001 8.256301e-001 -7.662074e+000 203 195 185
-3.637470e-001 7.673030e-001 -7.836520e+000 183 34 41
-3.713878e-001 6.564883e-001 -7.830517e+000 178 166 154
2.145628e-001 6.884154e-001 -7.226808e+000 213 204 198
4.085667e-002 5.918159e-001 -7.267662e+000 195 185 177
2.486249e-001 6.594981e-001 -7.178292e+000 208 201 195
-1.317769e-001 4.767001e-001 -7.414642e+000 193 184 175
8.098857e-001 5.400833e-001 -6.546044e+000 203 45 53
8.285802e-001 5.803909e-001 -6.527232e+000 171 26 33
-2.940269e-001 1.784599e-001 -7.880055e+000 203 52 59
-8.417403e-002 2.074338e-001 -7.167740e+000 124 111 102
-3.965158e-002 1.584584e-001 -7.095715e+000 122 114 103
-2.669331e-001 4.980362e-002 -6.945319e+000 130 108 100
6.660567e-001 9.946450e-002 -6.741548e+000 188 179 170
-9.407322e-001 -1.904414e-001 -6.453730e+000 158 135 82
1.030690e+000 1.247193e-001 -6.422598e+000 222 55 65
4.762290e-001 -8.962388e-002 -6.700793e+000 202 197 191
-8.450075e-001 -2.538804e-001 -6.495817e+000 98 31 28
-4.439407e-001 -2.978320e-001 -6.673109e+000 143 9 18
5.021457e-001 -3.114346e-001 -6.851444e+000 165 151 141
4.711018e-001 -4.109181e-001 -6.825497e+000 91 74 38
6.007718e-001 -3.346708e-001 -6.716509e+000 165 152 135
5.660900e-001 -3.654063e-001 -6.714570e+000 148 138 123
9.065819e-001 -2.568286e-001 -6.422226e+000 83 65 39
8.967752e-001 -2.517924e-001 -6.395652e+000 83 65 39
1.070612e+000 -2.110713e-001 -6.299448e+000 140 118 71
8.928190e-001 -5.166090e-001 -6.479529e+000 197 167 159
1.251453e+000 -3.797605e-001 -6.154720e+000 27 14 14
6.170306e-001 -7.938516e-001 -6.747863e+000 39 28 23
7.655486e-001 -8.147920e-001 -6.669750e+000 224 57 65
-3.600047e+000 9.434703e-001 -1.206050e+001 11 7 8
2.321746e-001 8.352493e-001 -7.194347e+000 192 179 173
6.771834e-001 8.670781e-001 -6.659033e+000 183 29 39
-6.599192e-002 5.406253e-001 -7.301646e+000 183 173 163
4.482470e-001 3.911035e-001 -6.950566e+000 183 175 163
-2.677716e-001 2.453026e-001 -7.781042e+000 168 33 38
2.006152e-001 6.395896e-002 -6.887994e+000 159 144 137
-3.879997e-001 -4.198549e-002 -6.829084e+000 123 51 35
3.835614e-001 7.931539e-002 -6.813901e+000 179 171 160
-9.373495e-001 -2.563092e-001 -6.525146e+000 32 23 24
-5.543024e-001 -1.877339e-001 -6.710313e+000 234 122 84
-5.371110e-001 -2.188315e-001 -6.699511e+000 166 35 18
-6.164370e-002 -1.296003e-001 -6.808585e+000 241 236 233
1.071467e+000 5.802399e-002 -6.263609e+000 119 10 23
-4.862354e-001 -4.088597e-001 -6.739440e+000 161 144 133
-2.565833e-001 -4.368514e-001 -6.855836e+000 211 204 198
8.449740e-001 -2.643274e-001 -6.509929e+000 147 129 119
8.293917e-001 -3.058979e-001 -6.429942e+000 174 151 101
6.139673e-001 -5.795474e-001 -6.659000e+000 194 185 174
8.730480e-001 -4.619123e-001 -6.450112e+000 175 151 105
1.239424e+000 -4.006876e-001 -6.164557e+000 206 183 115
1.239424e+000 -4.006876e-001 -6.164557e+000 206 183 115
7.817138e-001 -6.966473e-001 -6.635701e+000 208 200 189
3.430293e-001 -1.088610e+000 -7.397453e+000 134 114 69
4.584354e-001 -1.052688e+000 -7.277130e+000 13 5 8
9.694687e-001 -5.905941e-001 -6.384782e+000 150 2 16
-2.012563e+000 -2.861761e+000 -1.071233e+001 37 31 33
-1.996170e+000 -2.991102e+000 -1.071385e+001 37 31 33
-1.530739e+000 -2.191450e+000 -8.786227e+000 39 33 35
-5.346013e-001 6.734202e-001 -8.037985e+000 191 41 42
-9.808368e-002 6.243499e-001 -7.376007e+000 206 197 188
-4.582922e-001 4.268064e-001 -7.936370e+000 208 194 184
-2.009130e-001 4.484396e-001 -7.489901e+000 202 194 183
4.374171e-001 2.803341e-001 -7.006040e+000 141 133 122
1.081333e-001 9.905174e-002 -6.932871e+000 155 145 136
-8.874713e-001 -1.716461e-001 -6.425945e+000 39 24 28
-2.204035e-001 -1.461263e-001 -6.852551e+000 182 160 154
4.128991e-001 -1.963682e-003 -6.746669e+000 220 216 210
4.128991e-001 -1.963682e-003 -6.746669e+000 220 216 210
2.326060e-001 -1.278976e-001 -6.873482e+000 255 252 244
5.741329e-001 -4.647375e-002 -6.658140e+000 188 179 172
6.151882e-001 -1.525827e-002 -6.648735e+000 213 205 196
6.932312e-001 -5.196472e-002 -6.624572e+000 180 172 160
6.932576e-001 -5.180876e-002 -6.624641e+000 180 172 160
4.954395e-001 -1.470195e-001 -6.745528e+000 226 221 217
4.954395e-001 -1.470195e-001 -6.745528e+000 226 221 217
1.043296e+000 -4.909033e-001 -6.358910e+000 229 58 69
-1.973068e+000 -2.786148e+000 -1.071724e+001 24 18 20
-1.926658e+000 -2.878067e+000 -1.063116e+001 20 14 16
-1.852436e+000 -3.011620e+000 -1.053238e+001 29 23 25
5.829183e-001 9.897782e-001 -6.791098e+000 199 40 48
-2.085072e-001 9.354464e-001 -7.707740e+000 191 41 48
-1.179414e-001 6.931171e-001 -7.371789e+000 177 168 159
-6.454976e-002 7.103915e-001 -7.347521e+000 218 211 201
6.466971e-001 7.343170e-001 -6.616022e+000 189 43 49
-5.314081e-001 4.858938e-001 -8.059264e+000 38 24 21
-1.444242e-001 4.287297e-001 -7.459392e+000 145 133 122
1.097996e-001 3.653837e-001 -7.105036e+000 188 175 166
3.381785e-001 3.230863e-001 -7.037986e+000 170 162 149
5.948085e-001 1.386435e-001 -6.825986e+000 155 145 134
-9.299653e-001 -2.014909e-001 -6.463432e+000 168 147 100
-9.299653e-001 -2.014909e-001 -6.463432e+000 168 147 100
-8.614113e-001 -1.933893e-001 -6.478769e+000 151 127 81
6.132833e-001 -1.511927e-002 -6.641758e+000 213 205 196
1.078590e+000 -6.017075e-002 -6.303212e+000 247 80 90
4.275814e-001 -5.092706e-001 -6.908768e+000 81 64 37
5.425891e-001 -5.608450e-001 -6.780465e+000 204 191 182
1.187888e+000 -3.498125e-001 -6.203310e+000 163 139 91
3.845060e-001 -1.137530e+000 -7.340768e+000 41 28 23
-1.767276e+000 -2.975325e+000 -1.054311e+001 68 64 65
-1.444416e-001 8.866724e-001 -7.382417e+000 220 197 200
4.941180e-001 5.506755e-001 -6.925406e+000 210 201 194
7.769986e-002 4.267090e-001 -7.170568e+000 153 141 129
3.096183e-001 4.509441e-001 -7.111458e+000 178 169 160
-2.670200e-002 3.718462e-001 -7.295068e+000 140 130 118
6.382400e-002 2.027122e-001 -7.042143e+000 128 116 106
1.304758e-001 1.941609e-001 -6.985190e+000 201 194 184
4.359241e-001 2.909607e-001 -7.019544e+000 151 143 132
7.057843e-001 2.271286e-001 -6.663019e+000 249 245 240
7.504851e-002 -2.756585e-002 -6.897257e+000 127 117 107
-7.474974e-001 -1.873727e-001 -6.545130e+000 155 66 34
-2.215751e-002 -2.879135e-001 -6.925237e+000 244 241 236
6.995930e-001 -1.235814e-001 -6.569096e+000 133 119 108
6.184303e-001 -2.546478e-001 -6.688095e+000 234 230 221
4.811172e-001 9.724689e-001 -6.894302e+000 207 41 48
-4.053234e-001 3.208943e-001 -7.889997e+000 37 29 27
9.000222e-001 5.187604e-001 -6.412936e+000 17 7 8
-4.173537e-001 -7.996150e-002 -6.713514e+000 87 27 18
1.830093e-001 -4.746081e-001 -6.924556e+000 63 35 24
9.983667e-001 -2.120287e-001 -6.389729e+000 108 27 33
6.628370e-001 -3.999568e-001 -6.564805e+000 222 197 140
8.879886e-001 -3.145643e-001 -6.409955e+000 175 151 103
8.712030e-001 -5.213164e-001 -6.488049e+000 227 214 206
2.884687e-001 6.790098e-001 -6.931119e+000 230 221 214
5.473815e-001 6.347688e-001 -6.832223e+000 215 208 200
3.901393e-001 4.776422e-001 -6.966540e+000 211 204 196
3.929198e-001 4.773292e-001 -6.973191e+000 211 204 196
7.283804e-001 3.012717e-001 -6.636584e+000 174 159 147
3.439490e-001 1.168370e-001 -6.858232e+000 178 168 159
1.002349e+000 -3.652064e-001 -6.346493e+000 108 88 50
2.986125e-002 6.940551e-001 -7.257156e+000 217 208 201
-2.628763e-002 4.934654e-001 -7.349527e+000 186 176 167
2.135484e-002 3.508700e-001 -7.207881e+000 131 121 111
8.290544e-001 2.942624e-001 -6.499076e+000 249 248 244
7.014668e-001 -2.230488e-001 -6.564928e+000 247 240 234
3.530829e-001 -1.081271e+000 -7.399068e+000 140 121 72
1.059409e-001 1.012698e+000 -7.272109e+000 210 201 196
3.602561e-001 5.861255e-001 -6.968713e+000 233 224 217
-3.121984e-001 -9.563558e-002 -6.764017e+000 76 21 19
5.005710e-001 1.043909e-001 -6.776369e+000 138 126 114
5.291260e-001 -4.359471e-001 -6.804861e+000 170 148 100
-3.104439e-001 5.482791e-001 -7.875092e+000 215 206 197
-7.078715e-002 -6.663211e-001 -6.996839e+000 39 31 29
6.749723e-001 4.035467e-001 -6.658044e+000 243 242 237
-2.642461e-001 1.349773e-002 -6.892354e+000 73 25 18
-3.482560e-002 1.791031e-002 -6.931547e+000 142 132 122
-2.152820e-001 -3.598436e-001 -6.839709e+000 172 159 150
-2.859008e-001 -3.862101e-001 -6.783225e+000 171 161 150
2.174369e-001 6.629575e-001 -7.234325e+000 175 166 157
2.225150e-001 2.118467e-001 -6.993409e+000 124 113 103
-1.798551e-001 -1.700234e-002 -6.886656e+000 149 136 128
-3.005022e-001 -3.038909e-001 -6.811445e+000 168 150 139
7.242356e-001 8.162464e-001 -6.616438e+000 122 32 33
-1.589783e-001 4.795141e-001 -7.482775e+000 164 156 145
-5.512055e-001 -8.478454e-002 -6.742709e+000 108 35 15
-4.091197e-001 -3.549038e-001 -6.628491e+000 168 149 148
1.099444e+000 5.064731e-002 -6.256677e+000 180 41 48
4.108955e-001 -1.215482e-001 -6.814156e+000 253 250 245
-1.917348e-001 -4.280008e-001 -6.939827e+000 240 237 230
5.897569e-001 -7.486203e-001 -6.866279e+000 181 39 35
7.988918e-001 6.210583e-001 -6.542225e+000 189 34 42
6.838483e-001 5.935316e-001 -6.614171e+000 249 64 78
9.903610e-001 2.130050e-001 -6.383206e+000 227 60 68
1.069145e+000 5.593422e-002 -6.274303e+000 121 11 20
-8.095327e+000 -5.911261e+000 -1.861928e+001 106 97 95
-4.403989e-001 8.801332e-001 -7.912996e+000 25 18 16
1.793636e-001 3.936785e-001 -7.115529e+000 134 124 111
-3.594336e-002 1.087665e+000 -7.404536e+000 181 36 41
1.205556e+000 -1.891634e-001 -6.164136e+000 190 165 111
1.205556e+000 -1.891634e-001 -6.164136e+000 190 165 111
1.276001e-001 3.257462e-002 -6.896799e+000 132 120 108
-6.383526e-001 -1.323794e-001 -6.694315e+000 69 22 15
5.026546e-001 6.816034e-002 -7.199200e+000 142 132 120
5.617500e-001 6.201768e-001 -6.798334e+000 194 186 177
-1.582756e-001 1.356859e-001 -6.904756e+000 102 88 79
-7.296581e-001 -1.444629e-001 -6.990699e+000 114 51 31
-5.010682e-001 -2.304494e-001 -6.700026e+000 186 45 12
2.048580e-001 8.597986e-001 -7.220475e+000 195 186 181
-9.308260e-001 -1.738217e-001 -6.396674e+000 140 113 65
-9.042945e-001 -3.477728e-001 -6.685970e+000 51 37 33
-5.240440e-001 -2.130377e-001 -6.623671e+000 146 24 8
-6.738074e-001 -3.316261e-001 -6.567303e+000 220 167 124
-6.468660e-001 -2.932424e-001 -6.529241e+000 82 29 13
-6.468660e-001 -2.932424e-001 -6.529241e+000 82 29 13
2.179739e-001 6.689679e-001 -6.939190e+000 209 200 191
5.537651e-001 7.540607e-001 -6.681247e+000 187 177 171
-2.299174e-001 2.133959e-002 -6.895160e+000 89 32 21
-7.091592e-001 -3.441256e-001 -6.611769e+000 252 220 167
-6.711028e-001 -3.110292e-001 -6.561853e+000 253 210 175
-6.100037e-001 -2.954977e-001 -6.738716e+000 160 51 24
-5.652029e-001 -2.861561e-001 -6.715199e+000 239 157 124
-3.153183e-001 -1.825359e-001 -6.682842e+000 218 101 62
3.514959e-001 1.019154e+000 -7.007426e+000 227 214 213
6.538440e-001 6.245747e-001 -6.639386e+000 208 52 57
5.900277e-001 5.483912e-001 -6.987831e+000 150 140 128
-8.991415e-001 -1.914782e-001 -6.493267e+000 46 31 24
-2.840502e-001 -1.751416e-001 -6.657590e+000 99 24 18
-6.349488e-001 -3.264114e-001 -6.595875e+000 237 191 148
-8.490974e-001 -1.794249e-001 -6.416818e+000 140 117 76
5.152916e-001 1.058410e+000 -6.850203e+000 196 44 50
-6.793358e-001 -3.297829e-001 -6.568893e+000 232 174 132
-8.591849e-001 -1.500550e-001 -6.587294e+000 137 59 23
-3.360088e-001 -2.156222e-001 -6.637289e+000 227 105 57
2.619320e-001 8.102960e-001 -7.104478e+000 153 142 134
-1.993059e-001 6.345760e-001 -7.655901e+000 171 163 153
-1.975995e+000 -2.558592e+000 -1.062196e+001 58 49 50
8.268154e-001 5.570244e-001 -6.526107e+000 200 52 59
6.534865e-001 -8.889465e-001 -6.775165e+000 230 98 105
1.825263e-001 -4.783253e-001 -6.939385e+000 63 35 24
4.241671e-001 1.158717e+000 -6.907102e+000 174 44 51
5.620664e-002 6.361535e-001 -7.195697e+000 216 207 198
6.629132e-001 7.705006e-001 -6.561070e+000 188 44 48
-1.860213e-001 3.644409e-001 -7.431795e+000 152 140 128
2.959493e-001 2.277981e-001 -6.955600e+000 121 109 94
1.934484e-001 1.431602e-001 -6.845953e+000 191 178 169
-3.279073e-001 -1.320424e-001 -6.741152e+000 84 16 7
-4.379950e-001 -2.438976e-001 -6.638254e+000 167 86 64
4.183843e-001 -8.926210e-002 -6.736426e+000 214 209 202
4.229196e-001 -1.176625e-001 -6.774368e+000 223 217 211
-2.397797e-002 6.463983e-001 -7.336990e+000 205 198 190
7.285199e-001 7.820349e-001 -6.597964e+000 82 12 15
6.583505e-001 7.589850e-001 -6.488945e+000 206 47 61
3.362947e-002 2.239316e-001 -7.036447e+000 152 142 133
-4.395270e-001 -3.858233e-002 -6.800122e+000 118 50 32
-4.395270e-001 -3.858233e-002 -6.800122e+000 118 50 32
-6.023202e-002 4.504106e-002 -6.947301e+000 164 151 143
-2.815066e-001 -6.689567e-002 -6.852183e+000 84 17 11
1.946683e-001 -1.352905e-001 -6.858132e+000 254 254 249
-1.755059e+000 -3.596890e+000 -1.047842e+001 45 39 41
2.951253e-001 1.232211e+000 -7.081052e+000 200 48 52
3.700696e-001 1.075832e+000 -7.076214e+000 214 51 52
3.563684e-001 1.073011e+000 -7.000005e+000 214 51 52
-4.233585e-001 8.850445e-001 -7.913788e+000 20 20 18
-1.816885e-001 8.355244e-001 -7.647739e+000 203 196 186
-2.204823e-001 5.589176e-001 -7.679716e+000 180 171 162
-1.067293e-001 4.407750e-001 -7.381920e+000 180 172 162
-2.264413e-001 4.292772e-002 -6.909687e+000 135 120 113
1.042685e+000 -3.391137e-001 -6.298148e+000 170 147 95
1.057917e+000 -3.250631e-001 -6.293605e+000 164 139 85
7.312812e-001 5.538516e-001 -6.557872e+000 245 68 80
7.015972e-002 1.608109e-001 -6.966937e+000 162 152 142
6.079202e-001 2.066470e-001 -6.838117e+000 172 163 152
6.412284e-001 -2.723919e-001 -6.681224e+000 229 225 216
-6.265821e+000 -7.458465e+000 -1.782666e+001 31 32 36
-4.573627e+000 -6.514475e+000 -1.519764e+001 131 127 141
-4.338230e+000 -6.780411e+000 -1.527682e+001 21 19 22
-5.818177e+000 -8.618700e+000 -1.705984e+001 110 109 122
3.307427e-001 1.215166e+000 -7.035119e+000 204 47 54
3.746886e-001 1.181178e+000 -6.966885e+000 194 38 42
-1.563998e-001 4.900928e-001 -7.470940e+000 165 155 145
6.907654e-001 5.637809e-001 -6.618354e+000 250 245 244
6.987520e-002 -7.320313e-002 -6.866947e+000 160 146 135
2.441194e-001 -2.222546e-001 -6.923506e+000 218 209 202
2.441194e-001 -2.222546e-001 -6.923506e+000 218 209 202
3.697314e-001 -2.766810e-001 -6.921817e+000 217 210 200
1.101127e+000 -1.257533e-001 -6.278558e+000 25 9 12
7.888905e-001 -7.557609e-001 -6.678505e+000 210 205 196
8.903645e-001 -7.513663e-001 -6.553127e+000 250 75 86
1.040330e+000 -8.197287e-001 -6.475913e+000 250 86 94
1.040330e+000 -8.197287e-001 -6.475913e+000 250 86 94
-4.407642e+000 -6.755217e+000 -1.512682e+001 134 131 146
-5.341126e+000 -8.485374e+000 -1.708059e+001 51 51 59
9.921176e-002 -4.098228e-001 -6.920049e+000 44 28 15
1.207683e+000 -1.834970e-001 -6.153432e+000 204 174 122
1.207683e+000 -1.834970e-001 -6.153432e+000 204 174 122
1.027047e+000 -8.034683e-001 -6.457866e+000 250 78 90
1.027047e+000 -8.034683e-001 -6.457866e+000 250 78 90
9.689382e-001 3.574068e-001 -6.367526e+000 218 54 65
-2.666936e-002 -5.166938e-001 -7.053175e+000 43 34 30
1.034011e+000 -1.609277e-001 -6.374706e+000 228 64 75
5.057706e-001 8.639562e-001 -6.855807e+000 230 219 215
2.108360e-001 5.888043e-001 -7.182990e+000 139 126 117
5.552263e-001 2.379976e-001 -6.876485e+000 209 202 194
-7.754777e-002 -3.346797e-001 -6.916902e+000 125 108 78
-6.083822e+000 -7.562706e+000 -1.753777e+001 115 112 119
-6.000434e+000 -7.927420e+000 -1.729604e+001 133 131 142
-6.000434e+000 -7.927420e+000 -1.729604e+001 133 131 142
5.097691e-001 8.548451e-001 -6.856019e+000 229 221 218
1.870495e-001 -4.851424e-001 -6.955628e+000 66 33 26
-4.661721e+000 -6.607909e+000 -1.571408e+001 167 169 184
-6.092243e+000 -6.265763e+000 -1.823077e+001 19 17 22
-3.094125e-001 5.502091e-001 -7.867100e+000 213 204 195
1.912661e-001 6.774714e-001 -7.334106e+000 177 170 162
7.559770e-001 7.658220e-001 -6.577696e+000 109 22 20
-2.061348e-001 1.091300e-001 -6.999627e+000 107 93 84
-1.714173e-001 7.796167e-002 -6.924122e+000 145 130 123
-4.313844e-001 -6.089203e-002 -6.824843e+000 87 19 8
-1.276018e-001 1.371281e-002 -6.873594e+000 128 114 109
-5.219878e-001 -1.345188e-001 -6.713022e+000 125 31 14
-7.799973e-001 -2.085432e-001 -6.527035e+000 87 29 14
-4.713008e+000 -6.145575e+000 -1.525059e+001 95 90 100
9.716648e-001 -6.541783e-001 -6.386870e+000 243 85 83
-1.528193e-001 8.507398e-001 -7.581048e+000 183 176 168
-5.078168e-001 5.618110e-001 -8.020135e+000 206 40 46
-1.940130e-001 5.857718e-001 -7.648378e+000 166 157 148
3.162140e-001 2.229046e-001 -7.097000e+000 144 130 119
-2.469940e-001 4.649381e-002 -6.918023e+000 79 33 28
-4.736295e-001 -6.692672e-002 -6.777041e+000 139 61 39
-6.423127e-001 -1.517111e-001 -6.678913e+000 74 17 10
2.903199e-001 -3.328641e-001 -6.933786e+000 126 110 95
6.048443e-001 -1.020443e-001 -6.625590e+000 218 214 205
6.048443e-001 -1.020443e-001 -6.625590e+000 218 214 205
-5.566111e+000 -8.679231e+000 -1.691948e+001 156 161 183
7.184072e-001 7.853814e-001 -6.620111e+000 76 7 10
1.050238e-001 1.932915e-001 -6.986776e+000 199 191 180
7.503988e-001 4.916961e-001 -6.623587e+000 207 201 195
9.578090e-001 3.463599e-001 -6.374309e+000 234 67 77
-3.150973e-001 -1.978605e-001 -6.735603e+000 214 102 65
7.781726e-001 -9.156090e-001 -6.766928e+000 226 78 79
-1.384381e+000 -2.678559e+000 -8.790391e+000 25 19 21
-5.504335e-001 5.411941e-001 -8.107631e+000 217 58 56
-1.797878e-001 3.438915e-001 -7.386584e+000 140 127 118
-1.009502e-001 4.169061e-001 -7.374789e+000 140 130 117
5.844907e-001 5.937220e-001 -6.784843e+000 166 156 146
2.552752e-001 2.577372e-001 -7.011360e+000 119 104 94
-3.011292e-001 4.142876e-002 -6.935365e+000 61 12 11
4.232680e-001 1.901095e-001 -6.900816e+000 120 108 94
-3.319069e-001 -7.730581e-002 -6.839180e+000 78 23 16
9.898133e-001 2.140435e-001 -6.383701e+000 242 73 82
-2.287307e-001 -3.791908e-001 -6.866639e+000 169 148 135
-4.816751e+000 -6.479201e+000 -1.513015e+001 9 8 14
-1.456154e+000 -4.811446e+000 -1.052960e+001 46 40 42
3.901783e-001 1.404082e-001 -6.844045e+000 203 195 185
7.105612e-001 6.783301e-002 -6.693323e+000 194 185 178
9.953248e-001 -3.974370e-001 -6.333091e+000 110 86 48
-4.772719e+000 -6.617731e+000 -1.516517e+001 155 153 167
-4.748831e+000 -6.575365e+000 -1.509921e+001 155 153 167
-5.876959e+000 -8.662716e+000 -1.697458e+001 130 131 149
-2.116465e-001 8.061729e-001 -7.660180e+000 202 193 185
4.186721e-001 6.909329e-001 -6.984562e+000 168 157 153
4.186721e-001 6.909329e-001 -6.984562e+000 168 157 153
5.688362e-001 3.127756e-001 -6.836672e+000 194 185 176
8.710510e-001 -1.000255e+000 -6.680803e+000 231 66 80
8.710510e-001 -1.000255e+000 -6.680803e+000 231 66 80
5.771962e-001 9.882805e-001 -6.770974e+000 209 45 56
8.054047e-001 -2.936401e-001 -6.506675e+000 91 74 54
8.432418e-001 -1.116109e-001 -6.531226e+000 164 151 143
8.797277e-001 -2.982790e-001 -6.374513e+000 182 157 108
-4.391334e+000 -6.804941e+000 -1.472762e+001 161 161 173
-5.362244e+000 -7.969798e+000 -1.664488e+001 10 8 12
-5.347125e+000 -7.937988e+000 -1.659650e+001 10 8 12
1.119612e+000 -1.494932e-001 -6.255296e+000 37 26 27
-5.712004e+000 -8.652021e+000 -1.708453e+001 168 173 195
-2.400559e-001 2.312260e-001 -7.550776e+000 122 28 31
-1.792736e-001 1.177240e-001 -6.806740e+000 142 129 120
-2.000977e-001 -5.146788e-002 -6.825784e+000 109 37 21
-1.742551e-001 -2.484905e-001 -6.870956e+000 240 229 226
3.976931e-001 -1.228222e-001 -6.820262e+000 238 235 228
-3.077071e-001 1.017818e+000 -7.757689e+000 29 19 19
-2.346057e-001 8.143978e-001 -7.707926e+000 203 194 185
2.308380e-001 7.011288e-001 -7.195315e+000 190 181 174
2.360394e-001 6.933867e-001 -7.233059e+000 190 181 174
1.498926e-001 2.236224e-001 -6.921590e+000 157 141 126
-4.859534e-001 -6.858769e-002 -6.746820e+000 144 65 43
-1.310283e-001 4.820096e-002 -6.956874e+000 131 116 109
-8.474207e-001 -2.368668e-001 -6.473103e+000 91 24 17
-5.504680e-001 -2.103898e-001 -6.640299e+000 251 139 101
-1.843388e-001 -3.550162e-001 -6.851472e+000 191 183 174
-1.771863e+000 -3.527707e+000 -1.047756e+001 41 35 37
8.169857e-001 -2.657211e-001 -6.530100e+000 139 122 110
4.522958e-001 -1.101602e+000 -7.300501e+000 241 221 182
-1.537440e-002 1.252018e+000 -7.356285e+000 186 39 40
-2.995730e-001 -2.623123e-002 -7.908970e+000 35 27 26
-2.995730e-001 -2.623123e-002 -7.908970e+000 35 27 26
-5.670730e-001 -3.966262e-002 -6.860423e+000 69 16 8
-5.670730e-001 -3.966262e-002 -6.860423e+000 69 16 8
8.026268e-001 5.289644e-001 -6.579650e+000 214 57 66
-6.531355e-001 -1.710148e-001 -6.567393e+000 147 63 39
4.111018e-001 4.802583e-002 -6.839769e+000 131 119 107
-6.285923e-002 -2.237916e-001 -6.852517e+000 253 250 243
7.951480e-002 -1.972002e-001 -6.894777e+000 232 225 219
-7.042166e-001 -3.267658e-001 -6.560265e+000 43 35 33
-2.347298e-001 -4.017428e-001 -6.845163e+000 232 225 221
3.639672e-001 -4.355443e-001 -6.891749e+000 196 183 131
-1.683953e+000 -3.640839e+000 -1.051520e+001 53 47 47
2.955254e-002 1.115975e+000 -7.339437e+000 203 42 49
-3.155141e-001 -1.908959e-001 -6.718502e+000 227 116 77
-8.982968e-002 -1.983120e-001 -6.826117e+000 227 224 219
-4.572640e-001 4.268000e-001 -7.860704e+000 213 200 191
7.889663e-001 5.008190e-001 -6.589953e+000 174 33 44
4.330837e-002 -4.988862e-002 -6.885667e+000 159 149 140
4.088324e-002 -4.229743e-002 -6.867179e+000 159 149 140
-1.894173e-001 -3.991273e-001 -6.887688e+000 242 236 232
9.928392e-001 1.604019e-001 -6.373603e+000 195 35 45
9.928392e-001 1.604019e-001 -6.373603e+000 195 35 45
4.494532e-001 -3.193937e-001 -6.899547e+000 244 237 231
1.068838e+000 2.117064e-002 -6.253671e+000 229 83 91
6.896967e-001 -8.243555e-001 -6.743821e+000 219 47 59
2.456256e-001 8.992732e-001 -7.228505e+000 223 217 213
-4.827603e-001 -2.078191e-001 -6.698991e+000 249 132 87
5.949757e-001 -5.815644e-001 -6.737597e+000 229 217 208
-6.002629e-001 -1.479938e-001 -6.707053e+000 94 33 26
3.445949e-001 5.274851e-002 -6.829700e+000 199 190 181
4.610196e-001 2.813714e-002 -6.731907e+000 146 134 120
4.610196e-001 2.813714e-002 -6.731907e+000 146 134 120
4.795477e-001 -1.277895e-002 -6.669395e+000 214 207 199
5.202036e-001 -4.205199e-001 -6.726804e+000 178 156 106
9.707935e-002 1.230713e+000 -7.262350e+000 203 48 54
-2.020980e-001 2.425642e-001 -7.559813e+000 184 174 162
-2.887525e-001 4.692095e-002 -7.402065e+000 220 212 205
-1.374328e-001 6.061131e-001 -7.526884e+000 168 162 150
-1.374328e-001 6.061131e-001 -7.526884e+000 168 162 150
5.011928e-001 -7.784956e-001 -6.912277e+000 251 250 245
-6.490481e-001 -1.523717e-001 -6.760292e+000 65 17 12
6.207250e-001 -3.618789e-001 -6.664035e+000 100 85 64
7.212316e-001 -9.193234e-001 -6.714504e+000 50 36 36
-4.079692e-001 2.278183e-001 -7.686302e+000 38 27 27
-3.223062e-001 -1.051898e-001 -6.793034e+000 66 11 8
3.074591e-001 -1.479300e-001 -6.889249e+000 245 242 234
3.080490e-001 -1.470024e-001 -6.886858e+000 245 242 234
-4.339918e-002 -6.696334e-001 -7.029635e+000 35 30 27
-8.800834e+000 -1.027428e+001 -2.351842e+001 23 19 20
-1.913894e+000 -3.273778e+000 -1.069454e+001 38 32 34
6.587778e-001 -1.478010e-001 -6.571492e+000 228 220 210
-4.267863e+000 -6.556026e+000 -1.527452e+001 30 28 33
-4.354872e+000 -6.604797e+000 -1.519172e+001 165 161 175
-5.962762e+000 -8.270589e+000 -1.704371e+001 9 7 10
-5.041486e-002 2.174588e-001 -7.139048e+000 145 132 123
-4.855871e-001 -9.102115e-002 -6.746381e+000 121 37 16
-4.743255e-001 -1.281497e-001 -6.699736e+000 129 34 14
8.025095e-001 -9.847749e-001 -6.780499e+000 48 30 30
3.689049e-001 1.090124e+000 -7.033789e+000 214 50 57
5.645081e-001 5.923683e-001 -6.827521e+000 204 194 185
-5.998063e+000 -7.221658e+000 -1.815965e+001 84 84 92
-5.718777e+000 -8.871163e+000 -1.694044e+001 12 10 16
8.625974e-002 1.108134e+000 -7.252935e+000 232 192 168
1.826051e-001 6.496646e-001 -7.254366e+000 181 174 164
3.101657e-001 1.084066e+000 -7.060434e+000 203 32 40
-5.224934e-002 5.025524e-001 -7.338937e+000 208 197 191
-5.224934e-002 5.025524e-001 -7.338937e+000 208 197 191
7.564481e-002 5.595825e-001 -7.206462e+000 176 167 154
5.311452e-001 5.862316e-001 -6.878068e+000 187 181 170
-8.473777e-002 2.210755e-001 -7.228066e+000 145 135 125
1.794757e-001 2.581111e-001 -7.018242e+000 122 108 97
-4.871041e-001 -7.222930e-002 -6.754521e+000 144 65 43
-2.572845e-001 -5.358634e-002 -6.859706e+000 90 21 15
-6.105755e+000 -7.738562e+000 -1.797652e+001 79 79 80
-4.762973e+000 -6.207471e+000 -1.523444e+001 101 99 108
-4.640678e+000 -6.943677e+000 -1.529880e+001 156 154 168
-3.916066e+000 -7.351229e+000 -1.503253e+001 84 87 96
-1.563178e+000 -4.298036e+000 -1.044726e+001 50 44 48
-1.931316e-001 8.513301e-001 -7.668968e+000 161 147 139
-7.457198e-002 2.474434e-001 -7.225431e+000 130 118 106
2.437110e-001 2.667661e-001 -7.088466e+000 127 115 102
-5.977298e+000 -7.548895e+000 -1.754249e+001 80 79 84
-2.143343e+000 -3.167648e+000 -1.087833e+001 55 50 54
-5.357888e+000 -8.624132e+000 -1.709630e+001 120 121 139
-1.513254e+000 -4.373867e+000 -1.037462e+001 53 48 52
5.613087e-001 5.576317e-001 -6.864974e+000 153 143 133
-2.929798e-001 -1.606753e-002 -6.859221e+000 70 20 17
8.185846e-001 3.680427e-001 -6.473553e+000 252 81 93
7.657608e-001 7.254498e-001 -6.548796e+000 21 1 4
-5.884297e-001 6.283291e-001 -8.160586e+000 38 24 20
2.403172e-001 1.393191e-002 -6.859128e+000 244 240 231
5.537473e-001 9.247477e-002 -6.779594e+000 189 175 165
-4.620927e+000 -6.619198e+000 -1.540187e+001 142 138 153
-4.046361e+000 -7.640285e+000 -1.505486e+001 11 7 14
-5.581276e+000 -7.375360e+000 -1.708893e+001 10 10 12
5.933548e-001 9.885920e-001 -6.728988e+000 186 44 53
-5.979817e+000 -7.403918e+000 -1.749228e+001 80 77 84
-1.575127e-001 1.228873e-001 -6.991649e+000 108 94 83
-1.475987e-001 5.989151e-002 -6.906081e+000 162 147 140
-1.475987e-001 5.989151e-002 -6.906081e+000 162 147 140
-4.220377e+000 -6.319123e+000 -1.528692e+001 47 45 48
2.743396e-001 2.140947e-001 -6.924077e+000 143 130 114
-4.921405e-001 -1.386147e-001 -6.714980e+000 126 37 16
-5.221276e-001 -2.354760e-001 -6.672293e+000 144 27 9
-5.370983e+000 -8.872392e+000 -1.693044e+001 116 124 147
5.073028e-001 -3.965349e-001 -6.796475e+000 147 133 108
9.601324e-001 -2.715113e-001 -6.408005e+000 141 114 76
-5.896867e+000 -7.271922e+000 -1.798582e+001 66 66 74
-4.577759e+000 -6.105591e+000 -1.541666e+001 136 136 146
-2.100614e+000 -2.606222e+000 -1.075959e+001 40 36 37
6.490311e-001 4.776809e-001 -6.679763e+000 235 232 223
6.602822e-001 4.947927e-001 -6.658934e+000 236 231 227
-4.354172e-001 -1.257098e-001 -6.754059e+000 90 20 11
-5.863395e+000 -8.758730e+000 -1.694668e+001 3 4 8
4.268743e-001 -4.061401e-002 -6.733247e+000 199 192 174
-1.718074e+000 -3.743941e+000 -1.057114e+001 28 22 24
4.379871e-001 -1.126372e+000 -7.315727e+000 42 29 20
-1.385743e+000 -5.390947e+000 -1.023719e+001 22 15 17
-1.140438e-001 1.139914e+000 -7.523047e+000 142 21 30
-1.770320e-002 1.278937e+000 -7.307653e+000 33 14 15
-2.420231e-001 4.877785e-001 -7.711701e+000 192 184 173
4.969727e-001 1.101984e+000 -6.856971e+000 185 40 45
8.126062e-002 3.621995e-001 -7.159216e+000 136 124 112
-5.778938e+000 -7.109739e+000 -1.799159e+001 66 66 78
-2.128985e+000 -2.462682e+000 -1.072482e+001 36 30 30
-4.792186e+000 -6.187047e+000 -1.544458e+001 130 130 139
-4.710383e+000 -6.365637e+000 -1.504939e+001 122 120 130
-4.584079e+000 -6.440648e+000 -1.525634e+001 137 137 149
-3.879603e-001 -2.662658e-002 -6.843353e+000 56 15 9
-8.134120e-001 -2.181447e-001 -6.514910e+000 136 109 66
1.001204e-001 2.955726e-002 -6.901988e+000 170 160 148
-5.859764e+000 -8.447542e+000 -1.694555e+001 105 103 115
-2.209489e-001 -2.480141e-001 -6.898440e+000 233 209 149
-1.907928e+000 -3.275756e+000 -1.068435e+001 40 34 38
-1.865038e+000 -3.395392e+000 -1.065048e+001 44 40 41
-4.656356e-001 -3.963399e-001 -6.684604e+000 164 143 123
-3.237063e-001 -4.181241e-001 -6.760021e+000 234 229 225
-2.886720e-001 -4.330287e-001 -6.799357e+000 251 251 246
5.702941e-001 -7.040398e-001 -6.846486e+000 174 161 141
8.018583e-001 -9.545375e-001 -6.822366e+000 235 82 88
-1.331781e+000 -5.315433e+000 -1.019101e+001 111 101 102
-1.331781e+000 -5.315433e+000 -1.019101e+001 111 101 102
3.169178e-001 1.250813e+000 -6.984388e+000 27 10 13
-2.941862e-001 7.956726e-002 -6.960378e+000 78 42 41
-5.975543e+000 -7.999724e+000 -1.700446e+001 11 9 17
-4.800189e+000 -6.428908e+000 -1.533004e+001 118 116 128
-2.281776e-001 -4.186727e-002 -6.892599e+000 112 43 32
-4.493375e+000 -6.706464e+000 -1.504452e+001 109 109 117
-1.948752e+000 -3.135805e+000 -1.069504e+001 49 44 46
-3.144944e-001 -1.949710e-001 -6.725020e+000 228 115 76
-8.830399e-002 -4.529796e-001 -6.966506e+000 40 33 25
5.669150e-002 -2.543783e-001 -6.886098e+000 199 189 179
1.031525e+000 2.935258e-001 -6.334347e+000 32 10 16
1.092580e+000 1.349983e-001 -6.280980e+000 32 18 19
-1.432412e+000 -4.702341e+000 -1.036059e+001 52 46 48
-1.381733e+000 -4.767383e+000 -1.025214e+001 45 40 44
-1.339359e+000 -4.767491e+000 -1.013606e+001 49 43 43
6.651291e-001 -9.067702e-001 -6.805517e+000 234 96 96
-3.924403e-001 6.869561e-001 -7.876642e+000 194 172 166
-1.880716e-001 3.440938e-001 -7.378605e+000 126 114 102
-1.880716e-001 3.440938e-001 -7.378605e+000 126 114 102
4.314184e-001 5.447771e-001 -6.971542e+000 184 177 167
4.314184e-001 5.447771e-001 -6.971542e+000 184 177 167
-5.381044e-001 -1.850179e-001 -6.705258e+000 180 74 42
3.712472e-001 -2.829979e-001 -6.930239e+000 216 210 197
3.715631e-001 -5.022310e-001 -6.918855e+000 251 251 241
-1.319507e+000 -5.273390e+000 -1.026028e+001 19 9 10
-2.281528e-001 1.592712e-002 -7.750216e+000 89 8 9
-5.620622e-001 -2.569557e-001 -6.710691e+000 212 107 66
1.111031e+000 -3.447143e-002 -6.279019e+000 32 11 18
-1.398987e+000 -5.150610e+000 -1.015838e+001 62 51 49
4.365676e-001 1.129591e+000 -6.912688e+000 211 51 56
-1.830514e-001 4.879038e-001 -7.663990e+000 203 195 184
-2.406593e-001 1.167185e-001 -7.836544e+000 132 17 24
5.781648e-001 -7.631721e-001 -6.804924e+000 45 34 32
1.042212e-001 2.986304e-001 -7.076530e+000 132 117 106
-3.879384e+000 -7.520800e+000 -1.532108e+001 15 13 18
9.145737e-001 2.826109e-001 -6.446341e+000 226 61 70
1.741991e-001 -4.852870e-001 -6.955693e+000 71 45 31
1.769614e-001 -4.884254e-001 -6.963035e+000 71 45 31
8.887996e-001 -2.989831e-001 -6.396585e+000 199 176 122
-2.063930e-001 1.064473e+000 -7.613276e+000 201 50 57
1.998434e-001 5.929776e-001 -7.175630e+000 140 128 116
4.657504e-001 -3.551458e-001 -6.856739e+000 99 84 64
6.985574e-001 -2.451168e-001 -6.598069e+000 255 252 247
-3.256317e-001 -1.549378e-001 -7.063529e+000 120 52 33
1.397319e-001 1.015000e+000 -7.235978e+000 219 212 206
8.316898e-001 1.554082e-001 -6.471675e+000 225 214 208
7.599677e-002 1.115326e+000 -7.277628e+000 219 54 62
2.068763e-001 7.277924e-001 -7.144714e+000 200 193 185
7.575913e-002 5.936243e-001 -7.253008e+000 161 147 136
-1.357492e-001 1.787674e-001 -7.153131e+000 140 127 113
5.245891e-001 5.187980e-001 -6.835649e+000 140 128 115
-1.628314e-001 3.797526e-002 -6.958071e+000 125 111 102
-1.316730e-001 1.608977e-002 -6.902767e+000 135 120 112
-9.027518e-001 -2.757766e-001 -6.640553e+000 141 75 51
-3.206425e-001 -1.016942e-001 -6.832832e+000 93 35 28
-8.156104e-001 -2.267524e-001 -6.502826e+000 77 23 21
-7.507497e-001 -2.433701e-001 -6.537084e+000 114 28 9
-3.110826e-001 -4.030525e-001 -6.781382e+000 183 174 167
-7.873594e-003 -3.947436e-001 -6.906850e+000 196 180 165
4.978992e-001 -3.028803e-001 -6.780357e+000 161 145 128
-1.234065e-001 4.327247e-001 -7.454402e+000 164 153 143
6.110255e-002 6.316300e-001 -7.272475e+000 222 212 203
2.380448e-001 6.966664e-001 -7.157375e+000 190 181 172
-7.411175e-001 -1.794029e-001 -7.098528e+000 141 63 46
2.878564e-001 3.213110e-001 -7.035991e+000 162 150 138
7.467796e-001 5.044574e-001 -6.600341e+000 209 201 191
-1.705463e+000 -3.808136e+000 -1.058898e+001 29 25 26
-7.322908e-001 -3.315265e-001 -6.560804e+000 224 114 84
8.740421e-001 -6.840058e-001 -6.490401e+000 249 96 104
-2.098276e-001 9.504097e-001 -7.717576e+000 171 28 35
-2.728307e-001 -7.276109e-002 -6.860946e+000 84 20 11
-8.419485e-001 -3.286847e-001 -6.584686e+000 255 163 129
-2.990662e-001 -1.465103e-001 -6.746337e+000 116 44 32
-2.990662e-001 -1.465103e-001 -6.746337e+000 116 44 32
-1.525333e-001 -2.804970e-001 -6.888668e+000 240 231 226
-1.468662e-001 -1.934629e-001 -6.836636e+000 227 222 216
-5.983235e-002 -1.730641e-001 -6.825622e+000 253 248 242
2.005225e-001 -8.918107e-002 -6.844734e+000 221 214 206
8.510981e-001 5.870218e-001 -6.483139e+000 203 58 66
-3.994923e-001 -3.901329e-001 -6.680001e+000 198 194 187
-4.339635e-002 -4.895424e-001 -7.009870e+000 36 27 22
3.955648e-001 -6.560476e-001 -6.968356e+000 252 252 240
-1.111338e-002 1.244459e+000 -7.376745e+000 190 39 46
5.577303e-001 5.318053e-001 -6.813312e+000 171 159 145
6.866895e-001 5.685767e-001 -6.607795e+000 248 249 240
-3.709691e-001 -3.821242e-001 -6.696174e+000 222 213 207
7.811604e-001 4.189251e-001 -6.542719e+000 184 169 156
4.961357e-001 5.668005e-002 -6.693566e+000 191 181 168
4.300107e-001 -1.204929e-001 -6.719604e+000 217 210 200
5.806810e-001 -7.284349e-001 -6.795303e+000 56 42 40
5.806810e-001 -7.284349e-001 -6.795303e+000 56 42 40
-4.799981e-001 -2.535322e-002 -7.062657e+000 44 12 13
7.180125e-001 7.830694e-001 -6.625869e+000 88 7 15
-5.147568e-001 -3.490100e-001 -6.689326e+000 247 188 154
-6.186206e-002 -1.281586e-001 -6.813094e+000 239 232 229
-1.020772e-001 -3.135346e-001 -6.892282e+000 66 47 26
4.780198e-001 -1.265691e-001 -6.699870e+000 230 226 217
-4.320394e-001 8.053587e-001 -7.971441e+000 195 39 46
4.316558e-001 2.849048e-001 -6.995759e+000 141 129 119
7.750366e-001 6.819137e-001 -6.531784e+000 237 81 90
-8.030844e-001 -1.827874e-001 -6.511815e+000 74 22 10
-1.803104e-001 -9.522670e-002 -6.831405e+000 207 188 180
7.315966e-001 5.327153e-001 -6.597962e+000 253 253 251
-5.413877e-001 -3.424713e-001 -6.733260e+000 247 184 142
-3.858873e-001 -3.865701e-001 -6.700942e+000 190 178 171
-3.391879e-001 -3.228161e-001 -6.720098e+000 167 144 133
4.080478e-001 -3.872608e-001 -6.807664e+000 254 252 203
9.936825e-001 1.893293e-001 -6.358767e+000 207 45 57
-1.696576e-001 3.818351e-001 -7.518678e+000 133 121 109
3.141683e-001 4.456960e-001 -7.116085e+000 187 177 168
4.304461e-001 2.875459e-001 -6.994045e+000 141 130 119
6.944079e-001 7.126110e-001 -6.575724e+000 243 82 92
8.812150e-001 -5.232759e-001 -6.506134e+000 244 230 198
8.480950e-002 1.284851e+000 -7.317383e+000 14 3 9
-4.603647e-001 5.473329e-001 -7.991335e+000 188 177 168
-3.805018e-001 2.641724e-001 -7.970835e+000 42 31 29
1.574187e-001 5.006054e-001 -7.164902e+000 231 222 216
5.115453e-001 -7.737871e-001 -6.895930e+000 254 255 247
1.047951e+000 1.473892e-001 -6.312478e+000 221 60 68
9.944319e-001 -2.151281e-001 -6.390954e+000 77 11 15
-1.429178e-001 6.457206e-001 -7.430498e+000 169 160 145
-1.429832e-001 6.467313e-001 -7.428668e+000 169 160 145
3.302640e-001 -3.737111e-001 -6.926663e+000 80 62 41
8.142024e-001 3.094676e-001 -6.478668e+000 255 251 246
9.210303e-001 -6.116296e-001 -6.491569e+000 172 35 40
5.365070e-001 5.229847e-001 -6.776631e+000 136 122 111
-2.860375e-002 -4.934279e-002 -6.905396e+000 136 119 111
-3.303726e-001 -3.713807e-001 -6.765211e+000 169 151 137
3.286073e-001 -5.208474e-001 -6.853810e+000 254 255 246
9.418967e-001 -6.881120e-002 -6.434185e+000 233 226 218
-6.569241e-001 -1.634071e-001 -6.786587e+000 63 22 19
6.752188e-001 5.001672e-001 -6.613485e+000 255 255 251
-4.417016e-002 2.541114e-002 -7.376847e+000 118 104 93
-4.067267e-001 1.649865e-001 -7.850449e+000 39 30 28
1.960472e-001 -2.589393e-001 -6.939839e+000 243 234 225
-7.109603e+000 -6.242924e+000 -2.229224e+001 135 124 120
-4.477185e+000 -6.670598e+000 -1.500801e+001 111 109 122
-4.725299e+000 -6.540175e+000 -1.504984e+001 165 163 172
-4.258891e-001 -4.167203e-002 -6.822036e+000 117 51 38
-1.261607e-001 9.000094e-003 -6.884241e+000 131 116 109
-1.933069e+000 -3.205905e+000 -1.069508e+001 41 35 39
6.204958e-001 2.142097e-001 -6.771940e+000 184 176 165
1.005973e+000 1.311087e-001 -6.365455e+000 227 69 77
1.005867e+000 1.292965e-001 -6.366831e+000 227 69 77
-5.179776e+000 -1.243411e+001 -1.788024e+001 43 59 116
5.563622e-001 5.631967e-001 -6.849066e+000 157 147 136
3.351998e-001 1.773805e-001 -7.022380e+000 131 115 100
1.060621e+000 1.789003e-001 -6.286868e+000 207 52 57
2.212792e-001 9.585679e-001 -7.207029e+000 203 196 188
2.204011e-001 9.593006e-001 -7.204288e+000 203 196 188
-2.221467e-001 1.262606e-001 -7.096944e+000 129 115 104
-1.897637e-001 8.621800e-002 -6.895496e+000 126 112 103
-1.897637e-001 8.621800e-002 -6.895496e+000 126 112 103
1.605618e-001 1.523929e-001 -6.910113e+000 197 187 175
1.272676e-002 6.083769e-001 -7.326206e+000 210 201 191
2.905818e-001 1.092180e+000 -7.124420e+000 209 42 51
-2.733048e-001 1.277794e-002 -6.932265e+000 108 90 76
-2.733048e-001 1.277794e-002 -6.932265e+000 108 90 76
8.472159e-001 5.885638e-001 -6.479528e+000 203 58 65
-2.117683e-001 8.116875e-001 -7.708339e+000 209 200 191
-1.766228e-001 9.103768e-001 -7.600194e+000 187 175 163
-1.576931e-001 4.767340e-001 -7.441643e+000 157 147 137
-2.667177e-001 -1.765510e-001 -7.636031e+000 202 195 182
-2.155246e-001 1.594461e-001 -7.221723e+000 120 106 95
7.478182e-001 7.835861e-001 -6.580609e+000 122 32 36
-6.704976e-001 -2.801246e-001 -6.551073e+000 49 19 16
8.035914e-001 5.448767e-002 -6.793506e+000 239 233 221
5.486469e-001 -5.917363e-001 -6.832508e+000 246 233 178
-5.930448e-001 5.647986e-001 -8.159776e+000 185 42 46
2.668336e-002 1.282163e+000 -7.330941e+000 81 18 27
-1.322686e-001 6.235374e-001 -7.439713e+000 168 159 145
-2.073744e+000 -2.738867e+000 -1.077851e+001 45 39 41
-1.968979e-001 4.360123e-001 -7.594857e+000 173 165 152
-2.860421e-001 -1.166336e-002 -7.841228e+000 107 58 49
-1.958523e-001 3.396216e-001 -7.461774e+000 156 146 134
2.440105e-001 6.572421e-001 -7.265125e+000 219 215 206
5.123397e-001 1.084312e+000 -6.819551e+000 200 52 61
-2.935520e-001 -1.947116e-001 -7.699114e+000 176 169 155
-2.270064e-001 1.527032e-001 -7.248601e+000 152 138 127
-1.741771e+000 -3.646058e+000 -1.045910e+001 62 56 58
-1.734112e+000 -3.725202e+000 -1.050088e+001 64 58 60
-2.356569e-001 1.037166e-001 -7.022670e+000 101 84 76
-5.935162e-001 -7.226444e-002 -6.751924e+000 104 43 33
-9.171496e-001 -2.842116e-001 -6.636561e+000 48 16 11
-1.608683e-001 6.498496e-002 -6.872662e+000 139 127 116
3.521907e-001 1.792089e-001 -7.042178e+000 150 137 120
5.346773e-001 5.282789e-001 -6.791263e+000 126 114 99
-5.783549e-002 -1.764768e-001 -6.829797e+000 252 247 243
-1.536878e+000 -4.489762e+000 -1.015282e+001 45 41 38
3.957521e-001 8.860473e-002 -6.825603e+000 180 168 154
-1.461865e+000 -4.814237e+000 -1.019316e+001 62 54 52
8.041918e-001 5.123490e-001 -6.561924e+000 166 31 38
1.030318e+000 -4.800887e-001 -6.316187e+000 227 95 99
-2.657798e-001 4.941099e-001 -7.720629e+000 224 217 207
1.229139e-001 9.753367e-001 -7.257735e+000 212 205 197
1.229139e-001 9.753367e-001 -7.257735e+000 212 205 197
-2.088092e+000 -2.997146e+000 -1.060947e+001 60 54 54
-2.388413e-001 2.234476e-001 -7.674422e+000 207 189 185
-1.724528e+000 -3.589560e+000 -1.048961e+001 25 19 21
-3.286467e-002 2.408496e-001 -7.136043e+000 121 112 98
-1.680717e+000 -3.674751e+000 -1.052706e+001 53 49 50
-1.675337e+000 -3.610262e+000 -1.045148e+001 53 49 50
-1.861122e-001 9.839934e-002 -7.041426e+000 154 138 127
4.782931e-001 5.145678e-001 -6.899566e+000 160 150 138
7.247957e-001 8.131675e-001 -6.616923e+000 159 45 49
-3.857020e-001 -1.632086e-001 -6.707357e+000 122 30 17
1.782826e-001 2.675083e-002 -6.866777e+000 194 184 175
8.172923e-001 5.365547e-001 -6.549528e+000 217 71 78
-1.240425e+000 -5.268783e+000 -1.020461e+001 73 68 71
1.033368e+000 -4.412383e-001 -6.307027e+000 153 33 37
-2.960538e-001 1.775375e-001 -7.881785e+000 215 73 82
-1.943352e-001 2.560197e-001 -7.374708e+000 174 161 145
-4.891036e-002 4.248693e-001 -7.278218e+000 148 136 124
-2.329253e-001 -1.378393e-001 -7.677458e+000 174 166 153
-4.499720e-001 5.328561e-003 -7.070579e+000 92 38 33
4.461369e-002 -5.106306e-002 -6.894586e+000 164 154 144
4.461369e-002 -5.106306e-002 -6.894586e+000 164 154 144
4.990313e-001 1.560354e-002 -6.705615e+000 198 188 179
5.282531e-001 2.044940e-002 -6.705189e+000 173 161 149
3.389671e-001 -4.537014e-001 -6.919156e+000 119 102 62
-1.626316e-001 4.453199e-001 -7.523281e+000 148 138 126
-3.091269e-001 3.288017e-002 -6.938665e+000 68 23 18
