ply
format ascii 1.0
element face 0
property list uchar int vertex_indices
element vertex 881
property float x
property float y
property float z
property uchar diffuse_red
property uchar diffuse_green
property uchar diffuse_blue
end_header
4.576580e+000 9.124098e-001 -9.720348e+000 168 138 114
4.365097e+000 7.063578e-001 -9.454392e+000 169 85 38
3.862020e+000 -1.494051e-001 -9.418012e+000 183 125 68
3.883751e+000 -1.544171e-001 -9.478518e+000 183 125 68
-6.321848e-001 -5.439292e-001 -7.895534e+000 66 110 108
1.769684e+000 -7.824845e-001 -9.234078e+000 193 130 112
-2.558969e-001 8.811270e-001 -7.864193e+000 165 152 118
1.355836e-002 8.800258e-001 -7.985317e+000 160 151 110
-2.018665e+000 6.040614e-001 -7.572973e+000 151 126 104
2.826074e+000 5.609571e-001 -8.804436e+000 152 107 55
-4.519960e-001 -5.488871e-001 -8.059029e+000 69 105 132
4.773689e+000 -7.831340e-001 -1.069749e+001 30 19 27
3.636934e+000 8.900881e-001 -9.309740e+000 17 58 109
4.341683e+000 1.105693e+000 -9.812033e+000 141 25 37
4.341683e+000 1.105693e+000 -9.812033e+000 141 25 37
8.499368e-001 7.273097e-001 -8.164715e+000 174 156 134
3.014202e+000 7.506667e-001 -8.918997e+000 53 19 23
-4.266192e-001 4.543204e-001 -7.543632e+000 155 148 122
3.262804e+000 5.595396e-001 -8.963580e+000 156 116 80
3.244717e+000 5.603215e-001 -8.920445e+000 156 116 80
1.674592e-002 -6.130787e-001 -8.200699e+000 156 156 144
-9.519369e-001 4.236170e-001 -7.333188e+000 93 121 135
2.350661e+000 -3.347853e-001 -8.980767e+000 194 140 112
-1.145401e+000 -6.635708e-001 -7.851619e+000 197 114 104
4.352253e+000 -2.255411e-001 -9.701928e+000 112 68 38
4.806588e-001 -3.829609e-001 -8.164891e+000 164 160 141
2.865964e+000 -1.057635e-001 -9.040570e+000 171 33 46
4.861834e+000 1.546914e+000 -1.023279e+001 40 32 43
9.374533e-001 -1.367458e-001 -8.051884e+000 99 130 151
2.237621e+000 -1.910237e-001 -9.989883e+000 129 80 75
2.186682e+000 1.350416e+000 -9.241255e+000 93 71 74
6.372154e-001 9.527960e-001 -8.270332e+000 165 156 129
2.776909e+000 1.227350e+000 -9.271758e+000 136 102 101
-9.162156e-001 6.976234e-001 -7.482886e+000 195 131 110
1.826401e+000 7.437599e-001 -8.527850e+000 189 151 89
1.996597e+000 8.080741e-001 -8.610566e+000 167 100 71
3.085384e+000 7.642251e-001 -8.998636e+000 106 67 75
3.263909e+000 7.488467e-001 -9.021928e+000 162 120 98
4.637554e+000 7.290431e-001 -9.548278e+000 148 67 50
2.444707e+000 6.150993e-001 -8.679958e+000 160 125 80
4.746475e+000 6.240066e-001 -9.508787e+000 168 134 118
2.636264e+000 3.904235e-001 -8.754712e+000 102 43 26
1.576728e+000 1.571582e-001 -8.352928e+000 177 157 138
3.016345e+000 -3.044165e-001 -9.215157e+000 188 72 77
-1.225642e+000 1.349648e+000 -8.171274e+000 51 88 127
-1.069686e+000 1.243585e+000 -8.128821e+000 55 92 117
2.790700e+000 1.393305e+000 -9.484975e+000 140 92 84
1.881106e+000 1.049557e+000 -8.832018e+000 75 13 16
2.143573e+000 9.410688e-001 -8.753965e+000 127 93 92
1.954260e+000 8.060644e-001 -8.596541e+000 95 32 43
1.981039e+000 6.915574e-001 -8.528544e+000 96 31 39
2.717303e+000 6.533738e-001 -8.791750e+000 64 16 27
4.578095e+000 2.269079e-001 -9.530798e+000 184 162 139
2.482097e+000 -2.525877e-002 -8.791968e+000 191 140 112
-5.291100e-001 -3.808010e-001 -7.854608e+000 55 100 125
-1.155480e+000 -5.236286e-001 -7.734848e+000 172 167 136
1.308733e-001 -6.806774e-001 -8.410167e+000 167 158 149
2.856271e+000 1.414772e+000 -9.543013e+000 88 57 72
-1.205241e+000 9.271240e-001 -7.690170e+000 167 44 49
2.307822e+000 8.395878e-001 -8.740718e+000 92 41 49
3.080350e+000 4.618707e-001 -8.896686e+000 131 77 37
3.978505e+000 4.797077e-001 -9.241191e+000 135 45 53
4.025577e+000 4.674376e-001 -9.221379e+000 178 101 45
1.717920e+000 -1.235266e-001 -8.537500e+000 136 77 68
1.723609e+000 -1.244523e-001 -8.552346e+000 136 77 68
1.835754e+000 -1.620222e-001 -8.660403e+000 153 101 89
1.256318e+000 -6.902128e-001 -8.887854e+000 147 91 78
5.180224e+000 -2.137508e+000 -9.289577e+000 154 132 140
4.809187e+000 -2.692110e+000 -1.024795e+001 123 107 108
5.129101e+000 -2.440099e+000 -9.455050e+000 107 87 91
2.723640e+000 1.492436e+000 -9.599621e+000 132 80 78
5.253041e-001 9.910442e-001 -8.266051e+000 177 37 44
3.950729e+000 3.747595e-001 -9.198492e+000 182 106 42
5.125072e+000 3.335821e-001 -9.625493e+000 35 22 40
4.546878e+000 5.371143e-002 -9.569106e+000 187 105 49
2.584467e+000 -2.278892e-001 -9.008354e+000 153 13 31
5.136968e+000 -1.747331e+000 -9.453439e+000 140 124 124
4.857623e+000 -2.701915e+000 -9.993768e+000 151 132 130
-7.394902e-001 1.561400e+000 -8.519468e+000 118 122 103
4.247879e-001 1.247653e+000 -8.579028e+000 172 41 47
-4.377732e-001 1.068749e+000 -8.090650e+000 34 54 28
5.059522e+000 -1.927290e+000 -9.603082e+000 143 125 125
4.548912e+000 -3.311779e+000 -1.108866e+001 47 39 46
1.122385e+000 1.072780e+000 -8.629100e+000 158 30 35
1.770511e+000 1.116707e+000 -8.850312e+000 178 138 91
1.770511e+000 1.116707e+000 -8.850312e+000 178 138 91
2.808974e+000 1.112172e+000 -9.098400e+000 136 107 101
-7.332911e-001 7.199801e-001 -7.607228e+000 27 56 32
2.922078e+000 -3.052926e-001 -9.316919e+000 172 30 47
-1.993099e-001 1.701068e+000 -8.902126e+000 169 162 56
2.178321e+000 1.860155e+000 -1.001383e+001 27 60 87
-1.316905e+000 1.248869e+000 -8.021944e+000 204 159 117
2.865763e+000 1.618831e+000 -9.667773e+000 165 131 86
-1.203439e+000 1.217326e+000 -8.006430e+000 197 144 112
-1.177576e+000 1.159073e+000 -7.952185e+000 195 152 106
1.124205e+000 1.350017e+000 -8.867392e+000 194 142 116
1.117196e+000 1.278172e+000 -8.775595e+000 205 146 103
1.266105e+000 1.265875e+000 -8.819691e+000 161 33 37
-1.973722e+000 1.028785e+000 -7.715157e+000 205 183 148
-1.096142e+000 1.025015e+000 -7.822796e+000 162 39 31
-1.096142e+000 1.025015e+000 -7.822796e+000 162 39 31
-1.033208e+000 9.580814e-001 -7.779658e+000 203 136 105
-1.033208e+000 9.580814e-001 -7.779658e+000 203 136 105
1.558591e+000 1.078283e+000 -8.732142e+000 19 70 107
2.232095e+000 1.047201e+000 -8.925936e+000 66 30 37
-1.957925e+000 8.712860e-001 -7.625015e+000 209 186 153
-1.167072e+000 9.268568e-001 -7.667766e+000 191 161 97
-1.123669e+000 8.408757e-001 -7.567812e+000 196 156 117
-1.123640e+000 8.410331e-001 -7.565856e+000 196 156 117
-1.081986e+000 8.070619e-001 -7.538985e+000 169 33 35
-1.017752e+000 8.837638e-001 -7.654958e+000 171 26 24
-9.798047e-001 8.106145e-001 -7.578185e+000 176 47 41
1.027689e+000 9.627398e-001 -8.386440e+000 167 157 122
1.928584e+000 1.001528e+000 -8.742664e+000 171 95 95
2.072839e+000 9.616911e-001 -8.771781e+000 161 91 89
1.980060e+000 9.420792e-001 -8.723447e+000 96 40 31
1.979897e+000 9.420474e-001 -8.723053e+000 96 40 31
2.109765e+000 9.586289e-001 -8.783192e+000 71 15 16
2.103128e+000 8.734836e-001 -8.719508e+000 165 99 81
3.137360e+000 1.020551e+000 -9.357048e+000 125 95 99
4.484080e+000 9.379030e-001 -9.637830e+000 157 94 64
-1.187643e+000 7.715228e-001 -7.477566e+000 37 82 100
-9.530734e-001 7.848826e-001 -7.567605e+000 193 158 115
1.981432e+000 7.188134e-001 -8.559391e+000 89 29 35
2.042703e+000 7.409951e-001 -8.599300e+000 95 29 33
2.410608e+000 7.591880e-001 -8.716140e+000 71 27 32
2.600625e+000 8.388972e-001 -8.855937e+000 133 92 82
3.038038e+000 7.593468e-001 -8.983277e+000 65 23 31
3.110833e+000 7.943954e-001 -9.027659e+000 61 20 24
3.111726e+000 7.938447e-001 -9.033655e+000 61 20 24
4.507291e+000 7.626230e-001 -9.558554e+000 193 148 107
-1.111058e+000 6.328040e-001 -7.360863e+000 184 158 117
-1.110827e+000 6.332770e-001 -7.356811e+000 184 158 117
2.092668e-001 6.666842e-001 -7.808668e+000 176 161 78
3.497910e+000 6.480882e-001 -9.095674e+000 33 26 64
4.708564e+000 6.873193e-001 -9.571819e+000 168 51 44
4.712648e+000 6.867724e-001 -9.578709e+000 168 51 44
4.392895e+000 2.353222e-001 -9.432018e+000 189 167 149
1.212893e+000 1.129147e-001 -8.191953e+000 9 75 112
4.926890e+000 6.453227e-002 -9.812940e+000 164 101 45
2.569617e+000 -2.924039e-002 -8.845876e+000 198 134 108
2.601609e+000 -3.910105e-001 -9.167811e+000 188 66 67
2.707516e+000 -2.692656e-001 -9.095301e+000 202 85 79
2.604332e+000 -3.151093e-001 -9.067478e+000 192 84 82
2.679423e+000 -3.089911e-001 -9.092491e+000 191 75 75
2.789640e+000 -2.379233e-001 -9.093096e+000 206 91 90
-2.538027e+000 -4.458443e-001 -8.198217e+000 241 213 211
-2.713861e-001 -3.788281e-001 -7.953016e+000 82 109 122
2.496888e-001 -4.949161e-001 -8.260804e+000 145 54 54
3.298252e+000 -5.246481e-001 -9.590051e+000 135 73 64
-1.657165e+000 -6.194030e-001 -7.666896e+000 25 99 139
-9.888335e-001 -4.646271e-001 -7.734415e+000 27 55 31
-7.526143e-001 -5.825477e-001 -7.888994e+000 150 160 47
-6.588671e-001 -6.515378e-001 -8.034313e+000 148 152 39
-3.013972e-001 -5.457048e-001 -8.065652e+000 175 163 40
-3.013972e-001 -5.457048e-001 -8.065652e+000 175 163 40
1.524491e+000 -8.099426e-001 -9.126170e+000 128 70 50
-1.046626e+000 -6.541011e-001 -7.848920e+000 189 29 44
-1.178434e+000 -7.982526e-001 -7.987899e+000 201 141 124
-1.178434e+000 -7.982526e-001 -7.987899e+000 201 141 124
-7.389360e-001 -7.249853e-001 -8.045807e+000 147 155 31
-4.755453e-001 -8.577662e-001 -8.346534e+000 155 157 36
-5.133446e-001 1.628551e+000 -8.669471e+000 156 157 32
-5.133446e-001 1.628551e+000 -8.669471e+000 156 157 32
4.737592e-001 1.717972e+000 -9.147156e+000 174 161 129
4.737592e-001 1.717972e+000 -9.147156e+000 174 161 129
4.270335e+000 2.007835e+000 -1.111430e+001 149 115 88
-9.055381e-001 1.479250e+000 -8.401509e+000 72 105 122
2.070791e+000 1.767679e+000 -9.752354e+000 119 138 134
2.069810e+000 1.767471e+000 -9.750624e+000 119 138 134
-1.340557e+000 1.321741e+000 -8.070188e+000 177 151 114
-1.409742e+000 1.312517e+000 -8.055373e+000 192 147 130
1.083598e+000 1.374765e+000 -8.902628e+000 168 41 42
2.761574e+000 1.600927e+000 -9.759116e+000 160 122 113
2.781270e+000 1.602364e+000 -9.829379e+000 160 122 113
2.818167e+000 1.630767e+000 -9.802147e+000 84 52 53
2.830485e+000 1.455814e+000 -9.530131e+000 87 57 71
1.228448e+000 1.197635e+000 -8.708686e+000 152 28 32
1.468796e+000 1.328737e+000 -8.967042e+000 136 144 132
2.206481e+000 1.285973e+000 -9.095562e+000 96 70 74
-2.103869e+000 9.081326e-001 -7.756647e+000 121 95 68
-1.115904e+000 1.078931e+000 -7.865977e+000 161 23 23
9.059857e-001 1.045429e+000 -8.456411e+000 169 163 131
2.883111e+000 1.219207e+000 -9.347043e+000 143 112 92
4.846879e+000 1.327954e+000 -1.041656e+001 32 23 37
4.836109e+000 1.273295e+000 -1.028206e+001 38 24 30
-2.684613e+000 7.764065e-001 -8.474243e+000 194 110 96
-1.925496e+000 8.929793e-001 -7.585430e+000 207 185 146
-1.163185e+000 8.324596e-001 -7.575389e+000 181 35 39
-1.040062e+000 9.194275e-001 -7.687353e+000 179 39 40
6.490229e-001 9.508536e-001 -8.258081e+000 170 154 131
7.576408e-001 8.671604e-001 -8.212836e+000 166 165 129
9.342994e-001 9.572140e-001 -8.357211e+000 172 160 123
2.048038e+000 1.009931e+000 -8.805943e+000 164 92 84
2.082285e+000 1.037524e+000 -8.853941e+000 79 39 44
2.079992e+000 1.037666e+000 -8.843096e+000 79 39 44
2.136640e+000 8.757697e-001 -8.706326e+000 71 29 39
4.864430e+000 1.004367e+000 -9.940275e+000 157 87 45
-6.488184e-001 6.620525e-001 -7.550698e+000 166 156 32
8.453551e-001 7.843263e-001 -8.196199e+000 175 159 126
8.461475e-001 7.840001e-001 -8.201710e+000 175 159 126
1.992932e+000 8.620121e-001 -8.687040e+000 172 93 80
2.196551e+000 7.387441e-001 -8.647790e+000 86 31 34
2.973492e+000 7.244503e-001 -8.943635e+000 79 32 42
4.622312e+000 8.606139e-001 -9.440377e+000 179 148 109
-2.046410e+000 5.907523e-001 -7.575673e+000 211 185 152
2.038560e+000 6.274822e-001 -8.530380e+000 94 27 34
2.239621e+000 6.789795e-001 -8.596809e+000 141 83 83
4.772446e+000 6.863404e-001 -9.613619e+000 184 154 130
2.736008e+000 5.045411e-001 -8.776467e+000 163 108 69
3.992802e+000 5.376284e-001 -9.211453e+000 145 59 28
3.349241e+000 3.165103e-001 -9.028810e+000 177 116 57
4.355767e+000 2.719213e-001 -9.393274e+000 70 38 31
4.616050e+000 2.316576e-001 -9.523128e+000 48 13 20
3.201006e+000 1.393336e-001 -8.996394e+000 198 136 104
3.979870e+000 5.107589e-002 -9.366805e+000 195 88 42
-2.416653e+000 -2.216056e-001 -7.991905e+000 185 161 135
1.780550e-002 -3.719566e-002 -7.818882e+000 70 94 52
1.796524e-002 -3.743596e-002 -7.820426e+000 70 94 52
1.881472e+000 -1.629908e-001 -8.670987e+000 193 139 105
1.949740e+000 -1.348069e-001 -8.668195e+000 117 71 71
2.461646e+000 -1.134632e-001 -8.872993e+000 189 141 110
3.321967e+000 -1.864726e-001 -9.269679e+000 203 150 119
-2.500203e+000 -3.494503e-001 -8.278035e+000 196 174 157
-2.846434e-001 -2.388982e-001 -7.839921e+000 135 145 50
4.130707e+000 -4.392602e-001 -9.862473e+000 92 71 65
-4.862392e-001 -4.456550e-001 -7.920335e+000 32 55 46
-3.236259e-001 -3.822025e-001 -7.932941e+000 29 56 41
3.645766e-001 -4.723835e-001 -8.251852e+000 134 75 65
3.650314e-001 -4.674867e-001 -8.229841e+000 134 75 65
8.595586e-001 -4.551723e-001 -8.429617e+000 19 66 106
-1.075515e+000 -5.614850e-001 -7.763780e+000 182 49 49
-6.411640e-001 -5.331278e-001 -7.936907e+000 52 106 120
-1.707701e-001 -5.878707e-001 -8.157615e+000 34 53 35
-1.707701e-001 -5.878707e-001 -8.157615e+000 34 53 35
2.577398e-001 -5.310514e-001 -8.255927e+000 164 156 136
2.400024e+000 -7.386633e-001 -9.385252e+000 160 34 42
2.391577e+000 -8.276884e-001 -9.545031e+000 155 35 38
-1.287016e+000 -8.247559e-001 -7.993317e+000 189 38 38
-1.109900e+000 -8.001774e-001 -7.994500e+000 182 42 50
-1.109900e+000 -8.001774e-001 -7.994500e+000 182 42 50
-7.375043e-001 -8.272650e-001 -8.215447e+000 142 154 62
3.276652e-001 -7.604989e-001 -8.547845e+000 159 159 149
5.457448e+000 -1.316582e+000 -8.740549e+000 153 129 125
4.958368e+000 -2.156557e+000 -9.835041e+000 150 129 124
-4.145662e-001 1.673579e+000 -8.759304e+000 122 118 37
-4.145662e-001 1.673579e+000 -8.759304e+000 122 118 37
-3.512266e-001 1.500784e+000 -8.612843e+000 30 56 48
4.980000e-001 1.672632e+000 -9.043215e+000 182 154 124
2.904651e+000 1.771091e+000 -1.006134e+001 136 65 32
-1.170290e+000 1.396395e+000 -8.221096e+000 27 48 10
-2.858970e-002 1.392188e+000 -8.536075e+000 29 56 18
-2.858970e-002 1.392188e+000 -8.536075e+000 29 56 18
1.147469e+000 1.401602e+000 -8.954894e+000 156 30 34
-2.128992e+000 1.091041e+000 -7.891638e+000 201 178 143
-1.057171e+000 1.074453e+000 -7.883723e+000 175 42 38
9.456193e-001 1.067104e+000 -8.509264e+000 177 34 43
-2.004986e+000 8.288421e-001 -7.634337e+000 207 183 149
-1.008722e+000 8.429347e-001 -7.605383e+000 174 41 44
-9.303424e-001 8.156997e-001 -7.602404e+000 180 41 42
6.308493e-001 9.171354e-001 -8.232671e+000 173 42 37
3.127754e+000 9.662081e-001 -9.070291e+000 79 49 69
-1.059328e+000 7.058134e-001 -7.430965e+000 194 164 119
2.181907e+000 8.283801e-001 -8.707362e+000 83 32 41
-2.324504e+000 2.222165e-001 -7.701796e+000 190 163 124
1.411869e+000 1.038149e-002 -8.357791e+000 154 98 82
2.133376e+000 -1.130003e-001 -8.750408e+000 195 142 111
2.406755e+000 -1.369458e-001 -8.853038e+000 135 80 59
2.406755e+000 -1.369458e-001 -8.853038e+000 135 80 59
2.621029e+000 -1.692676e-001 -9.037040e+000 166 22 38
3.647609e+000 -9.623567e-002 -9.331552e+000 193 132 87
3.642534e+000 -1.654087e-001 -9.394109e+000 181 148 92
7.903768e-001 -2.758573e-001 -8.262555e+000 160 37 55
3.193687e+000 -3.444537e-001 -9.323637e+000 127 80 60
3.203736e+000 -3.469972e-001 -9.341806e+000 127 80 60
4.136636e+000 -3.243716e-001 -9.756938e+000 197 171 124
-1.189772e+000 -5.629264e-001 -7.733340e+000 193 44 49
-2.426754e-001 -6.675776e-001 -8.206594e+000 173 165 93
-1.918718e-001 -6.468071e-001 -8.209710e+000 177 169 66
6.813900e-001 -6.996941e-001 -8.591586e+000 121 41 64
1.474008e+000 -7.493014e-001 -9.005420e+000 193 132 104
1.845480e+000 -7.517644e-001 -9.211758e+000 200 136 111
2.856685e-001 -7.291312e-001 -8.463783e+000 147 118 113
4.507552e-001 -9.770911e-001 -8.949391e+000 162 38 54
6.071396e-001 -7.548034e-001 -8.667946e+000 194 125 118
6.850632e-001 -9.031476e-001 -8.901254e+000 20 64 98
-1.198230e+000 -1.002334e+000 -8.259145e+000 177 42 33
5.237861e+000 -2.441278e+000 -9.288936e+000 132 111 111
5.312489e+000 -2.183914e+000 -8.645942e+000 125 104 104
4.949048e+000 -2.842766e+000 -9.786462e+000 130 110 108
4.949048e+000 -2.842766e+000 -9.786462e+000 130 110 108
4.442996e+000 2.039632e+000 -1.127411e+001 158 117 89
-1.151707e+000 1.396069e+000 -8.222194e+000 41 63 34
-6.286509e-001 1.366218e+000 -8.379287e+000 181 165 42
7.055807e-001 1.459104e+000 -8.861670e+000 173 149 123
-1.238148e+000 1.138681e+000 -7.901683e+000 156 72 51
1.018334e+000 1.286675e+000 -8.846479e+000 164 30 37
1.576868e+000 1.277205e+000 -8.990716e+000 21 73 114
-2.138997e+000 9.472328e-001 -7.798917e+000 210 186 149
3.391024e+000 9.518468e-001 -9.273662e+000 26 25 50
-5.430757e-001 7.065134e-001 -7.632271e+000 74 108 115
2.882892e+000 6.072270e-001 -8.852635e+000 179 129 75
2.650321e+000 1.369474e-001 -8.797345e+000 160 29 42
1.409569e+000 1.235788e-002 -8.344723e+000 155 99 83
3.327171e+000 -8.393561e-002 -9.179354e+000 202 146 110
-1.057580e-002 -1.434149e-001 -7.887512e+000 24 57 20
-2.501130e+000 -4.365859e-001 -8.258147e+000 70 46 42
6.931131e-001 -4.871003e-001 -8.399476e+000 175 110 83
-8.430000e-001 -6.331257e-001 -7.910445e+000 34 64 35
-8.461913e-001 -6.401076e-001 -7.939319e+000 34 64 35
-4.003113e-001 -8.909789e-001 -8.437219e+000 146 148 131
-4.003113e-001 -8.909789e-001 -8.437219e+000 146 148 131
-1.304272e+000 -9.790851e-001 -8.189846e+000 188 122 104
5.376912e+000 -1.182260e+000 -8.962821e+000 164 143 139
5.316987e+000 -1.520770e+000 -8.953707e+000 153 135 132
4.818123e+000 -2.500353e+000 -1.023552e+001 53 43 47
4.856441e+000 -2.409896e+000 -1.003512e+001 146 126 125
-8.228040e-001 1.535307e+000 -8.476387e+000 32 56 30
3.424511e+000 1.845612e+000 -1.037607e+001 81 34 27
-1.135436e+000 1.324682e+000 -8.172571e+000 155 147 117
-5.633341e-001 1.328346e+000 -8.369542e+000 30 61 26
3.124782e-001 1.488809e+000 -8.813116e+000 193 36 48
7.661470e-001 1.429293e+000 -8.821317e+000 187 35 37
2.373701e+000 1.597693e+000 -9.599302e+000 161 130 110
4.929908e-001 1.217800e+000 -8.501083e+000 169 149 124
1.041914e+000 1.228884e+000 -8.749904e+000 149 33 29
2.248957e+000 1.379332e+000 -9.296393e+000 135 109 94
1.082416e+000 1.150814e+000 -8.683678e+000 159 23 32
1.716114e+000 8.958918e-001 -8.551040e+000 20 71 108
1.716114e+000 8.958918e-001 -8.551040e+000 20 71 108
2.413447e+000 9.357449e-001 -8.853194e+000 89 45 54
2.751963e+000 9.478170e-001 -9.012073e+000 137 108 94
-2.000772e+000 6.570864e-001 -7.567320e+000 187 160 133
4.158880e+000 9.029403e-001 -9.491404e+000 177 85 31
4.822641e+000 3.878614e-001 -9.562861e+000 195 106 43
4.786850e+000 -1.104119e-001 -9.919876e+000 158 93 24
4.586034e+000 -6.566002e-001 -1.045000e+001 146 136 109
-5.384613e-001 -5.693426e-001 -7.952745e+000 33 58 44
-5.388534e-001 -5.740770e-001 -7.973737e+000 33 58 44
-7.835885e-001 -8.149065e-001 -8.172131e+000 37 60 40
-7.076416e-001 -6.693499e-001 -8.044902e+000 40 63 42
-6.195114e-001 -7.953596e-001 -8.216295e+000 34 58 34
-5.469985e-001 -9.291710e-001 -8.415533e+000 33 62 35
5.454421e+000 -9.522008e-001 -8.743484e+000 148 122 121
5.428813e+000 -1.041357e+000 -8.837553e+000 143 122 117
5.338547e+000 -1.277806e+000 -9.036855e+000 140 119 117
4.610395e+000 -3.105739e+000 -1.072582e+001 147 128 124
-4.902536e-001 1.701910e+000 -8.790487e+000 38 62 33
2.398695e+000 1.702103e+000 -9.763605e+000 76 25 26
2.398695e+000 1.702103e+000 -9.763605e+000 76 25 26
2.747057e+000 1.709648e+000 -9.941695e+000 103 25 23
-8.619945e-002 1.444509e+000 -8.618836e+000 175 155 106
-8.619945e-002 1.444509e+000 -8.618836e+000 175 155 106
9.404686e-001 1.015585e+000 -8.409512e+000 179 29 38
3.265295e+000 9.802586e-001 -9.226269e+000 161 126 81
2.007661e+000 7.481005e-001 -8.637950e+000 160 90 79
4.689343e+000 6.245082e-001 -9.539453e+000 190 154 123
4.502636e+000 2.572722e-001 -9.459840e+000 150 126 110
3.118145e+000 1.415736e-001 -8.951892e+000 158 17 33
3.118145e+000 1.415736e-001 -8.951892e+000 158 17 33
2.002879e+000 -7.408662e-001 -9.242083e+000 193 128 108
2.702160e+000 -8.657615e-001 -9.757407e+000 172 33 46
4.402926e+000 -1.018878e+000 -1.078444e+001 146 129 112
1.637425e-001 -7.600080e-001 -8.536864e+000 169 122 109
-6.318140e-001 -9.211822e-001 -8.361025e+000 123 136 134
5.203204e+000 -1.629014e+000 -9.346878e+000 146 125 123
-1.643677e+000 1.527621e+000 -8.114057e+000 119 127 125
-1.180103e+000 1.486913e+000 -8.289008e+000 107 126 121
-3.750284e-001 1.308204e+000 -8.394056e+000 176 155 117
-9.272927e-001 1.042853e+000 -7.942869e+000 42 94 115
4.690515e+000 1.195672e+000 -1.004313e+001 162 93 48
-1.206972e-001 8.534454e-001 -7.984218e+000 33 57 35
-3.573491e-001 7.081545e-001 -7.686074e+000 167 156 115
-3.573491e-001 7.081545e-001 -7.686074e+000 167 156 115
1.882304e+000 7.278505e-001 -8.529849e+000 184 137 90
-6.999317e-001 6.325031e-001 -7.479425e+000 26 59 35
-5.758055e-001 4.375219e-001 -7.488371e+000 48 103 124
-2.238339e-001 1.445188e-001 -7.645848e+000 156 154 142
3.977717e+000 -7.696282e-002 -9.415690e+000 192 94 47
-1.127608e-001 1.552707e+000 -8.704207e+000 136 130 30
5.105186e+000 4.615658e-001 -9.659339e+000 204 96 51
9.999661e-001 1.742552e-001 -8.154047e+000 171 160 140
4.462304e+000 1.937872e+000 -1.117357e+001 147 111 75
2.848173e+000 1.346293e+000 -9.277397e+000 87 59 72
3.989666e+000 9.642068e-001 -9.462369e+000 148 26 40
3.888137e+000 7.722098e-001 -9.322494e+000 168 127 83
-1.580946e+000 -4.904424e-001 -7.661485e+000 19 90 134
2.549384e+000 1.523939e+000 -9.784880e+000 147 116 96
3.141543e+000 1.737915e+000 -1.027745e+001 160 121 78
2.396825e+000 4.791755e-001 -8.590554e+000 177 138 99
-1.028084e+000 7.935769e-001 -7.457188e+000 199 161 124
3.175684e+000 4.425222e-001 -8.938122e+000 169 118 53
1.415769e+000 8.389060e-001 -8.387605e+000 159 24 30
2.334033e+000 3.174142e-001 -8.649911e+000 183 141 103
4.591214e+000 5.501921e-001 -9.612773e+000 194 111 40
2.948932e+000 1.475270e+000 -9.668346e+000 64 38 43
-1.093991e+000 1.228326e+000 -8.114385e+000 159 157 109
-1.093991e+000 1.228326e+000 -8.114385e+000 159 157 109
-8.764591e-001 1.129979e+000 -8.032222e+000 71 106 114
3.043416e+000 1.037919e+000 -9.196386e+000 75 45 49
2.774969e+000 6.287869e-001 -8.806717e+000 160 119 69
3.482400e+000 6.251104e-001 -9.072690e+000 149 141 153
4.661148e+000 6.844035e-001 -9.548443e+000 177 141 122
4.601644e+000 1.954728e-001 -9.527831e+000 68 34 40
8.918415e-001 -3.473448e-002 -8.185213e+000 21 82 117
2.731745e+000 1.040428e+000 -9.076557e+000 143 118 113
3.122091e+000 7.370206e-001 -8.989268e+000 66 26 35
2.803968e+000 -8.900562e-003 -8.945482e+000 164 38 48
2.938990e+000 1.201009e+000 -9.299384e+000 64 39 52
-1.083938e+000 6.699051e-001 -7.384851e+000 171 35 47
2.997333e+000 -3.590619e-002 -9.007864e+000 188 84 80
2.997333e+000 -3.590619e-002 -9.007864e+000 188 84 80
3.314704e+000 3.073316e-001 -8.936656e+000 169 117 67
7.596723e-001 -1.487259e-001 -8.149987e+000 149 75 51
-3.660616e-001 1.143220e+000 -8.155864e+000 163 152 106
-3.660616e-001 1.143220e+000 -8.155864e+000 163 152 106
2.751014e+000 1.734350e+000 -9.980582e+000 140 61 48
-1.102251e+000 1.323722e+000 -8.187383e+000 65 102 112
2.053399e+000 1.444175e+000 -9.281771e+000 84 65 71
-1.204557e+000 1.216591e+000 -8.004815e+000 197 144 112
-1.181236e+000 1.226670e+000 -8.043284e+000 174 41 38
2.514266e+000 1.318026e+000 -9.320602e+000 24 8 12
-1.976940e+000 1.026255e+000 -7.719783e+000 205 183 148
1.563191e+000 1.047912e+000 -8.676644e+000 171 166 144
1.971841e+000 1.083754e+000 -8.843126e+000 143 88 93
2.715876e+000 1.217846e+000 -9.280503e+000 144 114 104
-1.026364e+000 8.395178e-001 -7.606661e+000 182 27 33
-1.026364e+000 8.395178e-001 -7.606661e+000 182 27 33
1.869937e+000 9.466464e-001 -8.690523e+000 178 87 64
1.961739e+000 9.164186e-001 -8.701072e+000 162 93 81
2.112825e+000 9.584486e-001 -8.793742e+000 71 15 16
2.318387e+000 9.368732e-001 -8.837283e+000 133 105 104
2.318387e+000 9.368732e-001 -8.837283e+000 133 105 104
-5.334494e-001 7.295046e-001 -7.635396e+000 79 112 113
1.818000e+000 7.528728e-001 -8.509492e+000 189 139 87
2.248370e+000 7.527527e-001 -8.689700e+000 129 69 71
3.725472e+000 7.977242e-001 -9.234521e+000 32 69 105
2.359016e+000 6.421676e-001 -8.656872e+000 82 26 33
3.020325e+000 5.120314e-001 -8.879829e+000 131 74 27
2.970033e+000 4.091956e-001 -8.844002e+000 142 86 35
1.972075e-001 -4.951808e-001 -8.220502e+000 133 46 42
-9.879068e-001 -5.341260e-001 -7.755407e+000 165 182 159
-1.339719e+000 1.322802e+000 -8.067652e+000 177 151 114
1.152584e+000 1.375320e+000 -8.862719e+000 156 25 30
2.078977e+000 1.268876e+000 -9.137184e+000 81 60 65
3.000751e+000 1.442906e+000 -9.595584e+000 172 131 97
2.377102e+000 1.132171e+000 -9.091690e+000 135 104 93
2.007626e+000 9.255746e-001 -8.698326e+000 162 94 82
-2.173516e+000 5.403617e-001 -7.126849e+000 178 147 117
1.498524e+000 6.479566e-001 -8.335303e+000 150 20 28
3.072211e+000 6.284003e-001 -8.931570e+000 171 130 79
4.060930e+000 5.591458e-001 -9.263286e+000 204 114 39
-1.662147e-001 -1.323744e-002 -7.740617e+000 95 125 132
-1.662147e-001 -1.323744e-002 -7.740617e+000 95 125 132
2.684154e+000 -4.617528e-002 -8.884838e+000 168 27 39
-5.808548e-001 -4.917420e-001 -7.893712e+000 170 165 24
5.214077e+000 -1.510142e+000 -9.255853e+000 149 127 129
2.059312e+000 8.096987e-001 -8.638438e+000 178 98 84
1.996881e+000 6.086820e-001 -8.532763e+000 181 138 96
5.300049e+000 -1.801231e+000 -9.053295e+000 131 107 105
5.441729e+000 -1.681097e+000 -8.663434e+000 161 135 139
1.529518e+000 1.168728e+000 -8.797279e+000 136 143 120
-6.178502e-001 8.519135e-001 -7.744759e+000 167 160 41
-6.178502e-001 8.519135e-001 -7.744759e+000 167 160 41
-1.635862e+000 -5.925775e-001 -7.614209e+000 28 97 141
4.275702e-001 1.247744e+000 -8.564750e+000 178 41 39
-2.889605e-001 1.220570e+000 -8.280378e+000 33 61 34
5.307474e+000 -1.290290e+000 -9.012481e+000 154 131 129
5.490983e-001 1.726504e+000 -9.163815e+000 182 140 115
1.938081e+000 1.817847e+000 -9.842911e+000 30 67 91
2.032485e+000 1.822765e+000 -9.863055e+000 27 71 90
2.014364e+000 1.755552e+000 -9.715468e+000 28 67 93
2.886600e+000 1.818664e+000 -1.010936e+001 168 125 85
-1.208985e+000 1.414971e+000 -8.223712e+000 148 146 35
-1.208985e+000 1.414971e+000 -8.223712e+000 148 146 35
-8.772549e-001 1.546064e+000 -8.470321e+000 158 154 85
7.799648e-001 1.517901e+000 -8.950573e+000 165 160 124
1.611336e+000 1.577783e+000 -9.300393e+000 87 58 81
2.488340e+000 1.707403e+000 -9.855186e+000 157 38 37
2.723155e+000 1.636333e+000 -9.769031e+000 118 70 61
-1.291844e+000 1.234481e+000 -8.006507e+000 177 28 31
-1.179921e+000 1.338140e+000 -8.176573e+000 56 101 115
-1.168880e+000 1.256141e+000 -8.078203e+000 203 142 103
1.097318e+000 1.409711e+000 -8.937249e+000 187 141 98
1.097318e+000 1.409711e+000 -8.937249e+000 187 141 98
2.706973e+000 1.485483e+000 -9.571889e+000 109 45 37
2.786868e+000 1.513461e+000 -9.633428e+000 140 86 79
2.784959e+000 1.513992e+000 -9.626294e+000 140 86 79
-1.304555e+000 1.212326e+000 -7.980657e+000 192 156 118
-1.277550e+000 1.156067e+000 -7.913314e+000 188 146 106
-1.277524e+000 1.155816e+000 -7.912563e+000 188 146 106
-1.229846e+000 1.100901e+000 -7.866294e+000 171 20 27
1.123670e+000 1.350553e+000 -8.864751e+000 210 145 113
1.120935e+000 1.276145e+000 -8.790152e+000 198 158 100
1.284361e+000 1.215318e+000 -8.766523e+000 167 43 45
1.456435e+000 1.266129e+000 -8.891201e+000 166 167 149
1.456435e+000 1.266129e+000 -8.891201e+000 166 167 149
2.090176e+000 1.354175e+000 -9.212678e+000 84 61 69
2.383265e+000 1.249678e+000 -9.228522e+000 138 110 91
2.542630e+000 1.337638e+000 -9.374112e+000 133 115 100
2.569123e+000 1.354277e+000 -9.404734e+000 50 27 11
2.530355e+000 1.265141e+000 -9.270810e+000 31 12 12
2.792168e+000 1.384969e+000 -9.480326e+000 151 107 100
2.793110e+000 1.384731e+000 -9.478420e+000 151 107 100
-1.187682e+000 1.005525e+000 -7.759919e+000 204 155 123
-1.186068e+000 1.006878e+000 -7.751613e+000 204 155 123
-1.188272e+000 9.628714e-001 -7.710093e+000 204 146 107
-1.188726e+000 9.626822e-001 -7.710892e+000 204 146 107
-1.095617e+000 1.094487e+000 -7.908548e+000 191 129 89
-1.095617e+000 1.094487e+000 -7.908548e+000 191 129 89
-1.128193e+000 1.048075e+000 -7.843240e+000 182 159 116
-2.130203e-001 1.012672e+000 -8.074455e+000 140 149 44
-2.130203e-001 1.012672e+000 -8.074455e+000 140 149 44
1.198421e+000 1.123758e+000 -8.637979e+000 209 154 126
1.525634e+000 1.199263e+000 -8.835542e+000 38 81 117
1.524971e+000 1.198469e+000 -8.840738e+000 38 81 117
1.555555e+000 1.080850e+000 -8.721394e+000 13 63 111
1.952798e+000 1.146760e+000 -8.916915e+000 97 48 53
1.944935e+000 1.095304e+000 -8.885032e+000 100 56 67
2.181444e+000 1.134212e+000 -8.990713e+000 91 64 73
2.718812e+000 1.199665e+000 -9.237921e+000 146 113 101
2.718812e+000 1.199665e+000 -9.237921e+000 146 113 101
-1.136464e+000 9.127630e-001 -7.655190e+000 177 40 55
-1.150354e+000 8.936102e-001 -7.625403e+000 193 159 107
-1.111434e+000 9.425277e-001 -7.713103e+000 169 36 39
-1.111434e+000 9.425277e-001 -7.713103e+000 169 36 39
-1.109726e+000 9.213883e-001 -7.682474e+000 186 144 102
-1.053594e+000 9.489450e-001 -7.747436e+000 168 35 45
-1.051134e+000 8.938617e-001 -7.667869e+000 189 146 103
-7.294627e-001 9.022053e-001 -7.763467e+000 155 154 45
-6.762339e-001 8.541377e-001 -7.742143e+000 88 118 111
-6.762339e-001 8.541377e-001 -7.742143e+000 88 118 111
1.981610e+000 1.036400e+000 -8.832693e+000 156 91 85
2.009165e+000 9.999859e-001 -8.801429e+000 174 96 84
2.967542e+000 9.649237e-001 -9.121609e+000 83 38 42
-2.407869e+000 7.038804e-001 -7.765233e+000 191 176 136
-9.534787e-001 7.842613e-001 -7.569410e+000 192 157 117
1.923281e+000 8.285304e-001 -8.635774e+000 166 101 75
3.359845e+000 8.852672e-001 -9.210426e+000 36 23 37
3.744839e+000 8.099585e-001 -9.305775e+000 35 70 97
3.765750e+000 8.366152e-001 -9.297693e+000 169 128 90
4.403976e+000 9.508638e-001 -9.570109e+000 200 131 92
4.685007e+000 8.966204e-001 -9.702343e+000 176 145 121
-9.167427e-001 6.953791e-001 -7.489987e+000 215 153 116
-8.579056e-001 6.577015e-001 -7.475908e+000 187 37 36
-8.579056e-001 6.577015e-001 -7.475908e+000 187 37 36
2.069559e+000 7.579933e-001 -8.609285e+000 163 92 89
2.069559e+000 7.579933e-001 -8.609285e+000 163 92 89
3.091630e+000 7.603936e-001 -9.015468e+000 118 77 83
-5.174031e-001 5.574418e-001 -7.522580e+000 169 157 37
3.013865e+000 5.138592e-001 -8.862058e+000 134 73 27
3.498033e+000 5.988907e-001 -9.059949e+000 34 25 52
3.498033e+000 5.988907e-001 -9.059949e+000 34 25 52
4.622186e+000 5.991192e-001 -9.499257e+000 192 148 114
3.263455e+000 3.745838e-001 -8.890080e+000 160 88 25
3.963144e+000 5.511326e-002 -9.341476e+000 199 88 44
3.021673e+000 9.090482e-002 -8.859214e+000 167 22 39
8.556254e-001 -2.162398e-001 -8.279201e+000 27 83 111
-1.903349e+000 1.426273e+000 -8.136840e+000 171 151 121
-2.174068e+000 1.186811e+000 -8.026729e+000 203 179 145
-6.856550e-001 1.345566e+000 -8.357450e+000 100 126 112
2.664400e+000 1.571637e+000 -9.695823e+000 118 54 42
-1.229421e+000 1.100521e+000 -7.867883e+000 168 17 25
-1.976974e+000 9.680756e-001 -7.682423e+000 206 184 142
-1.976974e+000 9.680756e-001 -7.682423e+000 206 184 142
-1.260762e+000 1.018533e+000 -7.810431e+000 180 40 38
-1.226033e+000 1.037051e+000 -7.790834e+000 197 152 109
-1.083745e+000 1.047515e+000 -7.858399e+000 195 158 119
1.174374e+000 1.176321e+000 -8.708066e+000 157 24 41
2.121774e+000 1.167057e+000 -9.024524e+000 81 58 62
1.616181e+000 9.603597e-001 -8.625287e+000 20 68 109
1.616181e+000 9.603597e-001 -8.625287e+000 20 68 109
2.037154e+000 9.744636e-001 -8.779096e+000 105 45 52
2.590570e+000 1.035379e+000 -9.065687e+000 143 117 102
1.945113e+000 8.600837e-001 -8.639359e+000 96 27 26
2.062921e+000 8.846883e-001 -8.704907e+000 88 29 43
2.024128e+000 8.342536e-001 -8.662321e+000 89 28 24
2.219250e+000 8.939617e-001 -8.771827e+000 81 45 57
2.183004e+000 8.736143e-001 -8.741486e+000 129 94 88
3.035276e+000 9.204236e-001 -9.023683e+000 143 106 101
3.034828e+000 8.873470e-001 -9.085238e+000 74 29 37
3.015038e+000 8.042137e-001 -9.010973e+000 65 23 27
-2.045595e+000 5.914932e-001 -7.573739e+000 210 183 152
-6.490332e-001 6.610263e-001 -7.553721e+000 165 149 39
2.292133e+000 7.001887e-001 -8.615294e+000 85 27 40
2.934450e+000 6.510422e-001 -8.899641e+000 99 46 58
3.569639e+000 7.195620e-001 -9.187464e+000 15 64 109
3.764032e+000 7.383839e-001 -9.169545e+000 178 135 95
4.056452e+000 6.593783e-001 -9.318433e+000 155 55 43
3.076600e+000 5.050181e-001 -8.891538e+000 183 133 80
2.797026e+000 4.242023e-001 -8.783544e+000 100 35 33
2.972576e+000 4.157231e-001 -8.859669e+000 143 87 38
-2.348138e+000 -8.268276e-002 -7.766154e+000 189 166 134
1.832758e+000 -1.542217e-001 -8.635667e+000 117 64 50
3.342145e+000 -4.991831e-001 -9.533934e+000 202 124 96
-1.183556e+000 -5.393180e-001 -7.654630e+000 186 37 55
-1.098892e-001 -5.334105e-001 -8.087396e+000 169 165 50
1.099857e+000 -6.037609e-001 -8.646949e+000 188 131 117
1.181306e+000 -5.599824e-001 -8.632975e+000 128 64 48
-1.126689e+000 -6.586383e-001 -7.785781e+000 190 129 101
5.224864e+000 -2.377405e+000 -9.192147e+000 160 136 136
4.178951e+000 -3.770221e+000 -1.132481e+001 54 42 47
4.547141e+000 1.970670e+000 -1.099971e+001 31 20 29
6.049968e-001 1.584345e+000 -8.976119e+000 175 157 124
1.626354e+000 1.624869e+000 -9.378445e+000 139 24 35
2.116544e+000 1.733810e+000 -9.686388e+000 24 69 103
2.653247e+000 1.711870e+000 -9.888116e+000 148 56 42
2.886196e+000 1.587946e+000 -9.788250e+000 86 58 56
4.546926e+000 1.414930e+000 -1.012292e+001 124 27 38
9.430759e-001 1.070186e+000 -8.496562e+000 182 42 52
-2.024708e+000 8.717323e-001 -7.662575e+000 207 184 147
-1.207353e+000 9.247066e-001 -7.703774e+000 187 36 50
-1.008765e+000 8.429710e-001 -7.606334e+000 179 32 35
3.700426e+000 9.803799e-001 -9.382774e+000 170 113 74
-1.088567e+000 7.768618e-001 -7.504703e+000 194 160 130
9.521075e-001 8.122961e-001 -8.244054e+000 182 156 127
2.358016e+000 7.889186e-001 -8.763204e+000 114 55 61
-1.101195e+000 7.056784e-001 -7.391692e+000 190 41 50
2.321602e+000 7.136050e-001 -8.717980e+000 92 35 47
3.181603e+000 1.582366e-001 -9.018749e+000 160 25 37
3.181603e+000 1.582366e-001 -9.018749e+000 160 25 37
1.302200e+000 -1.070231e-002 -8.308463e+000 110 59 50
4.315800e+000 -1.314601e-001 -9.618118e+000 175 150 119
-2.832025e-001 -2.289770e-001 -7.812863e+000 131 135 72
-3.935417e-002 -9.177136e-002 -7.846059e+000 160 159 90
8.602283e-001 -4.006833e-001 -8.399790e+000 10 51 93
2.774757e+000 -5.802587e-001 -9.370319e+000 157 20 36
-4.573683e-001 -4.898180e-001 -7.883423e+000 64 108 121
5.388525e+000 -1.058001e+000 -8.913159e+000 47 31 37
4.390454e+000 -3.418056e+000 -1.094945e+001 143 127 125
-4.296227e-002 1.605720e+000 -8.809954e+000 27 63 34
5.739672e-001 1.690901e+000 -9.123992e+000 168 106 88
5.739672e-001 1.690901e+000 -9.123992e+000 168 106 88
-1.149467e+000 1.397422e+000 -8.217562e+000 30 53 27
1.559368e+000 1.656824e+000 -9.399798e+000 92 25 39
2.457302e+000 1.668577e+000 -9.766892e+000 84 21 32
2.841977e+000 1.626546e+000 -9.866869e+000 90 55 67
-2.216840e+000 1.160808e+000 -8.028025e+000 154 130 96
-1.237537e+000 1.359170e+000 -8.127835e+000 23 84 114
-2.189250e+000 1.062629e+000 -7.925798e+000 203 176 146
-1.316279e+000 1.178443e+000 -7.951586e+000 171 33 33
-2.071918e+000 9.820509e-001 -7.756321e+000 206 182 148
-2.030648e+000 9.036379e-001 -7.683626e+000 206 183 146
-2.030648e+000 9.036379e-001 -7.683626e+000 206 183 146
-1.225082e+000 9.841720e-001 -7.742621e+000 177 33 49
-1.222603e+000 9.870839e-001 -7.723650e+000 177 33 49
-1.026041e+000 1.000921e+000 -7.817656e+000 184 42 43
-1.026041e+000 1.000921e+000 -7.817656e+000 184 42 43
-8.847086e-001 1.089420e+000 -8.074570e+000 69 107 124
1.526377e+000 1.166231e+000 -8.796602e+000 74 108 119
1.918646e+000 1.202643e+000 -8.955740e+000 128 63 63
2.288263e+000 1.130333e+000 -8.926680e+000 77 56 65
-1.163903e+000 8.576091e-001 -7.605027e+000 173 38 47
-1.136170e+000 7.993781e-001 -7.544598e+000 169 31 31
2.137538e+000 8.494923e-001 -8.698154e+000 88 39 45
-1.057865e+000 7.037678e-001 -7.443532e+000 195 160 125
7.934043e-001 7.432594e-001 -8.119373e+000 167 70 63
7.964914e-001 7.395435e-001 -8.140907e+000 167 70 63
2.124410e+000 7.606781e-001 -8.639271e+000 90 33 48
2.664267e+000 7.236936e-001 -8.834218e+000 70 19 27
3.074147e+000 6.758166e-001 -8.943169e+000 68 28 32
4.823450e+000 5.728147e-001 -9.596458e+000 185 69 41
8.160465e-001 -9.881292e-002 -8.103200e+000 125 22 38
7.055145e-001 -3.867898e-001 -8.330170e+000 191 122 103
4.826083e+000 -2.670168e+000 -9.923684e+000 155 134 131
4.322111e+000 -3.460246e+000 -1.094438e+001 143 128 128
1.394704e+000 1.654598e+000 -9.328730e+000 18 63 96
9.905320e-001 1.349126e+000 -8.869440e+000 161 29 36
1.790245e+000 1.541595e+000 -9.371375e+000 134 78 80
2.269235e+000 1.192127e+000 -9.096248e+000 81 53 72
2.035937e+000 1.069197e+000 -8.862410e+000 85 33 35
2.035937e+000 1.069197e+000 -8.862410e+000 85 33 35
2.348132e+000 1.022321e+000 -8.880156e+000 91 67 84
-1.103403e+000 7.336439e-001 -7.472022e+000 187 44 49
2.328408e+000 6.554668e-001 -8.665131e+000 116 56 64
3.044307e+000 -2.488544e-001 -9.178561e+000 168 27 34
-1.352455e-001 -6.127625e-001 -8.156065e+000 35 56 42
5.439116e+000 -9.295772e-001 -8.823172e+000 52 41 50
5.469459e+000 -1.161757e+000 -8.750810e+000 150 126 124
5.269284e+000 -1.448006e+000 -9.190631e+000 155 135 127
4.725393e+000 -2.526021e+000 -1.020207e+001 59 45 54
5.282361e+000 -2.237107e+000 -9.069940e+000 150 130 129
4.636429e+000 -3.138609e+000 -1.041398e+001 168 144 142
-4.884344e-001 1.702460e+000 -8.785253e+000 29 55 26
-2.889432e-001 1.460587e+000 -8.510260e+000 179 159 105
-2.889432e-001 1.460587e+000 -8.510260e+000 179 159 105
1.461853e+000 1.571822e+000 -9.311235e+000 32 29 57
1.553146e+000 1.547337e+000 -9.242173e+000 184 129 96
-7.742763e-001 1.230109e+000 -8.168967e+000 176 167 85
-1.459229e-001 1.274015e+000 -8.406793e+000 32 61 33
-2.068846e+000 7.601561e-001 -7.635639e+000 156 129 101
-2.068846e+000 7.601561e-001 -7.635639e+000 156 129 101
-6.559973e-001 9.778343e-001 -7.902746e+000 168 160 82
-1.281244e-001 7.020957e-001 -7.774980e+000 175 161 76
-2.788784e-001 1.493666e+000 -8.688503e+000 177 158 105
1.339475e+000 1.358415e+000 -8.983798e+000 16 70 100
9.386874e-001 1.013929e+000 -8.420247e+000 183 49 55
-6.324371e-001 6.991386e-001 -7.560779e+000 84 114 113
-1.177280e+000 1.491450e+000 -8.267735e+000 115 130 126
8.494836e-001 1.377864e+000 -8.751905e+000 173 156 126
-2.581348e-001 8.860260e-001 -7.844406e+000 172 156 126
2.793634e-001 8.865766e-001 -8.077762e+000 170 156 128
1.688533e-001 8.175164e-001 -7.927645e+000 36 55 39
-2.019240e+000 6.041480e-001 -7.570967e+000 141 114 87
-3.788210e-001 7.060093e-001 -7.699438e+000 166 158 125
4.688441e+000 -2.709586e+000 -1.019156e+001 133 112 109
3.319057e+000 2.032744e+000 -1.087540e+001 41 35 42
1.736921e-001 1.386229e+000 -8.547124e+000 174 158 125
2.853036e+000 1.494357e+000 -9.647977e+000 96 67 75
1.396454e+000 -8.738217e-001 -9.151518e+000 204 139 115
-8.529508e-001 1.342866e+000 -8.400007e+000 179 164 34
-1.226418e+000 1.099890e+000 -8.162120e+000 191 147 113
-4.505918e-002 1.146041e+000 -8.334546e+000 31 58 27
2.290488e+000 7.551752e-001 -8.716466e+000 91 29 40
4.913550e+000 1.536685e+000 -1.024727e+001 40 30 38
4.545317e+000 5.719643e-001 -9.515458e+000 187 100 33
2.103553e+000 1.860037e+000 -9.936637e+000 85 105 109
2.141720e+000 1.808086e+000 -9.848289e+000 78 101 117
2.159249e+000 1.786658e+000 -9.850254e+000 84 109 123
2.159249e+000 1.786658e+000 -9.850254e+000 84 109 123
2.232351e+000 1.789361e+000 -9.816169e+000 83 104 121
2.343813e+000 1.755440e+000 -9.748602e+000 58 12 14
3.573946e+000 1.773042e+000 -1.027189e+001 115 68 38
1.341314e+000 1.553513e+000 -9.195464e+000 22 62 89
1.377258e+000 1.485331e+000 -9.124145e+000 20 70 104
1.377258e+000 1.485331e+000 -9.124145e+000 20 70 104
2.773516e+000 1.563251e+000 -9.706926e+000 166 113 100
2.773516e+000 1.563251e+000 -9.706926e+000 166 113 100
2.761501e+000 1.584852e+000 -9.553628e+000 89 60 66
1.107232e+000 1.193922e+000 -8.712445e+000 187 149 106
1.175543e+000 1.183150e+000 -8.684585e+000 149 22 40
1.562564e+000 1.123569e+000 -8.776320e+000 23 64 99
-2.154830e+000 8.685999e-001 -7.773182e+000 155 128 97
-2.154830e+000 8.685999e-001 -7.773182e+000 155 128 97
-2.084562e+000 8.816685e-001 -7.720155e+000 210 184 151
-1.970717e+000 9.183113e-001 -7.641658e+000 205 181 145
-1.071547e+000 9.331460e-001 -7.705096e+000 174 154 104
9.425097e-001 9.652852e-001 -8.380362e+000 171 153 120
9.425097e-001 9.652852e-001 -8.380362e+000 171 153 120
1.988176e+000 1.029084e+000 -8.858835e+000 153 92 87
2.180307e+000 1.084909e+000 -8.931270e+000 92 59 68
2.680872e+000 1.076008e+000 -9.133003e+000 151 127 108
-2.000201e+000 6.898366e-001 -7.546294e+000 216 192 156
-1.036122e+000 8.666677e-001 -7.623807e+000 186 145 106
-6.661704e-001 8.910206e-001 -7.720959e+000 147 148 38
-6.925367e-001 8.250581e-001 -7.708279e+000 155 145 50
1.949672e+000 9.474772e-001 -8.746418e+000 164 91 83
1.949672e+000 9.474772e-001 -8.746418e+000 164 91 83
2.102759e+000 8.751998e-001 -8.714735e+000 160 91 83
2.036668e+000 8.623028e-001 -8.703840e+000 162 90 91
4.483872e+000 9.084446e-001 -9.676037e+000 154 81 52
-1.989365e+000 6.240516e-001 -7.539640e+000 215 191 156
-1.027861e+000 7.228585e-001 -7.472385e+000 185 151 114
2.044904e+000 7.380933e-001 -8.600123e+000 88 29 32
2.361729e+000 6.949168e-001 -8.717053e+000 115 66 73
3.503959e+000 7.843668e-001 -9.092911e+000 33 72 96
1.619433e+000 5.768402e-001 -8.327927e+000 153 55 54
2.166712e+000 6.246107e-001 -8.591354e+000 81 26 30
3.635727e+000 -1.956811e-001 -9.412279e+000 187 132 91
-3.232562e-002 -3.028623e-001 -7.999306e+000 45 48 43
5.553863e+000 -1.265455e+000 -8.686158e+000 162 139 135
-1.631072e-001 1.808904e+000 -9.094714e+000 76 84 53
8.916006e-001 1.802548e+000 -9.489605e+000 169 154 117
2.833032e+000 1.759357e+000 -1.004477e+001 158 87 62
-1.870216e+000 1.393666e+000 -8.024582e+000 168 147 114
2.674217e+000 1.636256e+000 -9.773135e+000 153 110 87
1.125926e+000 1.435482e+000 -8.933715e+000 157 27 39
2.864237e+000 1.456007e+000 -9.650672e+000 81 56 57
2.015529e+000 1.283562e+000 -9.054355e+000 105 82 85
-1.223930e+000 1.042421e+000 -7.773956e+000 196 150 103
2.136747e+000 1.196238e+000 -9.045747e+000 107 83 83
2.133971e+000 1.155859e+000 -9.067989e+000 89 64 69
2.139723e+000 1.121676e+000 -8.972101e+000 79 50 59
-2.080198e+000 8.354339e-001 -7.695073e+000 210 184 149
-2.080198e+000 8.354339e-001 -7.695073e+000 210 184 149
-1.050947e+000 9.637234e-001 -7.701777e+000 183 31 46
2.073904e+000 1.045577e+000 -8.824958e+000 80 42 42
3.032064e+000 1.004615e+000 -9.252494e+000 156 117 110
3.099049e+000 1.014239e+000 -9.233541e+000 118 88 86
2.201365e+000 9.441642e-001 -8.829999e+000 70 41 38
2.064440e+000 8.433989e-001 -8.679205e+000 164 83 77
4.538186e+000 9.655133e-001 -9.710202e+000 175 138 113
2.011296e+000 7.941346e-001 -8.657093e+000 161 91 83
2.029793e+000 7.053087e-001 -8.577195e+000 165 90 85
3.791002e+000 8.228501e-001 -9.346459e+000 160 120 84
1.223184e+000 9.081277e-002 -8.267603e+000 12 77 123
4.192035e+000 -1.579964e-001 -9.629665e+000 213 131 64
1.916659e+000 -1.325778e-001 -8.687453e+000 192 135 104
2.128180e+000 -1.149859e-001 -8.737526e+000 191 138 105
2.368123e+000 -1.087048e-001 -8.832283e+000 195 141 106
3.378061e+000 -4.048122e-001 -9.472769e+000 201 142 109
-3.737981e-001 -5.996593e-001 -8.057999e+000 24 52 19
5.359202e+000 -1.250130e+000 -8.845344e+000 127 103 99
-1.940660e-001 1.777950e+000 -9.040699e+000 147 142 94
3.121142e+000 1.919908e+000 -1.036172e+001 110 61 28
2.179694e+000 1.737699e+000 -9.738485e+000 64 97 111
1.077192e+000 1.377804e+000 -8.876756e+000 153 26 40
-1.146267e+000 1.140166e+000 -7.931100e+000 177 31 39
1.231989e+000 1.334443e+000 -8.916296e+000 198 109 99
1.231989e+000 1.334443e+000 -8.916296e+000 198 109 99
-2.089246e+000 1.036985e+000 -7.839037e+000 203 181 142
-6.246290e-001 1.064252e+000 -8.035762e+000 32 50 34
-2.001238e+000 8.342113e-001 -7.619084e+000 213 186 151
2.014205e+000 9.249463e-001 -8.703520e+000 164 89 74
8.652523e-001 6.889421e-001 -8.119628e+000 169 152 118
2.579715e+000 8.082225e-001 -8.835368e+000 173 130 111
4.171257e+000 8.290239e-001 -9.543394e+000 173 87 31
2.583925e+000 5.353927e-001 -8.685606e+000 142 70 35
4.513121e+000 3.418963e-001 -9.447357e+000 32 22 26
-2.656441e+000 -3.763489e-001 -8.985168e+000 193 167 134
4.427107e+000 1.380916e-001 -9.513386e+000 191 171 141
1.361752e+000 -1.861956e-002 -8.371614e+000 190 125 103
1.417911e+000 -2.568900e-003 -8.385082e+000 129 67 55
1.555682e+000 1.869618e-001 -8.308688e+000 173 159 132
2.490226e+000 -2.455546e-002 -8.830279e+000 195 139 108
2.592507e+000 -6.115682e-003 -8.799190e+000 163 26 37
5.495083e+000 -1.052432e+000 -8.822275e+000 123 101 103
4.715832e+000 -2.480993e+000 -1.003247e+001 154 136 134
4.583715e+000 -2.787643e+000 -1.021283e+001 131 107 108
1.587463e+000 1.590607e+000 -9.406892e+000 179 118 82
-2.128138e+000 1.149861e+000 -7.948928e+000 204 178 141
-1.172347e+000 1.036715e+000 -7.809704e+000 171 33 41
-8.783601e-001 6.763089e-001 -7.467223e+000 171 26 41
4.954530e+000 7.005800e-001 -9.520399e+000 171 78 44
-2.409267e+000 -3.542989e-001 -7.983330e+000 165 133 103
3.874837e+000 -4.497968e-001 -9.748008e+000 131 55 16
-2.330166e+000 -6.471676e-001 -8.170681e+000 162 134 104
6.234993e-001 -5.056920e-001 -8.402667e+000 159 36 40
3.237151e+000 -1.104648e+000 -1.028398e+001 41 32 40
-8.446189e-001 -6.407453e-001 -7.924361e+000 35 63 30
-1.290519e-001 -7.734629e-001 -8.352018e+000 164 165 135
-1.546511e+000 1.538255e+000 -8.181708e+000 50 100 118
6.101150e-001 1.637578e+000 -9.026218e+000 178 114 93
4.431793e-001 1.581600e+000 -8.965149e+000 169 148 119
1.252259e+000 1.553432e+000 -9.215167e+000 17 63 90
7.019624e-001 1.454893e+000 -8.888708e+000 164 147 115
4.905046e-001 1.222682e+000 -8.483502e+000 143 146 115
-2.132370e+000 9.563190e-001 -7.791572e+000 206 180 146
-2.077332e+000 9.772747e-001 -7.769516e+000 208 184 147
-2.271842e-001 1.062131e+000 -8.112069e+000 29 60 27
1.117556e+000 1.214363e+000 -8.705001e+000 136 42 27
-2.604456e-001 1.004687e+000 -8.065551e+000 173 149 56
2.294796e+000 1.013783e+000 -8.952040e+000 108 77 75
2.643565e-001 8.338344e-001 -8.076531e+000 162 151 100
2.643565e-001 8.338344e-001 -8.076531e+000 162 151 100
4.585610e+000 8.371774e-001 -9.754786e+000 180 146 111
3.963698e+000 8.517200e-001 -9.381209e+000 164 117 81
3.232312e+000 6.899361e-001 -9.037572e+000 82 57 64
-3.285448e-001 -2.864373e-001 -7.888692e+000 27 56 35
2.417996e+000 -4.339919e-001 -9.063544e+000 201 138 106
4.963485e+000 -2.046551e+000 -9.788382e+000 55 45 48
-3.868038e-001 1.674810e+000 -8.755936e+000 99 124 100
-1.384455e+000 1.327619e+000 -8.075001e+000 174 85 68
-1.384455e+000 1.327619e+000 -8.075001e+000 174 85 68
-5.456125e-001 1.327074e+000 -8.332833e+000 29 52 34
3.952383e-001 1.463749e+000 -8.746062e+000 165 146 115
1.273203e+000 1.486110e+000 -9.093106e+000 17 65 94
-7.727517e-001 1.235557e+000 -8.149642e+000 171 150 75
-1.912084e-001 1.219212e+000 -8.287241e+000 177 157 83
2.488272e+000 1.291272e+000 -9.259602e+000 29 17 25
-7.385629e-001 1.023229e+000 -7.980198e+000 25 48 33
-4.297470e-001 1.066220e+000 -8.080956e+000 32 53 34
-4.297470e-001 1.066220e+000 -8.080956e+000 32 53 34
1.079893e+000 1.148987e+000 -8.680893e+000 146 26 35
4.632162e+000 1.280213e+000 -9.961813e+000 148 86 48
2.817570e+000 8.137818e-001 -8.914233e+000 143 116 97
4.756087e+000 7.945518e-002 -9.708050e+000 192 107 40
-1.089015e+000 -4.803668e-001 -7.730453e+000 29 93 136
3.507554e+000 1.934208e+000 -1.069082e+001 149 106 64
-3.872708e-001 1.449594e+000 -8.575680e+000 27 52 36
-4.531530e-001 1.372561e+000 -8.405935e+000 172 155 107
-5.480873e-001 1.075951e+000 -8.067041e+000 167 147 106
-4.602382e-001 9.923400e-001 -7.965133e+000 169 153 103
-4.602382e-001 9.923400e-001 -7.965133e+000 169 153 103
4.187521e+000 8.975578e-001 -9.508448e+000 175 87 31
-3.166844e-001 2.733469e-001 -7.569372e+000 89 119 129
4.789638e+000 2.055774e-001 -9.648529e+000 206 121 61
2.856935e+000 -5.229133e-001 -9.365946e+000 171 37 48
3.544468e+000 1.839175e+000 -1.042144e+001 47 16 21
4.991671e-001 8.838352e-001 -8.159396e+000 159 143 117
-3.813772e-001 7.047040e-001 -7.701984e+000 159 146 108
