ply
format ascii 1.0
element face 0
property list uchar int vertex_indices
element vertex 876
property float x
property float y
property float z
property uchar diffuse_red
property uchar diffuse_green
property uchar diffuse_blue
end_header
3.866905e+000 -5.905711e-001 -9.796354e+000 166 128 100
3.862191e+000 -5.898763e-001 -9.789991e+000 166 128 100
3.923485e+000 -4.326167e-001 -9.666065e+000 165 85 46
-1.077397e+000 -6.876113e-001 -7.763422e+000 185 44 52
-1.077397e+000 -6.876113e-001 -7.763422e+000 185 44 52
-9.922614e-001 -6.985375e-001 -7.808654e+000 171 33 44
-7.029338e-001 -6.286101e-001 -7.856495e+000 152 152 53
-6.021826e-001 -6.889891e-001 -7.960937e+000 155 159 35
-2.804192e-002 -6.795443e-001 -7.999252e+000 170 161 53
6.319667e-001 -6.141867e-001 -8.404951e+000 149 16 30
1.395974e+000 -6.890498e-001 -8.806223e+000 104 54 40
1.514412e+000 -6.860752e-001 -8.875953e+000 113 56 50
1.514412e+000 -6.860752e-001 -8.875953e+000 113 56 50
1.682889e+000 -7.015602e-001 -8.941993e+000 174 121 105
1.793295e+000 -6.987448e-001 -8.979644e+000 175 115 97
1.747224e+000 -7.315747e-001 -8.925106e+000 182 116 103
2.344693e+000 -6.585162e-001 -9.134204e+000 182 124 114
2.514218e+000 -7.017660e-001 -9.283056e+000 185 73 82
3.084651e+000 -7.571634e-001 -9.642355e+000 101 47 47
3.088464e+000 -7.553524e-001 -9.656173e+000 101 47 47
3.123060e+000 -6.768857e-001 -9.549742e+000 130 83 69
3.218635e+000 -7.269744e-001 -9.675345e+000 115 59 50
3.778643e+000 -6.659374e-001 -9.886345e+000 157 126 98
3.973278e+000 -7.402652e-001 -1.007487e+001 174 148 121
3.973278e+000 -7.402652e-001 -1.007487e+001 174 148 121
-1.168302e+000 -7.245964e-001 -7.778148e+000 166 29 35
-1.051545e+000 -7.320873e-001 -7.810923e+000 167 49 53
-1.058698e+000 -7.962096e-001 -7.894703e+000 188 161 125
-6.621844e-001 -8.093639e-001 -8.217245e+000 64 98 115
-4.097528e-001 -7.764607e-001 -8.143425e+000 159 159 32
-4.507041e-001 -8.160974e-001 -8.163354e+000 22 53 30
1.570207e-001 -8.182731e-001 -8.439050e+000 117 15 30
1.548766e+000 -8.534371e-001 -9.080027e+000 116 69 60
1.548766e+000 -8.534371e-001 -9.080027e+000 116 69 60
2.818702e+000 -7.606209e-001 -9.520879e+000 172 67 74
2.748102e+000 -8.450538e-001 -9.594448e+000 156 25 39
3.429213e+000 -8.666108e-001 -9.916905e+000 168 137 115
-1.227501e+000 -8.704445e-001 -7.939677e+000 183 36 47
-1.230294e+000 -8.691471e-001 -7.946725e+000 183 36 47
-1.146421e+000 -9.590226e-001 -8.054487e+000 171 43 54
-1.059774e+000 -8.812827e-001 -7.975305e+000 181 39 42
-2.396972e-001 -9.691996e-001 -8.482370e+000 150 154 25
-2.396972e-001 -9.691996e-001 -8.482370e+000 150 154 25
1.250519e+000 -1.013688e+000 -9.167779e+000 138 80 73
1.373697e+000 -9.864371e-001 -9.167834e+000 96 64 60
1.510791e+000 -9.341761e-001 -9.164147e+000 130 80 70
1.483817e+000 -9.962216e-001 -9.245281e+000 113 62 61
1.483817e+000 -9.962216e-001 -9.245281e+000 113 62 61
1.615866e+000 -9.506799e-001 -9.239414e+000 116 65 55
1.615866e+000 -9.506799e-001 -9.239414e+000 116 65 55
1.705973e+000 -9.950765e-001 -9.336610e+000 125 73 65
1.704895e+000 -9.945060e-001 -9.336702e+000 125 73 65
1.813392e+000 -1.002495e+000 -9.407160e+000 115 65 60
1.915905e+000 -1.025511e+000 -9.495001e+000 114 61 51
1.910526e+000 -1.027356e+000 -9.472687e+000 114 61 51
1.979999e+000 -1.065766e+000 -9.472758e+000 131 77 75
1.979999e+000 -1.065766e+000 -9.472758e+000 131 77 75
2.070902e+000 -1.017189e+000 -9.475926e+000 183 129 118
2.177347e+000 -9.855460e-001 -9.645958e+000 126 69 67
2.113039e+000 -1.051451e+000 -9.597213e+000 136 83 77
2.077295e+000 -1.057702e+000 -9.445401e+000 136 83 77
2.186190e+000 -1.035047e+000 -9.645708e+000 186 130 119
2.186190e+000 -1.035047e+000 -9.645708e+000 186 130 119
2.377886e+000 -1.004585e+000 -9.670358e+000 182 95 91
2.818868e+000 -9.509310e-001 -9.635324e+000 152 29 40
-6.068773e-001 -1.056194e+000 -8.451838e+000 162 158 26
-6.059954e-001 -1.056196e+000 -8.453159e+000 162 158 26
1.429095e+000 -1.082472e+000 -9.309059e+000 117 66 63
1.569551e+000 -1.056492e+000 -9.421030e+000 120 67 66
2.142687e+000 -1.118725e+000 -9.752476e+000 189 130 128
4.658113e+000 -2.838282e+000 -1.047798e+001 60 47 54
4.736508e+000 -2.734361e+000 -1.034583e+001 146 129 135
4.638350e+000 -2.974359e+000 -1.057868e+001 144 130 130
-1.722168e+000 1.406662e+000 -8.076414e+000 125 138 140
-8.019939e-001 1.539366e+000 -8.602583e+000 45 59 43
-8.019939e-001 1.539366e+000 -8.602583e+000 45 59 43
6.097131e-001 1.645368e+000 -9.151381e+000 146 110 83
-1.323428e+000 1.270198e+000 -8.138343e+000 170 42 50
-2.081052e+000 1.066952e+000 -8.009376e+000 195 172 141
-9.689769e-001 9.532029e-001 -7.761267e+000 166 41 36
2.260003e+000 1.315146e+000 -9.259649e+000 128 102 97
2.341784e+000 1.419693e+000 -9.438868e+000 88 67 82
2.493640e+000 1.221470e+000 -9.213554e+000 45 19 19
2.510379e+000 1.240287e+000 -9.274167e+000 45 19 19
2.717866e+000 1.429869e+000 -9.549400e+000 117 67 57
2.820414e+000 1.181251e+000 -9.296270e+000 124 95 89
-1.969106e+000 8.309653e-001 -7.642510e+000 195 173 142
1.549804e-001 8.351560e-001 -7.965064e+000 28 58 26
1.025796e+000 8.821577e-001 -8.318999e+000 173 39 43
2.760386e+000 1.009465e+000 -9.081201e+000 147 118 108
3.103065e+000 9.279271e-001 -9.079275e+000 83 54 68
-4.869565e-001 6.639306e-001 -7.590961e+000 73 107 118
1.012584e+000 7.086868e-001 -8.210267e+000 166 157 128
1.932246e+000 8.158619e-001 -8.656270e+000 166 100 67
2.142560e+000 7.897081e-001 -8.628528e+000 82 40 50
2.138094e+000 7.849595e-001 -8.611681e+000 82 40 50
2.140400e+000 7.014795e-001 -8.588220e+000 71 29 37
2.344430e+000 7.075231e-001 -8.624521e+000 106 51 64
2.689671e+000 7.105853e-001 -8.789058e+000 122 93 90
3.210886e+000 7.515511e-001 -9.035117e+000 67 45 52
4.127097e+000 7.528985e-001 -9.493132e+000 128 37 58
4.084241e+000 7.078121e-001 -9.473230e+000 155 121 75
2.584667e+000 4.458330e-001 -8.599930e+000 118 54 18
4.783099e+000 4.728369e-001 -9.540527e+000 190 101 57
4.948835e+000 5.714846e-001 -9.534842e+000 171 75 48
1.246213e+000 5.157128e-002 -8.183651e+000 5 60 100
3.210346e+000 1.358846e-001 -9.061197e+000 146 25 46
4.350258e+000 2.200973e-001 -9.377038e+000 58 37 46
1.390131e+000 -7.175140e-002 -8.320642e+000 170 115 92
1.599564e+000 -1.327099e-001 -8.450456e+000 170 113 94
2.040208e+000 -1.306039e-001 -8.571553e+000 176 122 98
2.015417e+000 -1.518238e-001 -8.571637e+000 173 122 101
1.116197e+000 -2.049711e-001 -8.313883e+000 22 74 118
1.617022e+000 -2.243118e-001 -8.497763e+000 158 105 97
1.924474e+000 -1.812700e-001 -8.586376e+000 176 126 100
1.902385e+000 -2.062498e-001 -8.608519e+000 175 123 102
2.300649e+000 -2.040374e-001 -8.764479e+000 161 116 111
2.554575e+000 -1.969158e-001 -8.684714e+000 138 13 27
3.266132e+000 -1.821616e-001 -9.163520e+000 179 127 95
3.312906e+000 -2.442890e-001 -9.220527e+000 179 128 102
3.312906e+000 -2.442890e-001 -9.220527e+000 179 128 102
4.352447e+000 -1.062715e-001 -9.571493e+000 169 146 130
-1.443632e-001 -3.925104e-001 -7.912687e+000 164 157 34
-1.443632e-001 -3.925104e-001 -7.912687e+000 164 157 34
3.248084e+000 -5.041867e-001 -9.414526e+000 178 123 102
3.243594e+000 -5.072817e-001 -9.403709e+000 178 123 102
8.171972e-001 -7.180387e-001 -8.396152e+000 9 49 92
9.860377e-001 -7.284134e-001 -8.610744e+000 22 82 132
1.266341e+000 -6.246573e-001 -8.646777e+000 179 115 100
1.359578e+000 -6.581334e-001 -8.780580e+000 182 121 108
1.567159e+000 -6.913508e-001 -8.915629e+000 178 118 101
1.562349e+000 -6.971274e-001 -8.882301e+000 178 118 101
1.714868e+000 -7.235891e-001 -8.988619e+000 125 73 63
1.868392e+000 -6.931199e-001 -8.880021e+000 175 118 101
1.935839e+000 -6.237331e-001 -8.969294e+000 177 119 95
2.144435e+000 -6.384924e-001 -9.071100e+000 174 120 102
2.236803e+000 -6.735036e-001 -9.123501e+000 176 120 105
2.236803e+000 -6.735036e-001 -9.123501e+000 176 120 105
3.100253e+000 -7.227537e-001 -9.601616e+000 139 93 81
4.530788e+000 -7.161904e-001 -1.035763e+001 143 123 123
-1.206641e+000 -8.276324e-001 -7.902951e+000 183 41 51
-1.133785e+000 -8.022188e-001 -7.880454e+000 182 39 53
9.045627e-001 -7.496919e-001 -8.676289e+000 20 56 94
3.123679e+000 -8.432264e-001 -9.782584e+000 182 122 112
3.538741e+000 -9.150652e-001 -1.009335e+001 169 133 112
-1.250927e+000 -9.248481e-001 -8.015674e+000 169 35 28
-1.269179e+000 -9.691121e-001 -8.065669e+000 187 46 61
-1.032443e+000 -9.721925e-001 -8.037621e+000 45 96 122
-3.569961e-001 -9.673326e-001 -8.413129e+000 144 160 52
1.295199e+000 -1.049182e+000 -9.335150e+000 178 125 118
1.295199e+000 -1.049182e+000 -9.335150e+000 178 125 118
1.564669e+000 -9.480385e-001 -9.253664e+000 176 119 107
1.648102e+000 -9.989629e-001 -9.331878e+000 179 121 112
1.626817e+000 -1.052734e+000 -9.463695e+000 179 125 119
1.776328e+000 -1.006118e+000 -9.519035e+000 179 121 110
1.777291e+000 -1.006493e+000 -9.507416e+000 179 121 110
1.785827e+000 -9.517769e-001 -9.317364e+000 181 125 110
1.785208e+000 -9.532612e-001 -9.312206e+000 181 125 110
1.860534e+000 -1.004511e+000 -9.390605e+000 187 131 121
1.962719e+000 -1.054864e+000 -9.612165e+000 180 126 114
1.962719e+000 -1.054864e+000 -9.612165e+000 180 126 114
2.004153e+000 -1.004315e+000 -9.631216e+000 182 125 113
3.931357e+000 -9.699327e-001 -1.034332e+001 81 67 57
4.321320e+000 -1.002202e+000 -1.056703e+001 142 131 112
4.399059e+000 -1.080623e+000 -1.079256e+001 178 151 154
-1.309547e+000 -1.067894e+000 -8.163789e+000 172 35 46
1.391864e+000 -1.069613e+000 -9.383057e+000 179 125 115
1.723058e+000 -1.065695e+000 -9.461799e+000 184 127 118
2.281966e+000 -1.115488e+000 -9.832518e+000 162 30 47
2.726653e+000 -1.101182e+000 -1.001102e+001 158 29 51
3.520289e-001 1.450443e+000 -8.819850e+000 176 41 46
2.244491e+000 1.742064e+000 -9.917748e+000 70 90 101
-3.957999e-001 9.550786e-001 -7.991510e+000 170 159 91
-3.957999e-001 9.550786e-001 -7.991510e+000 170 159 91
-1.536559e-001 1.188807e+000 -8.346745e+000 174 160 83
-1.536559e-001 1.188807e+000 -8.346745e+000 174 160 83
9.209100e-001 1.136799e+000 -8.588226e+000 175 47 43
1.101324e+000 1.200205e+000 -8.804545e+000 154 36 48
-1.077166e+000 7.443023e-001 -7.613382e+000 171 42 37
7.987711e-001 7.589435e-001 -8.133750e+000 164 101 89
8.500517e-001 6.056109e-001 -8.031478e+000 143 72 50
9.316080e-001 7.886844e-001 -8.256589e+000 148 84 67
1.840698e+000 8.151462e-001 -8.585983e+000 170 114 84
3.354043e+000 8.698741e-001 -9.180215e+000 32 27 42
3.675481e+000 6.400291e-001 -9.054485e+000 7 58 101
4.960775e+000 1.480718e-001 -9.646678e+000 156 91 58
1.440524e+000 -3.791053e-002 -8.318732e+000 167 119 99
4.369990e+000 3.750928e-002 -9.471966e+000 29 14 23
1.575638e+000 -1.786330e-001 -8.476627e+000 177 114 103
1.965615e+000 -1.998009e-001 -8.637579e+000 66 28 16
1.965615e+000 -1.998009e-001 -8.637579e+000 66 28 16
4.752855e+000 -1.566734e-001 -9.875819e+000 146 84 36
4.819862e+000 -1.602926e-001 -9.896211e+000 131 74 42
-6.564630e-001 -3.720731e-001 -7.686240e+000 88 94 40
3.284796e+000 -2.724419e-001 -9.370476e+000 146 110 99
3.284796e+000 -2.724419e-001 -9.370476e+000 146 110 99
4.005539e+000 -4.231268e-001 -9.713311e+000 157 80 41
-5.105150e-001 -5.836809e-001 -7.887883e+000 38 55 39
1.316179e+000 -5.989238e-001 -8.608642e+000 160 109 106
2.471976e+000 -5.368071e-001 -9.142502e+000 187 127 101
3.246550e+000 -4.614503e-001 -9.359084e+000 184 132 108
3.309844e+000 -5.759614e-001 -9.412630e+000 188 122 103
-3.919200e-001 -5.924844e-001 -7.978657e+000 57 100 122
-1.661018e-002 -6.620492e-001 -8.176606e+000 161 152 114
7.615267e-001 -6.186438e-001 -8.351035e+000 133 24 46
6.870510e-001 -6.924749e-001 -8.510757e+000 194 131 124
3.514286e+000 -5.981520e-001 -9.673296e+000 150 41 48
1.895695e-001 -8.228622e-001 -8.451827e+000 126 51 55
6.708174e-001 -8.680884e-001 -8.662267e+000 119 19 52
2.412600e+000 -8.680093e-001 -9.552016e+000 158 38 55
3.970842e+000 -7.559878e-001 -1.009814e+001 167 148 122
-2.802678e-001 -9.390108e-001 -8.414660e+000 35 61 34
5.873715e-001 -9.073675e-001 -8.719663e+000 169 104 86
-9.513723e-001 -1.059886e+000 -8.280333e+000 128 133 91
2.035788e+000 -1.120200e+000 -9.706900e+000 187 137 132
-1.750744e+000 1.345272e+000 -8.027266e+000 62 92 110
-5.206151e-001 1.648452e+000 -8.762025e+000 150 158 76
-2.368442e-001 1.422719e+000 -8.539490e+000 173 156 96
-2.449069e-001 1.196026e+000 -8.337688e+000 43 63 34
1.594769e+000 1.497174e+000 -9.291034e+000 179 124 87
-2.589305e-001 1.068495e+000 -8.179991e+000 172 163 97
-2.589305e-001 1.068495e+000 -8.179991e+000 172 163 97
1.408267e+000 1.298256e+000 -9.017179e+000 20 83 107
2.686580e+000 1.387080e+000 -9.557163e+000 148 116 103
9.802428e-001 9.680996e-001 -8.412710e+000 178 49 55
9.548745e-001 8.643662e-001 -8.286807e+000 169 151 127
1.499849e+000 1.028962e+000 -8.677702e+000 21 60 105
2.750580e+000 8.002510e-001 -8.896857e+000 94 53 57
3.215827e+000 6.306991e-001 -8.952508e+000 82 58 59
4.544601e+000 7.548377e-001 -9.531231e+000 175 75 75
3.890210e+000 -3.051532e-002 -9.266900e+000 173 65 39
4.047332e+000 -2.478238e-002 -9.357114e+000 172 81 44
7.344670e-001 -2.105718e-001 -8.163148e+000 139 22 38
-3.898618e-001 -7.257951e-001 -8.081639e+000 27 63 46
-3.165991e-001 -7.082488e-001 -8.081598e+000 88 117 54
-7.347019e-001 -8.131444e-001 -8.028728e+000 29 53 39
-4.952780e-001 -8.313913e-001 -8.205263e+000 124 134 36
2.687106e+000 -8.845897e-001 -9.658707e+000 160 30 46
2.687201e+000 -8.846044e-001 -9.658365e+000 160 30 46
-8.734393e-001 -8.738769e-001 -8.122623e+000 23 52 41
-5.230680e-001 -8.843404e-001 -8.262723e+000 134 143 37
-4.832334e-001 -9.420247e-001 -8.326860e+000 29 50 41
5.435502e-001 -1.012448e+000 -8.825217e+000 167 108 92
3.466749e+000 -9.568788e-001 -1.016791e+001 167 135 112
4.666704e+000 -2.692599e+000 -1.027750e+001 38 31 39
-8.110305e-001 1.185966e+000 -8.124291e+000 33 57 35
-5.857428e-001 1.245514e+000 -8.244214e+000 170 160 83
-4.256930e-001 1.206801e+000 -8.297534e+000 39 61 35
-1.473405e-001 1.431065e+000 -8.647227e+000 41 59 34
-1.473405e-001 1.431065e+000 -8.647227e+000 41 59 34
-5.395376e-002 1.367872e+000 -8.601727e+000 169 156 103
5.684799e-002 1.411486e+000 -8.681134e+000 48 62 42
8.888196e-001 1.357147e+000 -8.853206e+000 165 157 123
1.601063e-001 1.171705e+000 -8.392496e+000 48 62 40
-4.461483e-002 7.728970e-001 -7.892005e+000 37 60 36
-4.461483e-002 7.728970e-001 -7.892005e+000 37 60 36
2.903334e-001 8.266000e-001 -8.001951e+000 171 157 123
2.871150e+000 9.589640e-001 -9.077367e+000 140 110 101
3.731740e+000 1.293654e-001 -9.068124e+000 93 20 34
2.928158e+000 -2.142305e-001 -9.152765e+000 154 27 42
3.204003e+000 -1.718362e-001 -9.169916e+000 182 126 97
4.209590e+000 -3.088605e-001 -9.551266e+000 158 71 36
-9.072111e-001 -6.931324e-001 -7.826549e+000 14 71 119
2.781612e+000 -6.265169e-001 -9.305363e+000 163 32 53
-5.607822e-001 -8.299169e-001 -8.084772e+000 25 60 44
-5.611248e-001 -8.293138e-001 -8.090997e+000 25 60 44
-1.183972e+000 -8.894401e-001 -7.989660e+000 192 151 129
-1.981359e-001 -9.294578e-001 -8.496966e+000 133 142 121
-1.217602e+000 -1.016548e+000 -8.129187e+000 176 138 111
-1.039710e+000 -1.082762e+000 -8.325975e+000 34 60 46
-6.580249e-001 -1.014621e+000 -8.347204e+000 22 56 33
2.882071e+000 1.297708e+000 -9.436174e+000 82 58 62
-9.593964e-001 6.835310e-001 -7.408708e+000 162 106 79
-1.983730e-001 8.509826e-001 -7.908111e+000 165 157 119
-6.777463e-001 6.705234e-001 -7.586785e+000 34 52 32
3.259101e+000 9.349025e-001 -9.152019e+000 162 121 93
3.559304e+000 8.447647e-001 -9.231320e+000 23 60 98
3.838332e+000 3.068141e-001 -9.126273e+000 115 25 38
3.838332e+000 3.068141e-001 -9.126273e+000 115 25 38
3.123007e+000 7.834037e-002 -8.911622e+000 147 23 41
3.123007e+000 7.834037e-002 -8.911622e+000 147 23 41
2.644043e+000 -8.057232e-002 -8.826563e+000 137 20 31
3.877801e+000 -1.998394e-001 -9.444698e+000 161 109 62
8.850162e-001 -3.238633e-001 -8.298252e+000 9 46 83
2.971539e+000 -3.030685e-001 -9.417911e+000 147 21 33
-1.806995e-001 -5.989141e-001 -8.017095e+000 121 129 123
-1.806995e-001 -5.989141e-001 -8.017095e+000 121 129 123
-4.809731e-001 -7.666185e-001 -8.082343e+000 72 110 132
-3.816867e-001 -9.342801e-001 -8.377467e+000 121 138 129
5.849682e-001 -1.134508e+000 -9.118113e+000 20 79 130
-1.287312e+000 1.452154e+000 -8.372115e+000 20 73 113
-1.261176e+000 1.393758e+000 -8.214239e+000 20 73 113
-7.075197e-001 1.686574e+000 -8.897406e+000 111 120 134
2.003298e+000 -2.855149e-001 -8.701505e+000 183 126 102
4.059795e+000 -1.100436e-001 -9.559576e+000 172 88 58
4.405062e+000 -1.351102e-001 -9.651118e+000 142 117 115
4.397534e+000 -1.393786e-001 -9.636336e+000 142 117 115
3.109792e-001 1.183276e+000 -8.487981e+000 163 151 125
-1.626400e-001 1.230275e-001 -7.692539e+000 140 139 132
1.145041e+000 -1.841744e-001 -8.291486e+000 15 58 84
2.066027e+000 -6.483888e-001 -9.042188e+000 124 72 59
2.236560e+000 -8.228263e-001 -9.314825e+000 183 122 103
2.523876e+000 1.504768e+000 -9.674309e+000 136 108 97
2.417106e+000 6.866978e-001 -8.695404e+000 89 45 53
3.056186e+000 7.111539e-001 -8.957708e+000 64 24 33
4.620858e+000 5.860455e-001 -9.383718e+000 165 116 96
3.648245e+000 7.532192e-001 -9.281256e+000 20 61 103
-1.995177e-002 -8.272620e-001 -8.338945e+000 150 149 144
1.401866e+000 7.795458e-001 -8.361205e+000 167 36 51
-2.417445e+000 7.618901e-001 -8.350499e+000 195 170 139
3.225481e+000 3.950890e-001 -9.039522e+000 156 106 46
3.204156e+000 3.791534e-001 -8.976448e+000 156 106 46
5.283617e-001 -4.066714e-001 -8.155615e+000 156 148 126
2.354245e+000 -3.814039e-001 -8.928377e+000 181 127 101
-1.072192e+000 -7.035974e-001 -7.723646e+000 187 133 110
2.862420e+000 -1.432714e-001 -8.948796e+000 148 22 38
4.425376e+000 -2.946375e-001 -9.846404e+000 172 89 54
1.303891e+000 -9.659044e-001 -9.628892e+000 171 111 100
-1.243799e+000 1.734713e+000 -9.447767e+000 140 139 63
9.996275e-001 -1.839450e-001 -8.162216e+000 79 107 129
2.749205e-001 2.192136e-001 -8.251451e+000 151 146 128
-8.609432e-001 -3.270784e-001 -7.496628e+000 13 80 125
-2.206259e+000 1.245540e+000 -8.163264e+000 93 78 66
-9.932661e-001 8.909254e-001 -7.672178e+000 168 53 55
-5.152618e-001 6.383315e-001 -7.520501e+000 62 93 115
1.224116e+000 6.296482e-001 -8.118699e+000 153 31 34
2.013179e+000 6.840795e-001 -8.561587e+000 96 35 34
3.160247e+000 6.684160e-001 -8.939458e+000 106 76 67
2.246192e+000 5.479996e-001 -8.551817e+000 166 132 94
3.406024e+000 5.515523e-001 -9.052086e+000 166 132 86
4.829129e+000 1.217091e-001 -9.632536e+000 50 11 12
4.918934e+000 1.555153e-001 -9.641782e+000 165 103 28
4.796765e+000 -2.488976e-002 -9.756298e+000 48 13 6
2.074977e+000 -1.807421e-001 -8.665365e+000 171 127 89
3.989670e+000 -1.744395e-001 -9.468387e+000 170 85 42
3.986125e+000 -1.758869e-001 -9.460038e+000 170 85 42
4.770460e+000 -1.110362e-001 -9.833253e+000 56 8 23
4.770460e+000 -1.110362e-001 -9.833253e+000 56 8 23
7.867825e-001 -2.784106e-001 -8.208554e+000 134 11 19
7.871414e-001 -2.770565e-001 -8.212090e+000 134 11 19
3.875165e+000 -3.080668e-001 -9.541500e+000 165 75 47
2.626959e+000 -4.704881e-001 -9.103885e+000 146 23 40
3.390360e+000 -4.944965e-001 -9.365208e+000 173 70 48
4.654057e+000 -3.750890e-001 -1.001556e+001 150 128 112
7.312606e-001 -4.679542e-001 -8.329654e+000 188 148 119
2.874432e+000 -5.775589e-001 -9.338244e+000 148 15 31
-1.043512e+000 -6.278278e-001 -7.733204e+000 193 143 113
-6.994294e-001 -6.617236e-001 -7.911500e+000 142 150 22
-2.734875e-001 -6.949465e-001 -8.047078e+000 19 49 21
-2.946857e-001 -7.056350e-001 -8.077036e+000 136 142 44
3.041705e+000 -8.862153e-001 -9.779056e+000 184 125 108
3.352590e+000 -8.499725e-001 -9.940147e+000 172 137 112
3.980728e+000 -8.116750e-001 -1.015972e+001 27 9 7
-6.140199e-001 -8.278760e-001 -8.098325e+000 141 149 48
-8.339184e-001 1.153371e+000 -8.035397e+000 36 56 25
1.185102e+000 1.259791e+000 -8.788975e+000 144 37 31
-6.385266e-002 6.894668e-001 -7.714097e+000 32 58 45
2.265568e+000 6.170895e-001 -8.576066e+000 133 80 74
2.265568e+000 6.170895e-001 -8.576066e+000 133 80 74
4.332173e+000 2.645497e-001 -9.339690e+000 189 120 50
4.025810e+000 -6.638877e-002 -9.397921e+000 180 88 38
2.656342e+000 -2.912608e-001 -8.944143e+000 150 25 39
3.988090e+000 -2.235764e-001 -9.509941e+000 191 123 52
4.506504e+000 -2.566797e-001 -9.790318e+000 167 97 37
4.797871e+000 -3.068184e-001 -1.005178e+001 117 60 26
2.744403e+000 -4.947118e-001 -9.194938e+000 184 78 83
2.697370e+000 -5.165028e-001 -9.179159e+000 140 24 33
2.978253e+000 -5.622550e-001 -9.352978e+000 172 57 58
3.143461e+000 -6.259837e-001 -9.531672e+000 100 52 46
-5.896830e-001 -5.835699e-001 -7.908613e+000 34 85 106
-5.893628e-001 -5.852542e-001 -7.901603e+000 34 85 106
3.252265e+000 -6.499965e-001 -9.605097e+000 154 98 81
3.163497e+000 -7.156372e-001 -9.638700e+000 181 125 109
3.786341e+000 -7.450945e-001 -1.001195e+001 108 81 68
-1.051830e+000 -7.341346e-001 -7.805938e+000 173 43 64
-6.578004e-001 -7.880938e-001 -8.019437e+000 54 98 107
3.019475e+000 -9.008304e-001 -9.816984e+000 113 55 46
3.037259e+000 -8.959279e-001 -9.863399e+000 113 55 46
3.046159e+000 -8.545521e-001 -9.767565e+000 102 51 51
4.399698e+000 -8.981314e-001 -1.052690e+001 134 114 103
1.883385e+000 -8.733456e-001 -9.314008e+000 105 55 45
1.883385e+000 -8.733456e-001 -9.314008e+000 105 55 45
2.077892e+000 -9.143020e-001 -9.396285e+000 125 78 66
1.202108e+000 -1.098816e+000 -9.327123e+000 150 99 96
1.202108e+000 -1.098816e+000 -9.327123e+000 150 99 96
2.334429e+000 -1.088465e+000 -9.817555e+000 183 99 96
2.204325e+000 -1.116716e+000 -9.816006e+000 189 131 127
2.364765e+000 -1.052357e+000 -9.770748e+000 185 106 93
-1.250335e+000 -9.990124e-001 -8.092282e+000 190 161 135
2.076878e+000 7.588910e-001 -8.584578e+000 149 82 73
2.066206e+000 7.435060e-001 -8.540216e+000 149 82 73
3.495617e+000 8.650034e-001 -9.206059e+000 18 60 105
4.477243e+000 6.623968e-001 -9.435305e+000 187 145 108
-1.938472e+000 6.241563e-001 -7.477262e+000 198 181 138
-1.994156e+000 6.002868e-001 -7.536756e+000 198 175 143
4.551335e+000 7.040205e-002 -9.535445e+000 67 44 39
4.839004e+000 1.382512e-002 -9.731349e+000 153 85 43
4.942644e+000 -2.438242e-002 -9.896843e+000 135 80 40
1.121658e+000 -1.771679e-001 -8.281142e+000 8 67 107
2.072016e+000 -2.114814e-001 -8.678432e+000 119 77 64
2.286704e+000 -1.103089e-001 -8.725791e+000 177 129 91
4.345602e+000 -2.100132e-001 -9.670953e+000 176 151 128
1.118032e+000 -2.034764e-001 -8.319279e+000 13 73 110
1.351603e+000 -2.170234e-001 -8.386677e+000 176 114 91
2.766360e+000 -3.913762e-001 -9.114501e+000 162 54 54
1.221132e+000 -6.155753e-001 -8.653182e+000 91 49 34
1.480884e+000 -7.368179e-001 -8.897100e+000 135 87 68
3.202457e+000 -6.743081e-001 -9.648437e+000 176 119 99
-7.436331e-001 -7.638939e-001 -7.984095e+000 162 151 20
-7.436331e-001 -7.638939e-001 -7.984095e+000 162 151 20
-5.883043e-001 -7.599945e-001 -8.041033e+000 132 135 29
3.646052e-001 -8.002586e-001 -8.406032e+000 148 149 141
3.900803e+000 -9.236957e-001 -1.030011e+001 171 153 128
-1.188226e+000 -7.718073e-001 -7.834565e+000 177 48 40
2.096583e+000 -1.006719e+000 -9.587870e+000 182 123 119
3.613124e+000 -9.819022e-001 -1.022723e+001 168 132 108
3.753292e+000 -9.583791e-001 -1.027060e+001 165 135 111
5.942342e-001 -1.026626e+000 -8.809013e+000 138 28 49
1.556828e+000 9.292111e-001 -8.597569e+000 28 78 117
2.418023e+000 1.084555e+000 -9.023795e+000 113 89 77
2.418023e+000 1.084555e+000 -9.023795e+000 113 89 77
-1.972493e+000 8.781404e-001 -7.645889e+000 192 172 139
2.736572e+000 7.854491e-001 -8.850316e+000 85 40 40
3.802357e+000 7.554329e-001 -9.272881e+000 160 124 76
4.774078e+000 7.144644e-001 -9.625205e+000 164 138 100
8.741379e-001 -1.461224e-001 -8.122931e+000 111 19 45
2.155495e+000 -1.567992e-001 -8.722464e+000 180 131 103
4.830875e+000 -2.334547e-001 -1.004780e+001 142 84 44
8.988034e-001 -4.480051e-001 -8.367708e+000 6 41 66
-2.708985e-001 -5.014786e-001 -7.928517e+000 126 108 30
3.079910e+000 -5.986355e-001 -9.462993e+000 189 123 97
3.971815e+000 -5.223999e-001 -9.810181e+000 155 88 54
3.143057e+000 -7.826100e-001 -9.717351e+000 177 121 98
1.821275e+000 -8.872124e-001 -9.304142e+000 181 123 101
1.417378e+000 -1.021375e+000 -9.328093e+000 177 120 110
1.417378e+000 -1.021375e+000 -9.328093e+000 177 120 110
1.239045e+000 -1.136063e+000 -9.441338e+000 187 128 119
1.590969e+000 -1.181064e+000 -9.868691e+000 188 115 115
-5.127977e-001 1.286091e+000 -8.262840e+000 128 131 56
1.171976e+000 9.988570e-001 -8.534141e+000 150 35 36
9.593968e-001 6.424241e-001 -8.096897e+000 140 85 57
3.900087e+000 2.761220e-001 -9.061374e+000 182 106 28
-2.296765e-001 1.819124e-001 -7.522470e+000 85 113 121
3.321808e+000 -1.927214e-001 -9.210106e+000 187 132 104
7.103618e-001 -3.210114e-001 -8.234716e+000 135 19 29
-1.114541e+000 -5.553003e-001 -7.643603e+000 196 100 93
-6.663135e-001 -5.956052e-001 -7.819174e+000 25 55 34
-2.477430e-001 -6.896312e-001 -8.109382e+000 19 48 28
7.234884e-001 -7.490822e-001 -8.554084e+000 111 22 51
-4.832040e-001 -9.409933e-001 -8.328042e+000 21 49 29
1.826275e+000 -1.119124e+000 -9.662379e+000 189 129 124
1.923722e+000 -1.119797e+000 -9.689716e+000 176 122 112
1.483471e+000 -1.123414e+000 -9.557546e+000 192 127 126
4.843512e+000 -2.528839e+000 -1.033758e+001 50 39 43
2.361632e+000 -7.436684e-001 -9.315111e+000 177 119 93
1.544041e+000 -7.787471e-001 -8.974831e+000 182 118 94
1.890678e+000 -1.427944e+000 -1.737771e+001 56 51 55
3.874477e+000 7.104706e-001 -9.269226e+000 163 125 84
1.202826e+000 1.380521e-002 -8.143330e+000 15 78 114
2.954271e+000 -2.098345e-002 -8.967995e+000 156 25 39
2.791642e+000 -4.944489e-001 -9.075337e+000 151 18 35
2.791642e+000 -4.944489e-001 -9.075337e+000 151 18 35
5.067959e+000 3.987013e-001 -9.595673e+000 183 87 34
-3.820869e-001 -5.976863e-001 -7.979422e+000 56 101 112
-4.801554e-001 -7.641896e-001 -8.091869e+000 65 105 115
2.450427e+000 4.236305e-001 -8.596944e+000 162 124 85
-4.058783e+001 1.669483e+001 -7.871432e+001 52 37 44
-3.548502e+001 1.319286e+001 -8.072983e+001 117 108 101
-3.708448e+001 1.708599e+001 -7.977727e+001 45 37 34
-3.623915e+001 1.740621e+001 -8.081792e+001 46 36 36
-3.136825e+001 1.404496e+001 -8.084318e+001 113 92 61
-2.198050e-001 -2.401333e-001 -7.794156e+000 148 154 44
3.720640e+000 -2.403796e-001 -9.393579e+000 171 109 51
2.622801e+000 -3.247315e-001 -8.995443e+000 177 71 68
2.325559e-001 -6.813755e-001 -8.285190e+000 151 145 126
1.221487e+000 -6.300282e-001 -8.647053e+000 106 61 50
3.151847e+000 -8.780910e-001 -9.813829e+000 110 59 50
3.859911e+000 -7.776379e-001 -1.004058e+001 158 131 101
3.849854e+000 -7.813309e-001 -1.002039e+001 158 131 101
3.916008e+000 -8.645220e-001 -1.020512e+001 170 146 119
4.420549e+000 -8.373452e-001 -1.018127e+001 87 29 28
-4.516534e-001 -9.193602e-001 -8.322597e+000 28 44 31
2.306605e+000 -9.516450e-001 -9.533583e+000 187 119 111
2.793041e+000 -1.081082e+000 -9.994448e+000 155 40 55
1.449507e+000 -1.192335e+000 -9.815132e+000 178 83 90
6.355763e-002 -8.682360e-002 -7.781945e+000 59 74 48
2.732116e+000 -1.908451e-002 -8.839139e+000 134 19 28
4.572559e+000 -2.686782e-001 -9.888485e+000 115 63 38
1.395912e+000 -6.876136e-001 -8.808328e+000 104 54 40
2.468565e+000 -8.322603e-001 -9.471302e+000 192 86 90
2.363029e+000 -1.116629e+000 -9.823751e+000 154 32 47
2.501810e+000 -1.112832e+000 -9.821875e+000 163 36 55
4.824052e+000 -2.496962e+000 -1.011335e+001 146 131 138
7.413708e-001 -7.114783e-001 -8.516296e+000 108 24 44
4.548294e+000 -6.028041e-001 -1.017963e+001 149 126 113
1.901403e+000 -9.493824e-001 -9.363871e+000 177 120 109
2.094403e+000 -1.049922e+000 -9.756824e+000 185 126 118
3.347186e+000 -9.865461e-001 -1.004691e+001 175 140 113
3.880227e+000 -9.776922e-001 -1.021479e+001 81 67 57
4.771380e+000 -2.807288e+000 -1.024588e+001 152 136 138
4.702964e+000 -2.792625e+000 -1.034970e+001 128 109 111
3.346909e+000 -9.039273e-001 -9.943724e+000 121 92 75
4.767477e+000 -2.604025e+000 -1.032982e+001 50 38 48
-3.481465e+001 2.209413e+001 -6.682512e+001 154 143 183
4.521927e+000 -6.800251e-001 -1.033931e+001 107 94 88
4.426867e+000 -1.051267e+000 -1.037609e+001 26 15 29
2.982691e+000 -4.939385e-001 -1.001864e+001 150 27 38
3.510316e+000 -9.215692e-001 -1.041296e+001 146 114 98
2.969868e+000 4.001962e-001 -8.797763e+000 161 112 62
4.863260e+000 2.670871e-001 -9.552492e+000 142 81 51
4.474331e+000 1.563771e-001 -9.453033e+000 161 141 123
4.464503e+000 1.477951e-001 -9.432285e+000 161 141 123
4.839720e+000 2.414461e-001 -9.561488e+000 56 21 20
4.845822e+000 1.880367e-001 -9.591906e+000 47 13 15
4.901224e+000 1.808975e-001 -9.636398e+000 42 8 3
4.935247e+000 1.909544e-001 -9.624827e+000 46 5 3
2.698229e+000 3.920169e-002 -8.783721e+000 175 69 71
2.701658e+000 4.289413e-002 -8.793181e+000 175 69 71
2.740460e+000 3.205249e-002 -8.817803e+000 139 24 31
3.626486e+000 -7.504976e-002 -9.197712e+000 161 93 55
4.230281e+000 -3.600217e-002 -9.462246e+000 204 134 68
4.364789e+000 -6.655750e-002 -9.547851e+000 41 20 15
4.365893e+000 -6.565313e-002 -9.549675e+000 41 20 15
4.614600e+000 -2.594609e-002 -9.614076e+000 114 58 22
4.829945e+000 7.424266e-002 -9.825424e+000 177 102 47
4.827262e+000 -4.834732e-002 -9.776874e+000 147 88 48
8.183978e-001 -1.823553e-001 -8.158150e+000 183 144 105
2.305431e+000 -1.674554e-001 -8.747557e+000 174 126 102
2.696907e+000 -1.903627e-001 -8.919148e+000 144 35 38
3.751676e+000 -1.871708e-001 -9.382024e+000 162 86 47
4.053411e+000 -1.849982e-001 -9.495767e+000 169 85 51
4.312705e+000 -2.118736e-001 -9.649408e+000 180 155 130
4.435846e+000 -2.003857e-001 -9.710083e+000 170 144 120
-1.436476e-002 -3.097558e-001 -7.898331e+000 162 153 35
7.429882e-001 -3.228700e-001 -8.228241e+000 139 13 32
1.077656e+000 -2.254934e-001 -8.291462e+000 19 75 112
1.076937e+000 -2.267146e-001 -8.288107e+000 19 75 112
2.705057e+000 -3.129929e-001 -9.017895e+000 184 72 78
3.344506e+000 -3.610527e-001 -9.346127e+000 110 63 44
3.670549e+000 -3.153728e-001 -9.455727e+000 107 50 23
3.697552e+000 -2.570665e-001 -9.411962e+000 124 64 13
4.318958e+000 -2.384943e-001 -9.679078e+000 33 18 19
2.675193e+000 -4.632304e-001 -9.143366e+000 185 76 80
2.928637e+000 -4.880137e-001 -9.279253e+000 184 77 75
4.535433e+000 -3.774710e-001 -9.927945e+000 108 89 75
-1.257836e+000 -8.222573e-001 -6.282349e+000 19 86 129
-6.443736e-001 -4.438591e-001 -7.740479e+000 39 78 68
-6.443736e-001 -4.438591e-001 -7.740479e+000 39 78 68
-2.646617e-001 -4.899686e-001 -7.925167e+000 73 96 83
2.642542e-001 -5.249994e-001 -8.175628e+000 150 145 126
3.173643e-001 -5.243011e-001 -8.195705e+000 151 136 123
3.352597e-001 -5.426320e-001 -8.215661e+000 115 17 26
7.631684e-001 -4.698033e-001 -8.339088e+000 192 148 123
2.626926e+000 -6.154836e-001 -9.237396e+000 177 69 75
2.626926e+000 -6.154836e-001 -9.237396e+000 177 69 75
2.907813e+000 -5.609864e-001 -9.322642e+000 197 77 82
3.310577e+000 -5.085821e-001 -9.467625e+000 120 65 53
3.308610e+000 -5.099076e-001 -9.463174e+000 120 65 53
3.534441e+000 -5.547404e-001 -9.591394e+000 127 20 17
3.701412e+000 -5.325690e-001 -9.684162e+000 135 39 20
3.633416e+000 -6.076325e-001 -9.724426e+000 169 114 88
3.723650e+000 -5.900582e-001 -9.789634e+000 159 118 89
3.615064e+000 -6.419898e-001 -9.750839e+000 167 133 101
3.724037e+000 -5.547932e-001 -9.703436e+000 179 101 53
3.816131e+000 -5.159668e-001 -9.714100e+000 182 121 60
3.816141e+000 -5.162721e-001 -9.712985e+000 182 121 60
4.563688e+000 -6.364350e-001 -1.029975e+001 151 130 120
4.655931e+000 -6.248655e-001 -1.033796e+001 102 53 38
4.750968e+000 -5.524563e-001 -1.039283e+001 122 74 51
-1.582969e+000 -5.222888e-001 -7.530080e+000 136 136 120
-1.120310e+000 -5.538413e-001 -7.652092e+000 169 76 62
-3.006446e-001 -5.693820e-001 -7.968025e+000 23 49 32
-1.079679e-001 -6.941031e-001 -8.102911e+000 22 52 33
2.240341e-001 -6.215673e-001 -8.228923e+000 120 28 29
2.010313e-001 -6.956193e-001 -8.299123e+000 110 30 32
2.321220e-001 -6.809142e-001 -8.286425e+000 156 144 122
3.597780e-001 -7.056033e-001 -8.370380e+000 150 143 135
1.541305e+000 -6.595395e-001 -8.810076e+000 96 45 35
2.540684e+000 -6.456441e-001 -9.253247e+000 190 74 84
2.541515e+000 -6.454679e-001 -9.255503e+000 190 74 84
2.892861e+000 -7.727838e-001 -9.543853e+000 177 65 68
2.903007e+000 -6.716995e-001 -9.458521e+000 144 28 32
3.201878e+000 -7.813610e-001 -9.733357e+000 113 53 51
3.201472e+000 -7.817924e-001 -9.731418e+000 113 53 51
3.503944e+000 -7.541057e-001 -9.856601e+000 161 128 100
3.601014e+000 -7.683146e-001 -9.896210e+000 116 85 65
3.734851e+000 -7.438819e-001 -9.965202e+000 153 124 100
3.812128e+000 -7.353275e-001 -9.955547e+000 156 126 98
3.830867e+000 -7.902975e-001 -1.005537e+001 92 65 45
4.415948e+000 -7.702850e-001 -1.035612e+001 35 16 15
4.453543e+000 -7.912091e-001 -1.041133e+001 147 133 124
4.597541e+000 -7.361150e-001 -1.042571e+001 100 46 42
-1.203827e+000 -6.985756e-001 -7.717157e+000 16 67 113
-1.101390e+000 -7.507671e-001 -7.830333e+000 176 30 43
-7.453365e-001 -6.756036e-001 -7.891643e+000 158 158 27
-5.248969e-001 -7.888318e-001 -8.089522e+000 148 160 36
2.039617e-001 -7.473737e-001 -8.363886e+000 156 144 133
2.041240e-001 -7.475912e-001 -8.363876e+000 156 144 133
2.288974e-001 -7.602062e-001 -8.393355e+000 113 22 29
2.190386e-001 -8.022971e-001 -8.443917e+000 120 20 38
2.956628e-001 -7.563674e-001 -8.440236e+000 156 142 133
3.420784e-001 -7.434933e-001 -8.420851e+000 148 147 135
2.108515e+000 -8.539357e-001 -9.329564e+000 115 61 52
2.108515e+000 -8.539357e-001 -9.329564e+000 115 61 52
2.857660e+000 -7.775385e-001 -9.549382e+000 151 35 43
2.857660e+000 -7.775385e-001 -9.549382e+000 151 35 43
3.531638e+000 -8.663490e-001 -1.001983e+001 160 126 101
3.549622e+000 -8.052475e-001 -9.917567e+000 158 127 99
3.640895e+000 -8.305645e-001 -9.978683e+000 110 78 57
3.756630e+000 -8.773731e-001 -1.012269e+001 162 129 104
-1.087548e+000 -8.062079e-001 -7.908861e+000 170 27 36
-1.087548e+000 -8.062079e-001 -7.908861e+000 170 27 36
-7.786544e-001 -8.333598e-001 -8.057002e+000 144 158 7
5.713324e-001 -8.978206e-001 -8.724440e+000 192 149 117
5.587252e-001 -9.538856e-001 -8.806126e+000 190 144 119
2.398972e+000 -9.741069e-001 -9.631979e+000 195 107 101
2.398972e+000 -9.741069e-001 -9.631979e+000 195 107 101
2.747908e+000 -1.022360e+000 -9.911551e+000 158 39 51
4.365371e+000 -1.012150e+000 -1.064472e+001 156 145 134
4.415653e+000 -9.842906e-001 -1.065177e+001 90 79 61
4.379941e+000 -1.043110e+000 -1.067877e+001 101 83 75
-1.221948e+000 -9.087517e-001 -7.994550e+000 198 151 119
-1.174762e+000 -9.418914e-001 -8.041945e+000 189 148 121
2.204588e+000 -1.072182e+000 -9.687484e+000 139 84 78
2.230833e+000 -1.094638e+000 -9.731669e+000 171 114 104
2.304661e+000 -1.065343e+000 -9.908125e+000 149 24 40
-1.324296e+000 -1.072584e+000 -8.177095e+000 174 23 44
-1.324296e+000 -1.072584e+000 -8.177095e+000 174 23 44
4.629187e-001 -1.097830e+000 -8.974969e+000 201 155 134
4.629187e-001 -1.097830e+000 -8.974969e+000 201 155 134
6.159374e-001 -1.173423e+000 -9.223485e+000 18 86 142
1.496128e+000 -1.194073e+000 -9.844005e+000 192 104 111
4.803486e+000 4.795256e-001 -9.563933e+000 192 95 48
9.304740e-001 -6.775901e-002 -8.071636e+000 18 73 105
2.735694e+000 -1.255459e-002 -8.846386e+000 141 24 33
2.811067e+000 -2.759947e-003 -8.848538e+000 145 31 36
3.046567e+000 4.678066e-002 -8.922449e+000 186 85 91
4.805201e+000 4.365009e-002 -9.680230e+000 47 20 21
-2.278191e+000 1.464184e-001 -7.592832e+000 197 171 136
1.339241e+000 -7.742026e-002 -8.300774e+000 115 66 57
2.748949e+000 -1.219928e-001 -8.893247e+000 154 46 46
4.460197e+000 -8.932106e-002 -9.619277e+000 177 152 134
3.374246e+000 -2.376109e-001 -9.252641e+000 137 93 74
3.374246e+000 -2.376109e-001 -9.252641e+000 137 93 74
-5.113650e-001 -4.229162e-001 -7.779984e+000 153 141 6
2.700522e+000 -4.886985e-001 -9.153888e+000 146 29 38
2.741461e+000 -4.972281e-001 -9.188636e+000 184 78 83
3.005209e+000 -4.821592e-001 -9.301536e+000 189 84 83
3.605683e+000 -4.884863e-001 -9.611792e+000 166 48 39
3.849767e+000 -4.229677e-001 -9.634528e+000 166 76 42
3.861237e+000 -5.031421e-001 -9.716145e+000 101 48 17
3.902190e+000 -4.984916e-001 -9.712012e+000 168 115 39
2.455763e+000 -6.188987e-001 -9.177072e+000 183 106 96
2.980854e+000 -5.603789e-001 -9.354356e+000 172 57 58
2.922069e+000 -6.267563e-001 -9.399773e+000 152 33 43
4.596152e+000 -5.310033e-001 -1.016893e+001 157 127 109
3.283754e-001 -7.025277e-001 -8.351492e+000 156 149 139
1.795019e+000 -6.999961e-001 -8.988309e+000 182 121 107
2.389799e+000 -6.742728e-001 -9.218588e+000 113 62 52
2.901192e+000 -6.935271e-001 -9.499388e+000 147 25 36
2.983319e+000 -6.700879e-001 -9.487792e+000 136 19 25
3.845892e+000 -6.748809e-001 -9.918585e+000 165 135 107
3.963089e+000 -7.797997e-001 -1.015022e+001 163 137 120
4.637076e+000 -6.488232e-001 -1.036113e+001 100 53 35
-6.023252e-001 -6.900888e-001 -7.956750e+000 155 151 35
2.445398e-001 -7.245375e-001 -8.313304e+000 155 150 136
2.397403e-001 -8.204088e-001 -8.463796e+000 151 144 128
7.367036e-001 -8.254451e-001 -8.667383e+000 19 71 119
2.479879e+000 -8.786776e-001 -9.540827e+000 143 25 37
2.479879e+000 -8.786776e-001 -9.540827e+000 143 25 37
2.522054e+000 -7.906552e-001 -9.435328e+000 146 25 34
2.585018e+000 -7.993098e-001 -9.455833e+000 142 20 32
2.549077e+000 -8.871837e-001 -9.564283e+000 153 27 40
2.765169e+000 -8.939141e-001 -9.688930e+000 173 68 73
2.866724e+000 -8.600026e-001 -9.694288e+000 181 75 80
2.963972e+000 -7.887607e-001 -9.774309e+000 160 34 46
3.724987e+000 -8.442771e-001 -1.005483e+001 99 69 43
3.666453e+000 -9.009441e-001 -1.012371e+001 157 129 100
3.734568e+000 -9.067809e-001 -1.014844e+001 165 135 107
4.395355e+000 -8.265031e-001 -1.041531e+001 108 88 86
4.588472e+000 -8.246279e-001 -1.059007e+001 88 27 35
-2.622490e+000 -4.348165e-001 -8.521175e+000 218 208 204
1.750737e+000 -9.016754e-001 -9.227515e+000 122 71 60
1.750695e+000 -9.016707e-001 -9.227484e+000 122 71 60
2.380304e+000 -1.002577e+000 -9.673442e+000 184 104 98
2.547859e+000 -9.378255e-001 -9.650237e+000 154 30 41
2.647426e+000 -9.424718e-001 -9.697312e+000 172 64 60
2.647426e+000 -9.424718e-001 -9.697312e+000 172 64 60
1.009305e+000 -1.091227e+000 -9.202430e+000 113 65 62
1.220558e+000 -1.069756e+000 -9.297552e+000 120 68 64
1.220558e+000 -1.069756e+000 -9.297552e+000 120 68 64
1.315833e+000 -1.095565e+000 -9.324584e+000 125 71 69
1.564298e+000 -1.062850e+000 -9.390461e+000 121 67 55
2.596722e+000 -1.049139e+000 -9.875126e+000 181 74 82
2.644367e+000 -1.044842e+000 -9.865455e+000 151 26 40
2.785684e+000 -1.041374e+000 -9.990144e+000 182 71 78
3.608593e+000 -1.138974e+000 -1.067478e+001 178 150 122
4.528193e+000 -1.149381e+000 -1.099989e+001 132 43 57
5.884380e-001 -1.200295e+000 -9.216773e+000 153 162 169
6.853762e-001 -1.163100e+000 -9.253143e+000 24 91 161
8.574577e-001 -1.156212e+000 -9.328494e+000 18 87 151
1.177379e+000 -1.150574e+000 -9.414194e+000 186 131 114
1.294561e+000 -1.149113e+000 -9.444164e+000 186 128 117
4.821514e+000 -2.431415e+000 -9.987219e+000 140 127 121
1.843599e+000 8.358295e-001 -8.613980e+000 182 123 78
2.673463e+000 6.561036e-001 -8.770984e+000 63 18 24
3.361895e+000 8.803774e-001 -9.205775e+000 37 28 46
2.878359e+000 4.177150e-002 -8.878222e+000 180 76 74
4.835272e+000 1.126289e-002 -9.728183e+000 153 85 43
1.544896e+000 -1.172966e-001 -8.422324e+000 103 56 49
1.544144e+000 -1.179905e-001 -8.421400e+000 103 56 49
1.655543e+000 -1.146250e-001 -8.465316e+000 94 47 36
1.997052e+000 -1.023663e-001 -8.591849e+000 111 66 47
1.998219e+000 -1.019767e-001 -8.594001e+000 111 66 47
2.112682e+000 -1.024154e-001 -8.640405e+000 114 72 47
2.157177e+000 -1.283494e-001 -8.645318e+000 173 122 95
2.342935e+000 -9.358567e-002 -8.735764e+000 114 67 49
2.340561e+000 -9.716393e-002 -8.725669e+000 114 67 49
2.190923e+000 -2.018306e-001 -8.743627e+000 117 80 65
2.664444e+000 -1.667266e-001 -8.889118e+000 185 77 80
4.459544e+000 -1.407624e-001 -9.657642e+000 171 145 125
4.628484e+000 -8.444866e-002 -9.730088e+000 140 75 29
2.048685e+000 -6.200289e-001 -8.990784e+000 174 118 104
2.471271e+000 -5.509665e-001 -9.125023e+000 184 116 91
2.628418e+000 -5.238603e-001 -9.175274e+000 144 19 37
-9.717220e-001 -5.935064e-001 -7.741054e+000 170 38 34
1.599174e+000 -7.287518e-001 -8.942407e+000 136 93 78
2.058676e+000 -7.045856e-001 -9.121567e+000 137 86 87
2.058676e+000 -7.045856e-001 -9.121567e+000 137 86 87
2.391347e+000 -7.377328e-001 -9.270318e+000 182 123 104
7.858786e-001 -8.074059e-001 -8.669995e+000 3 48 85
3.410772e+000 -8.200593e-001 -9.888621e+000 128 95 71
4.654725e+000 -8.398268e-001 -1.082168e+001 70 14 24
-2.578244e+000 -4.151134e-001 -8.539904e+000 58 47 55
-2.546841e+000 -4.433290e-001 -8.461101e+000 58 47 55
-1.187787e+000 -7.735559e-001 -7.832932e+000 177 48 40
1.845776e+000 -9.334827e-001 -9.311129e+000 125 73 59
1.848139e+000 -9.300177e-001 -9.315046e+000 125 73 59
2.110752e+000 -9.693384e-001 -9.491677e+000 183 121 111
5.808403e-001 -1.060960e+000 -8.940709e+000 136 24 32
1.390276e+000 -1.071215e+000 -9.380218e+000 181 122 111
1.953706e+000 -1.060959e+000 -9.569084e+000 178 124 114
6.295289e-001 -1.128421e+000 -9.138009e+000 18 58 99
-2.245009e+001 2.252666e+001 -4.155304e+001 113 97 83
2.735382e+000 6.074007e-001 -8.766099e+000 81 36 39
2.645096e+000 2.001766e-002 -8.780175e+000 144 22 33
4.915192e+000 1.599509e-002 -9.777467e+000 135 67 36
2.266045e+000 -1.540603e-001 -8.765302e+000 175 125 98
3.187684e+000 -4.783738e-001 -9.376940e+000 159 110 94
3.187684e+000 -4.783738e-001 -9.376940e+000 159 110 94
1.324367e+000 -5.918720e-001 -8.660197e+000 157 104 90
2.864711e-001 -5.829981e-001 -8.222912e+000 146 144 123
7.627535e-001 -6.569909e-001 -8.468195e+000 114 17 27
2.243792e+000 -6.698614e-001 -9.153006e+000 175 120 100
2.333239e+000 -8.819140e-001 -9.505512e+000 178 117 99
-2.674578e+000 -4.632593e-001 -8.432933e+000 200 56 85
-5.792246e-001 -7.997831e-001 -8.087156e+000 31 56 35
7.632806e-001 -8.584973e-001 -8.730664e+000 4 51 72
3.865871e+000 -1.012295e+000 -1.040459e+001 157 136 115
4.273819e+000 -1.042191e+000 -1.064259e+001 119 104 102
9.561944e-001 -1.077893e+000 -9.262238e+000 179 121 114
2.629165e+000 -1.101474e+000 -9.986194e+000 141 12 36
-1.467539e+000 -1.074091e+000 -8.108165e+000 33 93 126
-2.040657e+001 2.297490e+001 -4.377928e+001 59 43 41
2.840836e+000 7.665089e-001 -8.912398e+000 141 109 98
3.336376e+000 2.408522e-001 -8.978672e+000 167 118 70
4.078297e+000 -1.704588e-002 -9.424329e+000 180 83 33
8.672329e-001 -1.761213e-001 -8.155694e+000 120 14 35
2.598044e+000 -2.819376e-001 -8.982854e+000 142 21 30
-1.115038e+000 -5.554113e-001 -7.643395e+000 196 100 93
5.969968e-001 -7.484618e-001 -8.520548e+000 155 30 40
4.475816e+000 -8.161590e-001 -1.042659e+001 124 100 93
-4.309163e-001 -8.151065e-001 -8.176662e+000 21 57 28
5.460892e-001 -1.010390e+000 -8.847204e+000 166 72 74
-7.402213e-001 -1.040503e+000 -8.373447e+000 126 133 115
4.558181e+000 -2.939044e+000 -1.050135e+001 35 29 32
-7.967111e-001 -8.610800e-001 -8.089612e+000 63 93 61
-7.337228e-001 -9.004765e-001 -8.190224e+000 24 53 35
4.307815e+000 -2.761283e-001 -9.717085e+000 111 81 67
-2.170251e-001 -4.116102e-001 -7.910470e+000 72 112 111
3.994173e+000 -1.338334e-001 -9.409115e+000 172 82 47
-3.814181e-001 -5.973368e-001 -7.984181e+000 56 101 112
8.141489e-001 -1.122413e+000 -9.253862e+000 15 88 143
4.731217e+000 6.430751e-001 -9.594925e+000 155 116 85
2.068416e+000 -6.364730e-001 -9.073059e+000 122 68 58
4.616002e+000 -1.032994e+000 -1.085257e+001 32 18 31
1.959267e-001 -1.458617e-001 -7.848424e+000 159 155 130
-1.497135e+000 -5.544953e-001 -7.533125e+000 17 84 126
3.106637e+000 -1.062752e+000 -1.022887e+001 185 131 119
2.593846e+000 -2.999027e-002 -8.776539e+000 168 113 92
8.326374e-001 -1.505661e-001 -8.136231e+000 185 137 114
1.321855e+000 -1.574429e-001 -8.341251e+000 77 27 17
1.434904e+000 -9.212992e-002 -8.347592e+000 78 25 22
2.671630e+000 -1.270237e-001 -8.878237e+000 169 55 63
2.993725e+000 -2.026679e-001 -9.075138e+000 183 68 69
2.637901e+000 -4.667826e-001 -9.135617e+000 141 25 39
4.320117e+000 -3.948349e-001 -9.847500e+000 107 87 78
-9.572880e-001 -5.893403e-001 -7.724012e+000 158 32 35
-1.411175e-001 -6.529168e-001 -8.121447e+000 148 151 47
1.582164e+000 -1.023207e+000 -9.336726e+000 143 88 83
5.126358e+000 3.527460e-001 -9.589772e+000 32 23 27
1.358842e+000 6.674910e-002 -8.224988e+000 172 112 101
1.299014e+000 -1.336632e-001 -8.327796e+000 156 103 95
8.300491e-001 -5.674208e-001 -8.462483e+000 25 73 107
-4.729966e-001 -8.723421e-001 -8.241125e+000 18 56 30
4.042217e+000 5.569545e-001 -9.272995e+000 155 63 47
4.403430e+000 2.692679e-001 -9.361909e+000 39 17 31
-2.354250e-001 -9.669244e-001 -8.477148e+000 154 156 31
1.051552e+000 -1.028261e+000 -9.135260e+000 133 86 79
1.670741e+000 -9.632636e-001 -9.282225e+000 180 122 110
1.628519e+000 -1.049156e+000 -9.468566e+000 181 127 115
-3.990694e-001 -1.081450e+000 -8.578875e+000 26 54 37
1.755948e+000 -1.764638e-001 -8.533936e+000 123 65 64
-6.464710e-001 -2.254289e-001 -7.606271e+000 33 96 137
-1.141245e+000 -1.027613e+000 -8.160654e+000 175 36 52
-2.701471e-001 -4.998419e-001 -7.930091e+000 101 118 50
2.185700e+000 -1.461701e-001 -8.703592e+000 144 101 78
2.185700e+000 -1.461701e-001 -8.703592e+000 144 101 78
4.402028e+000 -2.949465e+000 -1.041255e+001 54 46 59
2.703003e+000 5.391854e-001 -8.711070e+000 182 132 69
3.464490e+000 6.302586e-001 -9.077247e+000 136 119 117
2.561179e+000 3.382856e-001 -8.584407e+000 185 133 86
2.881035e+000 -7.768093e-003 -8.865613e+000 172 17 34
4.805532e+000 1.720428e-001 -9.623621e+000 184 110 59
4.847495e+000 1.510746e-001 -9.611907e+000 161 97 55
4.813676e+000 1.141096e-001 -9.613023e+000 37 7 11
4.918525e+000 1.257128e-001 -9.668872e+000 42 10 7
8.031502e-001 -1.143663e-001 -8.104144e+000 187 155 116
4.627921e+000 -3.328738e-002 -9.664259e+000 110 49 10
4.572597e+000 -5.559788e-002 -9.629159e+000 171 96 41
4.865203e+000 -1.745043e-002 -9.776625e+000 36 10 8
2.696801e+000 -2.464527e-001 -8.984144e+000 164 25 31
4.346424e+000 -1.848684e-001 -9.636324e+000 125 98 77
4.350372e+000 -1.815549e-001 -9.643952e+000 125 98 77
4.728577e+000 -9.979454e-002 -9.825287e+000 179 104 47
4.806525e+000 -1.934118e-001 -9.958017e+000 41 5 4
-6.359219e-001 -3.800550e-001 -7.693826e+000 150 159 58
-3.454014e-001 -4.244739e-001 -7.858477e+000 152 147 25
7.418988e-001 -4.051490e-001 -8.275231e+000 197 166 127
2.626116e+000 -3.688641e-001 -9.047540e+000 199 92 84
2.968820e+000 -3.214453e-001 -9.161035e+000 207 100 90
3.325946e+000 -4.209562e-001 -9.386218e+000 196 143 109
3.584038e+000 -3.280705e-001 -9.430808e+000 184 133 90
4.341276e+000 -2.670673e-001 -9.722596e+000 182 155 128
4.341276e+000 -2.670673e-001 -9.722596e+000 182 155 128
3.132405e-001 -5.663089e-001 -8.222421e+000 164 162 131
6.540265e-001 -4.848534e-001 -8.284264e+000 148 8 9
7.250223e-001 -5.670932e-001 -8.397245e+000 156 12 12
7.242026e-001 -5.692132e-001 -8.392138e+000 156 12 12
2.987469e+000 -4.287011e-001 -9.273714e+000 158 23 28
3.129273e+000 -5.270192e-001 -9.426252e+000 192 140 100
3.759639e+000 -4.567272e-001 -9.622200e+000 189 89 57
3.804663e+000 -4.517100e-001 -9.641004e+000 127 44 14
3.767313e+000 -5.189144e-001 -9.648745e+000 142 53 11
3.733386e+000 -5.386249e-001 -9.693888e+000 198 117 43
4.088199e+000 -5.101836e-001 -9.834784e+000 37 13 16
-8.225936e-002 -5.760860e-001 -8.056310e+000 17 47 60
6.664432e-001 -6.443199e-001 -8.438802e+000 173 39 42
1.313945e+000 -6.380692e-001 -8.699490e+000 92 43 39
1.313860e+000 -6.392552e-001 -8.697383e+000 92 43 39
2.910478e+000 -5.577007e-001 -9.330218e+000 201 89 85
2.945713e+000 -6.489644e-001 -9.442797e+000 193 83 76
3.280523e+000 -5.730104e-001 -9.507145e+000 130 72 60
3.623933e+000 -6.164701e-001 -9.703053e+000 191 128 98
3.795187e+000 -5.807998e-001 -9.776172e+000 179 136 102
3.916709e+000 -6.429281e-001 -9.902427e+000 182 144 108
4.040919e+000 -6.428413e-001 -9.970771e+000 41 22 19
-1.137319e+000 -7.093643e-001 -7.762916e+000 185 153 115
-7.064857e-001 -7.511608e-001 -7.967725e+000 18 55 36
6.745117e-001 -6.859624e-001 -8.485899e+000 200 174 118
1.377801e+000 -7.169816e-001 -8.813971e+000 189 132 106
1.377801e+000 -7.169816e-001 -8.813971e+000 189 132 106
1.752926e+000 -6.904528e-001 -8.957110e+000 103 45 43
2.589964e+000 -7.307310e-001 -9.389420e+000 207 96 97
2.590237e+000 -7.303481e-001 -9.390310e+000 207 96 97
3.207262e+000 -7.618084e-001 -9.692653e+000 196 135 116
