ply
format ascii 1.0
element face 0
property list uchar int vertex_indices
element vertex 884
property float x
property float y
property float z
property uchar diffuse_red
property uchar diffuse_green
property uchar diffuse_blue
end_header
2.414801e+000 2.229012e-001 -8.783784e+000 160 29 42
1.432895e+000 1.307300e-001 -8.410333e+000 155 99 83
2.946758e+000 4.305436e-002 -9.094501e+000 202 146 110
3.084847e-001 1.342657e-002 -8.037879e+000 24 57 20
-1.659741e+000 -2.094350e-001 -8.301249e+000 70 46 42
8.636833e-001 -2.665804e-001 -8.457808e+000 175 110 83
-3.526874e-001 -3.721217e-001 -8.048651e+000 34 64 35
-3.542031e-001 -3.757997e-001 -8.063563e+000 34 64 35
-4.449516e-003 -5.778014e-001 -8.455482e+000 146 148 131
-4.449516e-003 -5.778014e-001 -8.455482e+000 146 148 131
-7.175260e-001 -6.421120e-001 -8.251799e+000 188 122 104
4.563267e+000 -8.297813e-001 -8.931584e+000 164 143 139
4.530152e+000 -1.105792e+000 -8.948996e+000 153 135 132
4.100421e+000 -1.867992e+000 -9.898436e+000 53 43 47
4.133763e+000 -1.797263e+000 -9.745935e+000 146 126 125
-3.322829e-001 1.343948e+000 -8.511531e+000 32 56 30
3.023503e+000 1.566374e+000 -1.004938e+001 81 34 27
-5.802005e-001 1.178944e+000 -8.264074e+000 155 147 117
-1.280789e-001 1.179657e+000 -8.422376e+000 30 61 26
5.648884e-001 1.302606e+000 -8.789251e+000 193 36 48
9.242010e-001 1.253878e+000 -8.793987e+000 187 35 37
2.201599e+000 1.378845e+000 -9.438383e+000 161 130 110
7.085865e-001 1.088650e+000 -8.536515e+000 169 149 124
1.142388e+000 1.095105e+000 -8.733226e+000 149 33 29
2.100378e+000 1.206961e+000 -9.192719e+000 135 109 94
1.175290e+000 1.032814e+000 -8.686079e+000 159 23 32
1.677926e+000 8.296444e-001 -8.580778e+000 20 71 108
1.678189e+000 8.293398e-001 -8.582373e+000 20 71 108
2.230625e+000 8.571132e-001 -8.830382e+000 89 45 54
2.496728e+000 8.644955e-001 -8.959926e+000 137 108 94
-1.261571e+000 6.549904e-001 -7.773945e+000 187 160 133
3.608312e+000 8.213712e-001 -9.355029e+000 177 85 31
4.136094e+000 4.094609e-001 -9.422674e+000 195 106 43
4.097264e+000 1.493026e-002 -9.687760e+000 158 93 24
3.930440e+000 -4.175407e-001 -1.009027e+001 146 136 109
-1.114760e-001 -3.227013e-001 -8.083740e+000 33 58 44
-1.111299e-001 -3.250245e-001 -8.093993e+000 33 58 44
-3.061245e-001 -5.150486e-001 -8.244878e+000 37 60 40
-2.452078e-001 -3.999181e-001 -8.147342e+000 40 63 42
-1.765604e-001 -5.004742e-001 -8.281137e+000 34 58 34
-1.204243e-001 -6.071270e-001 -8.436276e+000 33 62 35
4.634612e+000 -6.505409e-001 -8.774767e+000 148 122 121
4.600381e+000 -7.157243e-001 -8.826307e+000 143 122 117
4.530338e+000 -9.048552e-001 -8.986504e+000 140 119 117
3.925051e+000 -2.340011e+000 -1.026162e+001 147 128 124
-7.133013e-002 1.473101e+000 -8.758336e+000 38 62 33
2.219601e+000 1.460668e+000 -9.572879e+000 76 25 26
2.220037e+000 1.460916e+000 -9.569566e+000 76 25 26
2.494513e+000 1.463232e+000 -9.724947e+000 103 25 23
2.505656e-001 1.269816e+000 -8.629205e+000 175 155 106
2.505656e-001 1.269816e+000 -8.629205e+000 175 155 106
1.063737e+000 9.274115e-001 -8.466854e+000 179 29 38
2.896318e+000 8.878215e-001 -9.124797e+000 161 126 81
1.907454e+000 7.108782e-001 -8.651477e+000 160 90 79
4.024979e+000 5.986486e-001 -9.394169e+000 190 154 123
3.876942e+000 3.089987e-001 -9.326482e+000 150 126 110
2.785077e+000 2.237531e-001 -8.913707e+000 158 17 33
2.785077e+000 2.237531e-001 -8.913707e+000 158 17 33
1.895366e+000 -4.710977e-001 -9.113319e+000 193 128 108
2.445007e+000 -5.739186e-001 -9.522952e+000 172 33 46
3.780118e+000 -7.033955e-001 -1.034161e+001 146 129 112
4.419403e-001 -4.770613e-001 -8.540753e+000 169 122 109
-1.872263e-001 -6.003146e-001 -8.393109e+000 123 136 134
4.425346e+000 -1.181569e+000 -9.229591e+000 146 125 123
-9.841299e-001 1.340067e+000 -8.229342e+000 119 127 125
-6.157489e-001 1.306929e+000 -8.357675e+000 107 126 121
2.147153e-002 1.163275e+000 -8.445553e+000 176 155 117
-4.164798e-001 9.546341e-001 -8.091413e+000 42 94 115
4.032721e+000 1.048430e+000 -9.810070e+000 162 93 48
2.234980e-001 8.069361e-001 -8.097590e+000 33 57 35
3.702475e-002 6.911652e-001 -7.880226e+000 167 156 115
3.702475e-002 6.911652e-001 -7.880226e+000 167 156 115
1.808942e+000 6.960095e-001 -8.563426e+000 184 137 90
-2.317783e-001 6.337964e-001 -7.707295e+000 26 59 35
-1.346353e-001 4.762920e-001 -7.742940e+000 48 103 124
1.416836e-001 2.441975e-001 -7.845113e+000 156 154 142
3.465459e+000 4.427030e-002 -9.295049e+000 192 94 47
2.278258e-001 1.354612e+000 -8.693579e+000 136 130 30
4.352065e+000 4.686675e-001 -9.488232e+000 204 96 51
1.104701e+000 2.630388e-001 -8.247008e+000 171 160 140
3.840021e+000 1.631217e+000 -1.068919e+001 147 111 75
2.572275e+000 1.178625e+000 -9.173113e+000 87 59 72
3.471730e+000 8.703430e-001 -9.328999e+000 148 26 40
3.392857e+000 7.202250e-001 -9.212339e+000 168 127 83
-9.327859e-001 -2.531598e-001 -7.840350e+000 19 90 134
2.333695e+000 1.317985e+000 -9.573302e+000 147 116 96
2.800368e+000 1.482757e+000 -9.969327e+000 160 121 78
2.216676e+000 4.961700e-001 -8.620822e+000 177 138 99
-4.923756e-001 7.591627e-001 -7.701148e+000 199 161 124
2.831380e+000 4.627872e-001 -8.902693e+000 169 118 53
1.442148e+000 7.856818e-001 -8.449963e+000 159 24 30
2.166042e+000 3.678576e-001 -8.665347e+000 183 141 103
3.949880e+000 5.394473e-001 -9.455659e+000 194 111 40
2.655240e+000 1.279693e+000 -9.497274e+000 64 38 43
-5.467554e-001 1.103073e+000 -8.215805e+000 159 157 109
-5.467554e-001 1.103073e+000 -8.215805e+000 159 157 109
-3.742802e-001 1.024881e+000 -8.149691e+000 71 106 114
2.727860e+000 9.335815e-001 -9.113429e+000 75 45 49
2.517173e+000 6.133682e-001 -8.792778e+000 160 119 69
3.073218e+000 6.056092e-001 -9.012247e+000 149 141 153
4.005400e+000 6.461814e-001 -9.403321e+000 177 141 122
3.956962e+000 2.590668e-001 -9.384924e+000 68 34 40
1.022517e+000 9.593909e-002 -8.278111e+000 21 82 117
2.481211e+000 9.376089e-001 -9.012714e+000 143 118 113
2.788587e+000 6.959824e-001 -8.942674e+000 66 26 35
2.535161e+000 1.060890e-001 -8.902863e+000 164 38 48
2.646984e+000 1.062915e+000 -9.197898e+000 64 39 52
-5.350292e-001 6.643005e-001 -7.626092e+000 171 35 47
2.688008e+000 8.369768e-002 -8.954425e+000 188 84 80
2.688008e+000 8.369768e-002 -8.954425e+000 188 84 80
2.939763e+000 3.550553e-001 -8.900412e+000 169 117 67
9.174972e-001 6.205605e-003 -8.248605e+000 149 75 51
2.941618e-002 1.033513e+000 -8.252339e+000 163 152 106
3.201802e-002 1.033934e+000 -8.250657e+000 163 152 106
2.500922e+000 1.484905e+000 -9.757958e+000 140 61 48
-5.540180e-001 1.178176e+000 -8.276368e+000 65 102 112
1.945613e+000 1.259598e+000 -9.179881e+000 84 65 71
-6.342542e-001 1.093888e+000 -8.131711e+000 197 144 112
-6.152420e-001 1.102166e+000 -8.156793e+000 174 41 38
2.309986e+000 1.157719e+000 -9.208205e+000 24 8 12
-1.243701e+000 9.464926e-001 -7.893163e+000 205 183 148
1.556326e+000 9.497131e-001 -8.681920e+000 171 166 144
1.880793e+000 9.751128e-001 -8.824374e+000 143 88 93
2.469457e+000 1.077478e+000 -9.179604e+000 144 114 104
-4.900779e-001 7.978645e-001 -7.802678e+000 182 27 33
-4.900779e-001 7.978645e-001 -7.802678e+000 182 27 33
1.799373e+000 8.672746e-001 -8.702118e+000 178 87 64
1.870806e+000 8.453531e-001 -8.695788e+000 162 93 81
1.990316e+000 8.769319e-001 -8.774998e+000 71 15 16
2.152820e+000 8.588912e-001 -8.811302e+000 133 105 104
2.153536e+000 8.584796e-001 -8.813969e+000 133 105 104
-1.008749e-001 7.094354e-001 -7.827265e+000 79 112 113
1.757446e+000 7.157779e-001 -8.546913e+000 189 139 87
2.097818e+000 7.132883e-001 -8.694919e+000 129 69 71
3.265516e+000 7.409190e-001 -9.144519e+000 32 69 105
2.185050e+000 6.254163e-001 -8.668784e+000 82 26 33
2.707679e+000 5.187343e-001 -8.853383e+000 131 74 27
2.667564e+000 4.375732e-001 -8.823604e+000 142 86 35
4.700951e-001 -2.680226e-001 -8.303057e+000 133 46 42
-4.660789e-001 -2.915382e-001 -7.923060e+000 165 182 159
-7.405902e-001 1.178518e+000 -8.176520e+000 177 151 114
1.231458e+000 1.209902e+000 -8.834129e+000 156 25 30
1.966302e+000 1.121735e+000 -9.053226e+000 81 60 65
2.696286e+000 1.253658e+000 -9.439384e+000 172 131 97
2.200899e+000 1.011644e+000 -9.023807e+000 135 104 93
1.907786e+000 8.510942e-001 -8.701021e+000 162 94 82
-1.390878e+000 5.670934e-001 -7.412845e+000 178 147 117
1.504797e+000 6.346931e-001 -8.405590e+000 150 20 28
2.745922e+000 6.109755e-001 -8.891853e+000 171 130 79
3.529174e+000 5.509189e-001 -9.166238e+000 204 114 39
1.864999e-001 1.190722e-001 -7.914553e+000 95 125 132
1.864999e-001 1.190722e-001 -7.914553e+000 95 125 132
2.441519e+000 7.613422e-002 -8.858109e+000 168 27 39
-1.446853e-001 -2.602979e-001 -8.035863e+000 170 165 24
4.439170e+000 -1.094914e+000 -9.175645e+000 149 127 129
1.948749e+000 7.597259e-001 -8.650704e+000 178 98 84
1.898770e+000 6.007160e-001 -8.567144e+000 181 138 96
4.498714e+000 -1.319606e+000 -8.998346e+000 131 107 105
4.631474e+000 -1.234631e+000 -8.721285e+000 161 135 139
1.529836e+000 1.045046e+000 -8.780656e+000 136 143 120
-1.665024e-001 8.056299e-001 -7.920848e+000 167 160 41
-1.665024e-001 8.056299e-001 -7.920848e+000 167 160 41
-9.782803e-001 -3.360413e-001 -7.812912e+000 28 97 141
6.567749e-001 1.112404e+000 -8.586303e+000 178 41 39
8.970722e-002 1.094117e+000 -8.353616e+000 33 61 34
4.506272e+000 -9.151781e-001 -8.967675e+000 154 131 129
7.534766e-001 1.488204e+000 -9.084380e+000 182 140 115
1.856412e+000 1.549466e+000 -9.654857e+000 30 67 91
1.930848e+000 1.556962e+000 -9.658906e+000 27 71 90
1.917475e+000 1.502380e+000 -9.555788e+000 28 67 93
2.611064e+000 1.547638e+000 -9.872554e+000 168 125 85
-6.373105e-001 1.252196e+000 -8.285660e+000 148 146 35
-6.373105e-001 1.252196e+000 -8.285660e+000 148 146 35
-3.774916e-001 1.351443e+000 -8.512947e+000 158 154 85
9.365011e-001 1.322644e+000 -8.914097e+000 165 160 124
1.597442e+000 1.365606e+000 -9.206255e+000 87 58 81
2.291789e+000 1.462834e+000 -9.651048e+000 157 38 37
2.475441e+000 1.407065e+000 -9.575858e+000 118 70 61
-7.004443e-001 1.109464e+000 -8.125223e+000 177 28 31
-6.161846e-001 1.188956e+000 -8.271807e+000 56 101 115
-6.058447e-001 1.125260e+000 -8.185113e+000 203 142 103
1.187340e+000 1.237463e+000 -8.888517e+000 187 141 98
1.188204e+000 1.236081e+000 -8.900840e+000 187 141 98
2.467381e+000 1.286856e+000 -9.431566e+000 109 45 37
2.541446e+000 1.303328e+000 -9.518570e+000 140 86 79
2.529723e+000 1.308872e+000 -9.477544e+000 140 86 79
-7.109602e-001 1.092177e+000 -8.102899e+000 192 156 118
-6.907031e-001 1.046655e+000 -8.054827e+000 188 146 106
-6.906751e-001 1.047208e+000 -8.049651e+000 188 146 106
-6.526322e-001 1.003649e+000 -8.014319e+000 171 20 27
1.208276e+000 1.190265e+000 -8.833428e+000 210 145 113
1.206463e+000 1.131200e+000 -8.776445e+000 198 158 100
1.335344e+000 1.083029e+000 -8.752720e+000 167 43 45
1.471213e+000 1.122109e+000 -8.854500e+000 166 167 149
1.471382e+000 1.122445e+000 -8.853468e+000 166 167 149
1.973824e+000 1.188029e+000 -9.118525e+000 84 61 69
2.205859e+000 1.103740e+000 -9.134208e+000 138 110 91
2.326551e+000 1.174303e+000 -9.236790e+000 133 115 100
2.347826e+000 1.188255e+000 -9.258526e+000 50 27 11
2.324844e+000 1.116858e+000 -9.167169e+000 31 12 12
2.530226e+000 1.208032e+000 -9.341925e+000 151 107 100
2.535758e+000 1.205906e+000 -9.356083e+000 151 107 100
-6.186157e-001 9.291761e-001 -7.925664e+000 204 155 123
-6.168208e-001 9.306504e-001 -7.916999e+000 204 155 123
-6.182351e-001 8.961509e-001 -7.883927e+000 204 146 107
-6.185070e-001 8.962065e-001 -7.882715e+000 204 146 107
-5.459810e-001 9.992168e-001 -8.041882e+000 191 129 89
-5.459810e-001 9.992168e-001 -8.041882e+000 191 129 89
-5.722217e-001 9.618762e-001 -7.994898e+000 182 159 116
1.509686e-001 9.318089e-001 -8.177969e+000 140 149 44
1.509686e-001 9.318089e-001 -8.177969e+000 140 149 44
1.267778e+000 1.011183e+000 -8.648669e+000 209 154 126
1.526977e+000 1.068827e+000 -8.813356e+000 38 81 117
1.524890e+000 1.068122e+000 -8.814788e+000 38 81 117
1.550189e+000 9.755432e-001 -8.718405e+000 13 63 111
1.863292e+000 1.026829e+000 -8.870215e+000 97 48 53
1.856632e+000 9.856179e-001 -8.848173e+000 100 56 67
2.044520e+000 1.014843e+000 -8.937126e+000 91 64 73
2.459033e+000 1.069521e+000 -9.095469e+000 146 113 101
2.459909e+000 1.068471e+000 -9.100519e+000 146 113 101
-5.786706e-001 8.560981e-001 -7.842825e+000 177 40 55
-5.880055e-001 8.415015e-001 -7.817443e+000 193 159 107
-5.586079e-001 8.794196e-001 -7.888143e+000 169 36 39
-5.586079e-001 8.794196e-001 -7.888143e+000 169 36 39
-5.566031e-001 8.627727e-001 -7.864741e+000 186 144 102
-5.128616e-001 8.849283e-001 -7.912113e+000 168 35 45
-5.113480e-001 8.410745e-001 -7.850858e+000 189 146 103
-2.560949e-001 8.473746e-001 -7.925170e+000 155 154 45
-2.139157e-001 8.096217e-001 -7.906870e+000 88 118 111
-2.139157e-001 8.096217e-001 -7.906870e+000 88 118 111
1.886933e+000 9.383295e-001 -8.810040e+000 156 91 85
1.908854e+000 9.098197e-001 -8.783995e+000 174 96 84
2.667481e+000 8.765044e-001 -9.050783e+000 83 38 42
-1.584297e+000 6.917368e-001 -7.930672e+000 191 176 136
-4.336070e-001 7.551074e-001 -7.770521e+000 192 157 117
1.840366e+000 7.754067e-001 -8.647916e+000 166 101 75
2.974459e+000 8.132724e-001 -9.115786e+000 36 23 37
3.274423e+000 7.526181e-001 -9.187154e+000 35 70 97
3.297046e+000 7.713489e-001 -9.194847e+000 169 128 90
3.804541e+000 8.572156e-001 -9.425573e+000 200 131 92
4.030942e+000 8.109612e-001 -9.540850e+000 176 145 121
-4.032568e-001 6.856701e-001 -7.705732e+000 215 153 116
-3.559285e-001 6.573755e-001 -7.690267e+000 187 37 36
-3.565938e-001 6.567864e-001 -7.691670e+000 187 37 36
1.955284e+000 7.196027e-001 -8.624478e+000 163 92 89
1.955284e+000 7.196027e-001 -8.624478e+000 163 92 89
2.763902e+000 7.150470e-001 -8.961837e+000 118 77 83
-8.745882e-002 5.769786e-001 -7.726796e+000 169 157 37
2.701377e+000 5.210812e-001 -8.835824e+000 134 73 27
3.088201e+000 5.832548e-001 -9.009468e+000 34 25 52
3.088201e+000 5.832548e-001 -9.009468e+000 34 25 52
3.967187e+000 5.794171e-001 -9.356355e+000 192 148 114
2.898248e+000 4.096546e-001 -8.860107e+000 160 88 25
3.454683e+000 1.490478e-001 -9.236302e+000 199 88 44
2.708018e+000 1.848753e-001 -8.836032e+000 167 22 39
9.935198e-001 -4.930335e-002 -8.355342e+000 27 83 111
-1.189199e+000 1.259596e+000 -8.241885e+000 171 151 121
-1.400489e+000 1.071686e+000 -8.143059e+000 203 179 145
-2.243179e-001 1.195933e+000 -8.400661e+000 100 126 112
2.435270e+000 1.354631e+000 -9.537484e+000 118 54 42
-6.524457e-001 1.003464e+000 -8.014763e+000 168 17 25
-1.241217e+000 9.012616e-001 -7.861781e+000 206 184 142
-1.241217e+000 9.012616e-001 -7.861781e+000 206 184 142
-6.770321e-001 9.393100e-001 -7.966522e+000 180 40 38
-6.505685e-001 9.519054e-001 -7.960628e+000 197 152 109
-5.373657e-001 9.616603e-001 -8.005688e+000 195 158 119
1.249396e+000 1.053665e+000 -8.701298e+000 157 24 41
1.998225e+000 1.041618e+000 -8.961665e+000 81 58 62
1.597491e+000 8.815640e-001 -8.635178e+000 20 68 109
1.597091e+000 8.817240e-001 -8.634073e+000 20 68 109
1.930911e+000 8.898505e-001 -8.765317e+000 105 45 52
2.369762e+000 9.339344e-001 -9.004345e+000 143 117 102
1.856561e+000 8.007533e-001 -8.647686e+000 96 27 26
1.950642e+000 8.191640e-001 -8.703625e+000 88 29 43
1.918509e+000 7.808156e-001 -8.663847e+000 89 28 24
2.074514e+000 8.254497e-001 -8.759648e+000 81 45 57
2.044541e+000 8.111871e-001 -8.726163e+000 129 94 88
2.719662e+000 8.420018e-001 -8.968866e+000 143 106 101
2.720062e+000 8.151289e-001 -9.020406e+000 74 29 37
2.703405e+000 7.500773e-001 -8.957851e+000 65 23 27
-1.295285e+000 6.053259e-001 -7.771129e+000 210 183 152
-1.921509e-001 6.580725e-001 -7.755528e+000 165 149 39
2.130823e+000 6.731836e-001 -8.629848e+000 85 27 40
2.633706e+000 6.324615e-001 -8.853349e+000 99 46 58
3.138729e+000 6.816341e-001 -9.098372e+000 15 64 109
3.294528e+000 6.944431e-001 -9.090212e+000 178 135 95
3.521634e+000 6.314375e-001 -9.203614e+000 155 55 43
2.752448e+000 5.137062e-001 -8.861437e+000 183 133 80
2.530514e+000 4.506993e-001 -8.773240e+000 100 35 33
2.666183e+000 4.442995e-001 -8.829207e+000 143 87 38
-1.540838e+000 6.827810e-002 -7.932022e+000 189 166 134
1.767887e+000 -5.916352e-003 -8.650788e+000 117 64 50
2.967400e+000 -2.949796e-001 -9.397946e+000 202 124 96
-6.199472e-001 -2.950075e-001 -7.843105e+000 186 37 55
2.275116e-001 -2.984598e-001 -8.198926e+000 169 165 50
1.186059e+000 -3.639558e-001 -8.661182e+000 188 131 117
1.250864e+000 -3.289247e-001 -8.649735e+000 128 64 48
-5.769034e-001 -3.922058e-001 -7.951574e+000 190 129 101
4.449296e+000 -1.785167e+000 -9.124646e+000 160 136 136
3.639276e+000 -2.946199e+000 -1.088435e+001 54 42 47
3.953453e+000 1.658184e+000 -1.065547e+001 31 20 29
7.975853e-001 1.375616e+000 -8.937269e+000 175 157 124
1.605616e+000 1.405368e+000 -9.240297e+000 139 24 35
2.001218e+000 1.485629e+000 -9.533147e+000 24 69 103
2.419341e+000 1.466728e+000 -9.671071e+000 148 56 42
2.606388e+000 1.366867e+000 -9.596198e+000 86 58 56
3.922120e+000 1.222087e+000 -9.876575e+000 124 27 38
1.065086e+000 9.707838e-001 -8.530979e+000 182 42 52
-1.281498e+000 8.237086e-001 -7.852370e+000 207 184 147
-6.341912e-001 8.658704e-001 -7.879622e+000 187 36 50
-4.772663e-001 8.009303e-001 -7.802282e+000 179 32 35
3.252827e+000 8.809098e-001 -9.282600e+000 170 113 74
-5.378272e-001 7.506250e-001 -7.717537e+000 194 160 130
1.070239e+000 7.687560e-001 -8.321132e+000 182 156 127
2.183542e+000 7.423564e-001 -8.750356e+000 114 55 61
-5.465296e-001 6.962327e-001 -7.620016e+000 190 41 50
2.155196e+000 6.824383e-001 -8.716743e+000 92 35 47
2.835136e+000 2.364209e-001 -8.966955e+000 160 25 37
2.835136e+000 2.364209e-001 -8.966955e+000 160 25 37
1.347551e+000 1.134565e-001 -8.378898e+000 110 59 50
3.735963e+000 -3.261149e-003 -9.465796e+000 175 150 119
9.288155e-002 -5.146592e-002 -7.970406e+000 131 135 72
2.860651e-001 5.461352e-002 -8.004569e+000 160 159 90
9.978251e-001 -2.008929e-001 -8.466136e+000 10 51 93
2.517130e+000 -3.571932e-001 -9.262428e+000 157 20 36
-4.658271e-002 -2.602917e-001 -8.031031e+000 64 108 121
4.560682e+000 -7.242475e-001 -8.874188e+000 47 31 37
3.804878e+000 -2.653852e+000 -1.057138e+001 143 127 125
2.810066e-001 1.395340e+000 -8.789089e+000 27 63 34
7.719028e-001 1.460537e+000 -9.045616e+000 168 106 88
7.722803e-001 1.460545e+000 -9.046447e+000 168 106 88
-5.880980e-001 1.235542e+000 -8.309285e+000 30 53 27
1.555599e+000 1.427938e+000 -9.280390e+000 92 25 39
2.272137e+000 1.432026e+000 -9.599528e+000 84 21 32
2.565090e+000 1.400722e+000 -9.634663e+000 90 55 67
-1.443096e+000 1.047334e+000 -8.160116e+000 154 130 96
-6.611884e-001 1.206050e+000 -8.231539e+000 23 84 114
-1.413674e+000 9.735649e-001 -8.064558e+000 203 176 146
-7.194802e-001 1.065704e+000 -8.077327e+000 171 33 33
-1.324309e+000 9.073326e-001 -7.939994e+000 206 182 148
-1.284127e+000 8.502862e-001 -7.863040e+000 206 183 146
-1.294267e+000 8.403553e-001 -7.907074e+000 206 183 146
-6.464546e-001 9.140189e-001 -7.904807e+000 177 33 49
-6.453434e-001 9.154297e-001 -7.893256e+000 177 33 49
-4.898694e-001 9.282471e-001 -7.955612e+000 184 42 43
-4.898694e-001 9.282471e-001 -7.955612e+000 184 42 43
-3.815501e-001 9.928031e-001 -8.183139e+000 69 107 124
1.529021e+000 1.042118e+000 -8.785785e+000 74 108 119
1.841568e+000 1.067620e+000 -8.924863e+000 128 63 63
2.149400e+000 1.001844e+000 -8.954894e+000 77 56 65
-5.969548e-001 8.150851e-001 -7.793693e+000 173 38 47
-5.740551e-001 7.703014e-001 -7.741247e+000 169 31 31
2.007535e+000 7.963829e-001 -8.680075e+000 88 39 45
-5.138942e-001 6.931960e-001 -7.667014e+000 195 160 125
9.470170e-001 7.136982e-001 -8.226745e+000 167 70 63
9.486859e-001 7.124456e-001 -8.235866e+000 167 70 63
1.997026e+000 7.220676e-001 -8.645875e+000 90 33 48
2.427078e+000 6.884355e-001 -8.813689e+000 70 19 27
2.754228e+000 6.449234e-001 -8.917633e+000 68 28 32
4.112820e+000 5.625419e-001 -9.409345e+000 185 69 41
9.626729e-001 4.679664e-002 -8.209277e+000 125 22 38
8.746229e-001 -1.886592e-001 -8.407136e+000 191 122 103
4.157242e+000 -2.049357e+000 -9.759819e+000 155 134 131
3.750702e+000 -2.688211e+000 -1.056802e+001 143 128 128
1.425129e+000 1.426476e+000 -9.223245e+000 18 63 96
1.103836e+000 1.187509e+000 -8.850533e+000 161 29 36
1.736525e+000 1.336507e+000 -9.249396e+000 134 78 80
2.116455e+000 1.058954e+000 -9.030530e+000 81 53 72
1.930009e+000 9.642861e-001 -8.833005e+000 85 33 35
1.930009e+000 9.642861e-001 -8.833005e+000 85 33 35
2.188966e+000 9.204374e-001 -8.888483e+000 91 67 84
-5.477104e-001 7.175949e-001 -7.687032e+000 187 44 49
2.161370e+000 6.378161e-001 -8.671543e+000 116 56 64
2.730438e+000 -9.123493e-002 -9.107364e+000 168 27 34
2.066925e-001 -3.625265e-001 -8.255269e+000 35 56 42
4.598607e+000 -6.211034e-001 -8.799987e+000 52 41 50
4.621089e+000 -7.991139e-001 -8.737380e+000 150 126 124
4.474354e+000 -1.039793e+000 -9.106781e+000 155 135 127
4.063442e+000 -1.921972e+000 -9.949752e+000 59 45 54
4.480456e+000 -1.661529e+000 -9.004895e+000 150 130 129
3.993677e+000 -2.415623e+000 -1.012415e+001 168 144 142
-6.969944e-002 1.472021e+000 -8.784274e+000 29 55 26
8.757361e-002 1.281034e+000 -8.557532e+000 179 159 105
8.757361e-002 1.281034e+000 -8.557532e+000 179 159 105
1.474380e+000 1.363317e+000 -9.192300e+000 32 29 57
1.549867e+000 1.342484e+000 -9.147771e+000 184 129 96
-2.939834e-001 1.103535e+000 -8.260129e+000 176 167 85
2.023153e-001 1.135196e+000 -8.458848e+000 32 61 33
-1.317710e+000 7.344861e-001 -7.834233e+000 156 129 101
-1.317710e+000 7.344861e-001 -7.834233e+000 156 129 101
-1.988805e-001 9.066888e-001 -8.036740e+000 168 160 82
2.192060e-001 6.870944e-001 -7.939763e+000 175 161 76
9.881546e-002 1.309727e+000 -8.680352e+000 177 158 105
1.382344e+000 1.192262e+000 -8.949986e+000 16 70 100
1.060827e+000 9.273357e-001 -8.467898e+000 183 49 55
-1.794179e-001 6.876583e-001 -7.764381e+000 84 114 113
-6.134464e-001 1.310529e+000 -8.340605e+000 115 130 126
9.902065e-001 1.213047e+000 -8.742655e+000 173 156 126
1.125126e-001 8.283406e-001 -8.012531e+000 172 156 126
5.424166e-001 8.277933e-001 -8.200040e+000 170 156 128
4.568993e-001 7.745749e-001 -8.076076e+000 36 55 39
-1.278805e+000 6.103491e-001 -7.789200e+000 141 114 87
1.974357e-002 6.915155e-001 -7.875898e+000 166 158 125
4.033463e+000 -2.068164e+000 -9.940602e+000 133 112 109
2.957946e+000 1.714876e+000 -1.050183e+001 41 35 42
4.556436e-001 1.222855e+000 -8.570647e+000 174 158 125
2.572742e+000 1.295944e+000 -9.462903e+000 96 67 75
1.421237e+000 -5.879717e-001 -9.080428e+000 204 139 115
-3.593228e-001 1.189961e+000 -8.465781e+000 179 164 34
-6.477200e-001 1.011125e+000 -8.200427e+000 191 147 113
2.852630e-001 1.033088e+000 -8.407423e+000 31 58 27
2.128735e+000 7.142576e-001 -8.717456e+000 91 29 40
4.222192e+000 1.315132e+000 -1.000095e+001 40 30 38
3.914052e+000 5.570197e-001 -9.378464e+000 187 100 33
1.978380e+000 1.592708e+000 -9.679411e+000 85 105 109
2.009989e+000 1.551018e+000 -9.611948e+000 78 101 117
2.023044e+000 1.534102e+000 -9.612377e+000 84 109 123
2.023044e+000 1.534102e+000 -9.612377e+000 84 109 123
2.093803e+000 1.527130e+000 -9.638605e+000 83 104 121
2.169576e+000 1.508347e+000 -9.533119e+000 58 12 14
3.152400e+000 1.511215e+000 -9.993058e+000 115 68 38
1.378128e+000 1.352775e+000 -9.087255e+000 22 62 89
1.407003e+000 1.298374e+000 -9.031805e+000 20 70 104
1.407003e+000 1.298374e+000 -9.031805e+000 20 70 104
2.510041e+000 1.353636e+000 -9.505358e+000 166 113 100
2.510041e+000 1.353636e+000 -9.505358e+000 166 113 100
2.544452e+000 1.346483e+000 -9.517343e+000 89 60 66
1.193095e+000 1.070752e+000 -8.693961e+000 187 149 106
1.251435e+000 1.055277e+000 -8.698122e+000 149 22 40
1.555138e+000 1.010253e+000 -8.758741e+000 23 64 99
-1.383401e+000 8.224698e-001 -7.934663e+000 155 128 97
-1.383401e+000 8.224698e-001 -7.934663e+000 155 128 97
-1.327525e+000 8.325202e-001 -7.893316e+000 210 184 151
-1.238698e+000 8.579099e-001 -7.842676e+000 205 181 145
-5.273053e-001 8.705182e-001 -7.885685e+000 174 154 104
1.061007e+000 8.895251e-001 -8.428648e+000 171 153 120
1.065139e+000 8.875454e-001 -8.438880e+000 171 153 120
1.887291e+000 9.373974e-001 -8.811910e+000 153 92 87
2.045364e+000 9.750448e-001 -8.893645e+000 92 59 68
2.434148e+000 9.710415e-001 -9.035887e+000 151 127 108
-1.263421e+000 6.764930e-001 -7.767003e+000 216 192 156
-4.988212e-001 8.173796e-001 -7.822901e+000 186 145 106
-2.062830e-001 8.365177e-001 -7.898762e+000 147 148 38
-2.230177e-001 7.830029e-001 -7.895519e+000 155 145 50
1.859798e+000 8.704394e-001 -8.732139e+000 164 91 83
1.859449e+000 8.706835e-001 -8.731122e+000 164 91 83
1.984354e+000 8.102964e-001 -8.716708e+000 160 91 83
1.924206e+000 8.053673e-001 -8.688783e+000 162 90 91
3.862840e+000 8.258851e-001 -9.498173e+000 154 81 52
-1.253895e+000 6.266895e-001 -7.756406e+000 215 191 156
-4.903533e-001 7.062528e-001 -7.695316e+000 185 151 114
1.935750e+000 7.040556e-001 -8.616460e+000 88 29 32
2.187373e+000 6.665296e-001 -8.718827e+000 115 66 73
3.088609e+000 7.326384e-001 -9.025031e+000 33 72 96
1.600877e+000 5.764541e-001 -8.403046e+000 153 55 54
2.033368e+000 6.116735e-001 -8.617394e+000 81 26 30
3.200799e+000 -5.499177e-002 -9.306187e+000 187 132 91
2.903159e-001 -1.238864e-001 -8.149328e+000 45 48 43
4.709528e+000 -9.013048e-001 -8.722173e+000 162 139 135
1.863570e-001 1.561923e+000 -8.991048e+000 76 84 53
1.020357e+000 1.552422e+000 -9.316156e+000 169 154 117
2.559806e+000 1.504861e+000 -9.792710e+000 158 87 62
-1.136912e+000 1.261345e+000 -8.030212e+000 168 147 114
2.437198e+000 1.408233e+000 -9.577994e+000 153 110 87
1.208627e+000 1.259962e+000 -8.878427e+000 157 27 39
2.592883e+000 1.259442e+000 -9.498577e+000 81 56 57
1.912722e+000 1.135296e+000 -8.982054e+000 105 82 85
-6.507164e-001 9.506382e-001 -7.962990e+000 196 150 103
2.009861e+000 1.063427e+000 -8.984157e+000 107 83 83
2.006616e+000 1.033138e+000 -8.995489e+000 89 64 69
2.010066e+000 1.005730e+000 -8.918192e+000 79 50 59
-1.326061e+000 7.945787e-001 -7.877327e+000 210 184 149
-1.324063e+000 7.959515e-001 -7.873453e+000 210 184 149
-5.105571e-001 8.943970e-001 -7.884229e+000 183 31 46
1.964952e+000 9.416353e-001 -8.818472e+000 80 42 42
2.696880e+000 9.208907e-001 -9.097201e+000 156 117 110
2.769144e+000 9.163488e-001 -9.134551e+000 118 88 86
2.056118e+000 8.695456e-001 -8.790183e+000 70 41 38
1.950454e+000 7.879295e-001 -8.678066e+000 164 83 77
3.909149e+000 8.643957e-001 -9.544391e+000 175 138 113
1.901852e+000 7.562940e-001 -8.635212e+000 161 91 83
1.925106e+000 6.764463e-001 -8.604474e+000 165 90 85
3.315691e+000 7.612277e-001 -9.230729e+000 160 120 84
1.287308e+000 1.887731e-001 -8.361303e+000 12 77 123
3.640942e+000 -2.689658e-002 -9.482537e+000 213 131 64
1.837579e+000 4.133155e-003 -8.710725e+000 192 135 104
2.005105e+000 1.779247e-002 -8.751045e+000 191 138 105
2.195239e+000 2.179121e-002 -8.828425e+000 195 141 106
2.999435e+000 -2.244501e-001 -9.362035e+000 201 142 109
1.702047e-002 -3.632252e-001 -8.202737e+000 24 52 19
4.544884e+000 -8.804115e-001 -8.831569e+000 127 103 99
1.559428e-001 1.530509e+000 -8.977208e+000 147 142 94
2.782235e+000 1.635098e+000 -1.002583e+001 110 61 28
2.039768e+000 1.495081e+000 -9.524162e+000 64 97 111
1.170261e+000 1.208811e+000 -8.855354e+000 153 26 40
-5.894131e-001 1.030679e+000 -8.077731e+000 177 31 39
1.291744e+000 1.179331e+000 -8.864751e+000 198 109 99
1.291744e+000 1.179331e+000 -8.864751e+000 198 109 99
-1.335009e+000 9.525687e-001 -7.996050e+000 203 181 142
-1.749749e-001 9.714998e-001 -8.155930e+000 32 50 34
-1.261127e+000 7.947565e-001 -7.813721e+000 213 186 151
1.912520e+000 8.509175e-001 -8.703738e+000 164 89 74
1.003355e+000 6.708663e-001 -8.225173e+000 169 152 118
2.359300e+000 7.564197e-001 -8.811474e+000 173 130 111
3.583369e+000 7.839414e-001 -9.320041e+000 173 87 31
2.371206e+000 5.316619e-001 -8.719567e+000 142 70 35
3.875636e+000 3.810213e-001 -9.300911e+000 32 22 26
-1.797442e+000 -1.651543e-001 -8.899341e+000 193 167 134
3.821836e+000 2.121515e-001 -9.378860e+000 191 171 141
1.397155e+000 9.970094e-002 -8.448737e+000 190 125 103
1.441635e+000 1.124714e-001 -8.459318e+000 129 67 55
1.554034e+000 2.617647e-001 -8.402752e+000 173 159 132
2.291432e+000 8.945219e-002 -8.824765e+000 195 139 108
2.371959e+000 1.046102e-001 -8.798610e+000 163 26 37
4.666018e+000 -7.348994e-001 -8.835001e+000 123 101 103
4.092967e+000 -1.930840e+000 -9.896497e+000 154 136 134
4.006634e+000 -2.204425e+000 -1.008468e+001 131 107 108
1.571350e+000 1.382325e+000 -9.250832e+000 179 118 82
-1.361765e+000 1.038634e+000 -8.098848e+000 204 178 141
-6.052431e-001 9.546159e-001 -7.962292e+000 171 33 41
-3.735744e-001 6.677746e-001 -7.694138e+000 171 26 41
4.236028e+000 6.588017e-001 -9.379754e+000 171 78 44
-1.595909e+000 -1.529718e-001 -8.118009e+000 165 133 103
3.394758e+000 -2.638553e-001 -9.589164e+000 131 55 16
-1.538703e+000 -3.910434e-001 -8.277231e+000 162 134 104
8.102496e-001 -2.930363e-001 -8.485220e+000 159 36 40
2.901602e+000 -8.073616e-001 -1.006346e+001 41 32 40
-3.569096e-001 -3.925515e-001 -8.090888e+000 35 63 30
2.095976e-001 -5.077056e-001 -8.447778e+000 164 165 135
-9.097461e-001 1.343183e+000 -8.296951e+000 50 100 118
8.001166e-001 1.415265e+000 -8.982273e+000 178 114 93
6.688691e-001 1.380030e+000 -8.892766e+000 169 148 119
1.308150e+000 1.352194e+000 -9.106253e+000 17 63 90
8.729025e-001 1.276800e+000 -8.841141e+000 164 147 115
7.128255e-001 1.091824e+000 -8.527819e+000 143 146 115
-1.370095e+000 8.876060e-001 -7.962461e+000 206 180 146
-1.321737e+000 9.082218e-001 -7.932080e+000 208 184 147
1.413495e-001 9.693768e-001 -8.217816e+000 29 60 27
1.202826e+000 1.084421e+000 -8.697779e+000 136 42 27
1.129205e-001 9.254093e-001 -8.173370e+000 173 149 56
2.123709e+000 9.291814e-001 -8.868065e+000 108 77 75
5.269939e-001 7.957442e-001 -8.160692e+000 162 151 100
5.262519e-001 7.992603e-001 -8.150465e+000 162 151 100
3.880451e+000 7.991981e-001 -9.439962e+000 180 146 111
3.450034e+000 7.821490e-001 -9.259619e+000 164 117 81
2.874583e+000 6.586273e-001 -8.980396e+000 82 57 64
5.544096e-002 -1.083958e-001 -8.056907e+000 27 56 35
2.237267e+000 -2.436194e-001 -9.027467e+000 201 138 106
4.281024e+000 -1.567658e+000 -9.677554e+000 55 45 48
1.475430e-002 1.451891e+000 -8.750061e+000 99 124 100
-7.737002e-001 1.182370e+000 -8.184925e+000 174 85 68
-7.737002e-001 1.182370e+000 -8.184925e+000 174 85 68
-1.101286e-001 1.182323e+000 -8.386334e+000 29 52 34
6.344591e-001 1.283517e+000 -8.738939e+000 165 146 115
1.338557e+000 1.282783e+000 -9.094298e+000 17 65 94
-2.935096e-001 1.104313e+000 -8.258800e+000 171 150 75
1.675258e-001 1.090534e+000 -8.367950e+000 177 157 83
2.289956e+000 1.136056e+000 -9.162630e+000 29 17 25
-2.651441e-001 9.403773e-001 -8.107373e+000 25 48 33
-2.047023e-002 9.757639e-001 -8.182411e+000 32 53 34
-2.047023e-002 9.757639e-001 -8.182411e+000 32 53 34
1.172330e+000 1.034360e+000 -8.671327e+000 146 26 35
4.030531e+000 1.098351e+000 -9.824004e+000 148 86 48
2.563393e+000 7.502059e-001 -8.914566e+000 143 116 97
4.083229e+000 1.631933e-001 -9.539012e+000 192 107 40
-5.487382e-001 -2.612256e-001 -7.930398e+000 29 93 136
3.087050e+000 1.644642e+000 -1.029121e+001 149 106 64
1.271370e-002 1.266225e+000 -8.633869e+000 27 52 36
-4.106119e-002 1.214206e+000 -8.455701e+000 172 155 107
-1.159590e-001 9.809953e-001 -8.178331e+000 167 147 106
-4.590838e-002 9.112809e-001 -8.108542e+000 169 153 103
-4.590838e-002 9.112809e-001 -8.108542e+000 169 153 103
3.622228e+000 8.213000e-001 -9.351274e+000 175 87 31
7.125749e-002 3.421546e-001 -7.791269e+000 89 119 129
4.108503e+000 2.643204e-001 -9.488652e+000 206 121 61
2.587362e+000 -3.193337e-001 -9.279138e+000 171 37 48
3.123050e+000 1.561741e+000 -1.011126e+001 47 16 21
7.137971e-001 8.295767e-001 -8.249271e+000 159 143 117
1.879904e-002 6.913572e-001 -7.875858e+000 159 146 108
2.344890e-001 1.363273e+000 -8.680528e+000 124 119 35
1.487582e+000 1.427629e+000 -9.284104e+000 144 40 42
1.487582e+000 1.427629e+000 -9.284104e+000 144 40 42
3.903255e+000 -6.833243e-002 -9.708556e+000 172 143 122
2.376024e-001 1.360260e+000 -8.676529e+000 99 101 31
4.340444e-001 1.348535e+000 -8.785304e+000 165 149 116
3.726613e+000 9.615411e-001 -9.568209e+000 142 23 43
3.726613e+000 9.615411e-001 -9.568209e+000 142 23 43
3.327532e-001 -5.379255e-001 -8.607790e+000 160 159 141
-4.304502e-001 4.637698e-001 -7.587002e+000 91 124 133
4.129494e+000 -9.278492e-002 -9.647998e+000 35 24 33
4.229701e+000 8.753296e-001 -9.478367e+000 41 30 38
3.280876e+000 -2.245283e-001 -9.749190e+000 195 142 95
3.378085e+000 1.296699e+000 -9.940051e+000 153 111 71
3.378085e+000 1.296699e+000 -9.940051e+000 153 111 71
-4.078647e+001 -2.837356e+001 -9.909798e+001 65 46 50
-3.300727e+001 -3.249911e+001 -8.638137e+001 162 128 104
-3.711689e+001 -3.139866e+001 -8.676790e+001 74 45 28
-3.322932e+001 -3.193895e+001 -8.918906e+001 119 90 76
-3.322932e+001 -3.193895e+001 -8.918906e+001 119 90 76
-3.437202e+001 -3.137886e+001 -8.306512e+001 156 125 104
2.046112e+000 1.199948e+000 -9.159345e+000 96 73 79
1.547782e+000 1.012671e+000 -8.752654e+000 12 69 115
-5.037186e-001 7.222912e-001 -7.698890e+000 165 38 41
2.239455e+000 6.239769e-001 -8.693083e+000 91 38 45
2.698410e+000 1.076005e+000 -9.240868e+000 122 93 96
2.096086e+000 7.146000e-001 -8.677716e+000 128 66 75
2.518850e+000 5.586059e-001 -8.772623e+000 178 130 81
1.225497e+000 1.161704e+000 -8.811528e+000 157 33 30
4.533055e+000 -1.108442e+000 -8.953194e+000 157 137 130
4.528594e+000 -1.814774e+000 -8.901982e+000 163 144 138
2.863236e+000 1.395480e-001 -9.011075e+000 201 141 105
-3.438924e+001 -3.639926e+001 -8.224511e+001 146 123 110
-3.244171e+001 -3.738486e+001 -8.565447e+001 142 113 97
-6.532576e-001 1.033636e+000 -8.057388e+000 149 73 51
-3.121166e+001 -4.062601e+001 -8.170416e+001 123 93 81
-3.143149e+001 -4.098330e+001 -8.231014e+001 123 93 81
-3.364631e+001 -3.444785e+001 -8.119147e+001 155 124 106
-4.950041e-002 1.112327e+000 -8.274921e+000 27 60 26
-3.570499e+001 -3.623841e+001 -8.374469e+001 56 37 37
-3.345118e+001 -3.447634e+001 -8.956151e+001 118 94 74
-3.611122e+001 -3.709978e+001 -7.958175e+001 31 30 47
1.850015e+000 1.553475e+000 -9.669574e+000 29 60 84
2.057469e+000 1.573743e+000 -9.688043e+000 79 98 106
2.089843e+000 1.529845e+000 -9.628504e+000 83 104 121
-3.602975e-001 1.298604e+000 -8.447443e+000 91 108 93
-3.602975e-001 1.298604e+000 -8.447443e+000 91 108 93
1.499070e+000 1.427008e+000 -9.267804e+000 141 42 41
2.374014e+000 1.381091e+000 -9.460479e+000 166 122 99
-5.865008e-001 1.158947e+000 -8.238491e+000 166 33 38
-6.995457e-001 1.110062e+000 -8.124438e+000 180 26 37
1.159771e+000 1.158550e+000 -8.774559e+000 184 156 106
-1.238371e+000 8.586368e-001 -7.841766e+000 205 181 145
2.016939e+000 9.842497e-001 -8.904293e+000 84 57 63
2.434267e+000 1.002346e+000 -9.080718e+000 157 125 111
-5.404351e-001 8.082552e-001 -7.796537e+000 186 142 109
3.863800e-001 8.167772e-001 -8.125948e+000 156 150 46
-2.782354e-001 6.072368e-001 -7.660315e+000 148 146 29
1.757886e+000 6.568751e-001 -8.522747e+000 178 134 80
3.010675e+000 6.538307e-001 -9.023813e+000 32 30 58
2.316878e+000 5.415788e-001 -8.619030e+000 174 120 76
2.654489e+000 4.516960e-001 -8.838568e+000 126 73 31
3.306077e-001 9.478343e-002 -7.988447e+000 88 93 61
4.576879e+000 -6.587363e-001 -8.869116e+000 45 32 42
2.173837e+000 1.401579e+000 -9.467859e+000 166 134 109
1.293760e+000 1.080324e+000 -8.755705e+000 155 28 39
1.293760e+000 1.080324e+000 -8.755705e+000 155 28 39
1.783840e+000 9.736052e-001 -8.772644e+000 77 24 33
4.239236e-001 5.817812e-001 -7.957731e+000 164 150 28
4.239282e+000 6.179786e-001 -9.461902e+000 125 35 17
1.077019e+000 1.477906e-001 -8.264994e+000 13 67 103
4.448862e+000 -1.284957e+000 -9.210486e+000 171 148 142
2.013967e+000 1.137574e+000 -9.081531e+000 87 62 68
9.140468e-001 8.172612e-001 -8.288435e+000 154 148 116
4.111484e+000 -1.888789e+000 -9.927677e+000 58 44 45
1.494424e+000 1.125520e+000 -8.859575e+000 91 97 87
4.049050e+000 1.147441e+000 -9.923247e+000 135 73 48
-3.734811e-001 6.674294e-001 -7.694558e+000 171 26 41
2.760956e+000 6.063222e-001 -8.885308e+000 166 123 69
4.166589e+000 -1.822254e+000 -9.808153e+000 145 130 127
2.580655e+000 8.124395e-001 -8.951623e+000 155 119 105
4.354726e+000 -1.274587e+000 -9.379928e+000 51 39 49
4.166616e+000 -1.788366e+000 -9.865971e+000 49 41 41
3.525702e-001 1.167024e+000 -8.491291e+000 32 56 32
9.792039e-001 9.711136e-001 -8.512037e+000 162 148 121
9.792039e-001 9.711136e-001 -8.512037e+000 162 148 121
5.328877e-001 1.044223e+000 -8.336111e+000 163 147 116
9.916125e-001 7.037191e-001 -8.260524e+000 169 147 116
1.362615e+000 7.005227e-001 -8.392191e+000 150 23 32
1.630640e+000 6.906868e-001 -8.502378e+000 16 69 109
1.973504e-001 1.528509e+000 -8.972522e+000 148 142 47
3.842518e+000 1.713874e+000 -1.077034e+001 152 93 56
2.832372e-001 1.424590e+000 -8.831435e+000 157 149 70
2.010614e+000 1.550695e+000 -9.613220e+000 69 92 99
1.338379e+000 1.435191e+000 -9.229342e+000 17 53 78
1.338379e+000 1.435191e+000 -9.229342e+000 17 53 78
1.503218e+000 1.427310e+000 -9.272446e+000 121 40 37
2.517568e+000 1.396408e+000 -9.600932e+000 144 112 97
2.499973e+000 1.326042e+000 -9.496080e+000 80 31 26
2.568573e+000 1.347624e+000 -9.500596e+000 96 76 78
-1.341257e+000 9.856986e-001 -7.997039e+000 197 177 143
-6.595364e-001 1.107704e+000 -8.145444e+000 172 33 39
-6.595364e-001 1.107704e+000 -8.145444e+000 172 33 39
-6.041540e-001 1.132059e+000 -8.064268e+000 160 15 19
1.143786e-001 1.130715e+000 -8.268742e+000 27 51 20
1.608841e-001 1.168391e+000 -8.477977e+000 25 52 11
1.057125e+000 1.189209e+000 -8.584569e+000 148 138 103
1.416498e+000 1.239952e+000 -8.983602e+000 148 146 115
1.416498e+000 1.239952e+000 -8.983602e+000 148 146 115
2.158297e+000 1.205596e+000 -9.202350e+000 116 90 73
-6.154505e-001 1.042022e+000 -8.101471e+000 195 149 113
-5.858517e-001 9.925439e-001 -8.030544e+000 181 142 102
1.817026e+000 1.103965e+000 -8.971580e+000 137 84 76
-1.345189e+000 8.122002e-001 -7.914031e+000 203 180 148
-5.389731e-001 8.938191e-001 -7.919504e+000 171 146 89
-5.388486e-001 8.936736e-001 -7.919765e+000 171 146 89
-3.196722e-001 8.609345e-001 -8.050093e+000 149 146 33
7.151607e-001 9.195261e-001 -8.357809e+000 141 22 24
7.151607e-001 9.195261e-001 -8.357809e+000 141 22 24
1.285675e+000 1.030426e+000 -8.660850e+000 145 17 19
2.013861e+000 1.045933e+000 -8.958696e+000 72 50 55
2.321471e+000 1.061167e+000 -9.081843e+000 110 82 70
-1.331609e+000 7.169597e-001 -7.849352e+000 202 177 146
-1.331399e+000 7.172910e-001 -7.849122e+000 202 177 146
-1.264390e+000 6.745493e-001 -7.770013e+000 206 184 150
-5.788211e-001 8.551002e-001 -7.844470e+000 156 36 41
-5.235878e-001 7.986651e-001 -7.783430e+000 153 44 48
1.807169e+000 9.346573e-001 -8.767037e+000 78 22 23
1.862983e+000 9.279454e-001 -8.778279e+000 74 16 11
1.851176e+000 9.129189e-001 -8.748293e+000 158 92 67
1.915795e+000 9.311336e-001 -8.798673e+000 78 28 21
1.988221e+000 8.805411e-001 -8.768197e+000 60 20 20
-1.304672e+000 6.447259e-001 -7.789958e+000 205 181 145
-2.442068e-001 7.877437e-001 -7.857910e+000 140 138 28
2.396783e+000 7.390260e-001 -8.813419e+000 94 55 50
2.764989e+000 8.156337e-001 -9.010157e+000 80 48 48
2.766386e+000 8.148510e-001 -9.013254e+000 80 48 48
1.976686e+000 6.584141e-001 -8.602648e+000 77 28 31
3.940841e+000 6.112848e-001 -9.352580e+000 165 79 55
-1.778646e-001 5.716135e-001 -7.705907e+000 161 154 31
3.492826e+000 5.358690e-001 -9.206909e+000 162 114 70
3.812122e+000 3.813356e-001 -9.262881e+000 28 9 3
1.851095e+000 4.160365e-002 -8.681266e+000 191 139 99
4.630785e+000 -5.268707e-001 -8.663902e+000 135 121 113
-2.536537e-001 1.369745e+000 -8.622631e+000 142 138 34
2.050406e+000 1.494937e+000 -9.578144e+000 76 104 107
2.050406e+000 1.494937e+000 -9.578144e+000 76 104 107
1.959262e+000 1.481381e+000 -9.535113e+000 18 58 87
2.049096e+000 1.429757e+000 -9.472814e+000 86 21 25
-1.873144e+000 8.384204e-001 -8.488121e+000 157 29 31
-1.359023e+000 1.030339e+000 -8.043783e+000 198 179 137
-1.359522e+000 1.028846e+000 -8.048200e+000 198 179 137
4.026684e+000 1.191191e+000 -1.018886e+001 133 88 66
-6.178166e-001 1.000825e+000 -8.031627e+000 168 31 49
-6.178166e-001 1.000825e+000 -8.031627e+000 168 31 49
1.270351e+000 1.131996e+000 -8.807865e+000 136 22 28
1.523696e+000 1.067931e+000 -8.814790e+000 13 60 83
2.534902e+000 1.075844e+000 -9.233692e+000 132 104 90
1.217283e+000 1.025063e+000 -8.641390e+000 181 145 102
2.080775e+000 9.510755e-001 -8.869551e+000 60 29 34
-1.249892e+000 7.735363e-001 -7.803101e+000 207 188 148
-5.517736e-001 8.420148e-001 -7.833642e+000 179 148 95
1.723314e+000 9.451785e-001 -8.714136e+000 149 51 30
2.527328e+000 9.066416e-001 -8.970650e+000 121 98 84
3.313577e+000 8.882006e-001 -9.319551e+000 160 103 72
1.949912e+000 7.886760e-001 -8.676686e+000 157 85 67
2.307265e+000 8.284466e-001 -8.829049e+000 129 97 84
-1.561494e+000 3.380746e-001 -8.009605e+000 179 153 124
3.563549e+000 6.848525e-001 -9.236124e+000 180 99 44
4.051589e+000 6.700403e-001 -9.386250e+000 175 137 112
2.797274e+000 5.371192e-001 -8.947328e+000 165 127 72
3.456422e+000 4.825084e-001 -9.136703e+000 155 53 40
4.393230e+000 5.241049e-001 -9.458570e+000 32 21 37
5.164507e-002 3.019411e-001 -7.780408e+000 91 124 139
1.013240e+000 2.010909e-001 -8.209769e+000 79 35 67
1.345663e+000 1.170204e-001 -8.384054e+000 126 67 48
1.345663e+000 1.170204e-001 -8.384054e+000 126 67 48
2.922050e+000 -2.749020e-003 -9.117066e+000 195 143 104
3.960861e+000 -2.330622e+000 -1.021664e+001 134 118 105
3.967819e+000 -2.344885e+000 -1.023516e+001 134 118 105
2.975098e+000 -4.474881e+000 -1.231498e+001 69 61 71
3.819175e+000 -2.728082e+000 -1.041075e+001 131 114 106
3.819175e+000 -2.728082e+000 -1.041075e+001 131 114 106
3.837420e+000 -3.216882e+000 -1.044273e+001 154 140 131
1.045188e+000 1.557516e+000 -9.472139e+000 144 41 35
1.534647e+000 1.581033e+000 -9.602784e+000 146 58 52
1.924827e+000 1.591390e+000 -9.770582e+000 17 55 79
3.874782e+000 1.727074e+000 -1.069171e+001 29 18 24
2.963343e+000 1.585083e+000 -1.009573e+001 141 100 56
1.469825e+000 1.200755e+000 -8.959690e+000 24 59 99
2.447338e+000 1.245284e+000 -9.410187e+000 160 116 99
-1.240482e+000 8.989588e-001 -7.874065e+000 201 182 139
-1.240482e+000 8.989588e-001 -7.874065e+000 201 182 139
-1.213614e+000 8.341440e-001 -7.805992e+000 204 185 145
-1.213614e+000 8.341440e-001 -7.805992e+000 204 185 145
-5.666354e-001 8.022296e-001 -7.766178e+000 181 154 109
2.137333e+000 7.015003e-001 -8.662899e+000 73 22 27
3.533423e+000 4.531090e-001 -9.200878e+000 196 115 48
3.332510e+000 2.745704e-001 -9.141024e+000 105 27 36
4.223069e+000 2.928633e-001 -9.483579e+000 143 81 49
2.399057e+000 2.372162e-001 -8.746698e+000 152 26 36
4.059959e+000 -2.015880e+000 -9.983220e+000 149 137 125
4.113229e+000 -1.860765e+000 -9.837002e+000 149 132 124
4.217485e+000 -1.593077e+000 -9.591553e+000 145 134 130
3.791981e+000 -2.646866e+000 -1.056083e+001 138 129 116
4.097330e+000 -2.063735e+000 -9.744215e+000 133 119 108
4.246466e+000 -2.412164e+000 -9.474966e+000 164 147 137
4.246466e+000 -2.412164e+000 -9.474966e+000 164 147 137
1.818362e+000 1.496722e+000 -9.444444e+000 106 14 26
2.117415e+000 1.480249e+000 -9.629639e+000 18 53 80
-7.175860e-001 1.064464e+000 -8.079780e+000 166 29 36
-6.052041e-001 9.549364e-001 -7.961747e+000 156 32 27
2.505874e+000 9.643677e-001 -9.063652e+000 138 113 93
3.267596e+000 8.862766e-001 -9.306618e+000 150 107 68
2.563800e+000 6.339677e-001 -8.842137e+000 65 22 32
8.850991e-001 4.299556e-002 -8.271487e+000 158 25 40
4.556311e+000 -7.037033e-001 -8.867717e+000 54 43 46
4.608689e+000 -6.299035e-001 -8.739322e+000 145 128 119
4.091320e+000 -1.929662e+000 -9.892682e+000 148 133 126
3.507002e+000 -3.284103e+000 -1.113771e+001 140 130 127
3.572243e+000 -3.128848e+000 -1.099368e+001 154 145 131
3.667331e+000 -2.908212e+000 -1.079177e+001 144 133 124
3.042030e+000 -4.501098e+000 -1.229050e+001 146 136 135
2.965977e+000 1.645389e+000 -1.026822e+001 30 13 21
-3.994822e-001 1.354109e+000 -8.495855e+000 76 79 11
-3.138511e-001 1.286624e+000 -8.474346e+000 100 107 71
1.278948e+000 1.403745e+000 -9.149306e+000 14 58 88
-1.415323e+000 9.699059e-001 -8.070629e+000 199 177 138
1.116049e+000 1.148802e+000 -8.782382e+000 135 20 32
1.183911e+000 1.141828e+000 -8.758870e+000 146 52 40
1.469853e+000 1.173204e+000 -8.913494e+000 116 119 101
1.469853e+000 1.173204e+000 -8.913494e+000 116 119 101
2.464526e+000 1.290966e+000 -9.383260e+000 93 53 49
7.156191e-001 1.090256e+000 -8.531985e+000 161 140 116
3.970119e+000 1.006641e+000 -9.742569e+000 160 88 43
-1.302297e+000 6.815364e-001 -7.815551e+000 208 186 151
4.721854e+000 -3.112539e-001 -8.451807e+000 142 124 120
4.586216e+000 -6.965698e-001 -8.800072e+000 143 131 119
3.522460e+000 -3.147114e+000 -1.108412e+001 55 50 49
3.764511e+000 -2.544632e+000 -1.052552e+001 51 47 52
4.857352e+000 -8.375679e-001 -8.161745e+000 157 136 133
4.857352e+000 -8.375679e-001 -8.161745e+000 157 136 133
4.084594e+000 -2.692485e+000 -9.882485e+000 157 141 128
9.499805e-001 1.506974e+000 -9.223174e+000 140 27 34
9.499805e-001 1.506974e+000 -9.223174e+000 140 27 34
2.949805e+000 1.615697e+000 -1.008863e+001 121 87 39
2.949805e+000 1.615697e+000 -1.008863e+001 121 87 39
8.594777e-001 1.273326e+000 -8.848605e+000 159 142 111
9.475841e-001 1.076653e+000 -8.648237e+000 151 140 112
1.925023e+000 6.360070e-001 -8.572982e+000 99 43 45
1.027868e+000 1.794601e-001 -8.205175e+000 28 65 108
4.236001e+000 -2.400914e+000 -9.531157e+000 164 147 137
4.236001e+000 -2.400914e+000 -9.531157e+000 164 147 137
1.396957e-002 1.259451e+000 -8.648676e+000 31 53 37
1.386968e+000 1.184777e+000 -8.966429e+000 10 68 99
9.172728e-001 8.524927e-001 -8.345766e+000 159 145 118
5.301702e-001 8.303825e-001 -8.119090e+000 162 151 121
9.025043e-001 1.403817e+000 -8.955026e+000 159 142 112
2.357977e-001 1.205785e+000 -8.514418e+000 166 149 104
2.182746e+000 1.162828e+000 -9.206705e+000 137 112 92
3.290057e-001 8.233895e-001 -8.119015e+000 160 149 123
3.757157e+000 -2.797073e+000 -1.064070e+001 140 127 118
2.292401e+000 1.342714e+000 -9.469069e+000 148 120 96
-4.077519e-001 1.494625e+000 -8.938801e+000 73 101 102
2.318816e+000 1.573347e+000 -9.979134e+000 146 108 69
3.778506e+000 1.616992e+000 -1.059397e+001 134 101 68
3.778506e+000 1.616992e+000 -1.059397e+001 134 101 68
2.605480e+000 1.185574e+000 -9.268129e+000 69 48 53
6.139228e-001 8.510472e-001 -8.592931e+000 158 147 116
1.523269e+000 -2.914513e-001 -1.717064e+001 67 51 14
9.616882e-002 1.534011e+000 -8.907078e+000 149 136 51
1.871123e+000 1.570285e+000 -9.667031e+000 137 138 96
1.939885e+000 1.570688e+000 -9.712413e+000 134 135 114
1.939885e+000 1.570688e+000 -9.712413e+000 134 135 114
1.966449e+000 1.572976e+000 -9.584410e+000 27 52 55
1.993524e+000 1.530706e+000 -9.619676e+000 29 54 61
2.808875e+000 1.578136e+000 -1.017823e+001 144 97 51
-3.839719e-001 1.367861e+000 -8.535623e+000 29 41 28
5.683392e-001 1.409732e+000 -8.916351e+000 143 26 31
1.377885e+000 1.423268e+000 -9.226174e+000 148 145 106
1.377885e+000 1.423268e+000 -9.226174e+000 148 145 106
2.067705e+000 1.523952e+000 -9.662935e+000 27 54 58
2.077527e+000 1.513889e+000 -9.695750e+000 27 54 58
2.080782e+000 1.505334e+000 -9.617673e+000 27 57 68
1.481346e+000 1.393454e+000 -9.263208e+000 145 43 47
1.385533e+000 1.348041e+000 -9.112243e+000 24 59 71
1.385533e+000 1.348041e+000 -9.112243e+000 24 59 71
1.423873e+000 1.334838e+000 -9.107562e+000 145 154 119
1.490054e+000 1.352501e+000 -9.193922e+000 75 15 26
1.585157e+000 1.334912e+000 -9.152717e+000 170 117 81
2.427156e+000 1.358185e+000 -9.511708e+000 102 47 26
2.575745e+000 1.357395e+000 -9.603174e+000 101 71 64
-1.821441e+000 8.348164e-001 -8.467324e+000 149 80 62
-1.808524e+000 7.995524e-001 -8.517121e+000 180 141 98
-3.996976e-001 1.142638e+000 -8.370842e+000 147 138 3
-3.191843e-001 1.110799e+000 -8.318771e+000 158 143 29
8.922302e-001 1.201366e+000 -8.749934e+000 155 144 95
1.119056e+000 1.229830e+000 -8.869265e+000 185 151 90
1.190444e+000 1.232398e+000 -8.900080e+000 187 141 97
1.725692e+000 1.260163e+000 -9.132515e+000 139 74 59
1.744126e+000 1.222336e+000 -9.105296e+000 157 81 72
1.744126e+000 1.222336e+000 -9.105296e+000 157 81 72
2.541060e+000 1.303302e+000 -9.521079e+000 144 85 73
2.544562e+000 1.259363e+000 -9.433032e+000 139 78 65
-1.252865e+000 9.774904e-001 -7.925608e+000 201 175 122
