ply
format ascii 1.0
element face 0
property list uchar int vertex_indices
element vertex 884
property float x
property float y
property float z
property uchar diffuse_red
property uchar diffuse_green
property uchar diffuse_blue
end_header
-6.875966e+000 -7.255807e+001 -3.699894e+001 132 104 65
-2.884387e+000 -4.468989e+001 -2.745134e+001 123 106 77
-8.701740e+000 -6.537552e+001 -4.089532e+001 57 44 27
2.737329e+000 1.568686e+000 -9.750029e+000 77 46 28
2.092837e+000 1.186622e+000 -9.042558e+000 53 37 31
-1.128323e+000 9.078661e-001 -7.680079e+000 111 33 19
1.322574e+000 1.141450e+000 -8.740643e+000 99 18 15
4.363019e+000 1.908139e+000 -1.139787e+001 22 10 11
-1.123892e+000 1.066513e+000 -7.854358e+000 133 96 54
2.175286e+000 1.232784e+000 -9.141206e+000 62 44 40
2.142736e+000 1.108471e+000 -8.979828e+000 53 35 33
1.587974e+000 9.748658e-001 -8.645537e+000 91 98 83
1.587974e+000 9.748658e-001 -8.645537e+000 91 98 83
-9.922160e-001 7.540876e-001 -7.513851e+000 139 102 60
1.694675e+000 8.337344e-001 -8.533380e+000 111 110 90
2.398520e+000 7.719205e-001 -8.735067e+000 55 20 17
-7.690449e+000 -7.033206e+001 -3.834979e+001 147 124 80
5.497405e+000 -1.113463e+000 -8.744393e+000 89 73 63
3.358735e+000 1.869413e+000 -1.048995e+001 109 73 41
7.900281e-002 1.302022e+000 -8.477597e+000 125 110 30
7.900281e-002 1.302022e+000 -8.477597e+000 125 110 30
-1.013853e+000 7.960333e-001 -7.548674e+000 142 96 63
2.369568e+000 8.156466e-001 -8.761387e+000 102 73 64
4.792060e+000 6.705594e-001 -9.603140e+000 141 110 76
-7.422462e+000 -7.674760e+001 -3.230522e+001 49 35 21
-6.919634e+000 -7.630680e+001 -3.217235e+001 76 61 46
2.204296e+000 7.590366e-001 -8.671572e+000 54 21 17
-7.024095e+000 -7.496045e+001 -3.305622e+001 118 97 76
-7.113007e+000 -7.653315e+001 -3.299289e+001 58 42 24
-9.805468e+000 -7.886989e+001 -3.020002e+001 31 21 20
-9.981005e+000 -7.427302e+001 -2.477794e+001 116 82 40
-6.784337e+000 -7.491665e+001 -3.358116e+001 95 77 52
5.449315e+000 -1.103122e+000 -8.804467e+000 99 83 64
-1.076586e+001 -7.313771e+001 -2.818296e+001 130 103 72
-1.680408e+001 -7.424835e+001 -3.100585e+001 166 128 81
-1.238048e+001 -7.618994e+001 -3.056695e+001 106 80 48
-9.579629e+000 -7.519827e+001 -3.083419e+001 131 107 73
-1.417212e+001 -7.306657e+001 -3.246571e+001 179 140 87
-1.305333e+001 -7.437969e+001 -3.262815e+001 117 89 52
-1.246512e+001 -7.461393e+001 -3.555447e+001 170 140 90
3.041635e-001 1.646280e+000 -9.955950e+000 103 53 33
2.062240e+000 1.688374e+000 -1.062672e+001 96 63 46
1.431074e+000 1.837215e+000 -9.995101e+000 84 23 14
1.561980e+000 1.820335e+000 -9.886114e+000 132 76 60
1.565016e+000 1.816371e+000 -9.839070e+000 108 31 23
3.630608e+000 1.908166e+000 -1.069693e+001 112 77 39
-3.834171e-001 1.636095e+000 -8.761641e+000 124 121 21
7.678418e-001 1.737229e+000 -9.262019e+000 114 11 22
2.110907e+000 1.770030e+000 -9.874490e+000 20 47 64
2.117968e+000 1.763708e+000 -9.825819e+000 17 40 46
-8.494359e-001 1.507374e+000 -8.454587e+000 30 36 16
3.736033e-001 1.558682e+000 -8.914675e+000 136 120 73
3.733891e-001 1.559207e+000 -8.913872e+000 136 120 73
1.300357e+000 1.578390e+000 -9.285689e+000 134 124 82
-1.974468e+000 1.021991e+000 -7.742699e+000 173 155 107
-1.116636e+000 1.114168e+000 -7.918956e+000 135 27 27
-1.116636e+000 1.114168e+000 -7.918956e+000 135 27 27
-1.089686e+000 1.058342e+000 -7.852385e+000 136 19 26
-1.084063e+000 1.028558e+000 -7.866342e+000 136 19 26
1.939888e+000 8.856846e-001 -8.653750e+000 70 15 13
-2.879743e-001 6.794575e-001 -7.696028e+000 10 37 11
-7.814719e-001 5.611561e-001 -7.415603e+000 142 134 89
5.488769e+000 -9.650145e-001 -8.691804e+000 130 117 101
5.486102e+000 -9.890997e-001 -8.657795e+000 105 87 73
5.520509e+000 -1.537595e+000 -8.573448e+000 105 88 64
5.520509e+000 -1.537595e+000 -8.573448e+000 105 88 64
1.604256e+000 1.815551e+000 -9.921234e+000 101 12 16
1.168193e+000 1.212944e+000 -8.753894e+000 160 125 80
-1.197194e+000 1.005577e+000 -7.784749e+000 152 127 79
2.161551e+000 1.133102e+000 -9.007640e+000 97 76 72
-1.870477e-001 9.546548e-001 -8.007929e+000 127 114 10
-1.870477e-001 9.546548e-001 -8.007929e+000 127 114 10
1.611058e+000 9.585004e-001 -8.617027e+000 19 53 72
4.966332e+000 7.992412e-001 -9.825816e+000 101 49 35
3.543029e+000 1.927503e+000 -1.082964e+001 85 50 30
4.039405e+000 1.980355e+000 -1.089366e+001 113 78 50
2.399345e+000 1.383185e+000 -9.393298e+000 75 57 48
2.005172e+000 1.203046e+000 -9.068128e+000 63 47 50
-1.040979e+000 9.926108e-001 -7.796023e+000 165 121 79
7.618637e-001 9.755428e-001 -8.340689e+000 137 123 88
2.208023e+000 9.668649e-001 -8.833345e+000 50 20 16
3.757781e+000 8.118222e-001 -9.298308e+000 93 17 28
5.224529e+000 -1.656770e+000 -9.292275e+000 131 116 93
5.377627e+000 -1.327866e+000 -9.077228e+000 46 38 31
3.562164e+000 1.821695e+000 -1.106919e+001 102 62 30
7.875761e-001 1.869713e+000 -9.633371e+000 117 98 71
3.691895e+000 1.859204e+000 -1.102870e+001 90 62 43
5.586692e-001 1.676580e+000 -9.190652e+000 107 33 24
5.586692e-001 1.676580e+000 -9.190652e+000 107 33 24
2.400547e+000 1.372619e+000 -9.398338e+000 74 56 49
-8.398629e-001 1.028511e+000 -7.932930e+000 49 75 81
2.744924e+000 7.664396e-001 -8.873612e+000 61 24 18
-5.536007e-002 6.718599e-001 -7.771602e+000 23 37 25
-6.451179e-002 6.899136e-001 -7.763250e+000 23 37 25
5.247599e+000 -1.502877e+000 -9.259065e+000 41 32 32
5.279091e+000 -1.554929e+000 -9.200025e+000 138 120 97
5.384831e+000 -1.162197e+000 -8.968489e+000 41 30 24
5.383425e+000 -1.060888e+000 -8.879820e+000 48 38 34
5.426587e+000 -1.149084e+000 -8.678554e+000 140 124 101
5.623415e+000 -2.138123e+000 -8.349706e+000 141 123 99
5.641612e+000 -2.158216e+000 -8.357531e+000 141 123 99
5.872671e+000 -1.625639e+000 -7.839318e+000 119 101 81
3.810952e+000 1.693630e+000 -1.039977e+001 122 89 53
-1.215326e+000 1.496374e+000 -9.395285e+000 116 116 59
-1.215326e+000 1.496374e+000 -9.395285e+000 116 116 59
-7.948116e-001 1.508231e+000 -9.603895e+000 38 44 18
5.673318e-002 1.351144e+000 -1.020338e+001 122 69 55
4.987326e-002 1.374511e+000 -1.018678e+001 122 69 55
8.520719e-001 1.766334e+000 -9.909963e+000 112 41 35
4.751712e-001 1.593350e+000 -8.997975e+000 163 149 110
4.751712e-001 1.593350e+000 -8.997975e+000 163 149 110
1.339242e+000 1.597348e+000 -9.259688e+000 21 67 95
-7.739422e-001 1.379220e+000 -8.358479e+000 164 154 38
2.775040e+000 1.481178e+000 -9.711751e+000 94 50 39
1.397434e+000 1.389724e+000 -9.070628e+000 152 157 134
2.733711e+000 1.417306e+000 -9.544569e+000 105 49 48
2.491515e+000 1.175715e+000 -9.203798e+000 123 101 90
-6.801429e-001 8.392280e-001 -7.711315e+000 156 145 44
2.127914e+000 9.345103e-001 -8.794976e+000 101 52 53
1.173011e-001 7.434067e-001 -7.861130e+000 20 52 29
3.738144e+000 7.671185e-001 -9.245579e+000 30 65 101
5.527255e+000 -7.882267e-001 -8.454271e+000 124 109 103
5.844630e+000 -2.535481e-002 -7.893896e+000 54 47 50
1.421816e-001 1.598440e+000 -9.920649e+000 121 68 54
-2.732791e+000 5.664359e-001 -8.691652e+000 151 130 112
3.772198e+000 1.933929e+000 -1.076500e+001 135 97 67
-8.891811e-001 1.534605e+000 -8.478678e+000 56 93 100
-7.350378e-001 1.486520e+000 -8.470347e+000 141 134 28
2.322005e+000 1.691765e+000 -9.815284e+000 17 62 87
2.915338e+000 1.700139e+000 -1.001668e+001 95 37 15
1.252983e+000 1.083790e+000 -8.621537e+000 146 25 33
3.066641e+000 1.165585e+000 -9.310596e+000 80 53 63
2.290439e+000 9.859755e-001 -8.851181e+000 130 105 105
1.937722e+000 7.791795e-001 -8.576542e+000 171 108 71
5.313595e+000 -1.496277e+000 -9.085614e+000 124 111 99
5.690778e+000 -2.642191e-001 -8.080610e+000 146 132 125
-1.907504e+000 1.398884e+000 -9.205589e+000 34 63 87
-1.054147e+000 1.444017e+000 -9.551182e+000 33 46 29
1.684920e+000 1.785217e+000 -1.023230e+001 88 18 24
1.947261e+000 1.780799e+000 -9.889679e+000 21 58 82
2.920615e+000 1.658418e+000 -9.971704e+000 146 113 67
-2.062686e+000 8.806534e-001 -7.734918e+000 199 180 142
1.691108e+000 1.424757e+000 -9.241981e+000 79 61 74
-2.107807e+000 7.640249e-001 -7.699683e+000 203 183 146
-2.107807e+000 7.640249e-001 -7.699683e+000 203 183 146
-2.006176e+000 9.039281e-001 -7.685680e+000 200 181 139
-2.006176e+000 9.039281e-001 -7.685680e+000 200 181 139
-1.178194e+000 1.119626e+000 -7.920316e+000 175 39 33
-1.178194e+000 1.119626e+000 -7.920316e+000 175 39 33
1.878912e+000 1.291956e+000 -9.117023e+000 89 67 80
2.225339e+000 1.257016e+000 -9.077478e+000 79 58 68
-1.159615e+000 8.652657e-001 -7.612940e+000 164 36 47
9.742438e-001 1.016545e+000 -8.442787e+000 157 31 34
2.831101e+000 7.848438e-001 -8.884929e+000 151 119 105
2.831101e+000 7.848438e-001 -8.884929e+000 151 119 105
3.094479e+000 6.204989e-001 -8.919848e+000 72 33 34
4.082589e+000 7.133533e-001 -9.352390e+000 146 53 45
5.193907e+000 -1.594275e+000 -9.337577e+000 47 38 38
5.353748e+000 -1.197979e+000 -8.915512e+000 156 142 132
5.376782e+000 -1.108177e+000 -8.836446e+000 154 140 131
5.649104e+000 -3.557472e-001 -8.159478e+000 151 141 139
5.746706e+000 -1.594828e+000 -7.849601e+000 164 147 131
5.746706e+000 -1.594828e+000 -7.849601e+000 164 147 131
5.904304e+000 3.972324e-001 -7.486855e+000 148 134 131
5.941173e+000 6.061965e-001 -7.305932e+000 146 135 129
-1.245274e+000 1.345583e+000 -9.619007e+000 36 47 22
2.050238e+000 1.669149e+000 -9.750605e+000 17 56 83
7.039814e-001 8.168417e-001 -8.147048e+000 159 148 122
4.531947e+000 8.268541e-001 -9.609699e+000 171 144 110
5.921932e+000 4.619282e-002 -7.438667e+000 152 135 127
-5.877022e-002 1.436328e+000 -1.003887e+001 104 34 32
1.366601e-002 1.656169e+000 -9.794590e+000 108 31 37
3.166318e+000 1.807330e+000 -1.027973e+001 116 66 32
6.420591e-001 1.556882e+000 -9.022046e+000 168 132 106
-2.089007e+000 1.013403e+000 -7.850673e+000 195 177 141
1.488520e+000 1.275399e+000 -8.930484e+000 126 131 124
8.476871e-001 1.149332e+000 -8.592082e+000 162 146 112
3.427444e+000 9.553697e-001 -9.282679e+000 161 129 93
3.853302e+000 1.916378e+000 -1.101887e+001 92 51 31
3.853026e+000 1.918977e+000 -1.101764e+001 92 51 31
-5.015441e-001 1.366444e+000 -8.411825e+000 29 59 28
-3.836465e-001 1.073570e+000 -8.094234e+000 159 144 112
9.702100e-001 9.630825e-001 -8.360907e+000 171 38 41
2.745652e+000 1.112429e+000 -9.177237e+000 128 106 93
3.701753e+000 5.336015e-001 -9.148057e+000 27 77 115
3.533329e+000 1.890700e+000 -1.074724e+001 128 95 63
-3.366199e-001 1.603395e+000 -8.741397e+000 102 115 112
-3.366199e-001 1.603395e+000 -8.741397e+000 102 115 112
6.143066e-002 1.382381e+000 -8.623685e+000 33 59 30
2.372809e+000 1.343761e+000 -9.435643e+000 90 70 80
4.491429e-002 8.209086e-001 -7.931190e+000 155 148 102
3.196698e-001 8.092161e-001 -8.035546e+000 154 147 109
1.348276e-001 1.506888e+000 -8.689316e+000 158 148 113
3.297641e+000 1.002469e+000 -9.286423e+000 159 123 87
3.297641e+000 1.002469e+000 -9.286423e+000 159 123 87
-1.680964e+000 1.485791e+000 -8.180903e+000 128 129 115
-1.055719e+000 1.213616e+000 -8.624687e+000 94 113 109
-1.804606e+000 1.105539e+000 -9.640637e+000 116 37 30
-1.756754e+000 1.114968e+000 -9.657311e+000 12 47 72
-2.361749e+000 1.030234e+000 -9.349831e+000 36 68 100
-1.917281e+000 1.146305e+000 -9.477455e+000 113 22 27
-1.880975e+000 1.285456e+000 -9.350469e+000 129 29 29
-1.880975e+000 1.285456e+000 -9.350469e+000 129 29 29
-1.156456e+000 1.270189e+000 -9.742383e+000 37 37 27
3.222855e-001 1.276540e+000 -1.038946e+001 112 56 41
7.304614e-001 1.315339e+000 -1.058900e+001 86 25 24
-8.345397e-001 1.563839e+000 -9.481568e+000 35 36 13
-8.384764e-001 1.562525e+000 -9.480739e+000 35 36 13
3.809501e+000 1.560513e+000 -1.152706e+001 28 33 26
1.229642e+000 1.799807e+000 -1.002322e+001 126 61 57
3.840397e+000 1.856986e+000 -1.086093e+001 67 24 19
2.214179e+000 1.742451e+000 -9.914714e+000 19 53 67
2.154521e+000 1.701560e+000 -9.763023e+000 26 55 84
-3.006108e+000 7.679786e-001 -7.775234e+000 168 16 34
6.224807e-001 1.484645e+000 -8.910751e+000 169 29 36
2.638333e+000 1.590118e+000 -9.762352e+000 91 8 15
-2.480900e+000 1.145895e+000 -7.690918e+000 181 103 83
1.356257e+000 1.468114e+000 -9.145140e+000 151 139 112
1.426689e+000 1.419125e+000 -9.105266e+000 25 66 96
1.389055e+000 1.401146e+000 -9.065538e+000 148 147 122
2.421381e+000 1.416659e+000 -9.468535e+000 156 130 108
-1.260313e+000 1.140980e+000 -7.922620e+000 183 153 107
-2.352587e+000 6.530574e-002 -7.591214e+000 189 46 45
-1.190970e+000 1.029157e+000 -7.806451e+000 171 37 37
1.133394e+000 1.140726e+000 -8.652872e+000 184 145 99
1.124039e+000 1.156540e+000 -8.647013e+000 184 145 99
1.183413e+000 1.160077e+000 -8.671441e+000 179 128 94
2.232487e+000 1.144795e+000 -9.031463e+000 119 98 97
-1.963412e+000 6.282510e-001 -7.511541e+000 211 191 158
-1.055054e+000 9.746132e-001 -7.770050e+000 161 27 24
-6.309161e-001 8.261700e-001 -7.703113e+000 154 149 34
-1.001989e+000 7.853475e-001 -7.505516e+000 186 142 100
3.036013e+000 -4.668246e+000 -1.570426e+001 68 66 69
-1.961828e+000 1.087419e+000 -9.569572e+000 110 16 30
-1.534224e+000 1.136187e+000 -9.716171e+000 42 50 30
-4.384151e-001 1.326489e+000 -1.001251e+001 78 47 39
3.271826e-001 1.345790e+000 -1.027606e+001 131 78 64
2.343261e+000 1.434585e+000 -1.109465e+001 79 39 31
9.291829e-001 1.563283e+000 -1.029726e+001 120 68 59
4.116176e+000 1.504559e+000 -1.170302e+001 98 72 71
-2.257709e+000 1.118748e+000 -8.162590e+000 191 169 132
2.212348e+000 1.656713e+000 -9.713666e+000 80 104 113
2.814098e+000 1.685344e+000 -9.980675e+000 132 65 51
2.804915e+000 1.688164e+000 -9.975672e+000 132 65 51
-2.333873e+000 5.377007e-001 -7.773667e+000 171 152 113
-8.892834e-001 1.267311e+000 -8.197277e+000 89 120 130
-2.013286e+000 9.983217e-001 -7.765901e+000 197 180 136
8.062922e-002 1.278699e+000 -8.453168e+000 19 46 35
2.270826e+000 1.284294e+000 -9.246077e+000 128 105 89
-1.889125e+000 8.393736e-001 -7.546029e+000 206 186 153
2.857020e+000 1.210457e+000 -9.345539e+000 130 101 93
1.984703e+000 9.228432e-001 -8.692996e+000 88 33 38
2.053159e+000 8.649720e-001 -8.679452e+000 155 90 84
2.167009e+000 9.537173e-001 -8.813270e+000 132 99 92
2.447695e+000 9.815634e-001 -8.847756e+000 145 122 105
2.722144e+000 8.158902e-001 -8.920793e+000 141 110 91
8.716132e-001 6.960390e-001 -8.079745e+000 166 151 118
2.090874e+000 7.049703e-001 -8.538985e+000 150 84 69
2.090874e+000 7.049703e-001 -8.538985e+000 150 84 69
-9.921404e-001 6.152218e-001 -7.344387e+000 165 28 36
5.694620e+000 -5.124650e-001 -7.939750e+000 124 106 92
-1.610299e+000 1.069398e+000 -9.752590e+000 25 39 22
-1.477699e+000 1.289546e+000 -9.558452e+000 105 99 42
-1.089355e+000 1.520722e+000 -9.445987e+000 102 102 48
2.581814e+000 1.524747e+000 -1.113616e+001 113 75 66
2.450914e+000 1.579484e+000 -1.098421e+001 98 67 54
2.481180e+000 1.543585e+000 -1.101010e+001 98 67 54
-2.764202e+000 3.848881e-001 -8.859394e+000 34 19 23
-7.003035e-001 1.265946e+000 -8.245295e+000 17 52 33
-1.254540e+000 1.063033e+000 -7.828108e+000 171 34 35
2.767572e+000 8.257897e-001 -8.905862e+000 71 32 25
2.767572e+000 8.257897e-001 -8.905862e+000 71 32 25
4.566711e+000 8.578892e-001 -9.646490e+000 177 140 107
1.915211e+000 7.405153e-001 -8.487144e+000 175 133 87
2.166842e+000 8.173528e-001 -8.653439e+000 77 28 28
5.427780e+000 -9.548777e-001 -8.703825e+000 142 129 124
5.480924e+000 -8.989869e-001 -8.634947e+000 142 128 119
5.495391e+000 -8.924320e-001 -8.562443e+000 125 107 97
5.556705e+000 -5.457489e-001 -8.346656e+000 146 129 122
-1.468931e+000 1.170843e+000 -9.750086e+000 26 38 23
-1.368492e+000 1.211021e+000 -9.688993e+000 125 115 62
-1.319252e+000 1.291739e+000 -9.620840e+000 132 112 75
-1.318512e+000 1.290927e+000 -9.621535e+000 132 112 75
-1.108410e+000 1.321848e+000 -9.704102e+000 36 43 35
-1.588426e+000 1.444859e+000 -9.247965e+000 130 105 49
-1.455289e+000 1.486355e+000 -9.305425e+000 116 105 77
-1.455289e+000 1.486355e+000 -9.305425e+000 116 105 77
5.700478e-002 1.375406e+000 -1.010124e+001 128 81 63
1.344089e+000 1.365140e+000 -1.072557e+001 112 59 45
5.530436e-002 1.692842e+000 -9.824344e+000 130 82 67
1.210023e+000 1.616195e+000 -1.039006e+001 99 29 31
3.245046e+000 1.885862e+000 -1.068632e+001 104 63 38
3.412189e+000 1.797860e+000 -1.036575e+001 52 11 29
-1.427846e+000 1.557345e+000 -8.343826e+000 61 90 96
2.695071e+000 1.593870e+000 -9.798963e+000 79 22 15
-2.012635e+000 6.225262e-001 -7.554731e+000 212 192 159
2.005535e+000 1.201364e+000 -9.029900e+000 85 62 74
-1.944236e+000 6.986059e-001 -7.530931e+000 208 190 152
-1.096159e+000 7.616875e-001 -7.458337e+000 156 32 37
2.015267e+000 6.415934e-001 -8.482962e+000 116 52 55
-1.715026e+000 1.092313e+000 -9.673145e+000 28 58 81
-1.535845e+000 1.264641e+000 -9.543375e+000 31 40 27
-1.201584e+000 1.224389e+000 -9.763923e+000 105 104 57
-1.249618e+000 1.346399e+000 -9.618813e+000 33 41 36
-1.046464e+000 1.413585e+000 -9.564521e+000 34 42 33
-8.619674e-001 1.473261e+000 -9.621434e+000 27 40 21
3.902714e+000 1.678195e+000 -1.145361e+001 23 31 28
3.672170e+000 1.836661e+000 -1.111327e+001 28 35 33
3.998740e+000 1.913379e+000 -1.096285e+001 49 13 24
-2.205184e+000 1.070956e+000 -8.022548e+000 116 95 70
-3.253405e-001 1.429039e+000 -8.543080e+000 41 56 33
-1.853422e-001 1.014161e+000 -8.058465e+000 33 52 32
2.651403e+000 1.019535e+000 -9.046636e+000 26 17 22
6.326087e-002 9.277054e-001 -7.979367e+000 155 148 71
5.554151e-001 7.413786e-001 -8.015024e+000 28 53 20
5.554151e-001 7.413786e-001 -8.015024e+000 28 53 20
2.689201e+000 6.700989e-001 -8.767571e+000 84 40 38
-1.529064e+000 1.496530e+000 -9.261125e+000 24 40 31
-1.163765e+000 1.371670e+000 -9.585894e+000 109 104 76
-1.163765e+000 1.371670e+000 -9.585894e+000 109 104 76
8.128658e-001 1.489365e+000 -1.034992e+001 108 47 50
-1.295898e-002 1.540013e+000 -8.773522e+000 26 49 20
5.073988e-001 1.512977e+000 -8.925898e+000 153 142 109
4.056664e-001 1.316622e+000 -8.654538e+000 171 38 42
1.513870e+000 9.693734e-001 -8.603882e+000 15 69 102
1.693737e+000 9.772095e-001 -8.621043e+000 21 73 107
-3.069095e-001 6.649841e-001 -7.638660e+000 166 157 92
1.180701e+000 1.397480e+000 -1.057196e+001 86 24 26
1.245302e+000 1.620410e+000 -1.032687e+001 93 24 28
2.427586e+000 1.310533e+000 -9.316380e+000 140 112 90
-9.890170e-001 7.136431e-001 -7.426931e+000 180 144 108
4.675785e+000 5.567860e-001 -9.509011e+000 185 151 118
2.458500e+000 1.740966e+000 -9.975718e+000 145 112 69
2.458500e+000 1.740966e+000 -9.975718e+000 145 112 69
-1.025163e-001 9.323278e-001 -8.028995e+000 30 60 32
2.250829e+000 6.885701e-001 -8.624225e+000 104 50 54
3.738551e-001 4.922153e-001 -7.826026e+000 165 155 127
1.921340e+000 1.747867e+000 -1.020581e+001 85 18 27
-1.728088e+000 1.551901e+000 -9.053109e+000 125 114 93
-1.361411e+000 1.365357e+000 -8.180579e+000 16 73 102
4.218396e+000 1.723956e+000 -1.070416e+001 142 106 82
3.706622e-001 1.640729e+000 -9.152034e+000 147 136 106
-1.294717e+000 1.248647e+000 -7.955032e+000 172 150 135
-1.918662e+000 8.936043e-001 -7.558028e+000 189 172 144
-9.367482e-001 7.524050e-001 -7.484468e+000 181 30 37
2.377778e+000 6.472516e-001 -8.650441e+000 118 68 76
-2.318290e+000 4.406972e-001 -7.700625e+000 170 145 115
-2.318290e+000 4.406972e-001 -7.700625e+000 170 145 115
3.505609e+000 5.660164e-001 -9.058369e+000 149 141 153
4.039471e+000 6.063152e-001 -9.299821e+000 162 113 86
4.951272e+000 1.552673e-001 -9.657486e+000 158 98 40
4.870564e+000 1.465478e-001 -9.613746e+000 150 91 54
4.928106e+000 1.246191e-001 -9.675846e+000 58 14 4
9.049244e-001 7.072113e-002 -8.043884e+000 162 170 144
1.016323e+000 4.895068e-002 -8.101628e+000 25 81 116
2.754269e+000 1.406868e-002 -8.827717e+000 163 31 41
3.804310e+000 3.203935e-002 -9.259829e+000 89 18 27
3.971488e+000 -6.382971e-002 -9.368506e+000 183 88 51
4.485394e+000 -5.984236e-002 -9.600453e+000 46 20 30
4.485394e+000 -5.984236e-002 -9.600453e+000 46 20 30
4.857060e+000 4.644088e-002 -9.729536e+000 62 19 11
4.868419e+000 1.203308e-002 -9.753504e+000 164 94 52
8.402382e-002 -1.168809e-001 -7.796563e+000 168 162 142
8.355569e-001 -1.176378e-001 -8.115516e+000 196 152 117
7.973395e-001 -1.560332e-001 -8.126991e+000 197 165 131
4.016148e+000 -2.251750e-001 -9.531959e+000 194 132 77
4.323301e+000 -2.608118e-001 -9.710231e+000 163 148 115
7.538927e-001 -3.077206e-001 -8.223096e+000 208 161 134
7.540603e-001 -3.077437e-001 -8.216548e+000 208 161 134
3.039794e+000 -3.616404e-001 -9.192099e+000 188 72 77
3.216778e+000 -4.260500e-001 -9.352269e+000 118 66 51
3.649152e+000 -3.727107e-001 -9.481273e+000 207 141 93
3.943890e+000 -4.056799e-001 -9.634921e+000 188 95 53
-9.400873e-001 -4.852026e-001 -7.646116e+000 142 157 34
3.633187e-001 -5.348335e-001 -8.199619e+000 158 142 124
7.185472e-001 -5.227590e-001 -8.354217e+000 197 152 115
3.895966e+000 -4.644868e-001 -9.688293e+000 129 50 17
-9.510079e-001 -5.893024e-001 -7.711948e+000 173 158 144
6.614558e-001 -6.328515e-001 -8.403537e+000 200 157 123
6.644429e-001 -6.326016e-001 -8.417146e+000 200 157 123
-1.141161e+000 -6.768374e-001 -7.725221e+000 219 157 116
-7.250812e-001 -8.047763e-001 -7.997980e+000 42 62 48
-4.656884e-001 -8.313012e-001 -8.163671e+000 21 59 41
1.514890e-001 -8.335891e-001 -8.436354e+000 128 48 54
2.328394e-001 -8.334696e-001 -8.470756e+000 158 153 143
2.908005e-001 -8.415978e-001 -8.518547e+000 144 113 110
3.892974e+000 -1.073901e+000 -1.047663e+001 114 95 89
-4.876491e-001 -8.863184e-001 -8.242101e+000 34 54 50
1.249416e+000 -1.028155e+000 -9.167387e+000 148 90 84
2.157621e+000 -1.005330e+000 -9.538970e+000 148 89 93
2.191398e+000 -1.017954e+000 -9.536076e+000 184 126 118
2.351717e+000 -1.027673e+000 -9.745839e+000 163 42 51
-1.294096e+000 -1.065577e+000 -8.146217e+000 196 152 127
-1.911394e+000 -1.284405e+000 -8.383711e+000 160 158 163
1.883432e+000 1.011787e+000 -8.761350e+000 91 34 38
2.426794e+000 9.480205e-001 -8.918084e+000 86 63 74
-1.069456e+000 5.799648e-001 -7.280822e+000 168 150 117
4.519949e+000 7.036621e-001 -9.533764e+000 182 149 114
3.873817e+000 2.130967e-001 -9.236892e+000 129 34 27
4.926184e+000 2.431932e-001 -9.592392e+000 41 11 18
4.876435e+000 8.289691e-002 -9.675978e+000 170 102 65
4.876435e+000 8.289691e-002 -9.675978e+000 170 102 65
2.082396e+000 -2.163248e-001 -8.696459e+000 127 78 62
2.852485e+000 -1.031031e-001 -8.931425e+000 202 89 95
3.310491e+000 -1.210782e-001 -9.142401e+000 195 144 124
3.655772e+000 -1.219398e-001 -9.259570e+000 186 127 91
2.759589e+000 -2.660244e-001 -8.975493e+000 165 35 48
3.309903e+000 -3.693728e-001 -9.335694e+000 193 142 113
4.537733e+000 -4.487266e-001 -1.003992e+001 76 56 57
-4.882857e-001 -4.357678e-001 -7.797488e+000 55 100 125
2.644605e+000 -5.318227e-001 -9.186196e+000 159 31 45
3.533589e+000 -6.060391e-001 -9.683704e+000 146 41 22
4.086827e+000 -5.310071e-001 -9.874919e+000 188 153 126
-1.111498e+000 -5.783383e-001 -7.670696e+000 172 167 136
-9.858487e-001 -6.147286e-001 -7.709275e+000 181 42 33
4.400564e-001 -5.546337e-001 -8.215856e+000 164 160 148
3.209296e+000 -6.971768e-001 -9.643711e+000 194 135 119
-1.189318e+000 -7.351864e-001 -7.785299e+000 184 46 57
-7.163628e-001 -7.076991e-001 -7.914731e+000 152 158 40
-7.271808e-001 -7.470645e-001 -7.958647e+000 23 59 39
7.792763e-001 -8.197276e-001 -8.667102e+000 20 76 111
2.003978e+000 -9.718124e-001 -9.405116e+000 187 134 118
-1.071092e+000 -8.551981e-001 -7.940847e+000 183 47 56
-1.071092e+000 -8.551981e-001 -7.940847e+000 183 47 56
-2.741013e-001 -9.437622e-001 -8.402679e+000 48 63 34
1.653129e+000 -1.011700e+000 -9.342458e+000 186 126 112
-1.307087e+000 -1.036481e+000 -8.111955e+000 176 44 53
-1.307671e+000 -1.037156e+000 -8.114480e+000 176 44 53
-1.330048e+000 -1.084917e+000 -8.159863e+000 184 51 56
5.049456e+000 -1.995300e+000 -9.709633e+000 45 35 39
4.515128e-001 1.521157e+000 -8.876288e+000 166 152 120
-1.365863e+000 1.247101e+000 -7.970260e+000 170 135 122
-1.008714e+000 1.000556e+000 -7.752541e+000 168 40 44
-4.975153e-001 6.506570e-001 -7.559925e+000 65 99 108
2.335525e+000 6.549077e-001 -8.634409e+000 69 24 31
3.963013e+000 4.170243e-001 -9.146445e+000 135 45 53
2.210603e+000 -1.512134e-001 -8.702966e+000 153 107 84
2.210603e+000 -1.512134e-001 -8.702966e+000 153 107 84
2.313871e+000 -2.078135e-001 -8.789137e+000 164 118 103
4.507579e+000 -1.359308e-001 -9.704080e+000 186 158 147
-2.981417e-001 -4.412280e-001 -7.887596e+000 24 53 30
3.350635e+000 -4.959245e-001 -9.379372e+000 197 131 104
4.158861e+000 -4.913025e-001 -9.849456e+000 82 69 75
-1.142362e+000 -6.141518e-001 -7.673541e+000 196 40 57
-1.141801e+000 -6.141402e-001 -7.673213e+000 196 40 57
-1.040538e+000 -6.173250e-001 -7.703788e+000 186 45 46
-5.914698e-001 -6.467156e-001 -7.954451e+000 44 108 125
2.797483e-001 -5.939282e-001 -8.228394e+000 164 154 142
8.577713e-001 -6.252307e-001 -8.493183e+000 6 54 92
1.219284e+000 -6.295947e-001 -8.641444e+000 118 69 53
1.326238e+000 -6.038253e-001 -8.671751e+000 172 110 97
-2.907058e-001 -9.533343e-001 -8.429229e+000 36 64 42
4.993797e-001 -9.669127e-001 -8.786385e+000 168 29 46
-1.157499e+000 -1.048053e+000 -8.145793e+000 190 46 56
-9.846542e-001 -1.074195e+000 -8.287262e+000 142 144 89
2.775931e+000 8.875770e-001 -8.973768e+000 128 97 94
3.897214e+000 1.559577e-001 -9.228977e+000 196 104 33
5.140432e+000 1.905002e-001 -9.762265e+000 30 18 30
1.578032e+000 -1.871456e-001 -8.471994e+000 185 124 103
2.044983e+000 -1.738460e-001 -8.682917e+000 189 140 110
8.282346e-001 -3.355210e-001 -8.235423e+000 151 35 36
-8.939531e-002 -5.606698e-001 -8.048476e+000 25 62 31
-8.939531e-002 -5.606698e-001 -8.048476e+000 25 62 31
6.359219e-001 -8.031626e-001 -8.561566e+000 182 110 94
-8.115925e-001 -8.742201e-001 -8.093977e+000 123 134 65
4.725215e-001 -1.032569e+000 -8.892347e+000 151 35 42
-1.122437e+000 -1.068922e+000 -8.255665e+000 143 141 101
-5.995917e-001 -1.054806e+000 -8.449631e+000 139 147 59
4.843091e+000 -2.567101e+000 -1.015735e+001 142 128 129
2.329675e+000 6.020284e-001 -8.587176e+000 84 37 43
2.681752e+000 8.251335e-002 -8.757448e+000 169 33 48
4.590732e+000 -1.474363e-001 -9.731950e+000 137 84 43
-2.222832e-001 -2.907955e-001 -7.784817e+000 100 119 137
-2.222832e-001 -2.907955e-001 -7.784817e+000 100 119 137
4.603033e+000 -5.150127e-001 -1.012669e+001 156 125 114
-8.988847e-001 -6.205989e-001 -7.754388e+000 11 85 134
-5.166167e-001 -6.023674e-001 -7.866504e+000 21 55 33
6.529268e-001 -5.756496e-001 -8.383063e+000 152 28 38
2.772363e+000 -7.690129e-001 -9.587696e+000 168 31 40
2.772363e+000 -7.690129e-001 -9.587696e+000 168 31 40
3.337473e+000 -8.193542e-001 -9.884892e+000 189 138 116
3.337473e+000 -8.193542e-001 -9.884892e+000 189 138 116
-7.305792e-001 -6.780641e-001 -7.863928e+000 90 118 87
-1.841884e-001 -7.023538e-001 -8.156866e+000 159 170 103
-2.563540e-001 -7.637276e-001 -8.208103e+000 30 66 45
-7.506057e-001 -9.086387e-001 -8.217950e+000 32 68 39
-1.237709e+000 -1.034784e+000 -8.122384e+000 205 148 129
4.866119e+000 -2.430513e+000 -1.013509e+001 50 38 53
4.703173e+000 -2.909606e+000 -1.047434e+001 146 132 132
-6.020702e-001 6.352073e-001 -7.488728e+000 82 108 101
-2.860832e-001 6.482619e-001 -7.649164e+000 163 148 120
-2.927710e-001 6.457105e-001 -7.630297e+000 163 148 120
2.824309e+000 6.242210e-001 -8.802634e+000 68 22 32
4.707954e+000 5.951544e-002 -9.592189e+000 187 104 52
2.530079e+000 -6.112364e-001 -9.206743e+000 180 57 68
3.542258e+000 -8.057310e-001 -9.973592e+000 140 106 81
1.449665e+000 -8.152407e-001 -8.951615e+000 193 131 110
-6.016365e-001 -9.771143e-001 -8.281734e+000 114 137 124
-5.166253e-001 -9.956329e-001 -8.441442e+000 31 61 39
-3.948519e-001 -9.506428e-001 -8.375239e+000 137 148 142
-3.131742e-001 9.186668e-001 -7.914038e+000 35 60 36
4.196128e+000 -3.745831e-001 -9.735377e+000 197 167 143
-4.961266e-001 -7.843668e-001 -8.044009e+000 79 114 133
3.002485e+000 -1.104685e+000 -1.025143e+001 201 140 139
2.660775e+000 8.532459e-001 -8.952811e+000 136 108 97
3.898251e+000 7.146844e-001 -9.283965e+000 156 116 81
1.332818e+000 -4.094982e-001 -8.528373e+000 193 128 108
-1.581022e-001 -3.650687e-001 -7.894159e+000 23 59 30
1.856067e+000 -7.298621e-001 -9.467037e+000 188 127 108
1.244082e+000 6.397044e-001 -8.181841e+000 155 22 24
4.664069e+000 1.725445e-001 -9.506870e+000 204 117 46
2.826261e+000 -5.025597e-003 -8.862890e+000 157 24 27
2.679764e+000 -1.355589e-001 -8.875964e+000 194 92 88
2.722984e+000 -1.618018e-001 -8.917723e+000 166 32 36
2.722984e+000 -1.618018e-001 -8.917723e+000 166 32 36
3.641211e+000 -8.918989e-002 -9.196595e+000 188 121 77
3.113982e-001 -5.332091e-001 -8.210746e+000 176 153 131
2.949779e+000 -5.534104e-001 -9.316570e+000 160 30 38
3.116070e+000 -7.299504e-001 -9.614337e+000 139 80 66
3.232830e+000 -7.375052e-001 -9.682914e+000 138 80 60
1.379362e+000 -9.972744e-001 -9.196112e+000 142 80 65
-4.034190e-001 -1.097645e+000 -8.582588e+000 68 81 35
4.748661e+000 -2.827584e+000 -1.035751e+001 152 134 130
2.664806e+000 4.821048e-001 -8.697715e+000 181 129 83
4.114760e+000 -4.442920e-001 -9.795951e+000 180 148 111
-1.034762e+000 -6.167664e-001 -7.704457e+000 182 49 49
-4.964011e-001 -5.506256e-001 -7.877521e+000 171 156 30
4.427225e+000 -9.834334e-001 -1.057230e+001 149 110 102
5.014738e+000 -2.087970e+000 -9.800717e+000 62 43 52
1.959670e+000 7.009198e-001 -8.543367e+000 185 140 84
4.639971e+000 5.638989e-002 -9.564443e+000 198 108 45
1.441754e+000 -4.651599e-002 -8.309413e+000 154 98 82
-6.142219e-001 -4.593622e-001 -7.764082e+000 105 104 24
4.785510e+000 -2.825781e+000 -1.022945e+001 153 135 133
4.881394e+000 -2.761853e+000 -1.001898e+001 143 125 121
4.636748e+000 6.155931e-001 -9.507581e+000 189 154 125
1.046750e+000 8.380015e-002 -8.109180e+000 168 163 140
2.843640e+000 7.535156e-001 -8.885146e+000 145 114 96
1.268034e+000 -3.024846e-001 -8.487175e+000 189 119 103
4.778274e+000 -2.828674e+000 -1.034985e+001 131 113 111
4.728920e+000 9.571911e-002 -9.585699e+000 191 99 42
9.257577e-001 -3.950340e-001 -8.336317e+000 27 78 112
3.020719e+000 -4.909458e-001 -9.305410e+000 197 79 76
3.972397e+000 4.704749e-001 -9.211071e+000 175 118 83
4.445150e+000 -3.580487e+000 -1.101404e+001 115 97 97
5.120044e+000 -1.902164e+000 -9.550601e+000 160 139 134
1.135220e+000 -3.884818e-001 -8.384474e+000 17 66 96
-9.161102e+000 -6.346343e+001 -4.144353e+001 48 34 21
-6.755676e+000 -7.393663e+001 -2.007739e+001 140 117 83
-1.035630e+001 -7.963984e+001 -2.280992e+001 72 60 48
-5.826671e+000 -7.494923e+001 -1.894396e+001 48 40 37
-5.483934e+000 -7.826807e+001 -1.735649e+001 134 113 83
-3.622074e+000 -7.035104e+001 -3.044739e+001 143 129 102
-3.622074e+000 -7.035104e+001 -3.044739e+001 143 129 102
-3.249086e+000 -7.102438e+001 -2.944215e+001 129 108 81
-3.249086e+000 -7.102438e+001 -2.944215e+001 129 108 81
-6.282141e+000 -7.439760e+001 -1.983389e+001 130 122 113
-5.184000e+000 -7.383891e+001 -1.987469e+001 58 57 63
-5.184000e+000 -7.383891e+001 -1.987469e+001 58 57 63
-7.430782e+000 -7.686432e+001 -1.871709e+001 166 128 85
-1.096013e+001 -7.714473e+001 -2.447328e+001 41 27 18
-1.147643e+001 -8.137173e+001 -2.375638e+001 60 47 38
-3.372452e+000 -7.256232e+001 -2.011847e+001 56 51 47
2.393302e+000 -7.283456e+001 -2.048981e+001 24 14 15
2.393302e+000 -7.283456e+001 -2.048981e+001 24 14 15
-9.649261e+000 -9.209936e+001 -1.898810e+001 135 104 62
-8.808694e+000 -8.701469e+001 -1.887693e+001 202 166 113
-1.153653e+001 -7.699281e+001 -2.379338e+001 174 144 94
-6.639077e+000 -7.385830e+001 -2.216106e+001 23 17 19
-1.086798e+001 -3.302241e+001 -2.440966e+001 186 149 97
-7.917747e+000 -7.290453e+001 -1.905924e+001 40 29 21
-1.035980e+001 -7.828721e+001 -2.671982e+001 190 158 107
-1.104845e+001 -8.444483e+001 -2.444200e+001 64 51 41
-1.104845e+001 -8.444483e+001 -2.444200e+001 64 51 41
2.851265e+000 1.643374e+000 -9.897399e+000 153 118 77
2.076411e+000 1.670257e+000 -9.686146e+000 24 63 94
-1.243147e+000 1.219381e+000 -8.017965e+000 157 30 41
-1.249388e+000 -8.230524e+001 -1.681647e+001 98 77 60
-1.678796e+000 -8.122494e+001 -1.648998e+001 91 78 60
-1.643526e+000 -8.252513e+001 -1.666359e+001 91 78 60
2.416278e+000 1.665094e+000 -9.802965e+000 53 15 16
-6.382513e+000 -7.621818e+001 -1.934899e+001 46 37 36
5.562457e+000 -1.388796e+000 -8.455567e+000 139 123 107
5.562457e+000 -1.388796e+000 -8.455567e+000 139 123 107
-6.624328e+000 -7.282697e+001 -2.047125e+001 173 150 117
-6.294931e+000 -7.477842e+001 -1.989114e+001 147 145 143
-5.658034e+000 -7.507953e+001 -1.951713e+001 24 18 28
-5.796085e+000 -8.209202e+001 -1.732914e+001 92 88 59
-5.007338e+000 -8.322986e+001 -1.703475e+001 159 152 126
-3.878143e+000 -8.310839e+001 -1.645101e+001 136 134 119
-2.174605e+000 -8.141043e+001 -1.657168e+001 133 127 105
-9.982756e+000 -9.487910e+001 -1.448796e+001 111 83 57
-3.910234e-001 -5.725001e+001 -1.979860e+001 204 188 149
-1.093812e+001 -9.462818e+001 -1.410415e+001 85 63 45
-3.950709e+000 -8.467110e+001 -1.422165e+001 192 172 139
-2.337401e+000 -8.452995e+001 -1.482911e+001 187 177 145
1.325475e+000 1.602707e+000 -9.320042e+000 26 73 96
-6.075051e+000 -7.526425e+001 -2.092077e+001 29 22 30
-2.664277e+000 -8.345935e+001 -1.577006e+001 58 70 71
-1.850991e+000 -8.461851e+001 -1.503510e+001 173 163 127
-1.868497e+000 -8.533056e+001 -1.389003e+001 57 83 70
-4.550761e+000 -8.495427e+001 -1.554952e+001 54 74 68
-3.325992e+000 -8.507286e+001 -1.455248e+001 186 167 136
-3.573216e+000 -8.589066e+001 -1.325812e+001 62 95 86
-1.048660e+001 -8.384496e+001 -2.051043e+001 201 173 126
-5.842532e+000 -8.886115e+001 -1.372052e+001 213 187 150
-5.842532e+000 -8.886115e+001 -1.372052e+001 213 187 150
-6.964419e+000 -8.001048e+001 -1.669688e+001 213 185 138
-1.746969e+000 1.376405e+000 -9.321736e+000 119 42 36
7.861941e-001 1.371997e+000 -1.050823e+001 88 30 28
3.228499e+000 1.750307e+000 -1.024156e+001 110 58 32
1.283588e+000 1.562524e+000 -9.263612e+000 21 67 96
-2.185498e+000 8.822503e-001 -7.839677e+000 194 172 135
-1.191656e+000 1.166871e+000 -7.976121e+000 166 28 43
-1.133526e+000 1.032309e+000 -7.834645e+000 164 32 29
2.455479e+000 1.234850e+000 -9.241743e+000 138 118 104
1.034125e+000 9.531924e-001 -8.343013e+000 161 151 120
-9.852674e-001 7.825035e-001 -7.537563e+000 172 33 38
-1.752670e+000 1.254402e+000 -9.476386e+000 135 39 38
4.035402e+000 1.919040e+000 -1.103192e+001 98 59 55
-1.210487e-001 1.699254e+000 -9.002402e+000 153 139 44
1.989199e+000 1.769697e+000 -9.860126e+000 133 129 107
3.331195e+000 1.773177e+000 -1.029666e+001 87 38 24
-7.029691e-001 1.433685e+000 -8.441959e+000 30 44 24
-7.029691e-001 1.433685e+000 -8.441959e+000 30 44 24
2.821223e+000 1.444293e+000 -9.633726e+000 138 84 74
2.821223e+000 1.444293e+000 -9.633726e+000 138 84 74
2.088998e+000 1.365318e+000 -9.265558e+000 81 55 67
2.141946e+000 1.368006e+000 -9.281071e+000 122 97 101
-6.414478e-001 8.014214e-001 -7.680444e+000 79 109 120
3.733628e+000 1.738560e+000 -1.131416e+001 41 43 38
3.733628e+000 1.738560e+000 -1.131416e+001 41 43 38
2.996776e+000 1.670669e+000 -1.003980e+001 152 118 81
-6.994261e-001 1.266040e+000 -8.245653e+000 17 52 33
1.155515e+000 1.253020e+000 -8.793106e+000 143 24 27
1.155515e+000 1.253020e+000 -8.793106e+000 143 24 27
-1.642179e-001 9.177130e-001 -7.965755e+000 19 47 14
-5.291209e-001 1.268936e+000 -9.998000e+000 106 104 86
4.795990e+000 1.010368e+000 -9.914496e+000 140 77 43
2.143628e+000 1.810570e+000 -1.011110e+001 129 91 67
8.175332e-001 1.743300e+000 -9.483698e+000 138 129 100
-1.889410e+000 1.093709e+000 -9.602714e+000 109 14 29
-1.518417e+000 1.138805e+000 -9.753149e+000 104 106 54
-1.869330e+000 1.206352e+000 -9.468752e+000 129 26 46
-1.819638e+000 1.202237e+000 -9.523243e+000 123 37 44
-1.768115e+000 1.330200e+000 -9.385205e+000 105 26 27
-1.085658e+000 1.220679e+000 -9.872196e+000 113 113 32
-1.082919e+000 1.243576e+000 -9.793371e+000 110 106 39
-1.082419e+000 1.246241e+000 -9.793171e+000 110 106 39
-4.932188e-001 1.334124e+000 -9.988233e+000 83 23 29
7.288044e-001 1.328811e+000 -1.055000e+001 133 73 66
7.050397e-001 1.344247e+000 -1.050422e+001 94 15 21
7.616765e-001 1.358624e+000 -1.053520e+001 89 23 24
1.522139e+000 1.317882e+000 -1.091618e+001 118 85 70
-1.808002e+000 1.417971e+000 -9.234847e+000 143 108 78
-1.773641e+000 1.222732e+000 -9.296013e+000 143 108 78
-1.787261e+000 1.466162e+000 -9.181321e+000 139 120 83
-1.764322e+000 1.490457e+000 -9.159334e+000 110 21 31
-1.764322e+000 1.490457e+000 -9.159334e+000 110 21 31
-1.629725e+000 1.451398e+000 -9.267729e+000 126 116 103
-1.111761e+000 1.397617e+000 -9.605319e+000 31 39 29
9.718847e-001 1.652796e+000 -1.028539e+001 124 65 60
9.425038e-001 1.621810e+000 -1.022355e+001 122 61 61
1.049782e+000 1.689184e+000 -1.027985e+001 122 59 59
1.140208e+000 1.622016e+000 -1.035593e+001 107 46 45
1.164705e+000 1.641784e+000 -1.032201e+001 118 51 58
2.044925e+000 1.694373e+000 -1.065460e+001 77 25 27
1.924388e+000 1.888620e+000 -1.039806e+001 104 72 57
1.443044e+000 1.814583e+000 -1.000855e+001 104 31 33
1.619609e+000 1.801816e+000 -1.022049e+001 91 19 24
3.717941e+000 1.934991e+000 -1.083237e+001 65 19 22
4.447652e+000 2.023952e+000 -1.116911e+001 34 21 26
8.200949e-001 1.723702e+000 -9.380853e+000 150 144 108
2.239115e+000 1.851449e+000 -9.951472e+000 22 54 58
3.576765e+000 1.764965e+000 -1.037344e+001 46 11 21
1.298773e+000 1.581035e+000 -9.285075e+000 151 146 112
-1.152954e+000 1.286865e+000 -8.146153e+000 153 148 15
-2.034375e+000 1.018311e+000 -7.790849e+000 112 90 67
-5.211358e-001 1.300924e+000 -8.319823e+000 30 45 29
1.046460e+000 1.335984e+000 -8.869932e+000 177 144 92
2.730893e+000 1.374725e+000 -9.419959e+000 98 67 63
2.730893e+000 1.374725e+000 -9.419959e+000 98 67 63
-1.910033e+000 9.016569e-001 -7.619454e+000 204 182 146
-1.159631e+000 1.225277e+000 -7.960982e+000 174 27 46
1.955037e+000 9.549880e-001 -8.723449e+000 156 91 85
5.560474e+000 -8.246146e-001 -8.460444e+000 128 112 102
5.851090e+000 2.205050e-001 -7.642558e+000 133 118 117
5.863112e+000 3.960127e-001 -7.568065e+000 61 51 52
5.895517e+000 3.388956e-001 -7.464155e+000 87 73 72
6.388366e+000 -2.224919e+000 -6.830773e+000 29 19 28
-1.942734e+000 1.114879e+000 -9.523053e+000 124 29 34
-1.942734e+000 1.114879e+000 -9.523053e+000 124 29 34
-1.891131e+000 1.114756e+000 -9.560686e+000 123 66 55
-1.331125e+000 1.208587e+000 -9.746371e+000 119 104 33
-4.521964e-001 1.239844e+000 -1.012121e+001 112 106 90
-1.980762e-002 1.169129e+000 -1.038948e+001 123 67 59
6.710902e-002 1.320353e+000 -1.026530e+001 133 79 67
2.586921e-001 1.224794e+000 -1.046835e+001 96 37 27
3.760630e-001 1.239170e+000 -1.047988e+001 102 44 33
3.748815e-001 1.238322e+000 -1.047990e+001 102 44 33
1.377256e+000 1.320073e+000 -1.088784e+001 100 74 56
-1.856206e+000 1.331886e+000 -9.297668e+000 109 26 30
-1.839164e+000 1.386843e+000 -9.246558e+000 110 21 34
-1.692177e+000 1.413564e+000 -9.318129e+000 134 26 44
-8.938511e-001 1.398008e+000 -9.686030e+000 22 37 41
2.101686e-001 1.558492e+000 -1.002378e+001 109 56 45
2.055984e-001 1.552488e+000 -9.971293e+000 126 71 59
4.596448e-001 1.589140e+000 -1.006699e+001 128 71 60
4.959189e-001 1.636975e+000 -1.004832e+001 110 50 44
3.736485e+000 1.822084e+000 -1.121259e+001 73 74 67
3.736485e+000 1.822084e+000 -1.121259e+001 73 74 67
1.400355e+000 1.803860e+000 -1.000331e+001 128 74 56
1.396776e+000 1.806649e+000 -1.000098e+001 128 74 56
1.391769e+000 1.785013e+000 -1.012296e+001 101 25 29
1.730237e+000 1.806052e+000 -1.026002e+001 77 12 22
2.032430e+000 1.798461e+000 -1.033445e+001 112 78 61
1.358462e+000 1.826375e+000 -9.824332e+000 117 26 31
1.500215e+000 1.827583e+000 -9.913160e+000 141 62 57
1.516717e+000 1.833601e+000 -9.725022e+000 149 61 54
3.667250e+000 1.871373e+000 -1.065603e+001 151 110 78
3.670779e+000 1.828450e+000 -1.045002e+001 149 98 65
-1.139647e+000 1.327198e+000 -8.165209e+000 30 55 29
6.227965e-002 1.489326e+000 -8.663305e+000 157 150 43
2.974341e+000 1.476847e+000 -9.696464e+000 163 128 91
-2.056217e+000 9.768981e-001 -7.790298e+000 202 182 143
-2.055876e+000 9.690178e-001 -7.790801e+000 202 182 143
-1.192412e+000 1.207197e+000 -7.995628e+000 185 140 113
2.488290e+000 1.383829e+000 -9.419823e+000 141 112 99
2.142207e+000 1.006811e+000 -8.852092e+000 125 90 88
3.150750e+000 9.881945e-001 -9.209237e+000 74 47 48
6.884677e-001 8.458238e-001 -8.185771e+000 179 39 38
2.849511e+000 7.733291e-001 -8.901269e+000 152 117 108
2.600572e+000 7.533175e-001 -8.792289e+000 172 128 116
5.837122e+000 7.870831e-002 -7.560772e+000 147 129 124
5.899439e+000 4.625127e-001 -7.498745e+000 60 51 60
-2.018276e+000 1.057218e+000 -9.552006e+000 19 53 80
-1.439850e+000 1.021175e+000 -9.877266e+000 74 81 64
-1.482134e+000 1.113774e+000 -9.796971e+000 23 36 18
-1.073991e+000 1.143680e+000 -9.955633e+000 27 41 20
-1.173232e+000 1.303327e+000 -9.682422e+000 126 107 38
-8.157504e-001 1.350546e+000 -9.802224e+000 28 35 15
-8.157504e-001 1.350546e+000 -9.802224e+000 28 35 15
-7.391096e-002 1.284362e+000 -1.027567e+001 123 73 63
8.706677e-002 1.400828e+000 -1.019503e+001 128 74 62
9.949194e-001 1.242793e+000 -1.069185e+001 123 73 62
-1.962008e+000 1.490262e+000 -9.074743e+000 48 68 77
-1.650458e+000 1.513327e+000 -9.207790e+000 134 31 37
-1.650458e+000 1.513327e+000 -9.207790e+000 134 31 37
1.793802e-001 1.323086e+000 -1.024668e+001 113 55 44
1.502571e-001 1.403800e+000 -1.014306e+001 134 80 68
1.502571e-001 1.403800e+000 -1.014306e+001 134 80 68
1.439737e-001 1.601900e+000 -9.980601e+000 133 80 67
9.591667e-001 1.688566e+000 -1.016719e+001 129 72 65
3.061381e+000 1.567125e+000 -1.131779e+001 102 68 56
1.289986e+000 1.762479e+000 -1.006842e+001 96 22 18
1.337253e+000 1.779541e+000 -1.006655e+001 117 59 45
3.200167e+000 1.893863e+000 -1.072797e+001 83 41 22
3.144050e+000 1.895964e+000 -1.051184e+001 86 40 20
1.550763e+000 1.558004e+000 -9.338825e+000 85 13 16
-1.135551e+000 1.329372e+000 -8.167644e+000 34 46 9
-1.130230e+000 1.320071e+000 -8.170770e+000 34 46 9
1.184207e+000 1.185153e+000 -8.717625e+000 139 19 30
1.184207e+000 1.185153e+000 -8.717625e+000 139 19 30
4.887183e+000 9.325391e-001 -9.960059e+000 143 83 43
4.742733e+000 7.287259e-001 -9.583165e+000 169 135 104
9.757665e-001 5.790962e-001 -8.090019e+000 166 115 87
-8.271266e-001 6.115019e-001 -7.419408e+000 180 40 38
5.592778e+000 -5.047920e-001 -8.367340e+000 48 36 40
5.995755e+000 -7.301954e-001 -7.271209e+000 159 141 131
5.920135e+000 5.210456e-001 -7.455289e+000 55 47 59
-9.671297e-001 1.185900e+000 -9.954284e+000 107 104 55
-1.478065e+000 1.302577e+000 -9.555161e+000 109 96 53
2.381946e-002 1.328096e+000 -1.016140e+001 130 80 65
2.168482e+000 1.563288e+000 -1.090960e+001 77 30 27
2.256227e+000 1.569054e+000 -1.094663e+001 100 62 51
8.817264e-001 1.763879e+000 -9.538822e+000 144 126 107
2.653562e+000 1.636036e+000 -9.840701e+000 135 53 43
2.033309e+000 1.111453e+000 -8.922014e+000 84 58 71
2.156402e-002 7.714974e-001 -7.868848e+000 164 152 79
2.156402e-002 7.714974e-001 -7.868848e+000 164 152 79
6.120083e+000 -1.859754e+000 -7.127295e+000 157 140 120
-1.323685e+000 1.137031e+000 -9.843657e+000 25 39 24
-1.188601e+000 1.142680e+000 -9.890187e+000 26 40 26
-1.390485e+000 1.378929e+000 -9.529009e+000 32 35 27
-1.203305e+000 1.227623e+000 -9.762842e+000 110 106 75
-1.036827e+000 1.266693e+000 -9.860376e+000 24 35 27
1.272101e+000 1.540659e+000 -1.054716e+001 116 60 47
5.685634e-002 1.623131e+000 -9.895311e+000 129 72 63
3.623485e+000 1.689013e+000 -1.131478e+001 28 31 22
2.939174e+000 1.707815e+000 -1.007151e+001 116 44 26
7.269554e-001 1.408472e+000 -8.846483e+000 161 145 115
4.755947e+000 1.118157e+000 -1.007102e+001 161 100 59
2.654230e+000 1.015936e+000 -9.047207e+000 32 16 31
-5.765697e-001 7.892560e-001 -7.689293e+000 158 149 47
5.548030e+000 -2.889476e-001 -8.262688e+000 61 50 51
5.579939e+000 9.581187e-002 -7.979746e+000 56 43 50
-1.832917e+000 1.298084e+000 -9.388914e+000 126 67 57
4.189171e+000 1.701984e+000 -1.150978e+001 82 52 44
2.789593e+000 1.521581e+000 -9.744359e+000 149 115 99
2.422466e+000 1.316815e+000 -9.315075e+000 137 112 90
-1.484446e-001 1.152765e+000 -8.249117e+000 172 152 89
1.396177e+000 1.232644e+000 -8.872902e+000 15 64 99
5.949542e-001 9.216941e-001 -8.205389e+000 177 42 49
5.586236e+000 -9.912240e-001 -8.765604e+000 51 42 47
3.169746e+000 1.762691e+000 -1.056835e+001 132 92 65
-1.414513e+000 1.318040e+000 -8.064620e+000 28 82 112
-6.079256e-001 1.409482e+000 -8.459261e+000 144 136 67
-7.885978e-001 1.090519e+000 -8.065595e+000 33 58 39
2.930147e-001 8.441640e-001 -8.026321e+000 155 146 112
4.373160e+000 5.426118e-001 -9.400486e+000 182 104 38
-4.726430e-001 1.440419e+000 -9.847453e+000 109 103 88
-1.868876e+000 1.476773e+000 -9.079647e+000 126 113 95
3.931276e+000 1.822709e+000 -1.126083e+001 20 29 23
1.524125e+000 1.798141e+000 -1.012099e+001 110 27 35
1.524125e+000 1.798141e+000 -1.012099e+001 110 27 35
3.715357e+000 1.872869e+000 -1.096818e+001 93 56 47
-1.256759e-001 1.434578e+000 -8.388041e+000 169 151 117
-9.664248e-001 1.096038e+000 -9.928592e+000 28 44 35
1.059605e+000 1.745953e+000 -9.843776e+000 117 27 32
2.077224e+000 1.600075e+000 -9.594450e+000 95 19 29
1.002135e+000 1.636127e+000 -9.158112e+000 146 23 34
-1.310480e+000 7.081978e-001 -1.015794e+001 39 59 59
-1.877307e+000 9.704861e-001 -9.754710e+000 96 104 67
-9.987859e-001 1.002712e+000 -1.010527e+001 106 117 83
-9.987859e-001 1.002712e+000 -1.010527e+001 106 117 83
-2.763752e-002 7.352776e-001 -1.069681e+001 120 72 75
-2.763752e-002 7.352776e-001 -1.069681e+001 120 72 75
-1.117547e-001 9.240489e-001 -1.055432e+001 119 66 73
3.863020e+000 4.890587e-001 -1.253635e+001 24 18 30
3.727324e+000 6.643648e-001 -1.239527e+001 115 66 59
-2.340604e+000 1.073903e+000 -9.383829e+000 14 43 72
-9.095412e-001 1.228039e+000 -1.003960e+001 115 119 116
-5.006639e-001 1.195379e+000 -1.015101e+001 82 28 32
-2.128573e-001 1.180643e+000 -1.031503e+001 96 31 35
6.445795e-001 1.263817e+000 -1.060748e+001 82 21 20
2.399451e+000 9.035316e-001 -1.159389e+001 93 64 59
3.471250e+000 1.131289e+000 -1.190101e+001 45 55 46
-1.725453e+000 1.247757e+000 -9.502691e+000 134 120 108
-1.755957e+000 1.359182e+000 -9.357696e+000 112 34 31
-1.707794e+000 1.381243e+000 -9.360867e+000 117 25 27
-4.822665e-001 1.284085e+000 -1.006754e+001 76 21 27
-4.378900e-001 1.357129e+000 -9.990312e+000 85 33 39
2.605668e-001 1.326018e+000 -1.039076e+001 107 48 40
3.620269e+000 1.170024e+000 -1.189101e+001 26 32 28
-1.793404e+000 1.457173e+000 -9.209459e+000 101 21 16
-1.793404e+000 1.457173e+000 -9.209459e+000 101 21 16
-1.007054e+000 1.460993e+000 -9.569020e+000 101 96 58
7.927034e-001 1.494113e+000 -1.040307e+001 84 22 20
1.242995e+000 1.476059e+000 -1.056630e+001 129 66 56
-2.832324e+000 1.449559e+000 -8.517852e+000 126 63 56
8.632159e-001 1.777998e+000 -9.772418e+000 126 39 42
-3.124214e+000 8.388800e-001 -8.086709e+000 160 20 31
3.786866e+000 1.867722e+000 -1.089877e+001 106 62 56
1.916993e+000 1.798917e+000 -9.842860e+000 23 59 82
2.152488e+000 1.769829e+000 -9.880214e+000 71 100 109
1.349732e+000 1.573440e+000 -9.274244e+000 25 60 81
2.229778e+000 1.635252e+000 -9.721318e+000 68 101 113
2.501154e+000 1.450197e+000 -9.516625e+000 132 105 84
2.871956e+000 1.469030e+000 -9.787164e+000 138 109 93
2.605573e+000 1.271562e+000 -9.352458e+000 40 17 10
-9.970004e-001 1.044589e+000 -7.915400e+000 166 156 117
-9.970004e-001 1.044589e+000 -7.915400e+000 166 156 117
1.130949e+000 1.145204e+000 -8.652857e+000 187 134 94
2.170753e+000 1.053865e+000 -8.936761e+000 87 64 70
2.039968e+000 9.296004e-001 -8.755350e+000 158 101 85
4.647980e+000 8.312516e-001 -9.651771e+000 147 52 37
4.647980e+000 8.312516e-001 -9.651771e+000 147 52 37
-1.086261e+000 7.928487e-001 -7.497428e+000 188 153 109
-1.059169e+000 8.398624e-001 -7.584211e+000 192 148 104
6.796653e-001 8.821062e-001 -8.212230e+000 164 147 115
6.796653e-001 8.821062e-001 -8.212230e+000 164 147 115
2.870121e+000 7.509598e-001 -8.906083e+000 150 113 97
6.220032e+000 -2.700507e+000 -7.176894e+000 66 60 62
-1.286333e+000 3.878507e-001 -1.031689e+001 59 91 137
1.391186e+000 9.378288e-001 -1.122416e+001 93 63 61
-6.688871e-003 1.187117e+000 -1.042328e+001 150 97 101
1.463155e-002 1.239864e+000 -1.037088e+001 130 81 67
1.960806e-001 1.183122e+000 -1.052693e+001 119 64 67
6.343609e-001 1.314801e+000 -1.065427e+001 88 27 32
1.538904e+000 9.899468e-001 -1.117905e+001 93 62 57
1.847683e+000 1.076519e+000 -1.126555e+001 98 63 61
1.967099e+000 1.052633e+000 -1.136524e+001 96 66 64
-1.432914e+000 1.321683e+000 -9.536920e+000 108 105 28
-4.054883e-001 1.340511e+000 -1.002598e+001 108 95 79
