ply
format ascii 1.0
element face 0
property list uchar int vertex_indices
element vertex 871
property float x
property float y
property float z
property uchar diffuse_red
property uchar diffuse_green
property uchar diffuse_blue
end_header
3.441850e+000 1.507955e-001 -1.219752e+001 169 133 123
-1.356573e+000 -4.062466e-001 -9.975123e+000 158 162 125
-2.289530e-001 -3.207997e-001 -1.052419e+001 159 43 43
-6.579910e-001 -7.021867e-001 -8.017428e+000 29 54 18
2.039912e-001 -5.357121e-001 -8.282929e+000 150 146 107
-1.028903e-001 -7.364060e-001 -8.236603e+000 33 54 20
-7.332479e-001 -8.847086e-001 -8.236329e+000 22 50 21
4.322972e+000 -9.828960e-001 -1.042914e+001 127 99 78
4.439689e-001 -1.100190e+000 -9.081965e+000 133 16 21
1.330335e+000 -1.117338e+000 -9.493521e+000 176 113 91
1.795697e+000 -1.095075e+000 -9.674294e+000 172 110 91
2.011576e+000 -1.095211e+000 -9.761665e+000 174 118 93
2.284325e+000 -1.044177e+000 -1.053038e+001 166 135 112
2.446707e-001 -1.042368e+000 -9.852299e+000 170 129 126
1.068907e+000 -9.671501e-001 -1.024487e+001 37 76 137
1.068907e+000 -9.671501e-001 -1.024487e+001 37 76 137
-7.273269e-001 -8.583859e-001 -9.708800e+000 28 59 34
-7.080482e-001 -7.866936e-001 -9.731708e+000 28 59 34
-3.374009e-001 -8.839081e-001 -9.850309e+000 23 58 39
1.092465e+000 -7.196196e-001 -1.053259e+001 43 53 100
-1.328646e+000 -6.940737e-001 -9.651725e+000 27 55 34
-1.149429e+000 -7.453029e-001 -9.667489e+000 21 58 33
-9.468399e-001 -7.565578e-001 -9.755182e+000 26 47 37
8.081157e-001 -6.112526e-001 -1.055300e+001 36 60 112
-1.539383e+000 -5.181020e-001 -9.772988e+000 39 92 154
-1.276268e+000 -4.838830e-001 -9.937148e+000 30 61 44
-1.061747e+000 -4.644226e-001 -1.004361e+001 33 64 46
-1.076184e+000 -5.508917e-001 -1.001058e+001 33 64 46
-8.192105e-001 -5.459449e-001 -9.983566e+000 22 56 28
-8.710776e-001 -3.988376e-001 -1.016743e+001 31 66 44
-6.459703e-001 -5.104415e-001 -1.011129e+001 17 53 30
2.540668e-001 -4.837768e-001 -1.058144e+001 155 158 156
7.212777e-001 -5.150163e-001 -1.068630e+001 52 57 96
-1.846236e+000 -4.906436e-001 -9.778377e+000 193 152 146
-1.445847e+000 -4.122079e-001 -9.942623e+000 27 61 44
-7.197918e-001 -2.563129e-001 -1.043261e+001 24 57 28
-5.834554e-001 -2.420640e-001 -1.044714e+001 154 152 163
5.141010e+000 -1.639776e+000 -9.350776e+000 138 117 96
-5.663373e-001 -9.197818e-001 -8.353906e+000 101 113 91
3.472628e+000 -9.273689e-001 -1.012112e+001 168 132 82
1.455389e+000 -1.119078e+000 -9.542478e+000 164 108 81
1.556137e+000 -1.158045e+000 -9.819777e+000 166 93 84
2.168454e+000 -1.184837e+000 -1.016491e+001 157 129 107
3.985586e+000 -1.091364e+000 -1.080887e+001 65 21 19
4.387544e+000 -1.125900e+000 -1.103078e+001 166 132 100
3.476672e+000 -9.916110e-001 -1.096007e+001 34 12 18
2.533782e+000 -9.488541e-001 -1.076944e+001 137 63 45
2.533782e+000 -9.488541e-001 -1.076944e+001 137 63 45
4.599174e-001 -9.371175e-001 -1.010659e+001 155 155 165
-1.031660e+000 -6.495494e-001 -9.746812e+000 152 156 160
-1.030322e+000 -6.490923e-001 -9.746356e+000 152 156 160
-9.470107e-001 -7.551449e-001 -9.757330e+000 26 48 36
-9.547182e-001 -7.859976e-001 -9.745644e+000 26 48 36
-7.971051e-001 -7.026340e-001 -9.792397e+000 153 156 157
-4.333536e-001 -6.660939e-001 -1.004993e+001 29 58 31
3.198290e-001 -7.683440e-001 -1.032075e+001 155 149 166
-1.142911e+000 -5.686867e-001 -9.809938e+000 43 71 48
-1.144501e+000 -5.895758e-001 -9.795919e+000 43 71 48
-1.170236e+000 -4.610729e-001 -9.981039e+000 161 156 159
-9.502304e-001 -5.602361e-001 -9.970750e+000 156 155 161
-9.484894e-001 -5.325479e-001 -9.980396e+000 156 155 161
8.927474e-001 -3.365699e-001 -1.094930e+001 145 53 54
-1.906685e+000 -1.906001e-001 -1.001657e+001 179 134 135
-1.684619e+000 -2.735150e-001 -1.014133e+001 41 51 30
1.279247e+000 2.220104e-001 -8.339906e+000 27 68 86
3.264204e+000 -1.027021e+000 -1.054917e+001 167 133 106
-2.101119e+000 -8.441239e-001 -9.242329e+000 36 96 159
-2.473189e+000 -5.113389e-001 -9.649855e+000 187 173 162
1.342571e+000 -2.931028e-001 -8.603107e+000 179 114 76
1.741954e+000 -7.879207e-001 -9.178081e+000 174 114 78
-1.397479e+000 -1.062249e+000 -8.262133e+000 132 130 114
4.555830e+000 -1.057718e+000 -1.084541e+001 33 16 19
-4.062559e-001 -5.018802e-001 -1.032044e+001 148 150 162
-2.245716e+000 -5.724831e-001 -9.506661e+000 15 82 152
6.462168e-001 -6.846096e-002 -8.281900e+000 161 149 109
3.742908e+000 -3.642680e-001 -9.653772e+000 140 44 20
2.206193e+000 -8.933164e-001 -1.071523e+001 60 16 21
-1.855571e+000 -1.013510e+000 -9.011069e+000 133 141 162
4.616646e-001 -1.783265e-001 -1.086301e+001 143 29 37
4.152286e+000 8.525420e-001 -9.178745e+000 42 32 30
2.063023e+000 -1.092703e+000 -1.000236e+001 124 28 32
-1.620259e+000 -9.780044e-001 -9.225703e+000 10 75 141
-1.220683e+000 -7.777956e-001 -9.601789e+000 23 57 40
1.233421e+000 -1.152026e+000 -9.716740e+000 155 31 35
3.974056e+000 -8.164416e-001 -1.120387e+001 162 134 121
-1.222749e+000 -9.582873e-001 -9.162708e+000 112 135 166
7.290679e-001 -1.063311e+000 -1.013164e+001 144 22 33
-1.998997e+000 -7.767122e-001 -9.331399e+000 13 75 148
4.487116e+000 -2.452021e-002 -9.681419e+000 160 135 98
7.419516e-001 -9.630128e-001 -9.082012e+000 126 151 137
2.642000e+000 -9.257067e-001 -9.781536e+000 180 69 66
7.729589e-001 -1.087574e+000 -9.627440e+000 155 153 154
-5.006374e-001 -1.026523e+000 -9.621025e+000 22 53 36
1.222155e+000 -9.960645e-001 -1.010281e+001 13 75 148
-1.060604e+000 -1.068850e+000 -8.419151e+000 153 145 27
1.522735e+000 -1.092963e+000 -1.007601e+001 160 36 41
2.726115e-001 -8.105660e-001 -8.582047e+000 152 145 119
-5.716248e-001 -3.585073e-001 -7.800663e+000 26 45 13
2.671047e-002 -2.954560e-001 -8.003610e+000 39 41 11
4.473204e+000 1.891889e-002 -9.620896e+000 101 78 53
4.441349e+000 -7.451430e-002 -9.637103e+000 166 146 111
-5.194699e-001 -6.975663e-001 -8.074169e+000 31 50 30
2.990662e+000 -5.346378e-001 -9.445054e+000 173 69 60
1.898525e+000 -8.174286e-001 -9.318215e+000 101 47 23
1.898525e+000 -8.174286e-001 -9.318215e+000 101 47 23
2.377712e+000 -9.938303e-001 -9.744962e+000 180 97 81
6.451437e-001 -1.240966e+000 -9.250000e+000 16 69 108
4.615015e+000 -1.012564e+000 -1.100344e+001 135 31 40
3.338672e+000 -1.025114e+000 -1.084712e+001 169 130 98
4.373701e-001 -1.071575e+000 -9.862901e+000 160 155 154
3.795347e+000 -2.820343e-001 -1.189806e+001 121 28 25
5.539342e-001 -7.383653e-001 -1.034476e+001 178 148 137
5.539342e-001 -7.383653e-001 -1.034476e+001 178 148 137
6.030671e-001 -7.176105e-001 -1.037227e+001 175 135 127
6.015633e-001 -6.960855e-001 -1.040766e+001 149 29 46
5.308427e-001 -5.543566e-001 -1.055969e+001 153 25 38
9.292380e-001 -5.632361e-001 -1.067813e+001 107 135 158
5.107845e-001 -5.220125e-001 -1.058140e+001 189 147 137
5.847294e-001 -4.106788e-001 -1.073340e+001 161 71 71
5.847294e-001 -4.106788e-001 -1.073340e+001 161 71 71
-1.746838e+000 -4.656684e-001 -9.785077e+000 167 27 41
-1.831105e+000 -2.517777e-001 -1.002391e+001 173 33 50
-2.226857e-001 -2.376919e-001 -7.846038e+000 125 129 35
2.848767e+000 2.460382e-001 -8.863224e+000 146 28 31
3.628892e+000 -1.770875e-001 -9.365244e+000 168 127 59
3.211697e+000 -7.062371e-001 -9.699429e+000 106 58 32
3.785613e+000 -7.572335e-001 -1.003734e+001 157 125 84
-1.207622e+000 -1.047099e+000 -8.265062e+000 160 24 25
2.488951e+000 -7.853900e-001 -9.624035e+000 157 71 55
2.835156e+000 -8.840013e-001 -9.807650e+000 158 50 45
1.070741e+000 -1.028413e+000 -9.228339e+000 172 112 83
2.226304e+000 -1.020511e+000 -9.742978e+000 108 60 43
2.149759e+000 -1.063998e+000 -9.730408e+000 170 113 88
2.149759e+000 -1.063998e+000 -9.730408e+000 170 113 88
1.968330e+000 -1.068673e+000 -1.034488e+001 22 75 134
2.136244e+000 -9.514890e-001 -1.056747e+001 23 77 143
-6.247360e-001 -8.886902e-001 -9.676448e+000 22 45 28
9.572558e-001 -7.077145e-001 -1.052711e+001 125 147 168
9.391169e-001 -6.598467e-001 -1.056642e+001 16 75 142
9.354132e-001 -6.649084e-001 -1.056477e+001 16 75 142
-2.204239e+000 -7.359417e-001 -9.313074e+000 53 97 163
-1.580515e+000 -6.165978e-001 -9.593075e+000 159 37 50
-9.090645e-001 -4.425128e-001 -1.009341e+001 30 57 39
2.663436e+000 -1.659690e-001 -1.171312e+001 155 136 116
2.758962e+000 -5.283336e-002 -1.183410e+001 100 39 60
3.612018e+000 2.606074e-002 -1.215978e+001 172 152 135
-6.862755e-001 -3.935675e-001 -1.036218e+001 35 47 44
-1.875394e-001 -1.040728e-001 -1.074247e+001 139 98 102
-2.064935e+000 -1.498587e-001 -1.001196e+001 152 137 150
5.488092e+000 -1.525792e+000 -8.820100e+000 143 121 100
8.379357e-001 -2.108460e-001 -8.193257e+000 123 24 48
3.609915e+000 1.325384e-001 -9.144817e+000 84 13 14
4.088677e-001 -5.213645e-001 -8.290247e+000 131 79 58
1.159050e+000 -7.409954e-001 -8.811037e+000 110 66 48
1.493991e+000 -6.994762e-001 -8.943175e+000 139 88 67
2.185494e+000 -5.375042e-001 -9.149306e+000 172 112 75
2.257911e+000 -5.172240e-001 -9.157211e+000 90 41 18
3.151828e+000 -5.737369e-001 -9.544605e+000 80 28 15
7.626837e-001 -8.499108e-001 -8.781102e+000 8 44 59
4.366768e+000 -5.655095e-001 -1.018544e+001 157 142 111
4.366768e+000 -5.655095e-001 -1.018544e+001 157 142 111
-1.265650e+000 -9.789929e-001 -8.183903e+000 159 30 29
1.540457e+000 -8.668505e-001 -9.230596e+000 121 73 54
2.193403e+000 -1.002205e+000 -9.708925e+000 173 116 95
2.193403e+000 -1.002205e+000 -9.708925e+000 173 116 95
3.611758e+000 -9.659565e-001 -1.025605e+001 160 123 79
1.154063e+000 -1.132528e+000 -9.494561e+000 162 52 47
4.324007e+000 -1.099401e+000 -1.091089e+001 114 47 30
4.076994e+000 -8.055507e-001 -1.147743e+001 24 12 19
-1.471980e+000 -8.408900e-001 -9.398715e+000 22 59 24
-8.705916e-001 -4.917691e-001 -1.003950e+001 162 164 43
-8.770192e-001 -5.378465e-001 -1.002608e+001 162 164 43
3.018741e+000 -6.944654e-002 -1.192753e+001 125 30 38
3.745302e+000 2.587058e-001 -1.238657e+001 154 108 95
-9.290189e-001 -3.337595e-001 -1.027183e+001 29 52 44
-9.011442e-001 -2.700972e-001 -1.034659e+001 166 160 109
-1.809133e+000 -2.401293e-001 -1.004713e+001 168 39 47
-2.721165e-001 -2.943224e-001 -7.874749e+000 40 56 19
3.651604e-001 -6.755407e-001 -8.365217e+000 136 96 71
1.430921e+000 -6.016749e-001 -8.834557e+000 87 35 14
1.768553e+000 -6.000769e-001 -9.025587e+000 103 54 37
1.811706e+000 -8.779045e-001 -9.316518e+000 172 115 85
1.809156e+000 -8.824077e-001 -9.317728e+000 172 115 85
3.049944e+000 -8.155319e-001 -9.777515e+000 78 34 19
1.062445e+000 -9.929031e-001 -9.177885e+000 73 24 7
1.613774e+000 -1.048839e+000 -9.303598e+000 173 113 77
2.119409e+000 -9.499170e-001 -9.604174e+000 175 116 87
1.940952e+000 -1.083548e+000 -9.799225e+000 127 27 27
2.371200e+000 -9.736877e-001 -1.067385e+001 123 38 31
2.262724e+000 -8.290136e-001 -1.084790e+001 111 20 25
-7.388431e-001 -7.431902e-001 -9.813395e+000 148 161 86
-7.388431e-001 -7.431902e-001 -9.813395e+000 148 161 86
-3.940997e-001 -8.247256e-001 -9.953701e+000 156 157 127
9.123770e-001 -6.293228e-001 -1.060573e+001 137 154 188
9.149189e-001 -4.237977e-001 -1.084260e+001 24 72 145
5.569768e+000 -5.181474e-001 -8.396589e+000 152 127 107
5.492308e+000 -5.496022e-001 -8.467050e+000 35 23 22
5.483287e+000 -7.507770e-001 -8.605551e+000 147 121 102
5.051735e+000 -1.827226e+000 -9.556070e+000 157 134 116
5.297158e+000 -1.546217e+000 -9.715259e+000 40 26 26
5.008039e+000 -1.923618e+000 -9.634324e+000 130 107 91
4.967422e+000 -1.917165e+000 -9.708384e+000 47 33 33
1.985740e+000 -1.052560e+000 -9.833272e+000 111 17 16
1.321247e+000 -9.390189e-001 -1.037209e+001 93 22 25
-1.037471e+000 -9.839194e-001 -9.435131e+000 24 49 32
3.116402e-001 -9.002158e-001 -1.000494e+001 155 158 167
1.025936e+000 -9.018641e-001 -1.032814e+001 58 87 125
1.160044e+000 -8.663068e-001 -1.038618e+001 59 24 40
5.439952e-001 -5.839567e-001 -1.050065e+001 161 121 118
5.439952e-001 -5.839567e-001 -1.050065e+001 161 121 118
-1.377996e+000 -5.258201e-001 -9.796198e+000 159 156 151
-1.010942e+000 -3.240017e-001 -1.019272e+001 159 155 151
-1.010942e+000 -3.240017e-001 -1.019272e+001 159 155 151
-1.606305e-001 -5.525524e-001 -8.086110e+000 121 122 79
-5.752670e-001 -8.558359e-001 -8.259872e+000 23 47 24
2.689915e+000 -8.486932e-001 -9.662686e+000 150 27 32
2.272794e+000 -1.166712e+000 -9.959722e+000 159 125 93
-1.416224e+000 -9.380134e-001 -9.316809e+000 94 124 155
-7.716328e-001 -9.033952e-001 -9.607315e+000 153 154 152
-7.724595e-001 -8.950966e-001 -9.611228e+000 153 154 152
-9.531816e-001 -7.474530e-001 -9.756757e+000 26 47 37
3.660632e+000 3.402313e-001 -1.243376e+001 32 24 23
-1.178690e+000 -1.684685e-001 -1.032250e+001 30 62 37
2.626382e+000 2.549476e-001 -8.775468e+000 183 127 82
4.546009e+000 -1.109128e-001 -9.769570e+000 65 25 4
-1.148531e+000 -8.424498e-001 -8.027591e+000 134 34 26
8.872775e-001 -3.468426e-001 -1.094470e+001 145 53 54
-1.094135e+000 -2.986443e-001 -1.023930e+001 157 157 164
-1.094135e+000 -2.986443e-001 -1.023930e+001 157 157 164
3.632560e-001 -5.929384e-002 -1.091664e+001 139 27 31
4.284093e+000 -1.074287e+000 -1.077433e+001 173 150 126
7.031320e-001 -1.105830e+000 -9.948187e+000 142 21 26
3.119332e+000 -1.431247e-002 -9.213424e+000 175 64 57
-2.773642e-001 -8.008354e-001 -1.002820e+001 156 156 166
5.196509e+000 -1.600182e+000 -9.261396e+000 130 105 91
2.379975e+000 -1.064807e+000 -1.013337e+001 157 127 101
-1.513780e-001 -1.096187e+000 -9.748680e+000 151 151 161
1.209847e+000 -7.810867e-001 -9.037124e+000 172 107 75
-1.865268e+000 -5.334148e-002 -9.994842e+000 124 60 56
-1.290212e+000 -1.325620e+000 -8.688819e+000 143 143 143
5.019855e+000 -8.010291e-001 -9.683889e+000 47 37 38
5.019855e+000 -8.010291e-001 -9.683889e+000 47 37 38
3.012138e+000 -1.052683e+000 -1.077222e+001 132 77 36
2.779810e+000 -9.572231e-001 -1.084067e+001 173 139 114
2.146730e+000 -8.458279e-001 -1.078086e+001 168 76 67
-4.417990e-001 -7.762692e-001 -9.910365e+000 27 48 35
5.992750e-001 -7.439586e-001 -1.036151e+001 169 123 108
-1.749087e+000 -7.134301e-001 -9.454387e+000 178 155 131
-1.824871e-001 -3.299019e-001 -1.056043e+001 153 154 155
-2.434853e+000 -2.346735e-002 -9.914792e+000 23 83 148
-6.727650e-002 -4.166289e-001 -8.074659e+000 150 141 35
-1.081002e-001 -5.734939e-001 -8.149759e+000 31 45 12
3.521339e+000 -7.767780e-001 -9.961452e+000 140 104 73
5.983580e-001 -1.096439e+000 -9.125208e+000 26 73 93
7.473480e-001 -7.610393e-001 -1.039813e+001 189 106 100
-1.674933e+000 -6.454408e-001 -9.608493e+000 170 33 49
-2.946058e-001 -4.277334e-001 -1.045273e+001 169 40 34
-2.826864e-001 -3.807436e-001 -1.046971e+001 169 40 34
-4.337134e-001 -7.768366e-001 -8.232573e+000 27 50 10
3.298501e+000 -4.851721e-001 -9.499430e+000 132 75 47
-6.900440e-001 -9.208831e-001 -8.317824e+000 159 142 23
3.979469e+000 -8.063556e-001 -1.024548e+001 162 149 107
2.621169e+000 -1.054446e+000 -9.872902e+000 150 20 32
2.621169e+000 -1.054446e+000 -9.872902e+000 150 20 32
-1.871727e+000 -1.306899e+000 -8.416147e+000 154 141 128
2.849761e+000 -1.004829e+000 -1.078927e+001 166 116 66
-2.046615e+000 -8.934253e-001 -9.150866e+000 114 133 158
1.430187e+000 -6.021030e-001 -8.834110e+000 74 19 10
1.617346e+000 -6.791600e-001 -8.964626e+000 85 37 28
1.764190e+000 -6.083422e-001 -9.024006e+000 62 12 2
1.824009e+000 -6.953543e-001 -9.058053e+000 75 30 13
4.536293e+000 -3.894746e-001 -1.003954e+001 104 88 65
-1.265805e+000 -9.824482e-001 -8.183656e+000 159 29 16
6.458953e-001 -1.138765e+000 -9.299104e+000 153 137 131
2.002162e+000 -9.468069e-001 -1.057846e+001 45 96 156
-7.797761e-001 -6.710700e-001 -9.885721e+000 28 53 28
5.121450e+000 -1.706440e+000 -9.485392e+000 170 142 115
4.330443e+000 -8.907520e-001 -1.053804e+001 118 99 86
9.890707e-001 -8.318820e-001 -1.040586e+001 89 122 162
-8.375840e-001 -3.094850e-001 -1.032188e+001 157 156 154
-9.760394e-001 -2.447836e-001 -1.032977e+001 27 58 40
5.247043e+000 -1.432744e+000 -9.235464e+000 164 134 109
3.444189e+000 -4.499120e-001 -9.645357e+000 181 98 60
4.689079e+000 -2.557492e-001 -1.000596e+001 161 133 92
3.695311e+000 -6.380347e-001 -9.847080e+000 148 105 64
4.581098e+000 -6.711378e-001 -1.050164e+001 153 124 95
4.546541e+000 -1.076673e+000 -1.082175e+001 34 18 28
1.587277e+000 -1.099551e+000 -9.973489e+000 170 88 76
2.564558e+000 -8.953118e-001 -9.654153e+000 161 60 56
3.446394e+000 -8.440577e-001 -9.999937e+000 159 126 88
2.380619e+000 -9.887974e-001 -9.744351e+000 180 97 81
2.701029e+000 -1.064502e+000 -9.974834e+000 134 19 23
4.268961e+000 -1.094844e+000 -1.084036e+001 177 161 135
-1.485698e+000 -8.475997e-001 -9.393991e+000 22 56 23
-8.453874e-001 -4.619113e-001 -1.010189e+001 28 48 38
5.121782e+000 -1.745455e+000 -9.278288e+000 154 129 109
3.959345e+000 -2.386616e-001 -9.544722e+000 168 103 35
3.959345e+000 -2.386616e-001 -9.544722e+000 168 103 35
2.907136e+000 -4.863201e-001 -9.303807e+000 183 73 60
2.887946e+000 -7.621809e-001 -9.623905e+000 168 71 59
3.968973e+000 -7.131724e-001 -1.009247e+001 177 148 108
-3.389325e-001 -9.362343e-001 -8.497925e+000 133 135 23
6.895945e-001 -9.077519e-001 -8.920216e+000 26 65 83
-1.122357e+000 -7.799802e-001 -7.948085e+000 163 32 30
7.965390e-001 -7.778106e-001 -8.732041e+000 10 51 66
2.016753e+000 -9.056432e-001 -9.450328e+000 168 112 79
-2.336782e+000 -3.652666e-001 -8.057533e+000 169 146 114
5.242723e+000 -1.562955e+000 -9.001827e+000 145 120 98
5.242723e+000 -1.562955e+000 -9.001827e+000 145 120 98
5.020515e+000 -1.763875e+000 -9.524734e+000 48 34 33
-6.781275e-002 -7.676906e-001 -1.005562e+001 158 37 34
-6.086203e-001 -1.118234e+000 -9.453446e+000 31 64 44
2.354307e+000 -1.060129e+000 -1.003938e+001 160 130 102
2.148671e+000 -1.068646e+000 -1.040897e+001 79 118 173
-1.266890e+000 1.023207e+000 -7.253855e+000 32 80 120
4.316056e-001 -6.022932e-001 -8.373988e+000 150 142 105
-1.595376e+000 -6.812651e-001 -7.742970e+000 22 82 107
-1.033684e+000 -6.982215e-001 -7.880284e+000 156 38 24
-9.918227e-001 -7.129148e-001 -7.911334e+000 158 35 15
3.836415e+000 -6.348099e-001 -9.910507e+000 155 122 79
-1.047900e+000 -8.441792e-001 -8.071860e+000 158 31 25
2.483700e+000 -8.660425e-001 -9.582105e+000 144 29 26
2.502623e+000 -8.893916e-001 -9.611045e+000 170 59 55
3.468442e+000 -7.652309e-001 -9.857181e+000 158 123 84
2.469958e+000 -9.568693e-001 -9.711854e+000 164 54 55
1.787913e+000 -1.040757e+000 -9.571264e+000 104 51 35
1.479147e+000 -1.121008e+000 -9.671297e+000 148 50 43
3.601359e+000 -1.084545e+000 -1.052526e+001 151 110 58
2.107061e+000 -1.065643e+000 -1.040452e+001 27 78 138
2.043641e+000 -9.660972e-001 -1.057584e+001 12 78 142
1.958744e+000 -7.616457e-001 -1.080897e+001 163 126 112
2.165854e+000 -1.214222e-001 -1.151320e+001 149 135 116
3.199045e+000 -5.420012e-001 -9.457030e+000 181 124 83
3.248174e+000 -5.935390e-001 -9.558863e+000 122 62 34
1.893160e+000 -8.166243e-001 -9.264911e+000 107 53 29
3.083270e+000 -8.825242e-001 -9.871899e+000 175 116 85
-1.289980e+000 -1.031068e+000 -8.226950e+000 165 41 40
1.492735e+000 -9.670017e-001 -9.304355e+000 95 43 22
2.032730e+000 -9.963513e-001 -9.572953e+000 106 53 32
2.032730e+000 -9.963513e-001 -9.572953e+000 106 53 32
2.407812e+000 -9.247636e-001 -9.629117e+000 171 81 61
1.337503e+000 -1.043765e+000 -9.380768e+000 104 59 44
1.337503e+000 -1.043765e+000 -9.380768e+000 104 59 44
2.321570e+000 -1.079399e+000 -9.838306e+000 180 91 83
1.518310e+000 -1.140225e+000 -9.790428e+000 163 84 69
3.114127e+000 -1.006963e+000 -1.081204e+001 112 62 25
1.996726e+000 -9.561075e-001 -1.055368e+001 70 119 176
-1.564784e+000 -7.281563e-001 -9.529912e+000 159 26 29
-1.118200e+000 -7.528911e-001 -9.632694e+000 21 52 30
2.032317e-001 -4.105687e-001 -1.056201e+001 153 159 162
3.225664e+000 3.027778e-001 -1.216481e+001 154 99 54
-4.288734e-001 -4.000356e-001 -7.875674e+000 84 96 60
4.506720e+000 -2.783856e-001 -9.843100e+000 122 66 11
4.295112e+000 -7.454977e-001 -1.026328e+001 110 88 65
1.231977e+000 -1.032900e+000 -9.289962e+000 115 69 53
1.309474e+000 -9.868640e-001 -9.300264e+000 171 116 85
2.233764e+000 -9.251881e-001 -9.577606e+000 169 114 75
2.131341e+000 -1.008101e+000 -9.647250e+000 115 61 44
-1.469929e+000 -8.339588e-001 -9.398926e+000 24 53 35
1.960167e-001 -3.915016e-001 -1.061588e+001 154 38 49
-1.433568e+000 -2.789212e-001 -1.009890e+001 156 156 70
-1.433568e+000 -2.789212e-001 -1.009890e+001 156 156 70
-2.318399e-002 -1.414369e-001 -1.075601e+001 140 93 101
5.111046e+000 -2.051375e+000 -9.219987e+000 125 100 80
1.557229e+000 -6.862182e-001 -8.919124e+000 176 116 74
1.634169e+000 -1.014207e+000 -9.414204e+000 169 110 74
1.810641e+000 -8.989006e-001 -9.398435e+000 169 113 80
1.805777e+000 -9.035988e-001 -9.396472e+000 169 113 80
1.985699e+000 -9.706737e-001 -9.501097e+000 172 111 80
3.389674e+000 -9.290766e-001 -1.009392e+001 170 128 86
3.330433e+000 -1.110020e+000 -1.063271e+001 129 54 34
-8.436519e-001 -9.897062e-001 -9.494001e+000 22 60 35
-6.239034e-001 -8.380485e-001 -9.748987e+000 156 158 115
-5.034013e-003 -8.147467e-001 -1.004754e+001 154 152 160
9.886535e-001 -6.128602e-001 -1.066085e+001 23 76 151
-5.359088e-001 -3.616987e-001 -1.034197e+001 22 52 30
-5.359088e-001 -3.616987e-001 -1.034197e+001 22 52 30
1.105452e-001 -3.938622e-001 -1.056126e+001 158 155 164
-4.982069e-001 -6.586290e-001 -8.042114e+000 28 48 22
3.711045e-001 -8.815609e-001 -1.014434e+001 157 35 32
-1.226796e+000 -6.491463e-001 -9.690284e+000 158 156 132
-6.193124e-001 -7.164004e-001 -8.123273e+000 67 95 42
-4.607336e-001 -7.561340e-001 -8.199446e+000 114 119 55
-4.607336e-001 -7.561340e-001 -8.199446e+000 114 119 55
-2.592973e-001 -7.438211e-001 -8.229419e+000 31 52 26
-9.741897e-002 -6.962762e-001 -8.248441e+000 29 48 29
4.432118e+000 -1.093893e+000 -1.105357e+001 172 142 121
1.171750e+000 -6.388152e-002 -8.309096e+000 31 67 86
-4.817975e-001 -7.460681e-001 -8.118032e+000 61 96 85
-1.080133e+000 -4.881189e-001 -1.001650e+001 31 60 41
4.462467e+000 -6.433428e-001 -1.022487e+001 129 101 77
1.909510e+000 2.654277e-001 -1.171804e+001 29 24 21
-7.928159e-001 -5.791805e-001 -7.839111e+000 31 66 71
-5.181720e-001 -5.396486e-001 -7.950230e+000 23 39 18
-1.173669e+000 -7.603706e-001 -7.870451e+000 162 11 17
2.216144e-001 -6.628999e-001 -8.383681e+000 155 126 104
3.226418e+000 -1.130725e+000 -1.073016e+001 163 123 82
-1.114385e+000 -5.786535e-001 -7.751212e+000 172 28 42
3.279805e-001 -8.368531e-001 -1.015674e+001 153 155 166
-8.432152e-001 -8.912931e-001 -9.573463e+000 148 154 162
-1.763524e+000 5.892567e+001 -4.174738e+000 32 27 23
5.294788e-001 -8.875163e-001 -1.021348e+001 142 22 24
-9.732251e-001 6.136676e+001 -4.331858e+000 207 172 116
-9.732251e-001 6.136676e+001 -4.331858e+000 207 172 116
-6.922663e-001 -5.200426e-001 -7.766249e+000 38 66 61
-6.922663e-001 -5.200426e-001 -7.766249e+000 38 66 61
-1.114067e+000 -7.118795e-001 -7.808435e+000 174 29 32
-5.265154e-001 -5.732818e-001 -7.940341e+000 25 42 20
-1.122904e+000 -8.212900e-001 -7.899143e+000 179 143 93
-1.122904e+000 -8.212900e-001 -7.899143e+000 179 143 93
-2.925086e-001 -9.801740e-001 -8.609203e+000 153 148 35
-1.840338e+000 -5.075143e-001 -9.672299e+000 187 166 143
-8.319484e-001 -6.009962e-001 -7.759952e+000 30 48 20
-8.319484e-001 -6.009962e-001 -7.759952e+000 30 48 20
2.326120e+000 -8.507875e-001 -1.065923e+001 151 25 16
-1.804767e+000 -4.820284e-001 -9.690595e+000 180 30 42
-1.775390e+000 -3.735301e-001 -9.865852e+000 171 23 36
-8.513844e-001 -8.651395e-001 -9.526280e+000 22 56 39
-4.454748e-002 -9.000804e-001 -9.999349e+000 161 160 166
-5.574066e-001 -5.805614e-001 -1.025854e+001 35 58 15
-5.574066e-001 -5.805614e-001 -1.025854e+001 35 58 15
3.581933e-001 -9.979325e-001 -9.881424e+000 158 158 164
-1.017059e+000 -8.249684e-001 -9.489885e+000 35 57 38
-9.704903e-002 -8.875225e-001 -9.998385e+000 162 32 43
-7.126728e-001 -6.549499e-001 -7.933528e+000 41 74 53
3.781999e-001 -8.622783e-001 -1.014896e+001 163 34 43
2.276203e-001 -7.454281e-001 -1.033998e+001 179 88 82
-8.382433e-001 -8.395458e-001 -9.734732e+000 161 151 157
-3.460879e-001 -3.457827e-001 -7.829501e+000 119 128 34
-1.060337e+000 -8.307215e-001 -7.987041e+000 190 155 108
-1.151166e+000 -1.017268e+000 -8.260752e+000 185 101 79
-3.895538e-001 -9.413768e-001 -8.484846e+000 137 136 57
2.126577e+000 -9.979060e-001 -1.051153e+001 91 123 178
2.603364e+000 -9.517239e-001 -1.080819e+001 93 23 16
2.111382e+000 -8.270716e-001 -9.373079e+000 118 60 34
-1.251155e+000 -1.009310e+000 -8.215408e+000 175 148 99
1.925134e+000 -9.945773e-001 -9.536893e+000 107 57 34
1.030331e+000 -1.043121e+000 -9.255840e+000 81 34 14
3.242836e+000 -1.048808e+000 -1.064712e+001 128 67 33
9.163203e-001 -1.143167e+000 -9.794936e+000 149 156 156
1.452571e+000 -1.097322e+000 -1.001406e+001 146 35 42
2.179368e+000 -9.917748e-001 -1.060717e+001 62 9 18
3.665581e-001 -9.308618e-001 -9.988693e+000 146 98 107
1.735085e+000 -1.091694e+000 -9.811942e+000 149 18 31
-2.454660e+000 -8.035591e-001 -8.314247e+000 180 161 160
3.243505e+000 -1.117381e+000 -1.059020e+001 131 69 24
1.946778e+000 -1.061311e+000 -1.040077e+001 75 107 146
-1.246939e+000 -5.158320e-001 -9.905411e+000 28 57 43
1.596171e+000 -1.091180e+000 -9.608971e+000 171 109 83
3.545834e-001 -1.030701e+000 -9.870899e+000 157 155 168
-3.909233e-001 -7.801231e-001 -9.922224e+000 20 54 29
1.636837e+000 -1.186575e+000 -1.005926e+001 148 23 31
-7.442877e-001 -4.339921e-001 -1.016977e+001 163 162 135
-7.519171e-001 -4.407128e-001 -1.017169e+001 163 162 135
-1.464972e+000 -6.290797e-001 -9.611149e+000 49 98 156
-1.054693e+000 -7.586911e-001 -7.934205e+000 175 34 41
-9.584390e-001 -6.086511e-001 -7.853013e+000 169 31 29
-1.124490e+000 -7.486977e-001 -7.938870e+000 172 16 23
-1.124490e+000 -7.486977e-001 -7.938870e+000 172 16 23
-1.064839e+000 -7.627084e-001 -8.018562e+000 176 41 37
-1.072215e+000 -9.188458e-001 -8.120125e+000 170 29 18
2.501853e+000 -7.059325e-001 -9.362732e+000 189 68 63
2.470732e+000 -7.697892e-001 -9.430251e+000 191 74 64
2.480589e+000 -7.801275e-001 -9.479881e+000 195 81 70
2.479211e+000 -8.329232e-001 -9.555592e+000 153 27 26
2.539739e+000 -9.354898e-001 -9.652120e+000 192 72 72
2.779470e+000 -8.415840e-001 -9.694283e+000 197 80 69
3.775397e+000 -7.703580e-001 -1.003692e+001 172 139 95
1.498182e+000 -9.584795e-001 -9.304102e+000 104 48 23
2.493821e+000 -8.616411e-001 -9.650133e+000 156 26 26
2.436274e+000 -1.015927e+000 -9.752774e+000 188 74 70
2.436274e+000 -1.015927e+000 -9.752774e+000 188 74 70
2.616195e+000 -9.723038e-001 -9.793236e+000 201 82 84
2.616195e+000 -9.723038e-001 -9.793236e+000 201 82 84
2.744701e+000 -9.936175e-001 -9.899502e+000 156 28 31
2.559239e+000 -1.019330e+000 -9.887284e+000 148 27 28
1.477055e+000 -1.209661e+000 -9.843612e+000 180 94 79
1.063264e+000 -1.081365e+000 -1.001731e+001 8 97 173
2.037787e+000 -1.063001e+000 -1.036825e+001 14 82 145
2.009397e+000 -1.062476e+000 -1.040942e+001 11 73 128
2.010558e+000 -1.060857e+000 -1.040880e+001 11 73 128
2.108312e+000 -1.063946e+000 -1.040429e+001 22 83 145
2.091635e+000 -1.025614e+000 -1.047111e+001 20 79 139
3.055299e+000 -1.002846e+000 -1.085902e+001 134 81 40
5.833376e-001 -1.053785e+000 -9.985566e+000 172 166 171
1.085691e+000 -9.583105e-001 -1.024492e+001 22 86 153
1.073979e+000 -9.657563e-001 -1.024030e+001 22 86 153
1.955760e+000 -1.013031e+000 -1.050899e+001 16 82 142
2.646243e+000 -9.585506e-001 -1.077477e+001 166 98 79
2.646439e+000 -9.609196e-001 -1.077520e+001 166 98 79
1.024230e+000 -9.580500e-001 -1.024662e+001 145 158 183
1.067153e+000 -9.314790e-001 -1.029408e+001 15 79 153
1.022463e+000 -8.491091e-001 -1.037789e+001 26 81 146
1.016944e+000 -8.614601e-001 -1.037700e+001 26 81 146
1.294799e+000 -8.097746e-001 -1.051870e+001 154 39 50
-2.698474e+000 -4.111117e-001 -8.826208e+000 189 177 183
-1.767469e+000 -7.803244e-001 -9.358697e+000 183 164 158
-1.068574e+000 -7.867466e-001 -9.628857e+000 90 115 127
5.476805e-001 -7.379905e-001 -1.035415e+001 184 164 141
5.525794e-001 -7.280737e-001 -1.035543e+001 184 164 141
1.340831e+000 -7.546979e-001 -1.055787e+001 171 135 109
-1.830585e+000 -6.196009e-001 -9.497597e+000 195 155 153
-1.830585e+000 -6.196009e-001 -9.497597e+000 195 155 153
-1.743680e+000 -6.735257e-001 -9.472464e+000 172 160 142
-1.742023e+000 -6.653295e-001 -9.472574e+000 172 160 142
-1.638094e+000 -6.123458e-001 -9.575364e+000 171 29 35
-1.123779e+000 -6.437898e-001 -9.783961e+000 37 56 43
6.636990e-001 -5.585914e-001 -1.059630e+001 153 22 31
6.636990e-001 -5.585914e-001 -1.059630e+001 153 22 31
-1.831490e+000 -5.018988e-001 -9.666605e+000 195 176 155
-1.832336e+000 -5.035893e-001 -9.667287e+000 195 176 155
-1.698514e+000 -5.811495e-001 -9.629008e+000 188 154 140
-1.725887e+000 -5.676869e-001 -9.634275e+000 174 26 41
-1.725887e+000 -5.676869e-001 -9.634275e+000 174 26 41
-1.703003e+000 -5.289946e-001 -9.682053e+000 178 27 36
-9.283880e-001 -4.049744e-001 -1.013597e+001 148 160 51
-9.283880e-001 -4.049744e-001 -1.013597e+001 148 160 51
5.111229e-001 -5.026113e-001 -1.059822e+001 178 157 138
-1.898440e+000 -3.550580e-001 -9.832815e+000 192 168 152
-1.832802e+000 -3.833435e-001 -9.821873e+000 197 168 156
-1.814179e+000 -4.058819e-001 -9.801903e+000 177 36 45
-1.814269e+000 -4.063697e-001 -9.802235e+000 177 36 45
-1.868988e+000 -3.752540e-001 -9.820315e+000 163 35 38
-2.009262e-001 -3.394993e-001 -1.056234e+001 153 163 164
1.139117e-001 -2.824635e-001 -1.068906e+001 168 160 155
1.139117e-001 -2.824635e-001 -1.068906e+001 168 160 155
2.167228e+000 -1.861938e-001 -1.158277e+001 146 43 47
2.167228e+000 -1.861938e-001 -1.158277e+001 146 43 47
2.343794e+000 -1.408254e-001 -1.164645e+001 162 129 109
2.273167e+000 -1.054748e-001 -1.168461e+001 163 134 117
3.368114e+000 2.308145e-001 -1.225128e+001 168 125 112
3.486707e+000 7.461013e-002 -1.217853e+001 160 148 145
3.617556e+000 3.522890e-003 -1.220257e+001 134 37 38
3.638797e+000 3.506590e-002 -1.221117e+001 134 37 38
-1.924672e+000 -3.040345e-001 -9.894253e+000 183 173 158
-1.921534e+000 -2.793362e-001 -9.936192e+000 183 35 41
-1.972745e+000 -1.668365e-001 -1.002369e+001 185 175 156
-1.973906e+000 -1.673344e-001 -1.002386e+001 185 175 156
-1.612608e+000 -1.344851e-001 -1.020470e+001 143 161 46
-1.606865e+000 -1.001488e-001 -1.020722e+001 143 161 46
-1.467911e+000 -1.301690e-001 -1.023068e+001 79 119 154
-2.062453e+000 -9.438421e-002 -1.003393e+001 172 161 165
5.826651e+000 3.469955e+000 -7.078191e+000 58 44 26
5.138416e+000 -1.610011e+000 -9.378652e+000 137 117 101
4.952885e+000 -2.011326e+000 -9.788727e+000 44 25 24
1.059553e+000 -1.717259e-001 -8.315408e+000 26 58 72
-1.112905e+000 -5.612443e-001 -7.792239e+000 172 29 26
-7.849666e-002 -5.887805e-001 -8.170488e+000 44 61 29
2.594820e+000 -2.764812e-001 -9.014406e+000 162 32 29
3.251013e+000 -2.130076e-001 -9.231545e+000 111 69 28
3.251013e+000 -2.130076e-001 -9.231545e+000 111 69 28
-1.175177e+000 -7.554902e-001 -7.905579e+000 167 38 34
-1.175177e+000 -7.554902e-001 -7.905579e+000 167 38 34
-1.205341e+000 -8.128774e-001 -8.014795e+000 189 40 41
-1.205341e+000 -8.128774e-001 -8.014795e+000 189 40 41
-1.112006e+000 -7.441562e-001 -7.944010e+000 187 30 40
1.167279e+000 -7.279958e-001 -8.814370e+000 122 76 46
1.837614e+000 -6.734309e-001 -9.057708e+000 108 51 21
2.286203e+000 -6.694202e-001 -9.243133e+000 114 53 25
2.340767e+000 -6.460267e-001 -9.214585e+000 189 131 90
3.346418e+000 -5.320708e-001 -9.548844e+000 192 122 73
-2.832168e+000 -2.362300e+000 -7.956723e+000 193 37 33
-1.301138e+000 -9.035619e-001 -8.134924e+000 35 84 120
-2.131478e-001 -9.031724e-001 -8.535803e+000 145 147 42
2.314775e+000 -8.895778e-001 -9.512697e+000 183 121 81
2.438897e+000 -8.702534e-001 -9.596413e+000 176 70 57
2.832824e+000 -7.125533e-001 -9.542195e+000 185 82 65
1.255037e+000 -9.977375e-001 -9.284915e+000 110 58 33
1.222238e+000 -1.056733e+000 -9.342985e+000 80 27 11
1.755245e+000 -8.950042e-001 -9.360230e+000 103 43 17
1.755245e+000 -8.950042e-001 -9.360230e+000 103 43 17
2.569438e+000 -9.975999e-001 -9.817473e+000 159 28 33
3.605722e+000 -9.913538e-001 -1.026319e+001 175 139 91
5.315618e-001 -1.145049e+000 -9.215189e+000 14 54 84
1.549885e+000 -1.121802e+000 -9.685808e+000 160 21 19
2.505216e+000 -1.036673e+000 -9.872105e+000 183 74 64
2.505216e+000 -1.036673e+000 -9.872105e+000 183 74 64
4.306629e+000 -1.111606e+000 -1.082608e+001 53 26 10
2.111412e+000 -1.209761e+000 -1.016424e+001 189 148 111
3.144389e+000 -9.924902e-001 -1.086095e+001 172 117 84
4.359409e-001 -1.058457e+000 -9.868934e+000 165 169 162
1.258062e+000 -9.052215e-001 -1.037406e+001 89 14 10
2.145359e+000 -8.448833e-001 -1.078046e+001 168 78 64
5.968308e-001 -6.819511e-001 -1.040880e+001 160 24 31
-2.207883e+000 -6.472145e-001 -9.368932e+000 173 170 170
-1.800608e+000 -6.165351e-001 -9.509355e+000 172 30 45
-1.689810e+000 -6.408351e-001 -9.529953e+000 174 37 33
6.050635e-001 -5.561270e-001 -1.057507e+001 147 20 29
-1.754071e+000 -4.132827e-001 -9.825896e+000 177 37 41
1.012961e+000 -2.382211e-001 -1.106078e+001 156 73 43
2.285193e+000 -7.617450e-002 -1.164273e+001 143 51 52
2.286852e+000 -7.589739e-002 -1.164446e+001 143 51 52
2.465130e+000 -1.087621e-001 -1.168799e+001 52 38 90
2.995467e+000 5.944859e-002 -1.197498e+001 165 124 99
3.602259e+000 4.009743e-002 -1.217356e+001 166 150 150
3.513982e+000 1.384810e-002 -1.216453e+001 164 156 153
-1.946468e+000 -2.409972e-001 -9.961270e+000 199 170 170
-1.955082e+000 -2.633695e-001 -9.958250e+000 199 170 170
-9.972533e-002 -1.387096e-001 -1.074540e+001 155 159 165
-9.334294e-002 -1.265503e-001 -1.074547e+001 155 159 165
-2.018281e+000 -1.227362e-001 -1.002523e+001 169 30 47
5.077490e+000 -1.716787e+000 -9.522364e+000 52 37 37
5.084756e+000 -1.923167e+000 -9.455381e+000 158 133 111
4.962817e+000 -2.014955e+000 -9.747570e+000 140 118 104
8.227685e-001 -1.662504e-001 -8.228651e+000 185 116 69
3.940524e-001 -6.020093e-001 -8.371514e+000 145 97 74
7.791855e-001 -3.464956e-001 -8.334222e+000 181 115 72
1.192375e+000 -6.652536e-001 -8.761557e+000 117 70 53
1.192375e+000 -6.652536e-001 -8.761557e+000 117 70 53
1.411516e+000 -6.457014e-001 -8.824022e+000 96 48 27
1.741966e+000 -6.585258e-001 -9.007153e+000 107 56 32
2.024208e+000 -6.389701e-001 -9.093558e+000 182 120 83
2.257328e+000 -6.300853e-001 -9.188422e+000 186 124 83
3.120047e+000 -5.615763e-001 -9.443452e+000 157 107 72
3.493147e+000 -5.832968e-001 -9.684306e+000 166 45 28
4.119697e+000 -3.450974e-001 -9.725242e+000 193 161 92
7.295406e-001 -9.203543e-001 -8.928542e+000 2 44 67
1.496922e+000 -8.635319e-001 -9.242083e+000 191 126 85
1.791535e+000 -9.071166e-001 -9.322025e+000 189 125 87
2.060140e+000 -8.400727e-001 -9.392585e+000 189 129 90
3.129893e+000 -7.737873e-001 -9.731199e+000 188 129 91
5.708208e-001 -1.063451e+000 -9.025647e+000 139 26 36
4.432092e+000 -8.738922e-001 -1.053356e+001 153 130 103
1.927678e+000 -1.102453e+000 -9.786962e+000 153 23 35
4.312189e+000 -9.290538e-001 -1.053151e+001 81 63 42
1.631036e+000 -1.132715e+000 -9.935188e+000 179 87 74
2.738224e+000 -9.644159e-001 -1.084616e+001 172 145 121
-1.135852e+000 -8.135833e-001 -9.628506e+000 24 57 45
-9.705996e-001 -7.368731e-001 -9.699503e+000 18 62 31
-6.203535e-001 -7.152735e-001 -9.915786e+000 28 59 41
-2.242601e+000 -6.132521e-001 -9.393247e+000 50 104 170
-1.823960e+000 -6.068422e-001 -9.564108e+000 176 37 45
-1.818336e+000 -5.952967e-001 -9.562832e+000 176 37 45
-1.962719e+000 -2.718552e-001 -9.910532e+000 167 36 39
-1.997933e+000 -2.292350e-001 -9.975354e+000 171 29 41
-1.033014e+000 -1.728056e-001 -1.038323e+001 24 63 41
-2.028232e-002 -1.592715e-001 -1.074487e+001 140 86 90
-2.441231e+000 1.200618e-001 -9.892064e+000 16 78 162
1.492918e+000 1.404694e-001 -8.289983e+000 183 157 106
-7.600534e-001 -5.916056e-001 -7.903754e+000 42 63 21
-2.469978e-002 -4.300749e-001 -8.081873e+000 47 56 8
7.310560e-001 -5.282608e-001 -8.444567e+000 162 94 54
9.175026e-001 -7.190255e-001 -8.704950e+000 13 45 62
1.732945e+000 -1.037320e+000 -9.546193e+000 185 122 85
3.593857e+000 -9.464892e-001 -1.021831e+001 176 139 85
2.760104e+000 -1.073853e+000 -1.006178e+001 163 28 25
3.850882e+000 -1.101109e+000 -1.086115e+001 173 140 105
3.269790e+000 -1.042663e+000 -1.089289e+001 68 13 11
1.379774e+000 -8.248505e-001 -1.050457e+001 152 9 23
-1.734659e+000 -7.454419e-001 -9.404694e+000 169 35 37
-1.777690e+000 -6.444188e-001 -9.492191e+000 182 40 55
-1.776251e+000 -6.424243e-001 -9.492362e+000 182 40 55
8.734853e-001 -5.485816e-001 -1.069764e+001 144 157 174
9.156220e-001 -6.141655e-001 -1.060726e+001 148 167 188
-1.878727e+000 -4.772311e-001 -9.707010e+000 175 41 47
-1.683214e+000 -4.537561e-001 -9.796482e+000 180 38 45
-1.150457e-001 -5.476013e-001 -1.031224e+001 156 156 165
4.731946e-001 -4.388158e-001 -1.066268e+001 181 137 131
2.758339e+000 -1.604957e-001 -1.177830e+001 157 134 118
3.490224e+000 2.419566e-001 -1.228504e+001 170 148 148
-6.174759e-001 -2.178141e-001 -1.048102e+001 176 170 154
-6.174759e-001 -2.178141e-001 -1.048102e+001 176 170 154
-4.104160e-001 -1.871518e-001 -1.062431e+001 27 62 28
4.889526e+000 -2.137697e+000 -9.929510e+000 44 30 26
-3.973748e-001 -5.891994e-001 -8.049439e+000 100 114 60
1.278477e+000 -2.625640e-001 -8.485540e+000 191 119 79
1.603268e+000 -7.620889e-001 -9.045351e+000 186 121 83
1.386613e+000 -1.148757e+000 -1.002337e+001 163 28 39
4.133796e-001 -1.031902e+000 -9.915101e+000 126 61 68
4.123736e-001 -1.032392e+000 -9.915024e+000 126 61 68
2.740469e+000 -9.616825e-001 -1.079397e+001 146 64 50
2.740904e+000 -9.614542e-001 -1.079405e+001 146 64 50
-1.743030e+000 -1.024931e+000 -9.137722e+000 37 103 167
-2.548954e-001 -9.759526e-001 -9.726502e+000 24 60 36
3.136093e-001 -8.079437e-001 -1.016340e+001 167 158 174
9.113647e-001 -4.399909e-001 -1.083595e+001 11 83 147
-6.959435e-001 -2.553602e-001 -1.040693e+001 27 59 42
-6.959435e-001 -2.553602e-001 -1.040693e+001 27 59 42
1.919104e+000 -7.851160e-001 -9.189254e+000 187 122 84
2.063799e+000 -7.028001e-001 -9.243371e+000 186 124 83
-1.600059e+000 -1.055647e+000 -8.214337e+000 122 132 120
1.169039e+000 -1.119601e+000 -9.525806e+000 183 63 49
-1.036259e+000 -9.611009e-001 -9.446320e+000 27 60 47
-9.485061e-001 -9.852062e-001 -9.458004e+000 108 132 166
5.816524e-001 -7.291554e-001 -1.027110e+001 153 23 33
-7.306363e-001 -5.946379e-001 -9.988045e+000 166 162 127
1.778238e-001 -5.344263e-001 -1.040818e+001 161 161 165
2.536183e-001 -6.138155e-001 -1.037515e+001 169 35 40
-4.864703e-001 -5.837507e-001 -1.014717e+001 27 59 37
-1.850641e+000 -3.713920e-001 -9.824658e+000 194 129 123
-1.357249e+000 -4.062549e-001 -9.975630e+000 164 170 137
-9.537253e-001 -2.592670e-001 -1.029137e+001 32 66 44
1.407577e-001 -3.334996e-001 -1.066855e+001 167 44 46
3.700708e+000 2.092316e-001 -1.238004e+001 150 105 74
2.131000e+000 -7.691123e-001 -9.290068e+000 188 124 88
3.545819e+000 -9.212476e-001 -1.113625e+001 166 142 120
-6.063108e-001 -9.948151e-001 -9.566053e+000 27 61 36
-3.342779e-001 -8.646348e-001 -9.868503e+000 29 62 32
-9.573025e-001 -7.530590e-001 -9.762499e+000 23 64 26
-5.286917e-001 -5.839412e-001 -1.005497e+001 158 159 152
-5.287316e-001 -5.831359e-001 -1.005413e+001 158 159 152
-4.374035e-001 -6.759045e-001 -1.004579e+001 32 65 39
3.468762e-001 -6.923099e-001 -1.034986e+001 168 162 174
-1.530227e+000 -5.012191e-001 -9.772466e+000 43 106 166
2.591694e-001 -4.636982e-001 -1.059368e+001 158 162 162
-1.280486e+000 -3.350753e-001 -1.008218e+001 31 65 48
-8.626811e-001 -3.866002e-001 -1.017681e+001 27 70 42
-1.093359e+000 -2.745193e-001 -1.025031e+001 162 162 166
-7.096215e-001 -1.683352e-001 -1.046862e+001 30 64 39
-2.868040e-001 -2.112445e-001 -1.063985e+001 153 156 165
1.063659e+000 -5.915997e-001 -8.680368e+000 21 73 96
3.650969e+000 -4.408395e-001 -9.630078e+000 132 26 8
2.322700e+000 -1.052943e+000 -1.054170e+001 174 144 110
2.532395e+000 -9.490846e-001 -1.077367e+001 156 74 53
2.559584e+000 -9.199790e-001 -1.077860e+001 156 74 53
-1.402783e+000 -9.292717e-001 -9.317963e+000 98 128 162
-7.908905e-001 -7.015774e-001 -9.790686e+000 161 164 172
-9.543167e-001 -5.369984e-001 -9.980636e+000 160 160 157
2.302450e+000 -7.682066e-001 -9.426693e+000 185 123 83
3.265355e+000 -1.039919e+000 -1.052202e+001 177 141 109
-1.950205e-001 -9.120126e-001 -9.885333e+000 160 161 168
-2.240261e+000 -6.112271e-001 -9.496564e+000 17 89 163
-8.812875e-001 -1.142503e+000 -9.177382e+000 70 118 166
-3.740130e-001 -9.288733e-001 -9.784626e+000 29 67 39
1.413769e+000 -8.127363e-001 -1.033291e+001 133 38 47
-9.126094e-002 -9.689297e-001 -9.786632e+000 166 165 171
2.995618e+000 4.735791e-001 -8.547546e+000 38 29 22
-8.760594e-001 -9.403747e-001 -8.263625e+000 97 100 23
-1.215756e+000 -7.613041e-001 -9.602562e+000 27 60 39
-5.159725e-001 -1.093209e+000 -9.610469e+000 28 58 24
-2.003107e+000 -8.974987e-001 -9.330678e+000 6 80 151
-2.674753e+000 2.562488e-001 -7.967213e+000 183 27 40
-2.142366e+000 -1.015641e+000 -8.629330e+000 217 195 172
-2.142366e+000 -1.015641e+000 -8.629330e+000 217 195 172
-5.782201e-001 5.858551e+000 -1.012339e+001 198 157 153
5.006618e+000 -2.217294e+000 -9.686989e+000 120 95 78
1.531740e+000 -1.097274e+000 -9.626001e+000 168 43 39
2.000868e+000 -1.034941e+000 -1.043965e+001 13 81 139
2.092454e+000 -1.025184e+000 -1.046999e+001 20 79 139
3.603061e+000 -9.878164e-001 -1.105501e+001 153 115 78
-1.106735e+000 -8.936267e-001 -9.471286e+000 59 106 144
-9.880316e-001 -9.350372e-001 -9.493935e+000 30 57 19
1.041780e+000 -9.043199e-001 -1.031941e+001 150 174 192
-1.817359e+000 -5.149801e-001 -9.689775e+000 187 33 47
-1.838487e+000 -4.414290e-001 -9.735445e+000 167 42 43
-1.847010e+000 -4.665449e-001 -9.735441e+000 167 42 43
-2.136029e-001 -2.300725e-001 -1.061899e+001 162 155 162
2.420373e+000 -7.187369e-002 -1.172165e+001 113 116 133
-1.811264e+000 -1.154653e-001 -1.011006e+001 177 34 42
-1.732068e+000 -1.491604e-001 -1.010269e+001 52 86 145
-1.732083e-002 -1.760793e-001 -1.078907e+001 161 162 161
3.304991e+000 -9.241897e-001 -1.109670e+001 172 141 118
4.588430e+000 -4.447201e-001 -1.146633e+001 125 109 110
2.206690e+000 -8.613695e-001 -1.078397e+001 169 67 64
-1.347051e-001 -6.007778e-001 -1.020901e+001 174 37 36
2.130689e+000 -1.517829e-001 -1.153371e+001 152 53 55
1.180115e+000 -1.170082e+000 -9.648758e+000 169 40 37
4.558683e+000 -1.091643e+000 -1.092001e+001 30 18 29
-1.720830e+000 -1.047722e+000 -9.090026e+000 95 132 176
7.065462e-001 -6.384983e-001 -1.050435e+001 206 125 123
7.068306e-001 -6.384702e-001 -1.050426e+001 206 125 123
5.659378e-001 -4.925673e-001 -1.065422e+001 155 29 41
-2.097482e-001 -2.559644e-001 -1.058320e+001 174 33 31
2.769467e+000 -1.245142e-001 -1.179056e+001 159 133 118
4.876400e+000 -2.377825e+000 -1.001694e+001 124 101 85
1.768032e+000 -9.775557e-001 -9.478034e+000 185 123 82
1.883828e+000 -9.963672e-001 -1.042582e+001 16 89 156
2.639674e-001 -5.721666e-001 -1.045714e+001 174 35 37
4.364987e-001 -5.395583e-001 -1.051106e+001 145 28 36
8.331907e-001 -4.430127e-001 -1.078731e+001 99 119 145
2.528714e+000 -1.467841e-001 -1.167214e+001 165 133 115
-1.644706e-001 -1.925133e-001 -1.069972e+001 136 85 99
3.058840e-001 -1.016164e+000 -9.925511e+000 164 161 169
1.189595e+000 -8.276163e-001 -1.047539e+001 179 143 124
1.054909e+000 -1.137000e+000 -9.506310e+000 172 160 135
3.176633e+000 -9.854471e-001 -1.093429e+001 112 55 31
-8.293929e-001 -2.808030e-001 -1.034142e+001 170 166 170
-1.099753e+000 -2.901454e-001 -1.024884e+001 162 162 166
3.483933e+000 -9.691822e-001 -1.095592e+001 44 14 17
4.132128e+000 -7.810201e-001 -1.031194e+001 98 81 54
4.157818e+000 3.976791e-001 -1.107472e+001 138 80 39
-6.151881e-001 -8.256633e-001 -8.228148e+000 157 151 26
2.843057e+000 -8.804306e-001 -9.794033e+000 184 71 63
1.072587e+000 -1.144031e+000 -9.836727e+000 158 25 31
1.535617e+000 -1.122531e+000 -9.892018e+000 180 102 81
3.040578e+000 -9.849120e-001 -1.082522e+001 182 139 90
1.977420e+000 -1.017859e+000 -1.047806e+001 14 83 151
2.598955e+000 -9.480750e-001 -1.076973e+001 166 90 79
2.207058e+000 -7.937312e-001 -1.086656e+001 171 132 114
3.523916e-001 -8.502875e-001 -1.014307e+001 158 18 25
4.232231e+000 -2.666657e-001 -1.181862e+001 110 68 68
4.229724e+000 -3.369166e-001 -1.179636e+001 23 17 16
-1.661138e+000 -6.918111e-001 -9.483614e+000 159 18 28
-1.660159e+000 -6.911752e-001 -9.483379e+000 159 18 28
-1.648186e+000 -6.723333e-001 -9.512961e+000 180 171 151
-1.426693e+000 -7.720173e-001 -9.671929e+000 151 160 29
-1.727461e+000 -5.092441e-001 -9.700612e+000 180 175 164
-1.563729e+000 -5.697778e-001 -9.648229e+000 167 176 159
-1.582458e+000 -5.656309e-001 -9.727971e+000 28 94 161
3.873559e-001 -5.781257e-001 -1.046787e+001 156 150 154
4.366265e-001 -4.406653e-001 -1.064167e+001 170 167 151
6.474439e-001 -4.979972e-001 -1.064392e+001 152 28 37
4.990695e-001 -4.574419e-001 -1.061826e+001 160 15 23
4.990695e-001 -4.574419e-001 -1.061826e+001 160 15 23
8.571483e-001 -4.723484e-001 -1.075748e+001 7 85 153
-1.868397e+000 -3.741692e-001 -9.819790e+000 187 41 48
7.479033e-001 -2.632925e-001 -1.096517e+001 14 67 153
7.479033e-001 -2.632925e-001 -1.096517e+001 14 67 153
2.384446e+000 -6.087559e-002 -1.169604e+001 40 25 64
2.399827e+000 -4.592306e-002 -1.169834e+001 40 25 64
2.556795e+000 -1.193709e-001 -1.171947e+001 24 72 140
-1.809997e+000 -2.434515e-001 -1.000818e+001 198 157 153
2.371500e+000 5.757497e-002 -1.175694e+001 44 39 68
2.340862e+000 -5.800498e-001 -9.170701e+000 118 58 24
-1.796327e+000 -1.147344e+000 -8.250845e+000 156 145 117
2.383282e+000 -9.684548e-001 -9.691489e+000 180 93 71
3.612996e+000 -8.911965e-001 -1.016575e+001 142 104 65
-2.264246e+000 -6.663679e-002 -7.876650e+000 185 154 110
1.641113e+000 -1.150594e+000 -9.827425e+000 171 32 31
1.312655e+000 -1.131512e+000 -1.001952e+001 175 57 53
2.237027e+000 -9.690476e-001 -1.063971e+001 175 47 54
-1.692538e+000 -7.828698e-001 -9.381236e+000 167 164 165
6.890014e-001 -7.211710e-001 -1.040879e+001 145 18 29
4.069052e+000 -3.590887e-001 -1.177756e+001 111 38 50
6.641594e-001 -6.576090e-001 -1.046530e+001 146 21 31
3.791330e+000 -4.328619e-001 -1.178834e+001 154 117 108
4.002354e+000 -3.300074e-001 -1.184167e+001 123 34 36
-1.774998e+000 -5.642303e-001 -9.616631e+000 173 23 25
-1.383202e+000 -5.998565e-001 -9.713948e+000 140 152 67
1.491487e-001 -3.563906e-001 -1.060748e+001 152 162 164
1.478488e-001 -2.587350e-001 -1.073068e+001 171 26 32
1.368862e+000 4.138628e-002 -1.138922e+001 143 99 37
3.056970e+000 2.557932e-002 -1.199716e+001 115 24 32
3.132278e+000 4.972332e-002 -1.203396e+001 178 115 44
3.686530e+000 6.411733e-002 -1.225913e+001 162 149 155
3.709494e+000 8.435209e-002 -1.226167e+001 162 149 155
-8.301417e-001 -2.631859e-003 -1.054398e+001 23 61 36
4.778888e+000 -2.439383e+000 -1.013086e+001 151 130 112
-1.437365e+000 -1.007423e+000 -8.171327e+000 49 93 115
-6.956982e-001 -9.935883e-001 -8.450441e+000 144 143 33
1.953438e+000 -8.443720e-001 -9.380845e+000 187 125 88
1.953438e+000 -8.443720e-001 -9.380845e+000 187 125 88
2.392446e+000 -8.716200e-001 -9.559787e+000 149 21 26
1.730252e+000 -1.041414e+000 -9.546854e+000 182 122 88
2.144423e+000 -9.198796e-001 -9.604107e+000 180 119 88
2.336286e+000 -1.003963e+000 -9.809753e+000 144 20 29
-1.194946e-001 -1.185452e+000 -9.432251e+000 43 77 53
3.142041e+000 -1.012342e+000 -1.068471e+001 177 144 105
1.948809e+000 -9.816143e-001 -1.051287e+001 9 83 154
-2.086227e+000 -1.024271e+000 -8.980926e+000 157 154 165
1.341468e+000 -9.052809e-001 -1.044254e+001 128 21 22
2.123153e+000 -8.029390e-001 -1.083558e+001 91 18 22
5.455155e-001 -5.372575e-001 -1.056546e+001 154 24 32
-1.768710e+000 -2.701833e-001 -1.000676e+001 176 35 41
-7.199472e-002 -6.678727e-002 -1.081389e+001 137 90 97
5.049137e+000 -2.009302e+000 -9.470839e+000 134 108 90
5.097825e+000 -1.728151e+000 -9.468664e+000 160 133 116
-6.055389e-001 -1.073825e+000 -8.508284e+000 137 130 43
5.878259e-001 -7.586432e-001 -8.675632e+000 150 34 35
4.511547e+000 -1.048155e+000 -1.113809e+001 27 20 29
2.415505e+000 -9.236026e-001 -1.076125e+001 159 73 51
-1.451028e+000 -8.505721e-001 -9.407976e+000 20 62 35
-1.451028e+000 -8.505721e-001 -9.407976e+000 20 62 35
-9.962968e-001 -7.796014e-001 -9.647125e+000 163 164 34
-2.191381e+000 -7.139147e-001 -9.332620e+000 39 98 160
-1.607090e+000 -7.410188e-001 -9.456771e+000 173 34 39
-1.607090e+000 -7.410188e-001 -9.456771e+000 173 34 39
-1.433552e+000 -5.765573e-001 -9.740355e+000 59 109 160
-1.959634e+000 -2.703132e-001 -9.911695e+000 179 41 42
8.894990e-001 -1.249955e-001 -1.110078e+001 169 122 112
3.022606e+000 5.059116e-001 -1.214147e+001 32 28 25
