ply
format ascii 1.0
element face 0
property list uchar int vertex_indices
element vertex 876
property float x
property float y
property float z
property uchar diffuse_red
property uchar diffuse_green
property uchar diffuse_blue
end_header
2.074852e-001 -7.067653e-001 -8.447742e+000 124 33 44
2.078796e-001 -7.067942e-001 -8.448011e+000 124 33 44
3.159578e-001 -7.251655e-001 -8.509597e+000 147 142 133
3.734261e-001 -6.890183e-001 -8.516610e+000 148 142 131
1.171243e+000 -6.966427e-001 -8.818284e+000 88 47 45
1.883309e+000 -7.876991e-001 -9.253693e+000 122 68 58
1.884195e+000 -7.867319e-001 -9.256663e+000 122 68 58
2.067100e+000 -8.335958e-001 -9.327974e+000 135 82 78
2.458731e+000 -7.213713e-001 -9.395464e+000 179 70 74
2.403885e+000 -8.503791e-001 -9.547622e+000 190 90 96
2.575720e+000 -7.116533e-001 -9.445257e+000 157 41 54
2.755497e+000 -7.683258e-001 -9.615155e+000 191 78 86
3.412237e+000 -7.759287e-001 -9.904888e+000 157 127 103
3.639926e+000 -7.862760e-001 -1.006554e+001 157 130 101
3.666542e+000 -8.543058e-001 -1.011233e+001 154 130 103
3.721054e+000 -7.420683e-001 -1.001864e+001 161 134 109
3.761018e+000 -7.544397e-001 -9.782914e+000 164 143 123
-1.148074e+000 -8.509332e-001 -8.085278e+000 195 147 123
-1.161536e+000 -8.931326e-001 -8.130904e+000 184 158 122
-1.162123e+000 -8.936400e-001 -8.130057e+000 184 158 122
-1.033273e+000 -8.191964e-001 -8.046338e+000 171 42 54
-1.052192e+000 -8.393870e-001 -8.099063e+000 168 35 47
-3.798159e-001 -8.421502e-001 -8.367160e+000 164 157 46
-3.927386e-001 -9.171491e-001 -8.482000e+000 157 163 11
-3.927386e-001 -9.171491e-001 -8.482000e+000 157 163 11
1.474137e+000 -9.722853e-001 -9.347998e+000 115 64 61
1.474640e+000 -9.722134e-001 -9.349122e+000 115 64 61
2.064007e+000 -8.593245e-001 -9.416108e+000 120 67 60
2.020664e+000 -9.571786e-001 -9.533296e+000 116 61 56
2.247258e+000 -9.124185e-001 -9.573042e+000 124 66 52
2.394837e+000 -8.762779e-001 -9.609813e+000 180 90 89
2.458171e+000 -8.761170e-001 -9.572419e+000 187 76 85
2.986285e+000 -9.413940e-001 -9.909483e+000 188 131 117
3.635021e+000 -9.333963e-001 -1.027155e+001 165 137 113
-1.175395e+000 -9.376950e-001 -8.184936e+000 184 159 133
-1.194072e+000 -9.853768e-001 -8.238105e+000 190 161 137
-1.077068e+000 -1.004746e+000 -8.311584e+000 177 42 44
-1.071970e+000 -1.006361e+000 -8.298739e+000 177 42 44
1.207225e+000 -1.134021e+000 -9.623489e+000 179 72 79
1.346420e+000 -9.986405e-001 -9.316037e+000 113 64 67
1.535308e+000 -1.099335e+000 -9.654079e+000 146 59 65
1.734846e+000 -1.030645e+000 -9.378716e+000 125 72 68
1.734846e+000 -1.030645e+000 -9.378716e+000 125 72 68
-4.140046e-001 1.357689e+000 -8.478800e+000 33 62 32
3.711870e-002 1.406101e+000 -8.710492e+000 169 163 32
3.711870e-002 1.406101e+000 -8.710492e+000 169 163 32
2.101898e+000 1.724371e+000 -9.865020e+000 109 136 144
-9.556041e-001 1.007698e+000 -7.979396e+000 194 155 97
1.241405e+000 1.101624e+000 -8.727401e+000 174 114 84
-2.050093e+000 9.467500e-001 -8.068884e+000 193 169 141
-1.992260e+000 9.357032e-001 -7.946749e+000 192 171 144
2.577582e-001 8.697808e-001 -8.142892e+000 32 50 34
5.768232e-001 9.606294e-001 -8.350632e+000 181 40 49
5.768232e-001 9.606294e-001 -8.350632e+000 181 40 49
-2.460046e+000 8.020701e-001 -8.315733e+000 182 35 44
8.977535e-001 7.900563e-001 -8.321311e+000 167 156 124
1.955365e+000 7.530415e-001 -8.584427e+000 87 24 32
2.044051e+000 7.236047e-001 -8.619895e+000 86 25 28
3.268751e+000 9.021853e-001 -9.227143e+000 167 115 87
3.703145e+000 7.746007e-001 -9.269119e+000 164 124 85
2.347004e+000 5.980498e-001 -8.643962e+000 75 31 28
-2.280246e+000 5.486652e-001 -8.025708e+000 196 172 141
2.975361e+000 4.713449e-001 -8.855573e+000 116 62 18
4.606208e+000 5.192532e-001 -9.380362e+000 158 54 46
5.075771e+000 5.066315e-001 -9.670851e+000 39 35 42
1.008047e+000 2.241381e-002 -8.222635e+000 4 56 93
3.147471e+000 1.103680e-001 -8.948925e+000 182 125 95
4.764252e+000 2.098574e-001 -9.720742e+000 178 102 59
2.730759e+000 -7.805456e-002 -8.976594e+000 154 48 55
2.928596e+000 -8.074657e-002 -9.033618e+000 146 28 44
4.381385e+000 -5.500481e-002 -9.621500e+000 171 147 140
1.415555e+000 -1.284502e-001 -8.449471e+000 83 52 41
1.959079e+000 -1.497424e-001 -8.687010e+000 100 63 51
2.164609e+000 -1.708425e-001 -8.765736e+000 111 72 82
2.539184e+000 -1.049753e-001 -8.874356e+000 169 119 94
3.357041e+000 -2.205357e-001 -9.279373e+000 178 124 101
3.757120e+000 -1.900907e-001 -9.455475e+000 178 121 59
4.051038e+000 -1.678569e-001 -9.480527e+000 196 126 70
4.085169e+000 -1.587761e-001 -9.550487e+000 196 126 70
2.909338e+000 -3.841198e-001 -9.281173e+000 177 66 72
2.977041e+000 -2.770870e-001 -9.195687e+000 154 32 43
3.214063e+000 -3.597741e-001 -9.345421e+000 176 128 105
3.911182e-001 -5.131183e-001 -8.324167e+000 157 143 128
2.710633e+000 -4.029957e-001 -9.170831e+000 179 71 81
3.807834e+000 -5.415526e-001 -9.800949e+000 166 128 100
3.803507e+000 -5.400617e-001 -9.796019e+000 166 128 100
3.861702e+000 -3.880864e-001 -9.673857e+000 165 85 46
-1.008877e+000 -6.354990e-001 -7.864320e+000 185 44 52
-1.008877e+000 -6.354990e-001 -7.864320e+000 185 44 52
-9.274985e-001 -6.461085e-001 -7.906774e+000 171 33 44
-6.461564e-001 -5.782262e-001 -7.951003e+000 152 152 53
-5.475733e-001 -6.368988e-001 -8.051641e+000 155 159 35
1.056957e-002 -6.277747e-001 -8.085027e+000 170 161 53
6.546308e-001 -5.644959e-001 -8.473033e+000 149 16 30
1.399949e+000 -6.371617e-001 -8.857597e+000 104 54 40
1.515685e+000 -6.341423e-001 -8.925408e+000 113 56 50
1.515685e+000 -6.341423e-001 -8.925408e+000 113 56 50
1.679787e+000 -6.492357e-001 -8.987966e+000 174 121 105
1.787405e+000 -6.464750e-001 -9.024018e+000 175 115 97
1.742220e+000 -6.783873e-001 -8.971372e+000 182 116 103
2.324100e+000 -6.074768e-001 -9.169471e+000 182 124 114
2.489881e+000 -6.495058e-001 -9.312695e+000 185 73 82
3.046668e+000 -7.033629e-001 -9.657240e+000 101 47 47
3.050408e+000 -7.016053e-001 -9.670530e+000 101 47 47
3.083289e+000 -6.253744e-001 -9.567030e+000 130 83 69
3.176965e+000 -6.740721e-001 -9.688035e+000 115 59 50
3.722628e+000 -6.147368e-001 -9.888954e+000 157 126 98
3.913345e+000 -6.869913e-001 -1.007073e+001 174 148 121
3.913345e+000 -6.869913e-001 -1.007073e+001 174 148 121
-1.098673e+000 -6.705570e-001 -7.880680e+000 166 29 35
-9.848592e-001 -6.769390e-001 -7.914148e+000 167 49 53
-9.915384e-001 -7.392617e-001 -7.994520e+000 188 161 125
-6.041945e-001 -7.538065e-001 -8.301098e+000 64 98 115
-3.598698e-001 -7.218554e-001 -8.227316e+000 159 159 32
-3.990397e-001 -7.604015e-001 -8.247115e+000 22 53 30
1.963945e-001 -7.619369e-001 -8.512225e+000 117 15 30
1.550383e+000 -7.968448e-001 -9.122701e+000 116 69 60
1.550383e+000 -7.968448e-001 -9.122701e+000 116 69 60
2.787330e+000 -7.067200e-001 -9.541144e+000 172 67 74
2.719340e+000 -7.887525e-001 -9.613210e+000 156 25 39
3.383398e+000 -8.097427e-001 -9.921163e+000 168 137 115
-1.155171e+000 -8.109472e-001 -8.040052e+000 183 36 47
-1.157810e+000 -8.118562e-001 -8.042075e+000 183 36 47
-1.075580e+000 -8.991841e-001 -8.145966e+000 171 43 54
-9.919626e-001 -8.236720e-001 -8.068612e+000 181 39 42
-1.918467e-001 -9.091832e-001 -8.555319e+000 150 154 25
-1.918467e-001 -9.091832e-001 -8.555319e+000 150 154 25
1.261079e+000 -9.526841e-001 -9.209496e+000 138 80 73
1.380891e+000 -9.260633e-001 -9.209429e+000 96 64 60
1.514009e+000 -8.753555e-001 -9.204322e+000 130 80 70
1.488453e+000 -9.355755e-001 -9.283816e+000 113 62 61
1.488453e+000 -9.355755e-001 -9.283816e+000 113 62 61
1.616705e+000 -8.913441e-001 -9.276956e+000 116 65 55
1.616705e+000 -8.913441e-001 -9.276956e+000 116 65 55
1.704894e+000 -9.345251e-001 -9.370414e+000 125 73 65
1.703928e+000 -9.339230e-001 -9.370915e+000 125 73 65
1.809763e+000 -9.417375e-001 -9.438091e+000 115 65 60
1.910055e+000 -9.640804e-001 -9.522842e+000 114 61 51
1.904694e+000 -9.658609e-001 -9.501359e+000 114 61 51
1.972291e+000 -1.003167e+000 -9.501334e+000 131 77 75
1.972291e+000 -1.003167e+000 -9.501334e+000 131 77 75
2.060692e+000 -9.559506e-001 -9.503890e+000 183 129 118
2.165473e+000 -9.251784e-001 -9.668503e+000 126 69 67
2.102337e+000 -9.892924e-001 -9.620649e+000 136 83 77
2.066566e+000 -9.953490e-001 -9.473824e+000 136 83 77
2.173800e+000 -9.733450e-001 -9.667311e+000 186 130 119
2.173800e+000 -9.733450e-001 -9.667311e+000 186 130 119
2.360070e+000 -9.446588e-001 -9.688494e+000 182 95 91
2.788667e+000 -8.915813e-001 -9.653366e+000 152 29 40
-5.487361e-001 -9.936740e-001 -8.528191e+000 162 158 26
-5.479861e-001 -9.942801e-001 -8.528078e+000 162 158 26
1.435751e+000 -1.019389e+000 -9.346275e+000 117 66 63
1.573016e+000 -9.941544e-001 -9.453809e+000 120 67 66
2.132254e+000 -1.054678e+000 -9.771148e+000 189 130 128
4.582591e+000 -2.726563e+000 -1.045883e+001 60 47 54
4.658494e+000 -2.625696e+000 -1.033124e+001 146 129 135
4.564524e+000 -2.858979e+000 -1.055744e+001 144 130 130
-1.634241e+000 1.398569e+000 -8.167930e+000 125 138 140
-7.369908e-001 1.527786e+000 -8.671667e+000 45 59 43
-7.369908e-001 1.527786e+000 -8.671667e+000 45 59 43
6.383992e-001 1.631119e+000 -9.194588e+000 146 110 83
-1.246638e+000 1.266163e+000 -8.225553e+000 170 42 50
-1.983450e+000 1.068855e+000 -8.106425e+000 195 172 141
-9.050375e-001 9.583522e-001 -7.858620e+000 166 41 36
2.242804e+000 1.310290e+000 -9.289514e+000 128 102 97
2.323559e+000 1.411916e+000 -9.462630e+000 88 67 82
2.469540e+000 1.219165e+000 -9.243156e+000 45 19 19
2.486109e+000 1.237448e+000 -9.301776e+000 45 19 19
2.689805e+000 1.421813e+000 -9.567397e+000 117 67 57
2.787679e+000 1.180117e+000 -9.321383e+000 124 95 89
-1.877462e+000 8.399595e-001 -7.751639e+000 195 173 142
1.882753e-001 8.436147e-001 -8.048211e+000 28 58 26
1.036845e+000 8.892925e-001 -8.385437e+000 173 39 43
2.727608e+000 1.013102e+000 -9.113306e+000 147 118 108
3.060649e+000 9.339392e-001 -9.109588e+000 83 54 68
-4.379637e-001 6.772347e-001 -7.690211e+000 73 107 118
1.023252e+000 7.208257e-001 -8.280575e+000 166 157 128
1.919903e+000 8.249292e-001 -8.706734e+000 166 100 67
2.124050e+000 7.995180e-001 -8.678607e+000 82 40 50
2.119591e+000 7.948222e-001 -8.662004e+000 82 40 50
2.121639e+000 7.136330e-001 -8.639063e+000 71 29 37
2.320160e+000 7.196722e-001 -8.673574e+000 106 51 64
2.656746e+000 7.225764e-001 -8.830521e+000 122 93 90
3.164969e+000 7.624188e-001 -9.065725e+000 67 45 52
4.058871e+000 7.639082e-001 -9.504233e+000 128 37 58
4.017064e+000 7.200963e-001 -9.485277e+000 155 121 75
2.553318e+000 4.653172e-001 -8.648005e+000 118 54 18
4.697303e+000 4.918330e-001 -9.546322e+000 190 101 57
4.858389e+000 5.877186e-001 -9.539471e+000 171 75 48
1.250126e+000 8.251643e-002 -8.254480e+000 5 60 100
3.164960e+000 1.644902e-001 -9.092824e+000 146 25 46
4.274372e+000 2.459129e-001 -9.389586e+000 58 37 46
1.390952e+000 -3.727422e-002 -8.386629e+000 170 115 92
1.595256e+000 -9.663920e-002 -8.510500e+000 170 113 94
2.024359e+000 -9.448341e-002 -8.625697e+000 176 122 98
2.000262e+000 -1.151067e-001 -8.625927e+000 173 122 101
1.124707e+000 -1.667117e-001 -8.381950e+000 22 74 118
1.612642e+000 -1.855367e-001 -8.556845e+000 158 105 97
1.911857e+000 -1.438405e-001 -8.640092e+000 176 126 100
1.890585e+000 -1.680995e-001 -8.661822e+000 175 123 102
2.278595e+000 -1.659783e-001 -8.810307e+000 161 116 111
2.524845e+000 -1.589724e-001 -8.731926e+000 138 13 27
3.219340e+000 -1.448475e-001 -9.190415e+000 179 127 95
3.265740e+000 -2.049323e-001 -9.246984e+000 179 128 102
3.265740e+000 -2.049323e-001 -9.246984e+000 179 128 102
4.277877e+000 -7.111431e-002 -9.578615e+000 169 146 130
-1.030523e-001 -3.488680e-001 -8.001603e+000 164 157 34
-1.033676e-001 -3.481943e-001 -8.004690e+000 164 157 34
3.203575e+000 -4.576916e-001 -9.434315e+000 178 123 102
3.199120e+000 -4.607213e-001 -9.423797e+000 178 123 102
8.346869e-001 -6.652327e-001 -8.464294e+000 9 49 92
1.000265e+000 -6.753086e-001 -8.671399e+000 22 82 132
1.272969e+000 -5.744715e-001 -8.704560e+000 179 115 100
1.363384e+000 -6.072048e-001 -8.831761e+000 182 121 108
1.567059e+000 -6.393936e-001 -8.962630e+000 178 118 101
1.562181e+000 -6.449641e-001 -8.930575e+000 178 118 101
1.711076e+000 -6.707482e-001 -9.032344e+000 125 73 63
1.859587e+000 -6.410472e-001 -8.926576e+000 175 118 101
1.926649e+000 -5.737443e-001 -9.012400e+000 177 119 95
2.128968e+000 -5.881752e-001 -9.108967e+000 174 120 102
2.219396e+000 -6.219592e-001 -9.160550e+000 176 120 105
2.219396e+000 -6.219592e-001 -9.160550e+000 176 120 105
3.062917e+000 -6.696110e-001 -9.618364e+000 139 93 81
4.457403e+000 -6.636866e-001 -1.034122e+001 143 123 123
-1.064748e+000 -7.453961e-001 -7.979074e+000 182 39 53
9.209236e-001 -6.973044e-001 -8.732073e+000 20 56 94
3.085356e+000 -7.870199e-001 -9.792756e+000 182 122 112
3.491005e+000 -8.568700e-001 -1.009141e+001 169 133 112
-1.177336e+000 -8.659084e-001 -8.109543e+000 169 35 28
-1.193211e+000 -9.100474e-001 -8.152280e+000 187 46 61
-9.650974e-001 -9.120028e-001 -8.129053e+000 45 96 122
-3.062971e-001 -9.073575e-001 -8.488884e+000 144 160 52
1.305813e+000 -9.870295e-001 -9.372525e+000 178 125 118
1.305813e+000 -9.870295e-001 -9.372525e+000 178 125 118
1.568608e+000 -8.858243e-001 -9.297434e+000 176 119 107
1.648715e+000 -9.382487e-001 -9.366680e+000 179 121 112
1.627045e+000 -9.928437e-001 -9.487825e+000 179 125 119
1.774708e+000 -9.451939e-001 -9.547588e+000 179 121 110
1.775666e+000 -9.455318e-001 -9.536748e+000 179 121 110
1.782404e+000 -8.924197e-001 -9.351362e+000 181 125 110
1.781768e+000 -8.938602e-001 -9.346360e+000 181 125 110
1.855527e+000 -9.436568e-001 -9.422029e+000 187 131 121
1.956600e+000 -9.925535e-001 -9.637091e+000 180 126 114
1.956600e+000 -9.925535e-001 -9.637091e+000 180 126 114
1.997072e+000 -9.434109e-001 -9.655493e+000 182 125 113
3.874474e+000 -9.102154e-001 -1.033140e+001 81 67 57
4.255381e+000 -9.415568e-001 -1.054633e+001 142 131 112
4.332406e+000 -1.017841e+000 -1.076426e+001 178 151 154
-1.233191e+000 -1.004896e+000 -8.253303e+000 172 35 46
1.399993e+000 -1.007034e+000 -9.417512e+000 179 125 115
1.722568e+000 -1.003082e+000 -9.492665e+000 184 127 118
2.268174e+000 -1.051536e+000 -9.847846e+000 162 30 47
2.701521e+000 -1.037655e+000 -1.001779e+001 158 29 51
3.856932e-001 1.441591e+000 -8.874922e+000 176 41 46
2.232418e+000 1.725254e+000 -9.927053e+000 70 90 101
-3.466010e-001 9.601235e-001 -8.077398e+000 170 159 91
-3.466010e-001 9.601235e-001 -8.077398e+000 170 159 91
-1.089094e-001 1.187305e+000 -8.419973e+000 174 160 83
-1.089094e-001 1.187305e+000 -8.419973e+000 174 160 83
9.368326e-001 1.136820e+000 -8.647063e+000 175 47 43
1.113647e+000 1.198463e+000 -8.855500e+000 154 36 48
-1.011034e+000 7.552536e-001 -7.715675e+000 171 42 37
8.149584e-001 7.695771e-001 -8.207505e+000 164 101 89
8.640255e-001 6.205333e-001 -8.107989e+000 143 72 50
9.449013e-001 7.985568e-001 -8.325911e+000 148 84 67
1.830495e+000 8.242724e-001 -8.639351e+000 170 114 84
3.305191e+000 8.774325e-001 -9.205447e+000 32 27 42
3.616457e+000 6.540105e-001 -9.081408e+000 7 58 101
4.868573e+000 1.749365e-001 -9.644663e+000 156 91 58
1.439765e+000 -4.596202e-003 -8.383480e+000 167 119 99
4.294227e+000 6.846382e-002 -9.481622e+000 29 14 23
1.572203e+000 -1.412430e-001 -8.536141e+000 177 114 103
1.950678e+000 -1.635151e-001 -8.685052e+000 66 28 16
1.949493e+000 -1.643457e-001 -8.683071e+000 66 28 16
4.669420e+000 -1.201140e-001 -9.871144e+000 146 84 36
4.741178e+000 -1.208733e-001 -9.897818e+000 131 74 42
-6.022010e-001 -3.306299e-001 -7.782785e+000 88 94 40
3.239626e+000 -2.322360e-001 -9.392876e+000 146 110 99
3.239626e+000 -2.322360e-001 -9.392876e+000 146 110 99
3.940979e+000 -3.796781e-001 -9.717316e+000 157 80 41
-4.596863e-001 -5.342491e-001 -7.980469e+000 38 55 39
1.321105e+000 -5.494877e-001 -8.667062e+000 160 109 106
2.448064e+000 -4.891285e-001 -9.177282e+000 187 127 101
3.206904e+000 -4.122745e-001 -9.390496e+000 184 132 108
3.263526e+000 -5.273964e-001 -9.432139e+000 188 122 103
-3.431712e-001 -5.431660e-001 -8.067298e+000 57 100 122
2.284713e-002 -6.107813e-001 -8.256827e+000 161 152 114
7.802950e-001 -5.686367e-001 -8.420895e+000 133 24 46
7.057519e-001 -6.451814e-001 -8.566002e+000 194 131 124
3.462446e+000 -5.490933e-001 -9.682234e+000 150 41 48
2.273669e-001 -7.650732e-001 -8.527180e+000 126 51 55
6.942473e-001 -8.110335e-001 -8.723494e+000 119 19 52
2.393167e+000 -8.110149e-001 -9.574743e+000 158 38 55
3.910956e+000 -7.023207e-001 -1.009297e+001 167 148 122
-2.326470e-001 -8.760306e-001 -8.495819e+000 35 61 34
6.135684e-001 -8.491696e-001 -8.780034e+000 169 104 86
-8.820938e-001 -9.942884e-001 -8.370917e+000 128 133 91
2.028267e+000 -1.056061e+000 -9.728507e+000 187 137 132
-1.662336e+000 1.338948e+000 -8.120602e+000 62 92 110
-4.626350e-001 1.634109e+000 -8.825014e+000 150 158 76
-1.884378e-001 1.414668e+000 -8.607380e+000 173 156 96
-1.976266e-001 1.194301e+000 -8.411757e+000 43 63 34
1.596545e+000 1.487077e+000 -9.323611e+000 179 124 87
-2.123389e-001 1.070372e+000 -8.259123e+000 172 163 97
-2.123389e-001 1.070372e+000 -8.259123e+000 172 163 97
1.413382e+000 1.293743e+000 -9.059498e+000 20 83 107
2.659339e+000 1.380111e+000 -9.574763e+000 148 116 103
9.932395e-001 9.728566e-001 -8.476644e+000 178 49 55
9.677063e-001 8.720005e-001 -8.354697e+000 169 151 127
1.500006e+000 1.032088e+000 -8.730339e+000 21 60 105
2.716736e+000 8.097952e-001 -8.934883e+000 94 53 57
3.169097e+000 6.449534e-001 -8.985606e+000 82 58 59
4.465175e+000 7.658367e-001 -9.538474e+000 175 75 75
3.826966e+000 2.680573e-003 -9.287449e+000 173 65 39
3.980662e+000 8.365739e-003 -9.374529e+000 172 81 44
7.526521e-001 -1.722193e-001 -8.237938e+000 139 22 38
-3.404729e-001 -6.726891e-001 -8.167280e+000 27 63 46
-2.708192e-001 -6.566013e-001 -8.163439e+000 88 117 54
-6.758109e-001 -7.575033e-001 -8.118441e+000 29 53 39
-4.423607e-001 -7.750247e-001 -8.287921e+000 124 134 36
2.654101e+000 -8.330650e-001 -9.658885e+000 160 30 46
2.660463e+000 -8.272644e-001 -9.675281e+000 160 30 46
-8.100840e-001 -8.164795e-001 -8.210639e+000 23 52 41
-4.687684e-001 -8.274092e-001 -8.341863e+000 134 143 37
-4.300845e-001 -8.779125e-001 -8.415867e+000 29 50 41
5.717268e-001 -9.512817e-001 -8.882880e+000 167 108 92
3.421784e+000 -8.974660e-001 -1.016465e+001 167 135 112
4.589601e+000 -2.584928e+000 -1.026454e+001 38 31 39
-7.491609e-001 1.184632e+000 -8.209296e+000 33 57 35
-5.294617e-001 1.242475e+000 -8.323818e+000 170 160 83
-3.735386e-001 1.204749e+000 -8.374025e+000 39 61 35
-1.006972e-001 1.422687e+000 -8.710832e+000 41 59 34
-1.006972e-001 1.422687e+000 -8.710832e+000 41 59 34
-1.028025e-002 1.361298e+000 -8.666200e+000 169 156 103
9.792399e-002 1.403690e+000 -8.742397e+000 48 62 42
9.075056e-001 1.350953e+000 -8.903874e+000 165 157 123
1.962513e-001 1.170688e+000 -8.462220e+000 48 62 40
-6.118028e-003 7.831557e-001 -7.978871e+000 37 60 36
-6.118028e-003 7.831557e-001 -7.978871e+000 37 60 36
3.200386e-001 8.353066e-001 -8.083068e+000 171 157 123
2.835285e+000 9.640201e-001 -9.108855e+000 140 110 101
3.671515e+000 1.580289e-001 -9.095642e+000 93 20 34
2.891187e+000 -1.758003e-001 -9.183075e+000 154 27 42
3.161319e+000 -1.336842e-001 -9.200674e+000 182 126 97
4.139548e+000 -2.677834e-001 -9.561450e+000 158 71 36
-8.450238e-001 -6.410918e-001 -7.922646e+000 14 71 119
2.750092e+000 -5.763173e-001 -9.333240e+000 163 32 53
-5.065410e-001 -7.738124e-001 -8.171775e+000 25 60 44
-5.068086e-001 -7.732462e-001 -8.177589e+000 25 60 44
-1.112060e+000 -8.315968e-001 -8.083893e+000 192 151 129
-1.513586e-001 -8.705524e-001 -8.569487e+000 133 142 121
-1.144098e+000 -9.550038e-001 -8.219516e+000 176 138 111
-9.699280e-001 -1.028323e+000 -8.392413e+000 34 60 46
-5.991398e-001 -9.533180e-001 -8.426815e+000 22 56 33
2.848495e+000 1.293309e+000 -9.456562e+000 82 58 62
-8.981032e-001 6.962837e-001 -7.516963e+000 162 106 79
-1.553798e-001 8.589898e-001 -7.995360e+000 165 157 119
-6.233365e-001 6.837014e-001 -7.687625e+000 34 52 32
3.212719e+000 9.406617e-001 -9.178871e+000 162 121 93
3.505043e+000 8.530600e-001 -9.253744e+000 23 60 98
3.775111e+000 3.302326e-001 -9.150107e+000 115 25 38
3.775111e+000 3.302326e-001 -9.150107e+000 115 25 38
3.078402e+000 1.082344e-001 -8.946779e+000 147 23 41
3.078402e+000 1.082344e-001 -8.946779e+000 147 23 41
2.612598e+000 -4.607313e-002 -8.867927e+000 137 20 31
3.815663e+000 -1.621299e-001 -9.458778e+000 161 109 62
8.999503e-001 -2.822043e-001 -8.368573e+000 9 46 83
2.935709e+000 -2.619156e-001 -9.441390e+000 147 21 33
-1.377520e-001 -5.495045e-001 -8.102798e+000 121 129 123
-1.371528e-001 -5.498080e-001 -8.101426e+000 121 129 123
-4.289527e-001 -7.123558e-001 -8.168584e+000 72 110 132
-3.290223e-001 -8.750411e-001 -8.455513e+000 121 138 129
6.140191e-001 -1.069900e+000 -9.167085e+000 20 79 130
-1.209963e+000 1.442936e+000 -8.451593e+000 20 73 113
-1.185866e+000 1.386606e+000 -8.299684e+000 20 73 113
-6.432155e-001 1.670929e+000 -8.956751e+000 111 120 134
1.989276e+000 -2.451372e-001 -8.751302e+000 183 126 102
3.994126e+000 -7.451696e-002 -9.570603e+000 172 88 58
4.329685e+000 -9.913067e-002 -9.655607e+000 142 117 115
4.321730e+000 -1.039534e-001 -9.639846e+000 142 117 115
3.435095e-001 1.182016e+000 -8.553949e+000 163 151 125
-1.222258e-001 1.519872e-001 -7.787657e+000 140 139 132
1.152483e+000 -1.466511e-001 -8.359330e+000 15 58 84
2.052739e+000 -5.976077e-001 -9.082275e+000 124 72 59
2.220311e+000 -7.671362e-001 -9.345504e+000 183 122 103
2.502473e+000 1.494788e+000 -9.690053e+000 136 108 97
2.391277e+000 6.994479e-001 -8.741832e+000 89 45 53
3.014045e+000 7.231238e-001 -8.991597e+000 64 24 33
4.538346e+000 6.018165e-001 -9.395188e+000 165 116 96
3.591810e+000 7.641457e-001 -9.301807e+000 20 61 103
2.059007e-002 -7.695529e-001 -8.414925e+000 150 149 144
1.402580e+000 7.897349e-001 -8.424530e+000 167 36 51
-2.308348e+000 7.729843e-001 -8.440772e+000 195 170 139
3.179086e+000 4.160312e-001 -9.070027e+000 156 106 46
3.157965e+000 4.006141e-001 -9.009322e+000 156 106 46
5.543654e-001 -3.603062e-001 -8.237465e+000 156 148 126
2.331953e+000 -3.382116e-001 -8.969577e+000 181 127 101
-1.006997e+000 -6.452273e-001 -7.838282e+000 187 133 110
2.825730e+000 -1.069139e-001 -8.985442e+000 148 22 38
4.351922e+000 -2.538414e-001 -9.847079e+000 172 89 54
1.316537e+000 -9.060291e-001 -9.658433e+000 171 111 100
-1.160717e+000 1.718376e+000 -9.495145e+000 140 139 63
1.010281e+000 -1.464049e-001 -8.235053e+000 79 107 129
3.068235e-001 2.456464e-001 -8.327077e+000 151 146 128
-8.020305e-001 -2.853240e-001 -7.602699e+000 13 80 125
-2.104934e+000 1.243615e+000 -8.259428e+000 93 78 66
-9.293438e-001 8.980302e-001 -7.772905e+000 168 53 55
-4.659810e-001 6.523826e-001 -7.622190e+000 62 93 115
1.228066e+000 6.438085e-001 -8.189912e+000 153 31 34
1.997919e+000 6.968133e-001 -8.614366e+000 96 35 34
3.115040e+000 6.815846e-001 -8.973247e+000 106 76 67
2.224177e+000 5.645669e-001 -8.603454e+000 166 132 94
3.354634e+000 5.680465e-001 -9.080942e+000 166 132 86
4.741806e+000 1.502695e-001 -9.634153e+000 50 11 12
4.828273e+000 1.832932e-001 -9.641978e+000 165 103 28
4.711202e+000 7.806687e-003 -9.754469e+000 48 13 6
2.058586e+000 -1.438772e-001 -8.714560e+000 171 127 89
3.924527e+000 -1.373454e-001 -9.481203e+000 170 85 42
3.920999e+000 -1.387890e-001 -9.473028e+000 170 85 42
4.686173e+000 -7.588687e-002 -9.829392e+000 56 8 23
4.686173e+000 -7.588687e-002 -9.829392e+000 56 8 23
8.037002e-001 -2.385092e-001 -8.280775e+000 134 11 19
8.041355e-001 -2.369085e-001 -8.284849e+000 134 11 19
3.813736e+000 -2.672543e-001 -9.552838e+000 165 75 47
2.598060e+000 -4.248274e-001 -9.137768e+000 146 23 40
3.341296e+000 -4.483211e-001 -9.385256e+000 173 70 48
4.574199e+000 -3.322114e-001 -1.000770e+001 150 128 112
7.506727e-001 -4.223084e-001 -8.399751e+000 188 148 119
2.840127e+000 -5.288894e-001 -9.363353e+000 148 15 31
-9.777909e-001 -5.774174e-001 -7.833802e+000 193 143 113
-6.423813e-001 -6.104120e-001 -8.004299e+000 142 150 22
-2.276274e-001 -6.427467e-001 -8.132899e+000 19 49 21
-2.481248e-001 -6.516795e-001 -8.165435e+000 136 142 44
3.005731e+000 -8.288260e-001 -9.789894e+000 184 125 108
3.308953e+000 -7.936495e-001 -9.943861e+000 172 137 112
3.920921e+000 -7.564391e-001 -1.015271e+001 27 9 7
-5.581037e-001 -7.718291e-001 -8.185143e+000 141 149 48
-7.720783e-001 1.153070e+000 -8.123594e+000 36 56 25
1.195030e+000 1.256299e+000 -8.839699e+000 144 37 31
-2.610367e-002 7.019851e-001 -7.806432e+000 32 58 45
2.243188e+000 6.316955e-001 -8.626774e+000 133 80 74
2.243188e+000 6.316955e-001 -8.626774e+000 133 80 74
4.256421e+000 2.890183e-001 -9.353255e+000 189 120 50
3.959025e+000 -3.245013e-002 -9.412236e+000 180 88 38
2.625452e+000 -2.507031e-001 -8.982421e+000 150 25 39
3.923280e+000 -1.851057e-001 -9.521524e+000 191 123 52
4.429269e+000 -2.172667e-001 -9.790071e+000 167 97 37
4.714583e+000 -2.660292e-001 -1.004179e+001 117 60 26
2.713482e+000 -4.481674e-001 -9.226014e+000 184 78 83
2.666996e+000 -4.695419e-001 -9.210313e+000 140 24 33
2.941036e+000 -5.140490e-001 -9.376752e+000 172 57 58
3.102850e+000 -5.759742e-001 -9.549023e+000 100 52 46
-5.357677e-001 -5.344898e-001 -8.000721e+000 34 85 106
-5.355226e-001 -5.361356e-001 -7.993875e+000 34 85 106
3.209078e+000 -5.992682e-001 -9.619631e+000 154 98 81
3.123064e+000 -6.630954e-001 -9.652715e+000 181 125 109
3.729112e+000 -6.928078e-001 -1.000698e+001 108 81 68
-9.862197e-001 -6.785667e-001 -7.913021e+000 173 43 64
-6.012013e-001 -7.332040e-001 -8.108713e+000 54 98 107
2.983750e+000 -8.426729e-001 -9.826946e+000 113 55 46
3.002092e+000 -8.382613e-001 -9.871840e+000 113 55 46
3.010015e+000 -7.980113e-001 -9.778922e+000 102 51 51
4.330730e+000 -8.406176e-001 -1.050555e+001 134 114 103
1.877219e+000 -8.161913e-001 -9.347567e+000 105 55 45
1.877219e+000 -8.161913e-001 -9.347567e+000 105 55 45
2.065795e+000 -8.579390e-001 -9.421955e+000 125 78 66
1.215226e+000 -1.035291e+000 -9.365157e+000 150 99 96
1.215226e+000 -1.035291e+000 -9.365157e+000 150 99 96
2.317747e+000 -1.026332e+000 -9.829784e+000 183 99 96
2.189919e+000 -1.054025e+000 -9.827931e+000 189 131 127
2.347624e+000 -9.905370e-001 -9.785552e+000 185 106 93
-1.175563e+000 -9.377343e-001 -8.184741e+000 190 161 135
2.059922e+000 7.693454e-001 -8.635740e+000 149 82 73
2.049247e+000 7.544943e-001 -8.593107e+000 149 82 73
3.443019e+000 8.727098e-001 -9.229610e+000 18 60 105
4.398536e+000 6.757287e-001 -9.445114e+000 187 145 108
-1.849006e+000 6.393188e-001 -7.592131e+000 198 181 138
-1.902740e+000 6.161859e-001 -7.650332e+000 198 175 143
4.470873e+000 1.003809e-001 -9.541753e+000 67 44 39
4.752135e+000 4.547411e-002 -9.730120e+000 153 85 43
4.854195e+000 8.319991e-003 -9.889927e+000 135 80 40
1.130511e+000 -1.388146e-001 -8.351898e+000 8 67 107
2.055950e+000 -1.731283e-001 -8.728821e+000 119 77 64
2.264863e+000 -7.484944e-002 -8.773137e+000 177 129 91
4.271900e+000 -1.719668e-001 -9.675161e+000 176 151 128
1.126515e+000 -1.652851e-001 -8.387081e+000 13 73 110
1.353936e+000 -1.784725e-001 -8.450822e+000 176 114 91
2.730915e+000 -3.505260e-001 -9.140129e+000 162 54 54
1.229034e+000 -5.656751e-001 -8.710862e+000 91 49 34
1.483153e+000 -6.834998e-001 -8.945801e+000 135 87 68
3.160995e+000 -6.229364e-001 -9.661884e+000 176 119 99
-6.861189e-001 -7.088685e-001 -8.076055e+000 162 151 20
-6.859559e-001 -7.089356e-001 -8.076061e+000 162 151 20
-5.325960e-001 -7.052915e-001 -8.130969e+000 132 135 29
3.948918e-001 -7.451161e-001 -8.476929e+000 148 149 141
3.844331e+000 -8.652369e-001 -1.028978e+001 171 153 128
-1.117247e+000 -7.175467e-001 -7.933794e+000 177 48 40
2.086270e+000 -9.458343e-001 -9.611685e+000 182 123 119
3.555579e+000 -9.233181e-001 -1.021076e+001 168 132 108
3.700749e+000 -8.989312e-001 -1.026218e+001 165 135 111
6.208222e-001 -9.651029e-001 -8.866437e+000 138 28 49
1.554825e+000 9.350093e-001 -8.651954e+000 28 78 117
2.394734e+000 1.086064e+000 -9.059712e+000 113 89 77
2.394734e+000 1.086064e+000 -9.059712e+000 113 89 77
-1.880994e+000 8.861803e-001 -7.755774e+000 192 172 139
2.702825e+000 7.953151e-001 -8.889523e+000 85 40 40
3.741341e+000 7.660464e-001 -9.291867e+000 160 124 76
4.688588e+000 7.263456e-001 -9.627178e+000 164 138 100
8.880456e-001 -1.097398e-001 -8.197516e+000 111 19 45
2.137219e+000 -1.205299e-001 -8.769561e+000 180 131 103
4.746550e+000 -1.948120e-001 -1.003733e+001 142 84 44
9.136399e-001 -4.031751e-001 -8.434733e+000 6 41 66
-2.252811e-001 -4.556804e-001 -8.016228e+000 126 108 30
3.042463e+000 -5.479180e-001 -9.487161e+000 189 123 97
3.906725e+000 -4.765825e-001 -9.809490e+000 155 88 54
3.103791e+000 -7.281125e-001 -9.729446e+000 177 121 98
1.816697e+000 -8.297571e-001 -9.337913e+000 181 123 101
1.424464e+000 -9.600317e-001 -9.364634e+000 177 120 110
1.424464e+000 -9.600317e-001 -9.364634e+000 177 120 110
1.251930e+000 -1.071493e+000 -9.475776e+000 187 128 119
1.597027e+000 -1.115256e+000 -9.888178e+000 188 115 115
-4.585090e-001 1.281954e+000 -8.341442e+000 128 131 56
1.180436e+000 1.002686e+000 -8.592895e+000 150 35 36
9.707389e-001 6.562745e-001 -8.170616e+000 140 85 57
3.834360e+000 3.002391e-001 -9.086219e+000 182 106 28
-1.886243e-001 2.089961e-001 -7.622582e+000 85 113 121
3.273780e+000 -1.550622e-001 -9.235403e+000 187 132 104
7.296956e-001 -2.795889e-001 -8.307447e+000 135 19 29
-1.047293e+000 -5.078854e-001 -7.745846e+000 196 100 93
-6.108291e-001 -5.461867e-001 -7.914455e+000 25 55 34
-2.022001e-001 -6.375905e-001 -8.193121e+000 19 48 28
7.446630e-001 -6.954972e-001 -8.617669e+000 111 22 51
-4.296878e-001 -8.759131e-001 -8.417588e+000 21 49 29
1.824145e+000 -1.055063e+000 -9.686016e+000 189 129 124
1.919013e+000 -1.055726e+000 -9.711782e+000 176 122 112
1.490300e+000 -1.059213e+000 -9.586832e+000 192 127 126
4.761141e+000 -2.425841e+000 -1.031949e+001 50 39 43
2.341701e+000 -6.903978e-001 -9.344219e+000 177 119 93
1.545070e+000 -7.242464e-001 -9.020807e+000 182 118 94
1.945204e+000 -1.355756e+000 -1.720346e+001 56 51 55
3.811488e+000 7.224741e-001 -9.288243e+000 163 125 84
1.207607e+000 4.570004e-002 -8.215207e+000 15 78 114
2.914975e+000 1.173897e-002 -9.002728e+000 156 25 39
2.757693e+000 -4.481753e-001 -9.108625e+000 151 18 35
2.757693e+000 -4.481753e-001 -9.108625e+000 151 18 35
4.983736e+000 4.178756e-001 -9.601050e+000 183 87 34
-3.335725e-001 -5.482767e-001 -8.067822e+000 56 101 112
-4.281066e-001 -7.099844e-001 -8.177869e+000 65 105 115
2.422892e+000 4.437376e-001 -8.646016e+000 162 124 85
-4.016236e+001 1.681839e+001 -7.925447e+001 52 37 44
-3.503336e+001 1.330994e+001 -8.125673e+001 117 108 101
-3.659744e+001 1.719021e+001 -8.020770e+001 45 37 34
-3.574831e+001 1.751389e+001 -8.125377e+001 46 36 36
-3.086951e+001 1.414884e+001 -8.125670e+001 113 92 61
-1.771847e-001 -2.009029e-001 -7.886588e+000 148 154 44
3.662921e+000 -2.019939e-001 -9.409852e+000 171 109 51
2.593244e+000 -2.832151e-001 -9.032284e+000 177 71 68
2.657374e-001 -6.295807e-001 -8.360388e+000 151 145 126
1.229310e+000 -5.797360e-001 -8.704629e+000 106 61 50
3.113108e+000 -8.208744e-001 -9.823042e+000 110 59 50
3.801975e+000 -7.239787e-001 -1.003648e+001 158 131 101
3.792803e+000 -7.268983e-001 -1.001843e+001 158 131 101
3.858145e+000 -8.076426e-001 -1.019722e+001 170 146 119
4.349893e+000 -7.812652e-001 -1.017299e+001 87 29 28
-3.988300e-001 -8.607305e-001 -8.401704e+000 28 44 31
2.292641e+000 -8.895932e-001 -9.563091e+000 187 119 111
2.768946e+000 -1.015231e+000 -1.000653e+001 155 40 55
1.459322e+000 -1.126147e+000 -9.838138e+000 178 83 90
9.780682e-002 -5.086266e-002 -7.874117e+000 59 74 48
2.698266e+000 1.367387e-002 -8.879438e+000 134 19 28
4.495399e+000 -2.286173e-001 -9.886931e+000 115 63 38
1.399915e+000 -6.357691e-001 -8.859636e+000 104 54 40
2.446799e+000 -7.762961e-001 -9.495601e+000 192 86 90
2.347147e+000 -1.052596e+000 -9.839714e+000 154 32 47
2.481890e+000 -1.048928e+000 -9.836555e+000 163 36 55
4.741158e+000 -2.394731e+000 -1.010330e+001 146 131 138
7.612644e-001 -6.598436e-001 -8.578964e+000 108 24 44
4.474092e+000 -5.533115e-001 -1.017024e+001 149 126 113
1.894994e+000 -8.901100e-001 -9.395476e+000 177 120 109
2.085700e+000 -9.877384e-001 -9.776876e+000 185 126 118
3.305275e+000 -9.261942e-001 -1.004960e+001 175 140 113
3.824597e+000 -9.176378e-001 -1.020883e+001 81 67 57
4.691590e+000 -2.696601e+000 -1.023335e+001 152 136 138
4.625377e+000 -2.682183e+000 -1.033408e+001 128 109 111
3.304317e+000 -8.458812e-001 -9.949593e+000 121 92 75
4.687552e+000 -2.498823e+000 -1.031347e+001 50 38 48
-3.428247e+001 2.211371e+001 -6.698646e+001 154 143 183
4.449829e+000 -6.283167e-001 -1.032586e+001 107 94 88
4.357441e+000 -9.892088e-001 -1.036210e+001 26 15 29
2.951348e+000 -4.472419e-001 -1.002547e+001 150 27 38
3.467009e+000 -8.629697e-001 -1.040485e+001 146 114 98
2.928906e+000 4.207650e-001 -8.836745e+000 161 112 62
4.774251e+000 2.913828e-001 -9.555827e+000 142 81 51
4.395429e+000 1.838324e-001 -9.462225e+000 161 141 123
4.385673e+000 1.755408e-001 -9.442208e+000 161 141 123
4.751552e+000 2.665451e-001 -9.564952e+000 56 21 20
4.757737e+000 2.146635e-001 -9.594515e+000 47 13 15
4.811956e+000 2.077681e-001 -9.637397e+000 42 8 3
4.843950e+000 2.176506e-001 -9.625397e+000 46 5 3
2.664908e+000 7.015108e-002 -8.825535e+000 175 69 71
2.668360e+000 7.380498e-002 -8.834843e+000 175 69 71
2.706232e+000 6.327479e-002 -8.858479e+000 139 24 31
3.569587e+000 -4.083529e-002 -9.220869e+000 161 93 55
4.158260e+000 -2.941469e-003 -9.473242e+000 204 134 68
4.290035e+000 -3.318885e-002 -9.554963e+000 41 20 15
4.290777e+000 -3.170632e-002 -9.557292e+000 41 20 15
4.532840e+000 6.767099e-003 -9.617713e+000 114 58 22
4.743984e+000 1.041620e-001 -9.821386e+000 177 102 47
4.740939e+000 -1.498553e-002 -9.774330e+000 147 88 48
8.340971e-001 -1.450083e-001 -8.231974e+000 183 144 105
2.283097e+000 -1.305708e-001 -8.793482e+000 174 126 102
2.664528e+000 -1.531658e-001 -8.956702e+000 144 35 38
3.692627e+000 -1.497303e-001 -9.399017e+000 162 86 47
3.986631e+000 -1.476413e-001 -9.507239e+000 169 85 51
4.240799e+000 -1.733726e-001 -9.655738e+000 180 155 130
4.359201e+000 -1.632422e-001 -9.711265e+000 170 144 120
2.311167e-002 -2.686769e-001 -7.986070e+000 162 153 35
7.612131e-001 -2.817519e-001 -8.300177e+000 139 13 32
1.086978e+000 -1.869188e-001 -8.359592e+000 19 75 112
1.086269e+000 -1.881569e-001 -8.356248e+000 19 75 112
2.673195e+000 -2.719466e-001 -9.053127e+000 184 72 78
3.296781e+000 -3.186446e-001 -9.367240e+000 110 63 44
3.614267e+000 -2.744466e-001 -9.470922e+000 107 50 23
3.640261e+000 -2.176743e-001 -9.428447e+000 124 64 13
4.245989e+000 -1.996443e-001 -9.683237e+000 33 18 19
2.645149e+000 -4.178605e-001 -9.175386e+000 185 76 80
2.892330e+000 -4.419315e-001 -9.305496e+000 184 77 75
4.458154e+000 -3.347426e-001 -9.923108e+000 108 89 75
-1.195234e+000 -7.660626e-001 -6.429227e+000 19 86 129
-5.900171e-001 -3.987755e-001 -7.837863e+000 39 78 68
-5.900171e-001 -3.987755e-001 -7.837863e+000 39 78 68
-2.190651e-001 -4.455189e-001 -8.011168e+000 73 96 83
2.955477e-001 -4.783648e-001 -8.252273e+000 150 145 126
3.470786e-001 -4.779814e-001 -8.270946e+000 151 136 123
3.646410e-001 -4.959826e-001 -8.289832e+000 115 17 26
7.816211e-001 -4.244224e-001 -8.407925e+000 192 148 123
2.598914e+000 -5.657569e-001 -9.267146e+000 177 69 75
2.598914e+000 -5.657569e-001 -9.267146e+000 177 69 75
2.872402e+000 -5.128184e-001 -9.347827e+000 197 77 82
3.264636e+000 -4.619633e-001 -9.485399e+000 120 65 53
3.262539e+000 -4.636158e-001 -9.480556e+000 120 65 53
3.482999e+000 -5.068103e-001 -9.603952e+000 127 20 17
3.646023e+000 -4.852250e-001 -9.693015e+000 135 39 20
3.580235e+000 -5.581354e-001 -9.732640e+000 169 114 88
3.668329e+000 -5.411270e-001 -9.795046e+000 159 118 89
3.560811e+000 -5.931299e-001 -9.754907e+000 167 133 101
3.666374e+000 -5.075649e-001 -9.709195e+000 179 101 53
3.758022e+000 -4.688431e-001 -9.721825e+000 182 121 60
3.757683e+000 -4.693961e-001 -9.720135e+000 182 121 60
4.488623e+000 -5.861178e-001 -1.028465e+001 151 130 120
4.578501e+000 -5.750678e-001 -1.032063e+001 102 53 38
4.671382e+000 -5.047170e-001 -1.037322e+001 122 74 51
-1.502895e+000 -4.746291e-001 -7.641133e+000 136 136 120
-1.052895e+000 -5.054909e-001 -7.755744e+000 169 76 62
-2.545458e-001 -5.207950e-001 -8.056171e+000 23 49 32
-6.645039e-002 -6.419988e-001 -8.185727e+000 22 52 33
2.569467e-001 -5.716890e-001 -8.305234e+000 120 28 29
2.351580e-001 -6.435163e-001 -8.373927e+000 110 30 32
2.652809e-001 -6.292384e-001 -8.361354e+000 156 144 122
3.918843e-001 -6.524177e-001 -8.443686e+000 150 143 135
1.541129e+000 -6.085793e-001 -8.860139e+000 96 45 35
2.515264e+000 -5.950551e-001 -9.283188e+000 190 74 84
2.516575e+000 -5.942697e-001 -9.286264e+000 190 74 84
2.859462e+000 -7.185732e-001 -9.562826e+000 177 65 68
2.868714e+000 -6.203638e-001 -9.479838e+000 144 28 32
3.160989e+000 -7.269583e-001 -9.744317e+000 113 53 51
3.160648e+000 -7.273261e-001 -9.742679e+000 113 53 51
3.455236e+000 -7.004639e-001 -9.861764e+000 161 128 100
3.550012e+000 -7.142050e-001 -9.899825e+000 116 85 65
3.678605e+000 -6.912121e-001 -9.963325e+000 153 124 100
3.757687e+000 -6.816274e-001 -9.958493e+000 156 126 98
3.776078e+000 -7.345578e-001 -1.005541e+001 92 65 45
4.345846e+000 -7.156571e-001 -1.034141e+001 35 16 15
4.382439e+000 -7.365301e-001 -1.039387e+001 147 133 124
4.522556e+000 -6.830399e-001 -1.040674e+001 100 46 42
-1.133534e+000 -6.460607e-001 -7.819553e+000 16 67 113
-1.032973e+000 -6.967055e-001 -7.929062e+000 176 30 43
-6.870920e-001 -6.238810e-001 -7.985390e+000 158 158 27
-4.716069e-001 -7.339236e-001 -8.175872e+000 148 160 36
2.384745e-001 -6.937917e-001 -8.436832e+000 156 144 133
2.386449e-001 -6.940035e-001 -8.436824e+000 156 144 133
2.632961e-001 -7.070529e-001 -8.463839e+000 113 22 29
2.554972e-001 -7.465167e-001 -8.515540e+000 120 20 38
3.277663e-001 -7.014857e-001 -8.511856e+000 156 142 133
3.729725e-001 -6.901213e-001 -8.490748e+000 148 147 135
2.095941e+000 -7.974364e-001 -9.360484e+000 115 61 52
2.095941e+000 -7.974364e-001 -9.360484e+000 115 61 52
2.825318e+000 -7.231837e-001 -9.568460e+000 151 35 43
2.825318e+000 -7.231837e-001 -9.568460e+000 151 35 43
3.483655e+000 -8.089345e-001 -1.002116e+001 160 126 101
3.500206e+000 -7.500635e-001 -9.920955e+000 158 127 99
3.589067e+000 -7.746806e-001 -9.979345e+000 110 78 57
3.707650e+000 -8.170476e-001 -1.012799e+001 162 129 104
-1.019913e+000 -7.495134e-001 -8.006331e+000 170 27 36
-1.019913e+000 -7.495134e-001 -8.006331e+000 170 27 36
-7.183222e-001 -7.771127e-001 -8.146197e+000 144 158 7
5.977438e-001 -8.399175e-001 -8.784093e+000 192 149 117
5.860532e-001 -8.950182e-001 -8.862335e+000 190 144 119
2.380876e+000 -9.132997e-001 -9.654041e+000 195 107 101
2.383230e+000 -9.112717e-001 -9.658687e+000 195 107 101
2.721339e+000 -9.610590e-001 -9.920977e+000 158 39 51
4.298309e+000 -9.511466e-001 -1.062118e+001 156 145 134
4.347358e+000 -9.241971e-001 -1.062757e+001 90 79 61
4.312806e+000 -9.813537e-001 -1.065404e+001 101 83 75
-1.149244e+000 -8.502195e-001 -8.088852e+000 198 151 119
-1.102993e+000 -8.824156e-001 -8.134688e+000 189 148 121
2.191817e+000 -1.009504e+000 -9.707282e+000 139 84 78
2.217636e+000 -1.031318e+000 -9.750020e+000 171 114 104
2.290749e+000 -1.002846e+000 -9.920931e+000 149 24 40
-1.247300e+000 -1.009293e+000 -8.267008e+000 174 23 44
-1.247300e+000 -1.009293e+000 -8.267008e+000 174 23 44
4.944185e-001 -1.034116e+000 -9.028470e+000 201 155 134
4.945076e-001 -1.033111e+000 -9.029502e+000 201 155 134
6.448170e-001 -1.107768e+000 -9.268660e+000 18 86 142
1.504641e+000 -1.127939e+000 -9.864689e+000 192 104 111
4.716265e+000 4.978137e-001 -9.567170e+000 192 95 48
9.423965e-001 -3.370544e-002 -8.147101e+000 18 73 105
2.701806e+000 1.994395e-002 -8.886298e+000 141 24 33
2.777914e+000 3.283232e-002 -8.893832e+000 145 31 36
3.004290e+000 7.750608e-002 -8.957704e+000 186 85 91
4.718850e+000 7.444489e-002 -9.680737e+000 47 20 21
-2.177803e+000 1.752485e-001 -7.707050e+000 197 171 136
1.341225e+000 -4.302800e-002 -8.366725e+000 115 66 57
2.714953e+000 -8.649067e-002 -8.931566e+000 154 46 46
4.382926e+000 -5.471628e-002 -9.624147e+000 177 152 134
3.324498e+000 -1.994628e-001 -9.274704e+000 137 93 74
3.324498e+000 -1.994628e-001 -9.274704e+000 137 93 74
-4.605657e-001 -3.784630e-001 -7.875154e+000 153 141 6
2.669802e+000 -4.426314e-001 -9.185364e+000 146 29 38
2.709778e+000 -4.509190e-001 -9.218735e+000 184 78 83
2.966871e+000 -4.362002e-001 -9.326655e+000 189 84 83
3.552405e+000 -4.424441e-001 -9.623211e+000 166 48 39
3.789718e+000 -3.787988e-001 -9.643513e+000 166 76 42
3.801911e+000 -4.562954e-001 -9.723615e+000 101 48 17
3.840565e+000 -4.519213e-001 -9.718330e+000 168 115 39
2.432190e+000 -5.690592e-001 -9.209852e+000 183 106 96
2.943436e+000 -5.124442e-001 -9.377651e+000 172 57 58
2.886749e+000 -5.767457e-001 -9.422481e+000 152 33 43
4.519217e+000 -4.837902e-001 -1.015717e+001 157 127 109
3.592836e-001 -6.502468e-001 -8.423844e+000 156 149 139
1.788902e+000 -6.478939e-001 -9.031330e+000 182 121 107
2.368421e+000 -6.233671e-001 -9.249809e+000 113 62 52
2.870312e+000 -6.389123e-001 -9.525489e+000 147 25 36
2.946952e+000 -6.188031e-001 -9.507687e+000 136 19 25
3.797428e+000 -6.174841e-001 -9.934192e+000 165 135 107
3.903753e+000 -7.254285e-001 -1.014376e+001 163 137 120
4.560485e+000 -5.982735e-001 -1.034359e+001 100 53 35
-5.477055e-001 -6.379671e-001 -8.047604e+000 155 151 35
2.775339e-001 -6.716090e-001 -8.387428e+000 155 150 136
2.739179e-001 -7.647436e-001 -8.533624e+000 151 144 128
7.582783e-001 -7.696968e-001 -8.727655e+000 19 71 119
2.458211e+000 -8.214613e-001 -9.562911e+000 143 25 37
2.458211e+000 -8.214613e-001 -9.562911e+000 143 25 37
2.499677e+000 -7.348446e-001 -9.462608e+000 146 25 34
2.561380e+000 -7.437877e-001 -9.481307e+000 142 20 32
2.525652e+000 -8.297141e-001 -9.585237e+000 153 27 40
2.736456e+000 -8.362436e-001 -9.704667e+000 173 68 73
2.835169e+000 -8.032829e-001 -9.709148e+000 181 75 80
2.930286e+000 -7.341264e-001 -9.785922e+000 160 34 46
3.677755e+000 -7.830486e-001 -1.006357e+001 99 69 43
3.614976e+000 -8.430951e-001 -1.011993e+001 157 129 100
3.679580e+000 -8.504063e-001 -1.013959e+001 165 135 107
4.325857e+000 -7.708540e-001 -1.039805e+001 108 88 86
4.502166e+000 -7.756059e-001 -1.054989e+001 88 27 35
-2.505543e+000 -3.895979e-001 -8.609679e+000 218 208 204
1.747619e+000 -8.438034e-001 -9.264132e+000 122 71 60
1.747537e+000 -8.438266e-001 -9.263979e+000 122 71 60
2.363129e+000 -9.412048e-001 -9.693882e+000 184 104 98
2.525094e+000 -8.789172e-001 -9.668722e+000 154 30 41
2.621727e+000 -8.838717e-001 -9.712529e+000 172 64 60
2.622757e+000 -8.830633e-001 -9.714723e+000 172 64 60
1.027444e+000 -1.027459e+000 -9.246539e+000 113 65 62
1.232944e+000 -1.007102e+000 -9.336095e+000 120 68 64
1.232944e+000 -1.007102e+000 -9.336095e+000 120 68 64
1.325690e+000 -1.032176e+000 -9.361651e+000 125 71 69
1.567601e+000 -1.000402e+000 -9.423758e+000 121 67 55
2.574162e+000 -9.871182e-001 -9.886560e+000 181 74 82
2.620092e+000 -9.829871e-001 -9.876514e+000 151 26 40
2.758599e+000 -9.795756e-001 -9.996846e+000 182 71 78
3.563156e+000 -1.074500e+000 -1.065541e+001 178 150 122
4.459427e+000 -1.084652e+000 -1.096491e+001 132 43 57
6.180414e-001 -1.133864e+000 -9.262378e+000 153 162 169
7.125364e-001 -1.097758e+000 -9.296908e+000 24 91 161
8.803015e-001 -1.091085e+000 -9.368816e+000 18 87 151
1.191795e+000 -1.085628e+000 -9.449675e+000 186 131 114
1.305867e+000 -1.084215e+000 -9.477903e+000 186 128 117
4.736892e+000 -2.331122e+000 -9.979326e+000 140 127 121
1.833598e+000 8.441024e-001 -8.665675e+000 182 123 78
2.640881e+000 6.694414e-001 -8.812576e+000 63 18 24
3.313013e+000 8.874013e-001 -9.229502e+000 37 28 46
2.840547e+000 7.265869e-002 -8.915974e+000 180 76 74
4.748401e+000 4.293757e-002 -9.727013e+000 153 85 43
1.541915e+000 -8.177147e-002 -8.483277e+000 103 56 49
1.541171e+000 -8.245424e-002 -8.482376e+000 103 56 49
1.649726e+000 -7.917986e-002 -8.524216e+000 94 47 36
1.982423e+000 -6.727722e-002 -8.644599e+000 111 66 47
1.983560e+000 -6.688974e-002 -8.646706e+000 111 66 47
2.095087e+000 -6.739090e-002 -8.690770e+000 114 72 47
2.138288e+000 -9.260408e-002 -8.695182e+000 173 122 95
2.319413e+000 -5.882215e-002 -8.781634e+000 114 67 49
2.317066e+000 -6.228890e-002 -8.771906e+000 114 67 49
2.171800e+000 -1.639668e-001 -8.790464e+000 117 80 65
2.632815e+000 -1.298682e-001 -8.928286e+000 185 77 80
4.382460e+000 -1.047281e-001 -9.661276e+000 171 145 125
4.547243e+000 -5.004560e-002 -9.730301e+000 140 75 29
2.035371e+000 -5.702041e-001 -9.031835e+000 174 118 104
2.444949e+000 -5.062879e-001 -9.153982e+000 184 116 91
2.599107e+000 -4.769019e-001 -9.205912e+000 144 19 37
-9.079943e-001 -5.440679e-001 -7.840933e+000 170 38 34
1.597390e+000 -6.774098e-001 -8.985054e+000 136 93 78
2.046021e+000 -6.523449e-001 -9.158809e+000 137 86 87
2.046021e+000 -6.523449e-001 -9.158809e+000 137 86 87
2.370258e+000 -6.845516e-001 -9.300779e+000 182 123 104
8.060865e-001 -7.521726e-001 -8.729831e+000 3 48 85
3.364291e+000 -7.655206e-001 -9.891237e+000 128 95 71
4.581122e+000 -7.839225e-001 -1.079054e+001 70 14 24
-2.462494e+000 -3.704637e-001 -8.627520e+000 58 47 55
-2.433060e+000 -3.976077e-001 -8.551372e+000 58 47 55
-1.116778e+000 -7.193410e-001 -7.931391e+000 177 48 40
1.842160e+000 -8.718810e-001 -9.349154e+000 125 73 59
1.843440e+000 -8.699897e-001 -9.350476e+000 125 73 59
2.099283e+000 -9.095456e-001 -9.517995e+000 183 121 111
6.083702e-001 -9.998791e-001 -8.992281e+000 136 24 32
1.398386e+000 -1.008677e+000 -9.414621e+000 181 122 111
1.947254e+000 -9.985672e-001 -9.594334e+000 178 124 114
6.573494e-001 -1.064208e+000 -9.184881e+000 18 58 99
-2.185452e+001 2.225227e+001 -4.127007e+001 113 97 83
2.700970e+000 6.221185e-001 -8.807471e+000 81 36 39
2.613153e+000 5.085690e-002 -8.821472e+000 144 22 33
4.826490e+000 4.749459e-002 -9.774193e+000 135 67 36
2.244988e+000 -1.175462e-001 -8.810985e+000 175 125 98
3.144576e+000 -4.327789e-001 -9.398050e+000 159 110 94
3.144576e+000 -4.327789e-001 -9.398050e+000 159 110 94
1.329283e+000 -5.428378e-001 -8.716143e+000 157 104 90
3.176535e-001 -5.341299e-001 -8.299201e+000 146 144 123
7.821951e-001 -6.060919e-001 -8.533825e+000 114 17 27
2.226088e+000 -6.186125e-001 -9.187938e+000 175 120 100
2.315571e+000 -8.245964e-001 -9.529773e+000 178 117 99
-2.557158e+000 -4.168847e-001 -8.525243e+000 200 56 85
-5.274417e-001 -7.434210e-001 -8.174284e+000 31 56 35
7.852154e-001 -7.999355e-001 -8.792330e+000 4 51 72
3.810781e+000 -9.512323e-001 -1.039126e+001 157 136 115
4.209419e+000 -9.803767e-001 -1.061983e+001 119 104 102
9.757990e-001 -1.014995e+000 -9.303748e+000 179 121 114
2.606486e+000 -1.037975e+000 -9.994162e+000 141 12 36
-1.387152e+000 -1.010355e+000 -8.202045e+000 33 93 126
-1.983831e+001 2.271338e+001 -4.347828e+001 59 43 41
2.804577e+000 7.767357e-001 -8.948531e+000 141 109 98
3.286292e+000 2.660431e-001 -9.010079e+000 167 118 70
4.010358e+000 1.554138e-002 -9.437651e+000 180 83 33
8.812193e-001 -1.392974e-001 -8.228504e+000 120 14 35
2.571974e+000 -2.395167e-001 -9.023997e+000 142 21 30
-1.047727e+000 -5.083415e-001 -7.745393e+000 196 100 93
6.214857e-001 -6.948975e-001 -8.586048e+000 155 30 40
4.404107e+000 -7.607085e-001 -1.040856e+001 124 100 93
-3.850183e-001 -7.589619e-001 -8.258014e+000 21 57 28
5.743269e-001 -9.493563e-001 -8.903752e+000 166 72 74
-6.767159e-001 -9.757845e-001 -8.457549e+000 126 133 115
4.484862e+000 -2.824467e+000 -1.048082e+001 35 29 32
-7.356312e-001 -8.040525e-001 -8.177957e+000 63 93 61
-6.762333e-001 -8.454976e-001 -8.268802e+000 24 53 35
4.225947e+000 -2.395749e-001 -9.711034e+000 111 81 67
-1.737345e-001 -3.675625e-001 -7.999479e+000 72 112 111
3.928330e+000 -9.796038e-002 -9.423409e+000 172 82 47
-3.336929e-001 -5.500934e-001 -8.068923e+000 56 101 112
8.288223e-001 -1.077148e+000 -9.264825e+000 15 88 143
4.646338e+000 6.567494e-001 -9.597642e+000 155 116 85
2.055194e+000 -5.861473e-001 -9.111691e+000 122 68 58
4.543694e+000 -9.715668e-001 -1.082120e+001 32 18 31
2.270783e-001 -1.095045e-001 -7.935887e+000 159 155 130
-1.419522e+000 -5.059611e-001 -7.643421e+000 17 84 126
3.072162e+000 -1.000374e+000 -1.022621e+001 185 131 119
2.563414e+000 3.010294e-003 -8.819524e+000 168 113 92
8.478243e-001 -1.140843e-001 -8.210619e+000 185 137 114
1.324630e+000 -1.208099e-001 -8.406077e+000 77 27 17
1.434448e+000 -5.766564e-002 -8.410813e+000 78 25 22
