ply
format ascii 1.0
element face 0
property list uchar int vertex_indices
element vertex 881
property float x
property float y
property float z
property uchar diffuse_red
property uchar diffuse_green
property uchar diffuse_blue
end_header
-5.210023e-001 -3.282841e-001 -7.812705e+000 26 56 27
-5.210023e-001 -3.282841e-001 -7.812705e+000 26 56 27
3.384055e+000 4.055173e-002 -9.073540e+000 196 137 107
3.900827e+000 -1.128856e-001 -9.435204e+000 194 139 93
1.673465e+000 -1.276856e-001 -8.563654e+000 190 125 105
2.492693e+000 -8.243002e-002 -8.903600e+000 193 141 109
3.246302e+000 -1.824587e-001 -9.231142e+000 139 96 84
-7.093576e-001 -3.356071e-001 -7.754861e+000 135 136 74
7.398077e-001 -3.081463e-001 -8.309255e+000 174 114 81
3.203380e+000 -5.704592e-001 -9.563511e+000 188 126 107
-1.489827e-001 -4.483544e-001 -8.025736e+000 150 152 62
-1.480200e-001 -4.510543e-001 -8.056553e+000 150 152 62
1.068185e+000 -5.478276e-001 -8.610621e+000 17 56 92
-7.923793e-001 -1.027209e+000 -8.498679e+000 143 154 67
-6.529922e-001 -9.470088e-001 -8.429042e+000 114 137 124
-3.520902e-001 -9.576999e-001 -8.570555e+000 35 58 41
1.128037e+000 3.770519e-002 -8.135310e+000 17 85 134
4.877768e+000 2.670492e-001 -9.581685e+000 161 98 58
4.323378e+000 1.938899e-001 -9.426617e+000 90 65 61
3.948560e+000 5.548158e-002 -9.303477e+000 190 82 42
1.365013e+000 -2.825896e-002 -8.369468e+000 187 130 105
3.246302e+000 -1.824587e-001 -9.231142e+000 139 96 84
4.348528e+000 -5.039240e-002 -9.583477e+000 185 162 144
2.643895e+000 1.370681e-001 -8.752222e+000 169 33 48
1.006800e+000 -1.969515e-001 -8.336179e+000 14 59 83
3.391858e-001 -6.126638e-001 -8.373055e+000 131 88 79
-3.074371e-001 -6.196613e-001 -8.080856e+000 33 60 32
1.949385e-001 -6.536563e-001 -8.507550e+000 161 107 104
3.283341e+000 -6.625129e-002 -9.159724e+000 195 144 124
-4.821533e-002 -9.443458e-002 -7.833834e+000 147 156 129
4.485726e+000 3.482644e-001 -9.408437e+000 34 18 32
4.391551e+000 2.480932e-001 -9.419701e+000 184 159 142
1.382833e+000 -1.214180e-001 -8.403907e+000 114 59 63
-3.316744e-001 -3.973402e-001 -7.947233e+000 24 53 30
4.031077e+000 -6.299685e-001 -1.008087e+001 172 146 128
-4.790252e-001 -8.195961e-001 -8.322572e+000 28 55 40
3.108691e-001 -5.289872e-001 -8.266572e+000 173 156 133
1.475825e+000 -9.077521e-001 -9.226431e+000 140 80 70
-2.291662e-001 2.941365e-001 -7.582714e+000 160 158 137
4.914555e+000 1.455556e-001 -9.691010e+000 159 92 46
4.695012e+000 2.562449e-001 -9.493353e+000 183 100 52
2.925146e+000 1.325079e-001 -8.873274e+000 170 34 47
3.463693e+000 5.591663e-001 -9.028058e+000 22 20 44
4.397529e+000 3.273584e-001 -9.376392e+000 37 17 19
4.452253e+000 2.952569e-001 -9.414913e+000 186 159 138
4.415708e+000 1.410129e-001 -9.502832e+000 190 173 145
3.260917e+000 -1.327965e-001 -9.180036e+000 199 145 114
3.811798e+000 -1.782145e-001 -9.466372e+000 193 129 58
-3.631738e-001 -3.638972e-001 -7.895985e+000 174 163 47
1.339923e+000 -1.322408e-001 -8.427534e+000 187 128 110
4.765919e+000 -8.894046e-003 -9.798464e+000 174 106 40
1.433007e+000 -1.418499e-001 -8.443809e+000 197 132 112
-1.039736e-001 -9.801754e-001 -8.720431e+000 33 63 19
-1.039736e-001 -9.801754e-001 -8.720431e+000 33 63 19
1.016602e+000 -7.108128e-001 -8.803223e+000 18 65 112
1.613066e+000 6.195648e-001 -8.367737e+000 167 165 135
2.079196e+000 7.158268e-001 -8.564120e+000 164 91 90
2.543577e+000 -1.335657e-001 -8.889651e+000 186 129 102
4.063530e+000 -4.742818e-001 -9.883615e+000 188 153 126
3.951976e+000 -6.884296e-002 -9.421557e+000 104 37 11
-6.452399e-001 -5.342976e-001 -7.894556e+000 47 105 123
4.088084e+000 -3.847218e-001 -9.795578e+000 189 162 126
3.937817e+000 -7.810436e-001 -1.019949e+001 166 139 117
3.965499e+000 1.309452e-001 -9.309073e+000 209 121 71
6.448521e-001 -7.836246e-001 -8.667813e+000 130 32 68
-5.817496e-001 -8.631440e-001 -8.351862e+000 150 153 39
3.905119e+000 1.939371e-001 -9.251493e+000 186 92 29
8.692197e-001 1.237135e-002 -8.115918e+000 102 22 57
3.598902e+000 2.635784e-001 -9.064588e+000 101 23 37
2.037784e+000 7.672362e-001 -8.591506e+000 93 29 30
3.097595e+000 6.638042e-001 -8.947762e+000 65 32 41
3.383574e+000 7.666018e-001 -9.103299e+000 31 27 55
3.390480e+000 7.225171e-001 -9.078328e+000 35 30 51
1.686208e+000 6.187701e-001 -8.382651e+000 187 149 99
2.079196e+000 7.158268e-001 -8.564120e+000 164 91 90
2.833023e+000 6.535210e-001 -8.819135e+000 68 21 32
2.935403e+000 6.547847e-001 -8.882926e+000 82 35 41
2.749648e+000 4.634384e-001 -8.742123e+000 46 14 25
2.785762e+000 -1.868543e-001 -9.014840e+000 186 70 74
1.635052e-001 6.213965e-001 -7.806935e+000 36 59 48
2.045867e+000 6.436677e-001 -8.539422e+000 121 53 64
4.464178e+000 8.913724e-002 -9.538030e+000 33 17 31
1.801463e+000 -1.425207e-001 -8.646853e+000 195 134 99
-3.210149e-001 -3.627663e-001 -7.923485e+000 178 173 28
4.035559e+000 -5.580752e-001 -9.973323e+000 191 158 138
-7.643772e-001 -6.676294e-001 -7.999208e+000 152 158 40
-1.261836e-001 6.981523e-001 -7.742204e+000 167 151 91
3.301786e+000 8.365480e-001 -9.163315e+000 155 121 97
2.526887e+000 -1.792725e-001 -8.914396e+000 192 135 105
2.083212e-001 -6.980383e-001 -8.415770e+000 163 164 146
-3.002535e-001 -9.467897e-001 -8.584349e+000 160 160 43
7.095560e-001 -4.040243e-001 -8.358677e+000 200 140 104
4.454935e+000 -8.125867e-001 -1.051052e+001 132 112 103
4.754503e+000 -2.690039e+000 -1.035480e+001 136 120 122
2.612014e+000 7.031531e-001 -8.772248e+000 73 26 37
2.826855e+000 5.581903e-001 -8.792515e+000 152 107 55
3.687592e+000 6.164112e-001 -9.148505e+000 14 61 103
4.653211e+000 -2.738908e-001 -9.990440e+000 178 146 125
3.431107e+000 3.388229e-001 -9.003248e+000 68 18 27
-2.414938e-001 2.942291e-003 -7.698746e+000 62 111 141
2.962870e-001 -5.365697e-001 -8.278244e+000 160 141 125
-1.222279e+000 1.283614e+000 -8.128516e+000 167 39 46
-1.162134e+000 1.287702e+000 -8.148693e+000 176 27 44
1.244749e+000 1.345403e+000 -8.956108e+000 196 93 85
2.225862e+000 9.888796e-001 -8.842206e+000 120 88 89
-8.241054e-001 6.364774e-001 -7.447545e+000 158 157 138
2.579525e+000 8.083815e-001 -8.819203e+000 164 126 113
3.358408e+000 8.376254e-001 -9.125585e+000 28 28 56
2.276279e+000 6.354773e-001 -8.608918e+000 84 32 36
2.929281e+000 3.969240e-001 -8.813334e+000 137 83 51
-1.266404e+000 1.056966e+000 -7.784743e+000 176 38 46
9.985884e-001 9.386680e-001 -8.353628e+000 181 46 41
1.607770e+000 1.191651e+000 -8.822261e+000 16 78 121
1.579192e+000 6.491339e-001 -8.348339e+000 69 41 59
2.466339e+000 6.434126e-001 -8.682447e+000 62 26 24
3.995006e+000 5.958971e-001 -9.199005e+000 138 51 67
3.977127e+000 1.262886e-002 -9.379466e+000 131 49 26
8.922448e-001 -1.183075e-001 -8.264122e+000 12 84 124
-6.239547e-001 -3.752789e-001 -7.813985e+000 22 50 39
-7.648473e-001 -6.047717e-001 -7.927140e+000 159 153 46
-7.014413e-001 -5.408472e-001 -7.886104e+000 40 58 26
5.279617e-001 7.785678e-001 -8.051220e+000 29 55 20
5.279617e-001 7.785678e-001 -8.051220e+000 29 55 20
7.692437e-001 8.200553e-001 -8.184605e+000 165 88 78
3.206586e+000 9.071829e-001 -9.154872e+000 76 46 59
-2.047041e+000 6.978016e-001 -7.619441e+000 195 171 145
5.085538e+000 4.765122e-001 -9.572878e+000 199 104 52
2.813942e+000 -9.388373e-002 -8.976567e+000 202 86 93
2.960497e+000 -2.591004e-001 -9.185809e+000 201 96 93
2.994956e+000 -3.738243e-001 -9.255371e+000 200 86 96
3.228907e+000 -5.172775e-001 -9.527031e+000 195 134 114
-6.346794e-001 -6.034310e-001 -7.967027e+000 44 108 125
-8.166550e-001 1.086949e+000 -8.012590e+000 163 153 112
-5.480975e-001 1.075256e+000 -8.075887e+000 168 152 97
-1.612207e-001 1.003666e+000 -8.020457e+000 32 61 33
9.446361e-001 1.015858e+000 -8.398384e+000 179 46 47
3.301786e+000 8.365480e-001 -9.163315e+000 155 121 97
3.291031e+000 -2.363057e-001 -9.283588e+000 194 143 116
3.242226e+000 -4.151175e-001 -9.415649e+000 196 141 110
2.009279e+000 -6.148511e-001 -9.082759e+000 189 131 117
2.083212e-001 -6.980383e-001 -8.415770e+000 163 164 146
2.990791e+000 -8.279358e-001 -9.867516e+000 194 128 113
2.543020e+000 9.835916e-001 -8.983635e+000 144 119 97
1.568657e+000 8.765213e-001 -8.587845e+000 21 78 107
2.952426e+000 8.903007e-001 -9.015347e+000 73 30 40
7.730820e-001 -9.076516e-002 -8.106255e+000 144 21 24
3.298694e+000 -1.505336e-001 -9.207797e+000 193 138 106
4.009438e+000 -2.952115e-001 -9.639453e+000 172 81 47
4.904868e+000 -2.161073e+000 -9.915901e+000 44 32 44
1.675943e-001 8.096109e-001 -7.929989e+000 30 57 36
-8.303783e-001 5.657453e-001 -7.379254e+000 48 99 123
6.125525e-002 -1.212131e-001 -7.898358e+000 163 164 144
-7.775937e-001 -6.390771e-001 -7.974593e+000 90 118 87
1.887730e+000 7.240697e-001 -8.526635e+000 181 143 96
1.544364e+000 5.815115e-001 -8.313964e+000 167 161 134
-1.382101e-001 -6.391470e-001 -8.194962e+000 39 62 47
-2.188369e-001 6.340531e-001 -7.648450e+000 31 58 40
3.453621e+000 -3.100829e-001 -9.429637e+000 193 143 108
1.063113e+000 8.288195e-001 -8.302770e+000 170 159 132
-5.649321e-001 3.223085e-001 -7.530192e+000 28 91 126
2.791514e+000 3.816730e-001 -8.788901e+000 41 16 27
2.972004e-001 -5.393509e-001 -8.306143e+000 160 141 125
-4.215209e-001 4.447691e-001 -7.531399e+000 155 148 122
4.105470e+000 -8.026757e-001 -1.030642e+001 103 86 79
4.727758e+000 5.322867e-001 -9.952419e+000 174 102 39
-1.056517e+000 6.968463e-001 -7.418535e+000 180 154 112
1.591687e+000 1.024931e+000 -8.644833e+000 26 78 122
1.984504e+000 1.009019e+000 -8.763512e+000 162 94 93
1.981025e+000 9.712897e-001 -8.749906e+000 90 27 35
2.899881e+000 9.187604e-001 -9.001140e+000 79 29 35
3.243073e+000 9.128581e-001 -9.117782e+000 129 43 51
2.143637e+000 7.091876e-001 -8.588143e+000 163 99 101
2.681699e+000 6.853167e-001 -8.781383e+000 117 69 69
2.993348e+000 6.578182e-001 -8.895745e+000 62 24 32
3.637756e+000 7.556759e-001 -9.145294e+000 18 54 96
1.632595e+000 5.699869e-001 -8.345871e+000 175 87 71
3.047882e+000 5.578833e-001 -8.852809e+000 119 75 32
2.798923e+000 4.926881e-002 -8.876755e+000 157 30 37
2.699384e+000 -1.527142e-002 -8.844932e+000 159 26 40
3.801353e-001 1.668284e+000 -8.997211e+000 155 93 75
8.350464e-001 8.138403e-001 -8.202881e+000 179 151 126
1.942745e+000 8.676042e-001 -8.611682e+000 102 36 45
4.033273e+000 8.716110e-001 -9.398743e+000 108 27 27
4.825223e+000 2.987168e-001 -9.540907e+000 51 21 20
2.681369e+000 9.045776e-002 -8.799259e+000 192 74 81
2.741732e+000 -2.526765e-001 -9.066303e+000 156 24 37
3.055028e+000 -3.343368e-001 -9.253778e+000 160 34 45
3.857366e+000 -3.719901e-001 -9.685078e+000 188 97 69
2.007043e+000 -8.802764e-001 -9.461826e+000 186 125 110
8.207112e-002 8.312673e-001 -7.926691e+000 164 156 54
8.207112e-002 8.312673e-001 -7.926691e+000 164 156 54
2.196477e+000 1.030007e+000 -8.858624e+000 80 39 48
2.621400e+000 1.086588e+000 -9.088325e+000 31 14 22
2.621400e+000 1.086588e+000 -9.088325e+000 31 14 22
2.581533e+000 3.597982e-002 -8.832841e+000 190 139 111
1.947910e+000 -1.363876e-001 -8.648005e+000 95 46 39
-1.100211e+000 7.268238e-001 -7.438940e+000 164 37 38
-9.135512e-001 7.401776e-001 -7.523145e+000 179 33 47
8.153597e-001 6.547936e-001 -8.037932e+000 166 83 72
2.151023e+000 6.448936e-001 -8.573917e+000 111 52 58
1.307703e+000 -2.380208e-002 -8.312652e+000 104 53 42
1.310403e+000 -2.448877e-002 -8.331122e+000 104 53 42
8.164565e-001 -2.061630e-001 -8.254452e+000 140 31 48
-4.597353e-001 1.376431e+000 -8.416378e+000 171 150 121
5.775151e-001 9.766244e-001 -8.264689e+000 171 35 36
1.668495e+000 1.049133e+000 -8.655915e+000 9 72 119
3.210424e+000 6.928689e-001 -8.979736e+000 83 53 65
4.597533e+000 8.352137e-001 -9.612974e+000 161 73 66
-7.181968e-001 -5.674397e-001 -7.874808e+000 31 63 36
-3.797169e-001 1.313041e+000 -8.400983e+000 163 150 117
9.702019e-001 1.151171e+000 -8.561506e+000 168 149 125
1.173446e+000 -4.901366e-002 -8.306800e+000 23 69 105
2.814584e+000 -6.402497e-001 -9.599278e+000 172 29 47
2.814584e+000 -6.402497e-001 -9.599278e+000 172 29 47
4.647515e+000 -3.179876e+000 -1.051727e+001 160 141 145
-2.496889e-001 8.771126e-001 -7.857328e+000 165 152 118
2.498464e+000 -2.084878e-001 -8.954106e+000 196 139 112
3.671656e+000 -6.201903e-001 -9.851431e+000 160 121 95
1.688132e+000 7.194508e-001 -8.430989e+000 17 81 123
1.194791e+000 -4.925747e-001 -8.698331e+000 201 122 116
-4.579866e-001 -5.599463e-001 -8.057513e+000 69 105 132
1.431707e+000 1.428571e+000 -9.062855e+000 141 141 131
2.011799e+000 9.246758e-001 -8.690319e+000 165 97 83
2.997192e+000 1.076022e+000 -9.149611e+000 76 52 58
2.064738e+000 8.851055e-001 -8.687561e+000 88 26 31
2.018176e+000 8.361217e-001 -8.619802e+000 93 29 25
2.019378e+000 7.097859e-001 -8.533866e+000 168 99 92
2.102596e+000 8.734123e-001 -8.696569e+000 169 105 95
2.954454e+000 4.545966e-001 -8.810627e+000 156 104 68
4.826492e+000 1.777282e-001 -9.641460e+000 58 18 9
1.825172e+000 1.042574e+000 -8.726279e+000 183 140 75
2.694849e+000 1.053859e+000 -9.072747e+000 36 16 16
-8.242486e-001 6.364432e-001 -7.447141e+000 158 157 138
3.900827e+000 -1.128856e-001 -9.435204e+000 194 139 93
-2.363991e+000 -2.394504e-001 -7.772221e+000 186 165 148
3.001015e+000 -4.383503e-001 -9.358326e+000 195 78 85
-2.018176e+000 8.205349e-001 -7.663047e+000 197 177 149
-1.160892e+000 8.570347e-001 -7.545863e+000 169 31 43
2.941150e+000 9.909230e-001 -9.095044e+000 88 50 50
4.455143e+000 7.400073e-001 -9.387518e+000 181 143 116
2.606840e+000 5.193755e-001 -8.740764e+000 116 59 30
3.257122e+000 -3.633478e-001 -9.367175e+000 193 139 111
3.327334e+000 -5.577286e-001 -9.610179e+000 203 136 109
1.821933e+000 1.217187e+000 -8.928160e+000 68 42 57
1.645984e+000 1.119378e+000 -8.763184e+000 19 76 128
3.204363e+000 -3.936350e-002 -9.134442e+000 197 140 111
4.823200e+000 -2.692805e+000 -9.987083e+000 151 132 130
1.422395e+000 1.250254e+000 -9.009480e+000 13 76 112
1.639899e+000 1.401215e+000 -9.126110e+000 186 136 92
-6.340731e-001 6.875953e-001 -7.564260e+000 82 108 101
5.006806e+000 -1.910118e+000 -9.696971e+000 57 46 54
4.465670e+000 -3.438207e+000 -1.121292e+001 56 45 54
-1.197528e+000 1.491739e+000 -8.299637e+000 115 126 124
-8.317865e-002 -4.393094e-001 -8.052144e+000 30 59 44
5.000597e+000 -2.012917e+000 -9.704575e+000 132 116 117
3.618517e+000 -4.404701e-001 -9.636740e+000 163 56 36
-1.179395e-001 1.757924e+000 -9.007867e+000 56 53 7
-1.179395e-001 1.757924e+000 -9.007867e+000 56 53 7
1.582753e+000 1.670932e+000 -9.446491e+000 100 13 21
2.065993e+000 1.686211e+000 -9.641782e+000 104 28 29
2.186082e+000 1.756824e+000 -9.766325e+000 79 115 131
2.290814e+000 1.689844e+000 -9.713024e+000 85 19 32
3.308450e+000 1.845905e+000 -1.031536e+001 95 46 22
-1.138255e+000 1.313435e+000 -8.193160e+000 159 150 124
-1.138255e+000 1.313435e+000 -8.193160e+000 159 150 124
1.048005e+000 1.418169e+000 -8.921782e+000 194 143 110
1.088468e+000 1.383443e+000 -8.901341e+000 158 31 38
2.381588e+000 1.452698e+000 -9.426842e+000 105 79 73
2.825713e+000 1.695322e+000 -9.953082e+000 151 110 90
-1.219140e+000 1.183673e+000 -7.977110e+000 174 31 39
-1.219140e+000 1.183673e+000 -7.977110e+000 174 31 39
-1.156980e+000 1.168632e+000 -7.940839e+000 157 40 31
1.152196e+000 1.208717e+000 -8.702811e+000 206 148 115
-1.231305e+000 1.032537e+000 -7.797334e+000 187 145 102
6.426640e-001 9.514279e-001 -8.270373e+000 165 156 129
9.106253e-001 1.046108e+000 -8.445521e+000 172 150 117
1.140136e+000 1.141832e+000 -8.629010e+000 188 151 114
1.140136e+000 1.141832e+000 -8.629010e+000 188 151 114
1.899919e+000 1.086765e+000 -8.816855e+000 140 83 66
-9.594668e-001 7.319785e-001 -7.496334e+000 194 142 109
-9.594668e-001 7.319785e-001 -7.496334e+000 194 142 109
1.666717e+000 8.979285e-001 -8.562233e+000 154 166 131
1.626835e+000 8.508355e-001 -8.502694e+000 179 173 141
1.626835e+000 8.508355e-001 -8.502694e+000 179 173 141
1.919274e+000 9.406776e-001 -8.696135e+000 92 32 35
1.919274e+000 9.406776e-001 -8.696135e+000 92 32 35
2.484883e+000 8.789301e-001 -8.843813e+000 68 29 34
2.524553e+000 8.916263e-001 -8.874489e+000 137 108 97
2.781337e+000 1.027447e+000 -9.082204e+000 36 11 13
2.781337e+000 1.027447e+000 -9.082204e+000 36 11 13
3.014841e+000 1.034863e+000 -9.211834e+000 152 114 111
3.070706e+000 8.537054e-001 -9.040398e+000 124 86 94
3.071012e+000 8.536170e-001 -9.036411e+000 124 86 94
3.342361e+000 8.899980e-001 -9.162324e+000 26 18 40
-7.986391e-001 6.505095e-001 -7.437566e+000 66 86 63
9.544355e-001 6.719306e-001 -8.114106e+000 169 166 128
2.045882e+000 7.393286e-001 -8.583259e+000 96 31 36
2.123156e+000 8.049097e-001 -8.645956e+000 167 98 103
2.123156e+000 8.049097e-001 -8.645956e+000 167 98 103
2.097265e+000 7.750277e-001 -8.614418e+000 93 33 37
2.143637e+000 7.091876e-001 -8.588143e+000 163 99 101
2.521418e+000 6.583163e-001 -8.684696e+000 123 74 72
2.626668e+000 8.315626e-001 -8.807502e+000 144 108 104
4.502325e+000 8.005179e-001 -9.546915e+000 157 28 63
4.502325e+000 8.005179e-001 -9.546915e+000 157 28 63
3.387957e+000 6.179006e-001 -8.993863e+000 27 30 65
-2.937095e+000 1.791701e-001 -7.563597e+000 181 27 39
4.842387e+000 2.988145e-001 -9.575134e+000 51 21 20
2.718637e+000 6.713529e-002 -8.818886e+000 163 31 41
2.728181e+000 3.388775e-002 -8.892737e+000 161 30 39
3.000765e+000 -2.750736e-001 -9.194976e+000 166 28 44
2.974246e+000 -3.118594e-001 -9.211057e+000 149 23 37
4.078007e+000 -4.317164e-001 -9.857165e+000 179 145 107
1.866929e+000 -6.401861e-001 -9.031824e+000 191 130 111
2.353823e+000 -6.369577e-001 -9.212403e+000 139 83 74
1.592838e+000 -9.196251e-001 -9.316517e+000 141 80 72
-3.635272e-002 1.618772e+000 -8.831411e+000 38 52 37
2.919610e+000 1.792220e+000 -1.009735e+001 118 55 22
2.811875e+000 1.734993e+000 -9.957651e+000 86 28 19
3.628043e+000 1.874084e+000 -1.046113e+001 43 8 2
-1.012868e-003 1.322477e+000 -8.485111e+000 29 56 43
1.434574e+000 1.429526e+000 -9.068931e+000 141 141 131
2.386081e+000 1.500586e+000 -9.476827e+000 163 132 119
-1.156333e+000 1.138199e+000 -7.967105e+000 179 42 51
1.202334e+000 1.313886e+000 -8.893940e+000 158 31 44
1.500996e+000 1.276204e+000 -8.901166e+000 141 149 138
2.137379e+000 1.374439e+000 -9.228643e+000 120 98 100
2.137379e+000 1.374439e+000 -9.228643e+000 120 98 100
2.075876e+000 1.274627e+000 -9.110371e+000 92 68 83
-1.069252e+000 9.697081e-001 -7.799533e+000 172 38 33
-2.051712e-001 9.781463e-001 -8.019256e+000 18 49 27
2.046254e+000 1.012047e+000 -8.777118e+000 168 99 94
2.651537e+000 1.133486e+000 -9.110908e+000 145 124 116
-1.087609e+000 7.707694e-001 -7.479909e+000 184 149 118
-9.297971e-002 8.967250e-001 -7.995873e+000 30 46 30
2.079141e+000 9.216512e-001 -8.698709e+000 153 85 82
2.078877e+000 9.218686e-001 -8.703282e+000 153 85 82
3.286929e+000 9.501880e-001 -9.164031e+000 156 119 78
-2.059666e+000 5.827043e-001 -7.601528e+000 191 170 143
2.038478e+000 7.673351e-001 -8.592407e+000 93 29 30
2.251742e+000 6.742476e-001 -8.621089e+000 141 85 89
4.250903e+000 1.511578e-002 -9.510601e+000 212 134 59
4.228536e+000 1.669636e-002 -9.457611e+000 212 134 59
2.265060e+000 -6.659818e-002 -8.744937e+000 192 141 114
2.752062e+000 -2.193846e-002 -8.905357e+000 187 75 74
4.637321e+000 -4.086793e-001 -1.015571e+001 150 119 109
-6.239547e-001 -3.752789e-001 -7.813985e+000 22 50 39
2.555667e+000 -5.035616e-001 -9.188750e+000 192 78 78
-1.532555e-001 -5.296220e-001 -8.126977e+000 29 60 43
3.773329e-001 -6.120358e-001 -8.329602e+000 163 161 150
1.822742e+000 -6.754091e-001 -9.110374e+000 140 82 71
3.931928e+000 -7.208740e-001 -1.007111e+001 171 148 127
4.165229e+000 -7.034821e-001 -1.019098e+001 137 120 109
4.513415e+000 -6.623140e-001 -1.034664e+001 163 143 134
-7.330392e-001 -8.139405e-001 -8.298838e+000 74 116 116
1.475825e+000 -9.077521e-001 -9.226431e+000 140 80 70
3.048939e+000 -8.085932e-001 -9.822055e+000 124 63 57
3.048939e+000 -8.085932e-001 -9.822055e+000 124 63 57
3.179590e+000 -7.840330e-001 -9.833097e+000 151 95 79
4.981849e+000 -2.038945e+000 -9.737246e+000 140 124 124
5.042574e+000 -2.673762e+000 -9.623785e+000 133 115 115
-6.754979e-001 1.586761e+000 -8.588048e+000 38 53 34
-5.854244e-001 1.339277e+000 -8.345574e+000 34 54 42
2.827549e+000 1.694263e+000 -9.859689e+000 157 118 77
-2.170876e+000 1.142271e+000 -8.015831e+000 188 169 139
-2.199242e+000 1.062826e+000 -7.928475e+000 188 166 142
-1.298035e+000 1.120607e+000 -7.857594e+000 168 44 51
-1.298035e+000 1.120607e+000 -7.857594e+000 168 44 51
-1.266404e+000 1.056966e+000 -7.784743e+000 176 38 46
1.309228e+000 1.190015e+000 -8.759721e+000 182 87 75
2.572684e+000 1.256071e+000 -9.256312e+000 138 114 104
-2.092360e+000 1.035973e+000 -7.818912e+000 195 175 148
-2.383459e-001 1.060150e+000 -8.107186e+000 31 54 58
1.336138e+000 1.120604e+000 -8.676134e+000 169 71 62
2.032320e+000 1.149040e+000 -8.942184e+000 87 60 79
-1.158397e+000 8.568077e-001 -7.541265e+000 169 31 43
-1.132192e+000 7.966583e-001 -7.497926e+000 174 40 49
-1.008121e+000 8.369641e-001 -7.615611e+000 169 42 34
-1.649964e-001 8.964125e-001 -7.963562e+000 28 53 28
9.349457e-001 9.489319e-001 -8.338506e+000 170 153 128
8.350464e-001 8.138403e-001 -8.202881e+000 179 151 126
9.985884e-001 9.386680e-001 -8.353628e+000 181 46 41
-1.076360e+000 6.589938e-001 -7.356506e+000 171 35 47
8.551603e-001 7.342876e-001 -8.119986e+000 170 153 133
2.890385e+000 7.992466e-001 -8.893179e+000 77 35 45
2.839991e+000 7.525995e-001 -8.863971e+000 79 38 44
3.186181e+000 8.285714e-001 -9.022686e+000 70 39 42
-2.881463e-001 3.563228e-001 -7.567142e+000 121 126 122
4.958047e+000 2.071250e-001 -9.675742e+000 158 98 34
8.862283e-001 8.907105e-002 -8.097293e+000 51 54 96
3.016880e+000 5.810467e-002 -8.949798e+000 190 69 80
3.016880e+000 5.810467e-002 -8.949798e+000 190 69 80
3.820385e+000 1.218752e-001 -9.248609e+000 194 91 50
3.573199e+000 -3.251285e-001 -9.510609e+000 158 85 49
4.536605e+000 -2.697587e-001 -9.883571e+000 185 154 134
-3.358484e-001 -4.687143e-001 -7.993672e+000 138 145 61
-3.358484e-001 -4.687143e-001 -7.993672e+000 138 145 61
3.242226e+000 -4.151175e-001 -9.415649e+000 196 141 110
3.350031e+000 -4.453249e-001 -9.475765e+000 197 131 104
-4.709284e-001 -5.223464e-001 -7.954402e+000 56 105 122
8.056438e-001 -6.665498e-001 -8.694972e+000 11 59 105
1.894807e+000 -5.771191e-001 -8.969991e+000 192 131 110
2.358259e+000 -5.624615e-001 -9.177831e+000 195 132 115
-4.273813e-001 -7.776829e-001 -8.272575e+000 133 138 34
-4.273813e-001 -7.776829e-001 -8.272575e+000 133 138 34
1.140893e+000 -7.056902e-001 -8.846544e+000 137 82 80
5.127777e+000 -1.618216e+000 -9.329906e+000 155 137 137
5.189808e+000 -2.371897e+000 -9.195424e+000 159 141 141
-1.774846e+000 1.411033e+000 -7.999477e+000 127 131 130
5.282835e-001 1.610829e+000 -8.975396e+000 167 146 119
4.519671e+000 2.044370e+000 -1.117130e+001 148 116 79
-1.366123e+000 1.277822e+000 -8.054900e+000 170 33 43
-1.366123e+000 1.277822e+000 -8.054900e+000 170 33 43
-5.364532e-001 1.435594e+000 -8.456620e+000 27 61 44
1.503955e+000 1.486826e+000 -9.220812e+000 24 79 104
-1.258931e+000 1.138520e+000 -7.933419e+000 165 104 80
1.192506e+000 1.251507e+000 -8.743180e+000 160 31 43
2.249075e+000 1.389233e+000 -9.288321e+000 133 106 93
2.491474e+000 1.297458e+000 -9.259101e+000 33 15 13
2.491474e+000 1.297458e+000 -9.259101e+000 33 15 13
2.273473e-001 1.001283e+000 -8.168852e+000 29 50 26
2.273473e-001 1.001283e+000 -8.168852e+000 29 50 26
1.184351e+000 1.144022e+000 -8.633305e+000 197 147 111
2.196847e+000 1.030148e+000 -8.859220e+000 80 39 48
2.756766e+000 1.078696e+000 -9.122402e+000 145 122 106
-1.134725e+000 7.967224e-001 -7.507807e+000 174 40 49
-1.099136e+000 7.271254e-001 -7.441988e+000 164 37 38
8.912279e-001 8.275926e-001 -8.222373e+000 154 78 62
9.973151e-001 9.395666e-001 -8.347037e+000 182 47 41
9.973151e-001 9.395666e-001 -8.347037e+000 182 47 41
3.035726e+000 9.497023e-001 -9.104736e+000 133 98 96
-2.047041e+000 6.978016e-001 -7.619441e+000 195 171 145
8.153597e-001 6.547936e-001 -8.037932e+000 166 83 72
4.382302e+000 8.809830e-002 -9.504671e+000 40 23 35
1.555494e+000 -1.373767e-001 -8.533525e+000 185 124 103
2.123031e+000 -1.128589e-001 -8.699103e+000 193 142 111
-7.093576e-001 -3.356071e-001 -7.754861e+000 135 136 74
2.469797e+000 -5.015603e-001 -9.235539e+000 194 132 105
6.452748e-001 -6.634781e-001 -8.566772e+000 198 132 110
3.369004e+000 -8.683396e-001 -1.005973e+001 146 115 95
3.461460e+000 -9.204163e-001 -1.018393e+001 184 150 123
-9.446883e-001 -8.603018e-001 -8.223639e+000 34 64 39
5.001421e-001 -9.875052e-001 -8.952948e+000 193 130 119
4.951793e+000 -2.170876e+000 -9.870403e+000 154 140 139
4.753213e+000 -2.800447e+000 -1.051591e+001 142 126 128
-4.492492e-001 1.612133e+000 -8.674147e+000 31 54 25
1.337764e+000 1.603370e+000 -9.278254e+000 96 115 113
1.337764e+000 1.603370e+000 -9.278254e+000 96 115 113
1.373397e+000 1.525873e+000 -9.180218e+000 108 122 134
1.373397e+000 1.525873e+000 -9.180218e+000 108 122 134
1.468148e+000 1.586879e+000 -9.321089e+000 38 40 63
1.665872e+000 1.548315e+000 -9.296967e+000 88 62 81
2.321247e+000 1.486837e+000 -9.451685e+000 99 78 95
-7.820789e-001 1.232527e+000 -8.166464e+000 172 157 72
-7.857730e-001 1.235642e+000 -8.193394e+000 172 157 72
-1.957453e-001 1.218790e+000 -8.302343e+000 162 156 81
-1.957453e-001 1.218790e+000 -8.302343e+000 162 156 81
2.650076e+000 1.435388e+000 -9.485159e+000 145 113 99
-6.576098e-001 9.762344e-001 -7.881179e+000 171 154 96
-6.596907e-001 9.773890e-001 -7.894774e+000 171 154 96
-4.417859e-001 1.069529e+000 -8.074272e+000 34 54 28
-2.614976e-001 1.003751e+000 -8.046295e+000 174 155 62
-9.135512e-001 7.401776e-001 -7.523145e+000 179 33 47
7.692437e-001 8.200553e-001 -8.184605e+000 165 88 78
2.864549e+000 1.022162e+000 -9.094805e+000 140 110 102
-2.006006e+000 6.492775e-001 -7.575262e+000 148 123 101
9.237187e-001 7.106958e-001 -8.135299e+000 157 85 70
3.210424e+000 6.928689e-001 -8.979736e+000 83 53 65
4.046622e+000 3.064562e-002 -9.400496e+000 185 87 31
1.037347e+000 -1.513755e-001 -8.357984e+000 15 59 92
-3.917997e-001 -4.882626e-001 -8.032319e+000 27 58 30
6.555478e-001 -6.049616e-001 -8.471192e+000 153 88 60
1.526639e+000 -7.398676e-001 -9.060759e+000 197 132 114
-2.704574e-001 -9.082609e-001 -8.521433e+000 155 152 136
3.846243e-001 -1.122390e+000 -9.165233e+000 167 46 61
5.050364e+000 -1.824112e+000 -9.635300e+000 60 50 59
5.063079e+000 -1.831749e+000 -9.522634e+000 138 121 121
4.865185e+000 -2.258973e+000 -9.863642e+000 135 122 122
4.833326e+000 -2.617577e+000 -1.034121e+001 136 119 125
4.655861e+000 -3.008526e+000 -1.069118e+001 149 130 133
4.539935e+000 -3.266095e+000 -1.091489e+001 143 127 130
4.480382e+000 -3.360521e+000 -1.098812e+001 147 131 134
-5.014429e-001 1.512941e+000 -8.573385e+000 170 157 113
-3.939175e-001 1.461314e+000 -8.558103e+000 36 60 30
-1.986149e-001 1.450675e+000 -8.561053e+000 29 51 30
-1.990822e-001 1.452289e+000 -8.572758e+000 29 51 30
1.564100e+000 1.560603e+000 -9.286903e+000 180 127 96
1.566068e+000 1.562537e+000 -9.300920e+000 180 127 96
1.521529e+000 1.416838e+000 -9.066442e+000 30 76 112
1.639899e+000 1.401215e+000 -9.126110e+000 186 136 92
-8.819755e-001 1.248406e+000 -8.206120e+000 30 53 24
-8.131944e-001 1.085796e+000 -7.999747e+000 163 153 112
-6.449026e-001 1.175831e+000 -8.102388e+000 35 55 39
-5.833742e-001 1.247492e+000 -8.247853e+000 171 154 111
-5.833742e-001 1.247492e+000 -8.247853e+000 171 154 111
8.669260e-003 1.228888e+000 -8.366525e+000 167 149 115
8.669260e-003 1.228888e+000 -8.366525e+000 167 149 115
-5.744758e-002 1.154026e+000 -8.260151e+000 37 60 43
-5.541283e-002 1.151166e+000 -8.232290e+000 37 60 43
-7.597715e-001 1.007701e+000 -7.982126e+000 32 60 31
-5.253360e-001 9.242161e-001 -7.813684e+000 38 64 45
-4.561103e-001 9.853651e-001 -7.953745e+000 168 155 110
-4.561103e-001 9.853651e-001 -7.953745e+000 168 155 110
5.775151e-001 9.766244e-001 -8.264689e+000 171 35 36
8.562008e-001 1.077190e+000 -8.444423e+000 163 156 131
8.562008e-001 1.077190e+000 -8.444423e+000 163 156 131
1.465003e+000 1.104919e+000 -8.732777e+000 6 77 115
2.399261e+000 1.211087e+000 -9.148332e+000 130 101 93
-1.936532e-001 8.043683e-001 -7.826137e+000 161 155 93
-1.936532e-001 8.043683e-001 -7.826137e+000 161 155 93
1.499811e-001 8.772552e-001 -8.043093e+000 28 53 26
1.499811e-001 8.772552e-001 -8.043093e+000 28 53 26
1.520189e+000 9.927249e-001 -8.663535e+000 26 74 118
1.837465e+000 8.584368e-001 -8.583566e+000 176 114 89
2.734741e+000 8.570978e-001 -8.911972e+000 92 53 58
3.259765e+000 9.830708e-001 -9.197644e+000 158 118 83
4.664406e+000 6.275354e-001 -9.509091e+000 176 141 126
3.859022e+000 3.757554e-001 -9.180324e+000 125 27 47
3.859022e+000 3.757554e-001 -9.180324e+000 125 27 47
-3.242454e-001 -3.055360e-001 -7.916265e+000 23 61 45
-2.809657e-001 -3.857990e-001 -7.928565e+000 93 116 116
-7.220196e-001 -7.927197e-001 -8.175803e+000 78 113 131
1.893405e+000 -7.463350e-001 -9.210310e+000 194 131 113
2.007417e+000 -7.549396e-001 -9.285648e+000 193 134 112
-1.119506e+000 -1.062808e+000 -8.396009e+000 39 67 47
5.635726e-001 -1.111317e+000 -9.263241e+000 20 76 127
-1.070070e-001 1.388515e+000 -8.514906e+000 169 153 109
-1.070070e-001 1.388515e+000 -8.514906e+000 169 153 109
1.402101e-002 1.447263e+000 -8.623262e+000 39 55 23
-4.720145e-001 1.240562e+000 -8.256660e+000 35 61 30
1.188494e-001 1.214902e+000 -8.374960e+000 34 57 28
2.354753e+000 1.335020e+000 -9.267530e+000 150 124 109
-1.133239e+000 9.429641e-001 -7.719519e+000 154 58 55
-9.292753e-001 1.039208e+000 -7.934453e+000 44 95 121
-3.468001e-001 9.728384e-001 -7.928114e+000 35 60 36
-1.012891e+000 7.323851e-001 -7.473619e+000 168 122 89
-1.012891e+000 7.323851e-001 -7.473619e+000 168 122 89
2.688264e-001 8.856012e-001 -8.069786e+000 163 152 122
5.240985e-001 8.801212e-001 -8.152138e+000 162 150 126
3.744970e+000 1.028754e+000 -9.444778e+000 154 118 87
3.852416e+000 9.368988e-001 -9.348012e+000 132 24 40
-8.137975e-001 6.572789e-001 -7.447943e+000 96 120 118
-6.972920e-001 6.244270e-001 -7.455332e+000 26 56 29
4.561738e+000 9.146532e-001 -9.707806e+000 168 138 114
4.356684e+000 7.061432e-001 -9.453072e+000 169 85 38
3.855370e+000 -1.502476e-001 -9.419126e+000 183 125 68
3.868848e+000 -1.520451e-001 -9.455468e+000 183 125 68
-6.376098e-001 -5.567943e-001 -7.900386e+000 66 110 108
1.764719e+000 -7.857897e-001 -9.221538e+000 193 130 112
-2.519137e-001 8.776119e-001 -7.865749e+000 165 152 118
1.596547e-002 8.767371e-001 -7.970700e+000 160 151 110
-2.022377e+000 5.975316e-001 -7.568998e+000 151 126 104
2.826855e+000 5.581903e-001 -8.792515e+000 152 107 55
-4.579866e-001 -5.599463e-001 -8.057513e+000 69 105 132
4.768516e+000 -7.773424e-001 -1.071435e+001 30 19 27
3.635831e+000 8.916272e-001 -9.304002e+000 17 58 109
4.332562e+000 1.110154e+000 -9.800130e+000 141 25 37
4.332562e+000 1.110154e+000 -9.800130e+000 141 25 37
8.540644e-001 7.231861e-001 -8.155907e+000 174 156 134
3.003271e+000 7.487501e-001 -8.881927e+000 53 19 23
-4.215209e-001 4.447691e-001 -7.531399e+000 155 148 122
3.244210e+000 5.572658e-001 -8.919892e+000 156 116 80
3.244210e+000 5.572658e-001 -8.919892e+000 156 116 80
1.226624e-002 -6.237894e-001 -8.198432e+000 156 156 144
-9.478235e-001 4.123236e-001 -7.323072e+000 93 121 135
2.351520e+000 -3.393058e-001 -8.983977e+000 194 140 112
-1.152680e+000 -6.760523e-001 -7.854784e+000 197 114 104
4.341034e+000 -2.243600e-001 -9.700977e+000 112 68 38
4.801666e-001 -3.929968e-001 -8.161777e+000 164 160 141
2.865200e+000 -1.088350e-001 -9.039372e+000 171 33 46
4.846384e+000 1.554390e+000 -1.020874e+001 40 32 43
9.412497e-001 -1.466976e-001 -8.048591e+000 99 130 151
2.231134e+000 -1.849542e-001 -9.969121e+000 129 80 75
2.183328e+000 1.356524e+000 -9.207258e+000 93 71 74
6.399010e-001 9.520791e-001 -8.266938e+000 165 156 129
2.789473e+000 1.235952e+000 -9.305161e+000 136 102 101
-9.120998e-001 6.886044e-001 -7.462890e+000 195 131 110
1.830898e+000 7.411219e-001 -8.520884e+000 189 151 89
1.997593e+000 8.061244e-001 -8.597068e+000 167 100 71
3.080587e+000 7.629717e-001 -8.979974e+000 106 67 75
3.240374e+000 7.454879e-001 -8.953830e+000 162 120 98
4.645114e+000 7.304017e-001 -9.582087e+000 148 67 50
2.440039e+000 6.112545e-001 -8.658035e+000 160 125 80
4.736329e+000 6.235765e-001 -9.510377e+000 168 134 118
2.640222e+000 3.868620e-001 -8.753604e+000 102 43 26
1.580350e+000 1.504988e-001 -8.348394e+000 177 157 138
3.015459e+000 -3.069267e-001 -9.220113e+000 188 72 77
-1.232801e+000 1.353783e+000 -8.156190e+000 51 88 127
-1.079364e+000 1.248157e+000 -8.138055e+000 55 92 117
2.801211e+000 1.405543e+000 -9.508575e+000 140 92 84
1.884041e+000 1.051622e+000 -8.808290e+000 75 13 16
2.147737e+000 9.410617e-001 -8.747443e+000 127 93 92
1.938048e+000 8.017887e-001 -8.494249e+000 95 32 43
1.985308e+000 6.881866e-001 -8.522138e+000 96 31 39
2.716714e+000 6.505017e-001 -8.779962e+000 64 16 27
4.572310e+000 2.261928e-001 -9.545254e+000 184 162 139
2.483501e+000 -2.986903e-002 -8.792489e+000 191 140 112
-5.325891e-001 -3.921990e-001 -7.851163e+000 55 100 125
-1.161487e+000 -5.360468e-001 -7.734989e+000 172 167 136
1.247004e-001 -6.905918e-001 -8.410243e+000 167 158 149
2.871808e+000 1.430148e+000 -9.590443e+000 88 57 72
-1.204676e+000 9.222544e-001 -7.668481e+000 167 44 49
2.307260e+000 8.378694e-001 -8.731987e+000 92 41 49
3.080272e+000 4.587575e-001 -8.895672e+000 131 77 37
3.973152e+000 4.781027e-001 -9.242585e+000 135 45 53
4.017299e+000 4.653974e-001 -9.218921e+000 178 101 45
1.725818e+000 -1.307900e-001 -8.550630e+000 136 77 68
1.725818e+000 -1.307900e-001 -8.550630e+000 136 77 68
1.838834e+000 -1.690478e-001 -8.674700e+000 153 101 89
1.253602e+000 -6.970952e-001 -8.890263e+000 147 91 78
5.147407e+000 -2.134007e+000 -9.293488e+000 154 132 140
4.802222e+000 -2.699125e+000 -1.029553e+001 123 107 108
5.103765e+000 -2.440223e+000 -9.475919e+000 107 87 91
2.719022e+000 1.501327e+000 -9.562659e+000 132 80 78
5.259367e-001 9.907112e-001 -8.259844e+000 177 37 44
3.937416e+000 3.732048e-001 -9.177158e+000 182 106 42
5.112069e+000 3.333866e-001 -9.629547e+000 35 22 40
4.538026e+000 5.370858e-002 -9.575209e+000 187 105 49
2.585057e+000 -2.315410e-001 -9.011229e+000 153 13 31
5.108701e+000 -1.745962e+000 -9.460314e+000 140 124 124
4.825326e+000 -2.693729e+000 -9.992294e+000 151 132 130
-7.499663e-001 1.573419e+000 -8.521943e+000 118 122 103
4.244846e-001 1.253574e+000 -8.568261e+000 172 41 47
-4.394889e-001 1.068794e+000 -8.076779e+000 34 54 28
5.039134e+000 -1.927592e+000 -9.621344e+000 143 125 125
4.517054e+000 -3.300783e+000 -1.108190e+001 47 39 46
1.125855e+000 1.074668e+000 -8.588429e+000 158 30 35
1.776985e+000 1.121133e+000 -8.850762e+000 178 138 91
1.776985e+000 1.121133e+000 -8.850762e+000 178 138 91
2.806643e+000 1.114538e+000 -9.089274e+000 136 107 101
-7.311379e-001 7.126401e-001 -7.600756e+000 27 56 32
2.921945e+000 -3.069726e-001 -9.322706e+000 172 30 47
-2.060115e-001 1.716219e+000 -8.885351e+000 169 162 56
2.193278e+000 1.887468e+000 -1.006658e+001 27 60 87
-1.324051e+000 1.250289e+000 -8.012940e+000 204 159 117
2.873283e+000 1.631798e+000 -9.677211e+000 165 131 86
-1.208738e+000 1.218117e+000 -7.996127e+000 197 144 112
-1.179709e+000 1.159053e+000 -7.931924e+000 195 152 106
1.127838e+000 1.357935e+000 -8.870662e+000 194 142 116
1.116266e+000 1.284021e+000 -8.744235e+000 205 146 103
1.266880e+000 1.271639e+000 -8.809775e+000 161 33 37
-1.987753e+000 1.024635e+000 -7.753820e+000 205 183 148
-1.092715e+000 1.023247e+000 -7.792839e+000 162 39 31
-1.092715e+000 1.023247e+000 -7.792839e+000 162 39 31
-1.034743e+000 9.545174e-001 -7.771773e+000 203 136 105
-1.034743e+000 9.545174e-001 -7.771773e+000 203 136 105
1.569771e+000 1.080402e+000 -8.761222e+000 19 70 107
2.238229e+000 1.049367e+000 -8.931403e+000 66 30 37
-1.963531e+000 8.660849e-001 -7.619637e+000 209 186 153
-1.165014e+000 9.225825e-001 -7.642316e+000 191 161 97
-1.119447e+000 8.353983e-001 -7.538693e+000 196 156 117
-1.119447e+000 8.353983e-001 -7.538693e+000 196 156 117
-1.078032e+000 8.010359e-001 -7.508246e+000 169 33 35
-1.021568e+000 8.765514e-001 -7.680464e+000 171 26 24
-9.742599e-001 8.054770e-001 -7.537866e+000 176 47 41
1.017640e+000 9.660223e-001 -8.264028e+000 167 157 122
1.933251e+000 1.002488e+000 -8.735325e+000 171 95 95
2.080899e+000 9.618155e-001 -8.785158e+000 161 91 89
1.976778e+000 9.434122e-001 -8.683691e+000 96 40 31
1.976778e+000 9.434122e-001 -8.683691e+000 96 40 31
2.112282e+000 9.595126e-001 -8.767384e+000 71 15 16
2.102735e+000 8.733838e-001 -8.696933e+000 165 99 81
3.142052e+000 1.024401e+000 -9.362983e+000 125 95 99
4.479602e+000 9.399037e-001 -9.642194e+000 157 94 64
-1.183183e+000 7.645944e-001 -7.453610e+000 37 82 100
-9.481057e-001 7.791135e-001 -7.539542e+000 193 158 115
1.984808e+000 7.161460e-001 -8.548317e+000 89 29 35
2.046909e+000 7.386989e-001 -8.591639e+000 95 29 33
2.414028e+000 7.570926e-001 -8.710074e+000 71 27 32
2.603326e+000 8.379137e-001 -8.847498e+000 133 92 82
3.031940e+000 7.600796e-001 -8.961211e+000 65 23 31
3.113069e+000 7.933804e-001 -9.029536e+000 61 20 24
3.113069e+000 7.933804e-001 -9.029536e+000 61 20 24
4.546044e+000 7.581034e-001 -9.660831e+000 193 148 107
-1.105111e+000 6.241333e-001 -7.340492e+000 184 158 117
-1.105111e+000 6.241333e-001 -7.340492e+000 184 158 117
2.135158e-001 6.605288e-001 -7.788031e+000 176 161 78
3.491818e+000 6.472448e-001 -9.082336e+000 33 26 64
4.713434e+000 6.861516e-001 -9.600238e+000 168 51 44
4.713434e+000 6.861516e-001 -9.600238e+000 168 51 44
4.385055e+000 2.342744e-001 -9.437129e+000 189 167 149
1.216632e+000 1.051605e-001 -8.186404e+000 9 75 112
4.920309e+000 6.506382e-002 -9.827559e+000 164 101 45
2.572271e+000 -3.435369e-002 -8.851698e+000 198 134 108
2.604471e+000 -3.966309e-001 -9.183226e+000 188 66 67
2.710322e+000 -2.744245e-001 -9.108299e+000 202 85 79
2.607254e+000 -3.208204e-001 -9.080979e+000 192 84 82
2.682277e+000 -3.144925e-001 -9.106216e+000 191 75 75
2.792360e+000 -2.429255e-001 -9.105898e+000 206 91 90
-2.564228e+000 -4.542896e-001 -8.213015e+000 241 213 211
-2.750372e-001 -3.900986e-001 -7.951062e+000 82 109 122
2.458836e-001 -5.063804e-001 -8.265286e+000 145 54 54
3.300998e+000 -5.286341e-001 -9.612884e+000 135 73 64
-1.664215e+000 -6.308776e-001 -7.666581e+000 25 99 139
-9.937832e-001 -4.762987e-001 -7.731407e+000 27 55 31
-7.591964e-001 -5.948410e-001 -7.889216e+000 150 160 47
-6.673755e-001 -6.640711e-001 -8.037484e+000 148 152 39
-3.073328e-001 -5.577693e-001 -8.067618e+000 175 163 40
-3.073328e-001 -5.577693e-001 -8.067618e+000 175 163 40
1.523495e+000 -8.211066e-001 -9.149464e+000 128 70 50
-1.066006e+000 -6.862684e-001 -7.932546e+000 189 29 44
-1.190178e+000 -8.110433e-001 -7.992733e+000 201 141 124
-1.190178e+000 -8.110433e-001 -7.992733e+000 201 141 124
-7.484446e-001 -7.379369e-001 -8.050229e+000 147 155 31
-4.879490e-001 -8.716370e-001 -8.357565e+000 155 157 36
-5.253692e-001 1.640458e+000 -8.666355e+000 156 157 32
-5.253692e-001 1.640458e+000 -8.666355e+000 156 157 32
4.702101e-001 1.734361e+000 -9.121315e+000 174 161 129
4.702101e-001 1.734361e+000 -9.121315e+000 174 161 129
4.297305e+000 2.041518e+000 -1.117861e+001 149 115 88
-9.140336e-001 1.487069e+000 -8.391868e+000 72 105 122
2.078461e+000 1.788289e+000 -9.772066e+000 119 138 134
2.078461e+000 1.788289e+000 -9.772066e+000 119 138 134
-1.344464e+000 1.323584e+000 -8.027950e+000 177 151 114
-1.414620e+000 1.314397e+000 -8.026461e+000 192 147 130
1.086101e+000 1.383556e+000 -8.900239e+000 168 41 42
2.791173e+000 1.618585e+000 -9.848855e+000 160 122 113
2.791173e+000 1.618585e+000 -9.848855e+000 160 122 113
2.827202e+000 1.646428e+000 -9.817894e+000 84 52 53
2.837306e+000 1.465866e+000 -9.537347e+000 87 57 71
1.230239e+000 1.201791e+000 -8.695432e+000 152 28 32
1.473014e+000 1.336490e+000 -8.965210e+000 136 144 132
2.211880e+000 1.291867e+000 -9.093825e+000 96 70 74
-2.108411e+000 9.054175e-001 -7.743717e+000 121 95 68
-1.115741e+000 1.077512e+000 -7.828575e+000 161 23 23
9.086931e-001 1.046601e+000 -8.436206e+000 169 163 131
2.939407e+000 1.224749e+000 -9.522518e+000 143 112 92
4.855569e+000 1.340307e+000 -1.044358e+001 32 23 37
4.758169e+000 1.283594e+000 -1.011662e+001 38 24 30
-2.716071e+000 7.810116e-001 -8.489055e+000 194 110 96
-1.924569e+000 8.882176e-001 -7.566395e+000 207 185 146
-1.160416e+000 8.266857e-001 -7.552763e+000 181 35 39
-1.039379e+000 9.144723e-001 -7.679718e+000 179 39 40
6.482642e-001 9.506609e-001 -8.213391e+000 170 154 131
7.612475e-001 8.649748e-001 -8.197257e+000 166 165 129
9.379379e-001 9.566690e-001 -8.343730e+000 172 160 123
2.047114e+000 1.011941e+000 -8.778360e+000 164 92 84
2.084824e+000 1.039456e+000 -8.837856e+000 79 39 44
2.084824e+000 1.039456e+000 -8.837856e+000 79 39 44
2.148890e+000 8.728031e-001 -8.735210e+000 71 29 39
4.930119e+000 1.005865e+000 -1.009275e+001 157 87 45
-6.434257e-001 6.555978e-001 -7.517945e+000 166 156 32
8.500049e-001 7.810193e-001 -8.186847e+000 175 159 126
8.500049e-001 7.810193e-001 -8.186847e+000 175 159 126
1.995845e+000 8.611386e-001 -8.679951e+000 172 93 80
2.198713e+000 7.367829e-001 -8.635213e+000 86 31 34
2.974901e+000 7.229791e-001 -8.940796e+000 79 32 42
4.610304e+000 8.600251e-001 -9.434752e+000 179 148 109
-2.050613e+000 5.841692e-001 -7.572440e+000 211 185 152
2.054415e+000 6.203518e-001 -8.570685e+000 94 27 34
2.254592e+000 6.732978e-001 -8.631347e+000 141 83 83
4.774159e+000 6.870351e-001 -9.636966e+000 184 154 130
2.738941e+000 5.013595e-001 -8.774152e+000 163 108 69
3.984166e+000 5.369839e-001 -9.199198e+000 145 59 28
3.316743e+000 3.219831e-001 -8.946456e+000 177 116 57
4.345709e+000 2.712756e-001 -9.392046e+000 70 38 31
4.607010e+000 2.310446e-001 -9.529034e+000 48 13 20
3.198427e+000 1.366702e-001 -8.993247e+000 198 136 104
3.976127e+000 4.930647e-002 -9.375653e+000 195 88 42
-2.435089e+000 -2.290169e-001 -7.998623e+000 185 161 135
1.893472e-002 -4.725119e-002 -7.811070e+000 70 94 52
1.893472e-002 -4.725119e-002 -7.811070e+000 70 94 52
1.884695e+000 -1.700200e-001 -8.677236e+000 193 139 105
1.960107e+000 -1.473021e-001 -8.707278e+000 117 71 71
2.464651e+000 -1.189256e-001 -8.880774e+000 189 141 110
3.322478e+000 -1.896833e-001 -9.281469e+000 203 150 119
-2.528635e+000 -3.571632e-001 -8.294988e+000 196 174 157
-2.847163e-001 -2.557693e-001 -7.869799e+000 135 145 50
4.131113e+000 -4.405174e-001 -9.886138e+000 92 71 65
-4.911337e-001 -4.573224e-001 -7.919155e+000 32 55 46
-3.273841e-001 -3.935769e-001 -7.931022e+000 29 56 41
3.643784e-001 -4.836149e-001 -8.257125e+000 134 75 65
3.643784e-001 -4.836149e-001 -8.257125e+000 134 75 65
8.588299e-001 -4.657167e-001 -8.435940e+000 19 66 106
-1.081739e+000 -5.734627e-001 -7.762448e+000 182 49 49
-6.476393e-001 -5.451118e-001 -7.937100e+000 52 106 120
-1.770405e-001 -6.001025e-001 -8.161510e+000 34 53 35
-1.770405e-001 -6.001025e-001 -8.161510e+000 34 53 35
2.537745e-001 -5.479481e-001 -8.284314e+000 164 156 136
2.402872e+000 -7.470000e-001 -9.411177e+000 160 34 42
2.394176e+000 -8.362760e-001 -9.574526e+000 155 35 38
-1.299610e+000 -8.374625e-001 -7.998555e+000 189 38 38
-1.121264e+000 -8.129925e-001 -7.998968e+000 182 42 50
-1.121264e+000 -8.129925e-001 -7.998968e+000 182 42 50
-7.500859e-001 -8.406725e-001 -8.223756e+000 142 154 62
3.207237e-001 -7.734627e-001 -8.560587e+000 159 159 149
5.423268e+000 -1.317546e+000 -8.740791e+000 153 129 125
4.934465e+000 -2.154466e+000 -9.845072e+000 150 129 124
-4.233935e-001 1.687533e+000 -8.757690e+000 122 118 37
-4.233935e-001 1.687533e+000 -8.757690e+000 122 118 37
-3.579692e-001 1.510929e+000 -8.607205e+000 30 56 48
4.949765e-001 1.690324e+000 -9.092564e+000 182 154 124
2.913813e+000 1.791421e+000 -1.007531e+001 136 65 32
-1.177886e+000 1.401361e+000 -8.208744e+000 27 48 10
-3.170572e-002 1.399552e+000 -8.527044e+000 29 56 18
-3.170572e-002 1.399552e+000 -8.527044e+000 29 56 18
1.148929e+000 1.410788e+000 -8.946401e+000 156 30 34
-2.145856e+000 1.089922e+000 -7.917003e+000 201 178 143
-1.059419e+000 1.073284e+000 -7.869972e+000 175 42 38
9.533828e-001 1.068121e+000 -8.538618e+000 177 34 43
-2.006810e+000 8.241546e-001 -7.619242e+000 207 183 149
-1.005521e+000 8.374243e-001 -7.582035e+000 174 41 44
-9.246848e-001 8.108349e-001 -7.563689e+000 180 41 42
6.334341e-001 9.159369e-001 -8.212216e+000 173 42 37
3.128793e+000 9.664086e-001 -9.066394e+000 79 49 69
-1.054048e+000 6.980387e-001 -7.407068e+000 194 164 119
2.193270e+000 8.263458e-001 -8.724753e+000 83 32 41
-2.332216e+000 2.159280e-001 -7.697253e+000 190 163 124
1.415213e+000 2.918495e-003 -8.356257e+000 154 98 82
2.136662e+000 -1.191646e-001 -8.756618e+000 195 142 111
2.409812e+000 -1.426892e-001 -8.860955e+000 135 80 59
2.409812e+000 -1.426892e-001 -8.860955e+000 135 80 59
2.623922e+000 -1.740280e-001 -9.047549e+000 166 22 38
3.611445e+000 -8.662589e-002 -9.254903e+000 193 132 87
3.636009e+000 -1.666470e-001 -9.396800e+000 181 148 92
7.871687e-001 -2.715181e-001 -8.190071e+000 160 37 55
3.201460e+000 -3.496738e-001 -9.349090e+000 127 80 60
3.201460e+000 -3.496738e-001 -9.349090e+000 127 80 60
4.135761e+000 -3.254226e-001 -9.776802e+000 197 171 124
-1.195909e+000 -5.746414e-001 -7.731238e+000 193 44 49
-2.504223e-001 -6.801808e-001 -8.212051e+000 173 165 93
-1.991859e-001 -6.594007e-001 -8.215426e+000 177 169 66
6.773584e-001 -7.118811e-001 -8.603968e+000 121 41 64
1.473333e+000 -7.602800e-001 -9.025822e+000 193 132 104
1.846262e+000 -7.615367e-001 -9.235061e+000 200 136 111
2.792966e-001 -7.419426e-001 -8.474379e+000 147 118 113
4.404577e-001 -9.916404e-001 -8.973205e+000 162 38 54
6.016747e-001 -7.674068e-001 -8.682771e+000 194 125 118
6.779088e-001 -9.167278e-001 -8.922453e+000 20 64 98
-1.215942e+000 -1.016422e+000 -8.271109e+000 177 42 33
5.206791e+000 -2.438220e+000 -9.297241e+000 132 111 111
5.279461e+000 -2.183092e+000 -8.653829e+000 125 104 104
4.919567e+000 -2.838324e+000 -9.794822e+000 130 110 108
4.919567e+000 -2.838324e+000 -9.794822e+000 130 110 108
4.473981e+000 2.075812e+000 -1.134739e+001 158 117 89
-1.167980e+000 1.400044e+000 -8.222726e+000 41 63 34
-6.369694e-001 1.371891e+000 -8.357475e+000 181 165 42
7.057776e-001 1.469410e+000 -8.858872e+000 173 149 123
-1.241061e+000 1.137968e+000 -7.884495e+000 156 72 51
1.020591e+000 1.294295e+000 -8.843893e+000 164 30 37
1.581502e+000 1.284483e+000 -8.990098e+000 21 73 114
-2.144448e+000 9.452244e-001 -7.786208e+000 210 186 149
3.387718e+000 9.527051e-001 -9.272468e+000 26 25 50
-5.389474e-001 6.995883e-001 -7.621354e+000 74 108 115
2.872091e+000 6.071839e-001 -8.814851e+000 179 129 75
2.648183e+000 1.347637e-001 -8.781664e+000 160 29 42
1.415510e+000 2.889052e-003 -8.356647e+000 155 99 83
3.339742e+000 -9.053580e-002 -9.215240e+000 202 146 110
-1.594842e-002 -1.559274e-001 -7.891007e+000 24 57 20
-2.528896e+000 -4.449068e-001 -8.274326e+000 70 46 42
6.939378e-001 -5.009869e-001 -8.421463e+000 175 110 83
-8.544172e-001 -6.525157e-001 -7.941112e+000 34 64 35
-8.544172e-001 -6.525157e-001 -7.941112e+000 34 64 35
-4.134171e-001 -9.050918e-001 -8.450249e+000 146 148 131
-4.134171e-001 -9.050918e-001 -8.450249e+000 146 148 131
-1.321109e+000 -9.923280e-001 -8.198809e+000 188 122 104
5.354171e+000 -1.186635e+000 -8.978174e+000 164 143 139
5.284787e+000 -1.520224e+000 -8.955865e+000 153 135 132
4.796475e+000 -2.498843e+000 -1.024932e+001 53 43 47
4.832931e+000 -2.407596e+000 -1.004609e+001 146 126 125
-8.351473e-001 1.544350e+000 -8.477124e+000 32 56 30
3.439055e+000 1.869183e+000 -1.040958e+001 81 34 27
-1.141651e+000 1.328739e+000 -8.164282e+000 155 147 117
-5.690752e-001 1.334121e+000 -8.358960e+000 30 61 26
3.057054e-001 1.499270e+000 -8.775258e+000 193 36 48
7.670072e-001 1.438527e+000 -8.817056e+000 187 35 37
2.375738e+000 1.610814e+000 -9.608033e+000 161 130 110
4.938112e-001 1.221982e+000 -8.490196e+000 169 149 124
1.040848e+000 1.234813e+000 -8.701389e+000 149 33 29
2.259307e+000 1.388796e+000 -9.318274e+000 135 109 94
1.085518e+000 1.155023e+000 -8.676882e+000 159 23 32
1.723025e+000 8.940945e-001 -8.559919e+000 20 71 108
1.723025e+000 8.940945e-001 -8.559919e+000 20 71 108
2.446005e+000 9.316168e-001 -8.961718e+000 89 45 54
2.755017e+000 9.487153e-001 -9.008355e+000 137 108 94
-2.006066e+000 6.497105e-001 -7.570627e+000 187 160 133
4.138473e+000 9.044689e-001 -9.464141e+000 177 85 31
4.788835e+000 3.906169e-001 -9.523253e+000 195 106 43
4.783011e+000 -1.096413e-001 -9.938829e+000 158 93 24
4.589462e+000 -6.560440e-001 -1.048496e+001 146 136 109
-5.452962e-001 -5.863513e-001 -7.974813e+000 33 58 44
