ply
format ascii 1.0
element face 0
property list uchar int vertex_indices
element vertex 882
property float x
property float y
property float z
property uchar diffuse_red
property uchar diffuse_green
property uchar diffuse_blue
end_header
1.438876e+000 -4.049263e-002 -8.293165e+000 155 99 83
3.364404e+000 -1.389620e-001 -9.151945e+000 202 146 110
1.196976e-003 -1.977978e-001 -7.823301e+000 24 57 20
-2.502801e+000 -4.899845e-001 -8.170637e+000 70 46 42
7.153426e-001 -5.489005e-001 -8.357731e+000 175 110 83
-8.366110e-001 -6.934886e-001 -7.845154e+000 34 64 35
-8.384511e-001 -6.978235e-001 -7.863180e+000 34 64 35
-3.893860e-001 -9.500749e-001 -8.362421e+000 146 148 131
-3.893860e-001 -9.500749e-001 -8.362421e+000 146 148 131
-1.299519e+000 -1.037870e+000 -8.108171e+000 188 122 104
5.430863e+000 -1.244418e+000 -8.942242e+000 164 143 139
5.389390e+000 -1.595800e+000 -8.965619e+000 153 135 132
4.845910e+000 -2.561307e+000 -1.019623e+001 53 43 47
4.928929e+000 -2.507274e+000 -1.009379e+001 146 126 125
-8.142430e-001 1.495229e+000 -8.436665e+000 32 56 30
3.456731e+000 1.803443e+000 -1.036088e+001 81 34 27
-1.133305e+000 1.285621e+000 -8.110304e+000 155 147 117
-5.556677e-001 1.289386e+000 -8.308088e+000 30 61 26
3.286512e-001 1.451044e+000 -8.771914e+000 193 36 48
7.866260e-001 1.390613e+000 -8.777657e+000 187 35 37
2.412052e+000 1.558495e+000 -9.585166e+000 161 130 110
5.118102e-001 1.177817e+000 -8.450812e+000 169 149 124
1.066027e+000 1.188643e+000 -8.700913e+000 149 33 29
2.284359e+000 1.338143e+000 -9.276931e+000 135 109 94
1.107142e+000 1.109577e+000 -8.639450e+000 159 23 32
1.750083e+000 8.510032e-001 -8.510407e+000 20 71 108
1.749391e+000 8.513964e-001 -8.509558e+000 20 71 108
2.453330e+000 8.923603e-001 -8.817724e+000 89 45 54
2.790382e+000 9.028695e-001 -8.981850e+000 137 108 94
-2.003119e+000 6.115989e-001 -7.490151e+000 187 160 133
4.203887e+000 8.557361e-001 -9.476659e+000 177 85 31
4.867824e+000 3.400902e-001 -9.542351e+000 195 106 43
4.830026e+000 -1.659699e-001 -9.907139e+000 158 93 24
4.616770e+000 -7.130493e-001 -1.042057e+001 146 136 109
-5.289522e-001 -6.289134e-001 -7.888210e+000 33 58 44
-5.284539e-001 -6.315139e-001 -7.900070e+000 33 58 44
-7.754207e-001 -8.736084e-001 -8.095449e+000 37 60 40
-6.988209e-001 -7.272826e-001 -7.969572e+000 40 63 42
-6.100671e-001 -8.539945e-001 -8.140687e+000 34 58 34
-5.371651e-001 -9.882540e-001 -8.338945e+000 33 62 35
5.524400e+000 -1.017629e+000 -8.741627e+000 148 122 121
5.480587e+000 -1.100495e+000 -8.808704e+000 143 122 117
5.390185e+000 -1.340161e+000 -9.014851e+000 140 119 117
4.624547e+000 -3.159458e+000 -1.066570e+001 147 128 124
-4.831070e-001 1.665248e+000 -8.735693e+000 38 62 33
2.434508e+000 1.663170e+000 -9.755321e+000 76 25 26
2.431724e+000 1.662284e+000 -9.740958e+000 76 25 26
2.777510e+000 1.667507e+000 -9.940038e+000 103 25 23
-6.838702e-002 1.409002e+000 -8.568889e+000 175 155 106
-6.835583e-002 1.409111e+000 -8.569058e+000 175 155 106
9.649434e-001 9.735989e-001 -8.360914e+000 179 29 38
3.295174e+000 9.309708e-001 -9.193514e+000 161 126 81
2.041038e+000 7.026508e-001 -8.593733e+000 160 90 79
4.733852e+000 5.753361e-001 -9.521809e+000 190 154 123
4.549790e+000 2.046152e-001 -9.446577e+000 150 126 110
3.159220e+000 8.850403e-002 -8.923901e+000 158 17 33
3.159220e+000 8.850403e-002 -8.923901e+000 158 17 33
2.030936e+000 -7.989061e-001 -9.189558e+000 193 128 108
2.730390e+000 -9.235317e-001 -9.708560e+000 172 33 46
4.425254e+000 -1.074297e+000 -1.074053e+001 146 129 112
1.793327e-001 -8.185759e-001 -8.467484e+000 169 122 109
-6.225868e-001 -9.803444e-001 -8.284380e+000 123 136 134
5.250609e+000 -1.689093e+000 -9.321982e+000 146 125 123
-1.649939e+000 1.489154e+000 -8.067895e+000 119 127 125
-1.178694e+000 1.449168e+000 -8.229040e+000 107 126 121
-3.688097e-001 1.266560e+000 -8.341554e+000 176 155 117
-9.231686e-001 1.006827e+000 -7.866547e+000 42 94 115
4.741022e+000 1.149144e+000 -1.004927e+001 162 93 48
-1.076894e-001 8.222517e-001 -7.873611e+000 33 57 35
-3.453865e-001 6.642333e-001 -7.617544e+000 167 156 115
-3.453865e-001 6.642333e-001 -7.617544e+000 167 156 115
1.914800e+000 6.834843e-001 -8.478429e+000 184 137 90
-6.893231e-001 5.882443e-001 -7.403077e+000 26 59 35
-5.612442e-001 3.955354e-001 -7.427910e+000 48 103 124
-2.098679e-001 9.413558e-002 -7.575771e+000 156 154 142
4.023786e+000 -1.334717e-001 -9.403933e+000 192 94 47
-1.015657e-001 1.515329e+000 -8.652430e+000 136 130 30
5.145272e+000 4.148845e-001 -9.630563e+000 204 96 51
1.026394e+000 1.199043e-001 -8.098198e+000 171 160 140
4.493137e+000 1.892481e+000 -1.116918e+001 147 111 75
2.885109e+000 1.304216e+000 -9.250777e+000 87 59 72
4.016511e+000 9.120739e-001 -9.437654e+000 148 26 40
3.922617e+000 7.294482e-001 -9.279448e+000 168 127 83
-1.578827e+000 -5.461274e-001 -7.580149e+000 19 90 134
2.581183e+000 1.482241e+000 -9.761432e+000 147 116 96
3.173730e+000 1.695724e+000 -1.026165e+001 160 121 78
2.435929e+000 4.303338e-001 -8.555275e+000 177 138 99
-1.022311e+000 7.476708e-001 -7.393870e+000 199 161 124
3.218655e+000 3.925280e-001 -8.911702e+000 169 118 53
1.447784e+000 7.947440e-001 -8.338426e+000 159 24 30
2.371981e+000 2.669175e-001 -8.613148e+000 183 141 103
4.638872e+000 4.995405e-001 -9.603355e+000 194 111 40
2.988031e+000 1.435664e+000 -9.652987e+000 64 38 43
-1.089670e+000 1.189190e+000 -8.047851e+000 159 157 109
-1.089670e+000 1.189190e+000 -8.047851e+000 159 157 109
-8.699994e-001 1.089677e+000 -7.964305e+000 71 106 114
3.082172e+000 9.933261e-001 -9.170886e+000 75 45 49
2.820137e+000 5.835021e-001 -8.768392e+000 160 119 69
3.525199e+000 5.762458e-001 -9.046911e+000 149 141 153
4.710380e+000 6.352636e-001 -9.535686e+000 177 141 122
4.650647e+000 1.396957e-001 -9.515809e+000 68 34 40
9.184606e-001 -8.587256e-002 -8.115863e+000 21 82 117
2.772357e+000 9.947786e-001 -9.060640e+000 143 118 113
3.162401e+000 6.895057e-001 -8.958737e+000 66 26 35
2.841758e+000 -6.273687e-002 -8.913128e+000 164 38 48
2.981455e+000 1.157097e+000 -9.279848e+000 64 39 52
-1.080873e+000 6.257139e-001 -7.295822e+000 171 35 47
3.036179e+000 -9.008696e-002 -8.977816e+000 188 84 80
3.036179e+000 -9.008696e-002 -8.977816e+000 188 84 80
3.354877e+000 2.555150e-001 -8.909654e+000 169 117 67
7.822995e-001 -2.031981e-001 -8.091344e+000 149 75 51
-3.573079e-001 1.103579e+000 -8.089434e+000 163 152 106
-3.482064e-001 1.103132e+000 -8.094534e+000 163 152 106
2.791961e+000 1.695854e+000 -9.989796e+000 140 61 48
-1.099771e+000 1.284949e+000 -8.125723e+000 65 102 112
2.087261e+000 1.404287e+000 -9.261375e+000 84 65 71
-1.204180e+000 1.174729e+000 -7.946986e+000 197 144 112
-1.178351e+000 1.187122e+000 -7.974032e+000 174 41 38
2.552895e+000 1.278338e+000 -9.294167e+000 24 8 12
-1.981690e+000 9.841077e-001 -7.642523e+000 205 183 148
1.592883e+000 1.005462e+000 -8.632839e+000 171 166 144
2.005736e+000 1.040187e+000 -8.810679e+000 143 88 93
2.754397e+000 1.174964e+000 -9.259110e+000 144 114 104
-1.019283e+000 7.974168e-001 -7.524018e+000 182 27 33
-1.019283e+000 7.974168e-001 -7.524018e+000 182 27 33
1.902512e+000 9.018031e-001 -8.656501e+000 178 87 64
1.994108e+000 8.743905e-001 -8.648064e+000 162 93 81
2.145221e+000 9.160731e-001 -8.746246e+000 71 15 16
2.352471e+000 8.940708e-001 -8.791376e+000 133 105 104
2.353277e+000 8.928990e-001 -8.796561e+000 133 105 104
-5.217815e-001 6.864717e-001 -7.554246e+000 79 112 113
1.849824e+000 7.076197e-001 -8.461042e+000 189 139 87
2.278210e+000 7.102415e-001 -8.628987e+000 129 69 71
3.768844e+000 7.503354e-001 -9.212390e+000 32 69 105
2.394917e+000 5.952046e-001 -8.614952e+000 82 26 33
3.059928e+000 4.630543e-001 -8.846020e+000 131 74 27
3.009751e+000 3.592609e-001 -8.810280e+000 142 86 35
2.133678e-001 -5.542452e-001 -8.163809e+000 133 46 42
-9.825001e-001 -5.923669e-001 -7.685271e+000 165 182 159
-1.338469e+000 1.284084e+000 -7.999295e+000 177 151 114
1.178234e+000 1.336165e+000 -8.826611e+000 156 25 30
2.114011e+000 1.229786e+000 -9.095982e+000 81 60 65
3.041782e+000 1.401424e+000 -9.586322e+000 172 131 97
2.413140e+000 1.089119e+000 -9.063227e+000 135 104 93
2.040890e+000 8.815779e-001 -8.655887e+000 162 94 82
-2.172048e+000 4.960140e-001 -7.031887e+000 178 147 117
1.528077e+000 6.024419e-001 -8.282214e+000 150 20 28
3.107787e+000 5.810871e-001 -8.893415e+000 171 130 79
4.102633e+000 5.110719e-001 -9.233918e+000 204 114 39
-1.517109e-001 -6.517421e-002 -7.668220e+000 95 125 132
-1.517109e-001 -6.517421e-002 -7.668220e+000 95 125 132
2.728489e+000 -1.051319e-001 -8.866497e+000 168 27 39
-5.734328e-001 -5.526773e-001 -7.845303e+000 170 165 24
5.272065e+000 -1.580851e+000 -9.257530e+000 149 127 129
2.094049e+000 7.659367e-001 -8.590068e+000 178 98 84
2.030202e+000 5.617843e-001 -8.486434e+000 181 138 96
5.352392e+000 -1.869194e+000 -9.034023e+000 131 107 105
5.522890e+000 -1.763535e+000 -8.677665e+000 161 135 139
1.558822e+000 1.127291e+000 -8.757908e+000 136 143 120
-6.052162e-001 8.085645e-001 -7.675201e+000 167 160 41
-6.048102e-001 8.094153e-001 -7.674238e+000 167 160 41
-1.640061e+000 -6.597884e-001 -7.563623e+000 28 97 141
4.459350e-001 1.208135e+000 -8.514551e+000 178 41 39
-2.778439e-001 1.181057e+000 -8.221754e+000 33 61 34
5.359671e+000 -1.353842e+000 -8.991395e+000 154 131 129
5.721747e-001 1.688147e+000 -9.149312e+000 182 140 115
1.970666e+000 1.773442e+000 -9.863179e+000 30 67 91
2.066689e+000 1.784991e+000 -9.862879e+000 27 71 90
2.044310e+000 1.719281e+000 -9.712375e+000 28 67 93
2.931143e+000 1.777147e+000 -1.012984e+001 168 125 85
-1.206459e+000 1.378667e+000 -8.139143e+000 148 146 35
-1.206459e+000 1.378667e+000 -8.139143e+000 148 146 35
-8.742084e-001 1.506998e+000 -8.428773e+000 158 154 85
8.022824e-001 1.478941e+000 -8.928283e+000 165 160 124
1.643681e+000 1.538036e+000 -9.294332e+000 87 58 81
2.525781e+000 1.666926e+000 -9.851437e+000 157 38 37
2.758811e+000 1.593627e+000 -9.764291e+000 118 70 61
-1.286643e+000 1.194710e+000 -7.939018e+000 177 28 31
-1.179468e+000 1.297863e+000 -8.122861e+000 56 101 115
-1.166419e+000 1.216271e+000 -8.011523e+000 203 142 103
1.122110e+000 1.370436e+000 -8.897814e+000 187 141 98
1.123158e+000 1.369762e+000 -8.910652e+000 187 141 98
2.750097e+000 1.442887e+000 -9.575297e+000 109 45 37
2.833145e+000 1.472758e+000 -9.652803e+000 140 86 79
2.829177e+000 1.471403e+000 -9.632996e+000 140 86 79
-1.300945e+000 1.171680e+000 -7.910791e+000 192 156 118
-1.275042e+000 1.114662e+000 -7.847476e+000 188 146 106
-1.275241e+000 1.115479e+000 -7.840186e+000 188 146 106
-1.225173e+000 1.060263e+000 -7.795168e+000 171 20 27
1.148726e+000 1.311239e+000 -8.824499e+000 210 145 113
1.146702e+000 1.235585e+000 -8.753548e+000 198 158 100
1.310872e+000 1.174756e+000 -8.722029e+000 167 43 45
1.483971e+000 1.225691e+000 -8.850307e+000 166 167 149
1.484087e+000 1.226167e+000 -8.848929e+000 166 167 149
2.120022e+000 1.315231e+000 -9.174998e+000 84 61 69
2.418488e+000 1.207255e+000 -9.200218e+000 138 110 91
2.571727e+000 1.298177e+000 -9.329463e+000 133 115 100
2.598754e+000 1.316043e+000 -9.357054e+000 50 27 11
2.572188e+000 1.225048e+000 -9.242969e+000 31 12 12
2.830269e+000 1.342560e+000 -9.460788e+000 151 107 100
2.835345e+000 1.340854e+000 -9.474667e+000 151 107 100
-1.183466e+000 9.644310e-001 -7.683000e+000 204 155 123
-1.181411e+000 9.660863e-001 -7.673155e+000 204 155 123
-1.182465e+000 9.223533e-001 -7.628763e+000 204 146 107
-1.183617e+000 9.218874e-001 -7.629677e+000 204 146 107
-1.090200e+000 1.054992e+000 -7.829607e+000 191 129 89
-1.090200e+000 1.054992e+000 -7.829607e+000 191 129 89
-1.124170e+000 1.006678e+000 -7.769935e+000 182 159 116
-1.996823e-001 9.731592e-001 -7.999349e+000 140 149 44
-1.996823e-001 9.731592e-001 -7.999349e+000 140 149 44
1.225100e+000 1.082428e+000 -8.590549e+000 209 154 126
1.555170e+000 1.157792e+000 -8.799112e+000 38 81 117
1.552389e+000 1.157123e+000 -8.799487e+000 38 81 117
1.584023e+000 1.038408e+000 -8.677641e+000 13 63 111
1.983290e+000 1.106319e+000 -8.868586e+000 97 48 53
1.974946e+000 1.053685e+000 -8.840776e+000 100 56 67
2.211214e+000 1.091882e+000 -8.950078e+000 91 64 73
2.756858e+000 1.152716e+000 -9.197761e+000 146 113 101
2.741971e+000 1.163344e+000 -9.156878e+000 146 113 101
-1.132444e+000 8.706925e-001 -7.577099e+000 177 40 55
-1.145346e+000 8.506311e-001 -7.546935e+000 193 159 107
-1.108057e+000 9.012461e-001 -7.632379e+000 169 36 39
-1.107841e+000 9.014810e-001 -7.632513e+000 169 36 39
-1.104118e+000 8.798269e-001 -7.604360e+000 186 144 102
-1.048456e+000 9.102235e-001 -7.659988e+000 168 35 45
-1.046896e+000 8.522829e-001 -7.586118e+000 189 146 103
-7.202720e-001 8.615800e-001 -7.682022e+000 155 154 45
-6.663238e-001 8.134738e-001 -7.658666e+000 88 118 111
-6.663238e-001 8.134738e-001 -7.658666e+000 88 118 111
2.009775e+000 9.975896e-001 -8.778428e+000 156 91 85
2.042047e+000 9.568317e-001 -8.760997e+000 174 96 84
3.007048e+000 9.196624e-001 -9.094875e+000 83 38 42
-2.414961e+000 6.567961e-001 -7.694686e+000 191 176 136
-9.471780e-001 7.427599e-001 -7.482816e+000 192 157 117
1.955079e+000 7.846085e-001 -8.588137e+000 166 101 75
3.397038e+000 8.415005e-001 -9.173777e+000 36 23 37
3.778592e+000 7.660880e-001 -9.263141e+000 35 70 97
3.807393e+000 7.900907e-001 -9.272868e+000 169 128 90
4.452313e+000 9.032403e-001 -9.562272e+000 200 131 92
4.736064e+000 8.494549e-001 -9.696706e+000 176 145 121
-9.083710e-001 6.536960e-001 -7.401037e+000 215 153 116
-8.484709e-001 6.165315e-001 -7.383912e+000 187 37 36
-8.488137e-001 6.166141e-001 -7.384061e+000 187 37 36
2.102025e+000 7.137452e-001 -8.559566e+000 163 92 89
2.102025e+000 7.137452e-001 -8.559566e+000 163 92 89
3.129953e+000 7.142775e-001 -8.980988e+000 118 77 83
-5.046560e-001 5.157356e-001 -7.430217e+000 169 157 37
3.051953e+000 4.660607e-001 -8.824210e+000 134 73 27
3.541029e+000 5.496359e-001 -9.036002e+000 34 25 52
3.541029e+000 5.496359e-001 -9.036002e+000 34 25 52
4.657030e+000 5.531112e-001 -9.465876e+000 192 148 114
3.302692e+000 3.254445e-001 -8.854214e+000 160 88 25
4.009115e+000 -4.586372e-005 -9.327186e+000 199 88 44
3.061261e+000 3.834333e-002 -8.825614e+000 167 22 39
8.797297e-001 -2.727322e-001 -8.227064e+000 27 83 111
-1.911485e+000 1.385092e+000 -8.087663e+000 171 151 121
-2.180537e+000 1.143869e+000 -7.962033e+000 203 179 145
-6.795798e-001 1.309239e+000 -8.283806e+000 100 126 112
2.708727e+000 1.529449e+000 -9.708729e+000 118 54 42
-1.224812e+000 1.060042e+000 -7.795774e+000 168 17 25
-1.979223e+000 9.251694e-001 -7.606241e+000 206 184 142
-1.979223e+000 9.251694e-001 -7.606241e+000 206 184 142
-1.257845e+000 9.773175e-001 -7.734939e+000 180 40 38
-1.223388e+000 9.966462e-001 -7.720166e+000 197 152 109
-1.079407e+000 1.006764e+000 -7.783961e+000 195 158 119
1.203233e+000 1.137436e+000 -8.657216e+000 157 24 41
2.155304e+000 1.127221e+000 -8.980876e+000 81 58 62
1.645344e+000 9.187583e-001 -8.572295e+000 20 68 109
1.644816e+000 9.191133e-001 -8.570141e+000 20 68 109
2.065576e+000 9.328824e-001 -8.729320e+000 105 45 52
2.628168e+000 9.910539e-001 -9.037347e+000 143 117 102
1.975180e+000 8.168030e-001 -8.587402e+000 96 27 26
2.095662e+000 8.410652e-001 -8.659390e+000 88 29 43
2.053408e+000 7.935418e-001 -8.603006e+000 89 28 24
2.252861e+000 8.501707e-001 -8.728222e+000 81 45 57
2.215472e+000 8.317918e-001 -8.686094e+000 129 94 88
3.073900e+000 8.754801e-001 -8.991276e+000 143 106 101
3.074241e+000 8.416219e-001 -9.056448e+000 74 29 37
3.052960e+000 7.585695e-001 -8.976255e+000 65 23 27
-2.046446e+000 5.471564e-001 -7.489423e+000 210 183 152
-6.383406e-001 6.194430e-001 -7.464951e+000 165 149 39
2.325724e+000 6.554853e-001 -8.565739e+000 85 27 40
2.964863e+000 6.078613e-001 -8.844792e+000 99 46 58
3.606072e+000 6.748455e-001 -9.150897e+000 15 64 109
3.805436e+000 6.913646e-001 -9.142219e+000 178 135 95
4.093401e+000 6.133786e-001 -9.283176e+000 155 55 43
3.116015e+000 4.573852e-001 -8.854485e+000 183 133 80
2.834388e+000 3.754333e-001 -8.744856e+000 100 35 33
3.012843e+000 3.623891e-001 -8.823367e+000 143 87 38
-2.356112e+000 -1.389134e-001 -7.700514e+000 189 166 134
1.865998e+000 -2.108497e-001 -8.597269e+000 117 64 50
3.389876e+000 -5.650134e-001 -9.535680e+000 202 124 96
-1.179317e+000 -5.987968e-001 -7.585414e+000 186 37 55
-9.615460e-002 -5.955806e-001 -8.033730e+000 169 165 50
1.126695e+000 -6.693857e-001 -8.615089e+000 188 131 117
1.209052e+000 -6.246059e-001 -8.600143e+000 128 64 48
-1.123109e+000 -7.214286e-001 -7.723609e+000 190 129 101
5.286218e+000 -2.457886e+000 -9.192375e+000 160 136 136
4.241596e+000 -3.898275e+000 -1.141098e+001 54 42 47
4.631392e+000 1.927434e+000 -1.110814e+001 31 20 29
6.251931e-001 1.545887e+000 -8.958125e+000 175 157 124
1.659675e+000 1.582246e+000 -9.362118e+000 139 24 35
2.156539e+000 1.694028e+000 -9.704866e+000 24 69 103
2.685537e+000 1.671684e+000 -9.877527e+000 148 56 42
2.926024e+000 1.546147e+000 -9.781035e+000 86 58 56
4.599091e+000 1.370145e+000 -1.013051e+001 124 27 38
9.667928e-001 1.029224e+000 -8.443028e+000 182 42 52
-2.032615e+000 8.207496e-001 -7.608547e+000 207 184 147
-1.203389e+000 8.832186e-001 -7.624615e+000 187 36 50
-1.002942e+000 8.008657e-001 -7.524856e+000 179 32 35
3.742302e+000 9.323236e-001 -9.370154e+000 170 113 74
-1.081492e+000 7.354188e-001 -7.416467e+000 194 160 130
9.737330e-001 7.704920e-001 -8.177005e+000 182 156 127
2.391925e+000 7.448155e-001 -8.716315e+000 114 55 61
-1.092436e+000 6.650553e-001 -7.295997e+000 190 41 50
2.356084e+000 6.681760e-001 -8.674092e+000 92 35 47
3.222421e+000 1.055575e-001 -8.990565e+000 160 25 37
3.222421e+000 1.055575e-001 -8.990565e+000 160 25 37
1.330243e+000 -6.336378e-002 -8.254321e+000 110 59 50
4.365598e+000 -1.901391e-001 -9.615736e+000 175 150 119
-2.701036e-001 -2.835248e-001 -7.742734e+000 131 135 72
-2.395223e-002 -1.466548e-001 -7.783590e+000 160 159 90
8.858648e-001 -4.643177e-001 -8.366634e+000 10 51 93
2.812172e+000 -6.378985e-001 -9.336667e+000 157 20 36
-4.467274e-001 -5.499513e-001 -7.821628e+000 64 108 121
5.428351e+000 -1.110354e+000 -8.868581e+000 47 31 37
4.452878e+000 -3.534154e+000 -1.101759e+001 143 127 125
-3.632107e-002 1.567049e+000 -8.773393e+000 27 63 34
5.935042e-001 1.651557e+000 -9.105402e+000 168 106 88
5.935719e-001 1.651845e+000 -9.105148e+000 168 106 88
-1.142369e+000 1.356706e+000 -8.174182e+000 30 53 27
1.595073e+000 1.614243e+000 -9.402647e+000 92 25 39
2.500952e+000 1.627394e+000 -9.787430e+000 84 21 32
2.873509e+000 1.589155e+000 -9.830176e+000 90 55 67
-2.245523e+000 1.103651e+000 -8.005217e+000 154 130 96
-1.237287e+000 1.319242e+000 -8.071942e+000 23 84 114
-2.202763e+000 1.015757e+000 -7.868257e+000 203 176 146
-1.311717e+000 1.139279e+000 -7.874930e+000 171 33 33
-2.084061e+000 9.334510e-001 -7.703687e+000 206 182 148
-2.033284e+000 8.601442e-001 -7.606730e+000 206 183 146
-2.041218e+000 8.521950e-001 -7.649359e+000 206 183 146
-1.217433e+000 9.444550e-001 -7.657104e+000 177 33 49
-1.217919e+000 9.463715e-001 -7.643128e+000 177 33 49
-1.018787e+000 9.641616e-001 -7.719925e+000 184 42 43
-1.018787e+000 9.641616e-001 -7.719925e+000 184 42 43
-8.795825e-001 1.048223e+000 -8.009682e+000 69 107 124
1.557146e+000 1.124243e+000 -8.762102e+000 74 108 119
1.955451e+000 1.158461e+000 -8.937614e+000 128 63 63
2.346940e+000 1.078071e+000 -8.973360e+000 77 56 65
-1.155038e+000 8.188353e-001 -7.513622e+000 173 38 47
-1.126076e+000 7.626538e-001 -7.444328e+000 169 31 31
2.175114e+000 8.105997e-001 -8.636677e+000 88 39 45
-1.051791e+000 6.629330e-001 -7.349992e+000 195 160 125
8.167112e-001 6.991843e-001 -8.057932e+000 167 70 63
8.191172e-001 6.972330e-001 -8.071566e+000 167 70 63
2.151670e+000 7.166603e-001 -8.583921e+000 90 33 48
2.697656e+000 6.820098e-001 -8.781676e+000 70 19 27
3.115833e+000 6.258592e-001 -8.921333e+000 68 28 32
4.845658e+000 5.302422e-001 -9.540400e+000 185 69 41
8.397307e-001 -1.517264e-001 -8.041340e+000 125 22 38
7.287624e-001 -4.499528e-001 -8.292672e+000 191 122 103
4.907373e+000 -2.783740e+000 -9.998330e+000 155 134 131
4.384242e+000 -3.577681e+000 -1.101345e+001 143 128 128
1.423637e+000 1.614994e+000 -9.314619e+000 18 63 96
1.014407e+000 1.311430e+000 -8.835210e+000 161 29 36
1.820873e+000 1.501850e+000 -9.347880e+000 134 78 80
2.305374e+000 1.149156e+000 -9.071157e+000 81 53 72
2.068378e+000 1.026735e+000 -8.821196e+000 85 33 35
2.068378e+000 1.026735e+000 -8.821196e+000 85 33 35
2.397909e+000 9.726835e-001 -8.889692e+000 91 67 84
-1.094695e+000 6.927901e-001 -7.377856e+000 187 44 49
2.366690e+000 6.108892e-001 -8.618518e+000 116 56 64
3.088871e+000 -3.098533e-001 -9.167900e+000 168 27 34
-1.221537e-001 -6.767118e-001 -8.105574e+000 35 56 42
5.477764e+000 -9.797278e-001 -8.773556e+000 52 41 50
5.507501e+000 -1.208882e+000 -8.696874e+000 150 126 124
5.315023e+000 -1.508870e+000 -9.164507e+000 155 135 127
4.783943e+000 -2.617233e+000 -1.023288e+001 59 45 54
5.329350e+000 -2.303373e+000 -9.042029e+000 150 130 129
4.696253e+000 -3.240868e+000 -1.045609e+001 168 144 142
-4.866477e-001 1.671315e+000 -8.733736e+000 29 55 26
-2.828063e-001 1.416451e+000 -8.489180e+000 179 159 105
-2.836644e-001 1.415501e+000 -8.489716e+000 179 159 105
1.486620e+000 1.534587e+000 -9.273805e+000 32 29 57
1.588056e+000 1.502925e+000 -9.238404e+000 184 129 96
-7.677856e-001 1.190550e+000 -8.105302e+000 176 167 85
-1.339629e-001 1.234273e+000 -8.355909e+000 32 61 33
-2.075401e+000 7.122724e-001 -7.569489e+000 156 129 101
-2.075401e+000 7.122724e-001 -7.569489e+000 156 129 101
-6.466841e-001 9.386756e-001 -7.821231e+000 168 160 82
-1.123861e-001 6.593318e-001 -7.698300e+000 175 161 76
-2.660657e-001 1.472556e+000 -8.596893e+000 177 158 105
1.371965e+000 1.313448e+000 -8.975387e+000 16 70 100
9.609943e-001 9.758250e-001 -8.356960e+000 183 49 55
-6.225139e-001 6.570641e-001 -7.476885e+000 84 114 113
-1.175980e+000 1.453475e+000 -8.208447e+000 115 130 126
8.700108e-001 1.336843e+000 -8.716602e+000 173 156 126
-2.504811e-001 8.379803e-001 -7.791530e+000 172 156 126
3.002446e-001 8.424877e-001 -8.025884e+000 170 156 128
2.015896e-001 7.574617e-001 -7.906575e+000 36 55 39
-2.025605e+000 5.534755e-001 -7.513215e+000 141 114 87
-3.659491e-001 6.656155e-001 -7.613819e+000 166 158 125
4.746786e+000 -2.803090e+000 -1.022277e+001 133 112 109
3.368890e+000 1.993561e+000 -1.092015e+001 41 35 42
1.890126e-001 1.347887e+000 -8.495183e+000 174 158 125
2.866151e+000 1.464583e+000 -9.572267e+000 96 67 75
1.427070e+000 -9.485446e-001 -9.144900e+000 204 139 115
-8.502654e-001 1.301565e+000 -8.366383e+000 179 164 34
-1.218907e+000 1.070690e+000 -8.031171e+000 191 147 113
-2.788290e-002 1.104260e+000 -8.289706e+000 31 58 27
2.322033e+000 7.088955e-001 -8.673989e+000 91 29 40
4.979433e+000 1.490794e+000 -1.028469e+001 40 30 38
4.592491e+000 5.218363e-001 -9.503067e+000 187 100 33
2.126853e+000 1.830887e+000 -9.887643e+000 85 105 109
2.167797e+000 1.777525e+000 -9.804230e+000 78 101 117
2.183863e+000 1.756307e+000 -9.803000e+000 84 109 123
2.183863e+000 1.756307e+000 -9.803000e+000 84 109 123
2.276030e+000 1.745589e+000 -9.845513e+000 83 104 121
2.370183e+000 1.724004e+000 -9.701873e+000 58 12 14
3.619103e+000 1.733933e+000 -1.028003e+001 115 68 38
1.364312e+000 1.520538e+000 -9.142675e+000 22 62 89
1.401234e+000 1.451141e+000 -9.072672e+000 20 70 104
1.401234e+000 1.451141e+000 -9.072672e+000 20 70 104
2.803481e+000 1.528717e+000 -9.665748e+000 166 113 100
2.803481e+000 1.528717e+000 -9.665748e+000 166 113 100
2.856775e+000 1.513948e+000 -9.713415e+000 89 60 66
1.130065e+000 1.157413e+000 -8.650017e+000 187 149 106
1.205002e+000 1.138770e+000 -8.654681e+000 149 22 40
1.590687e+000 1.083587e+000 -8.727264e+000 23 64 99
-2.158529e+000 8.254625e-001 -7.695913e+000 155 128 97
-2.158529e+000 8.254625e-001 -7.695913e+000 155 128 97
-2.087690e+000 8.382374e-001 -7.643214e+000 210 184 151
-1.975105e+000 8.705732e-001 -7.578875e+000 205 181 145
-1.066583e+000 8.902257e-001 -7.630539e+000 174 154 104
9.633637e-001 9.186205e-001 -8.324928e+000 171 153 120
9.668382e-001 9.230145e-001 -8.325126e+000 171 153 120
2.012256e+000 9.945218e-001 -8.788358e+000 153 92 87
2.216010e+000 1.040738e+000 -8.898936e+000 92 59 68
2.710150e+000 1.038440e+000 -9.076600e+000 151 127 108
-2.007983e+000 6.336162e-001 -7.492807e+000 216 192 156
-1.031121e+000 8.221514e-001 -7.550327e+000 186 145 106
-6.565562e-001 8.484482e-001 -7.645809e+000 147 148 38
-6.775821e-001 7.802719e-001 -7.641374e+000 155 145 50
1.974173e+000 9.127596e-001 -8.677598e+000 164 91 83
1.978731e+000 9.069116e-001 -8.692147e+000 164 91 83
2.136504e+000 8.325768e-001 -8.668214e+000 160 91 83
2.058795e+000 8.269532e-001 -8.629928e+000 162 90 91
4.526247e+000 8.642696e-001 -9.653212e+000 154 81 52
-1.992336e+000 5.777673e-001 -7.463933e+000 215 191 156
-1.017319e+000 6.804968e-001 -7.388034e+000 185 151 114
2.076291e+000 6.947465e-001 -8.546153e+000 88 29 32
2.396399e+000 6.488625e-001 -8.674449e+000 115 66 73
3.542110e+000 7.393875e-001 -9.057110e+000 33 72 96
1.650448e+000 5.290163e-001 -8.278135e+000 153 55 54
2.200759e+000 5.775654e-001 -8.547114e+000 81 26 30
3.684383e+000 -2.584784e-001 -9.413349e+000 187 132 91
-1.709866e-002 -3.719500e-001 -7.966376e+000 45 48 43
5.625693e+000 -1.340483e+000 -8.681672e+000 162 139 135
-1.539060e-001 1.780861e+000 -9.026859e+000 76 84 53
9.087883e-001 1.773820e+000 -9.434151e+000 169 154 117
2.863320e+000 1.723013e+000 -1.002412e+001 158 87 62
-1.846178e+000 1.386830e+000 -7.816469e+000 168 147 114
2.716665e+000 1.595208e+000 -9.772306e+000 153 110 87
1.148757e+000 1.400562e+000 -8.879830e+000 157 27 39
2.880552e+000 1.433169e+000 -9.577483e+000 81 56 57
2.045191e+000 1.245730e+000 -9.007391e+000 105 82 85
-1.223365e+000 9.959232e-001 -7.721387e+000 196 150 103
2.168017e+000 1.155334e+000 -9.007858e+000 107 83 83
2.164934e+000 1.116232e+000 -9.024220e+000 89 64 69
2.172585e+000 1.077453e+000 -8.936524e+000 79 50 59
-2.085993e+000 7.894223e-001 -7.623960e+000 210 184 149
-2.083225e+000 7.914551e-001 -7.618099e+000 210 184 149
-1.045381e+000 9.207338e-001 -7.628643e+000 183 31 46
2.116638e+000 9.931535e-001 -8.814516e+000 80 42 42
3.046499e+000 9.732958e-001 -9.160008e+000 156 117 110
3.134711e+000 9.721793e-001 -9.196323e+000 118 88 86
2.229003e+000 9.067381e-001 -8.766006e+000 70 41 38
2.095153e+000 8.006402e-001 -8.626466e+000 164 83 77
4.582631e+000 9.146831e-001 -9.707776e+000 175 138 113
2.035496e+000 7.593246e-001 -8.574714e+000 161 91 83
2.062745e+000 6.594440e-001 -8.530962e+000 165 90 85
3.830123e+000 7.781215e-001 -9.316084e+000 160 120 84
1.252456e+000 3.337851e-002 -8.228398e+000 12 77 123
4.242917e+000 -2.192885e-001 -9.633871e+000 213 131 64
1.953474e+000 -1.957211e-001 -8.668649e+000 192 135 104
2.166427e+000 -1.770940e-001 -8.718606e+000 191 138 105
2.407979e+000 -1.702480e-001 -8.815154e+000 195 141 106
3.428717e+000 -4.740996e-001 -9.485551e+000 201 142 109
-3.640242e-001 -6.775744e-001 -8.036502e+000 24 52 19
5.405940e+000 -1.308079e+000 -8.812237e+000 127 103 99
-2.002074e-001 1.739695e+000 -9.003228e+000 147 142 94
3.147719e+000 1.889767e+000 -1.032154e+001 110 61 28
2.205276e+000 1.706451e+000 -9.691434e+000 64 97 111
1.099303e+000 1.333953e+000 -8.853871e+000 153 26 40
-1.145408e+000 1.097569e+000 -7.869245e+000 177 31 39
1.254935e+000 1.298647e+000 -8.862094e+000 198 109 99
1.254710e+000 1.298614e+000 -8.862078e+000 198 109 99
-2.097392e+000 9.917154e-001 -7.774456e+000 203 181 142
-6.157937e-001 1.022344e+000 -7.972166e+000 32 50 34
-2.003462e+000 7.897759e-001 -7.542055e+000 213 186 151
2.046005e+000 8.822281e-001 -8.655826e+000 164 89 74
8.892002e-001 6.431924e-001 -8.059171e+000 169 152 118
2.615103e+000 7.643200e-001 -8.791865e+000 173 130 111
4.178680e+000 8.038753e-001 -9.445993e+000 173 87 31
2.629391e+000 4.799102e-001 -8.670510e+000 142 70 35
4.543189e+000 2.980048e-001 -9.403479e+000 32 22 26
-2.668770e+000 -4.248557e-001 -8.919921e+000 193 167 134
4.474197e+000 8.383721e-002 -9.502606e+000 191 171 141
1.392717e+000 -7.869265e-002 -8.338929e+000 190 125 103
1.449294e+000 -6.209583e-002 -8.351992e+000 129 67 55
1.591992e+000 1.278440e-001 -8.279733e+000 173 159 132
2.530142e+000 -8.382853e-002 -8.809900e+000 195 139 108
2.632731e+000 -6.456961e-002 -8.776858e+000 163 26 37
5.565590e+000 -1.125688e+000 -8.821665e+000 123 101 103
4.820687e+000 -2.629214e+000 -1.016579e+001 154 136 134
4.712636e+000 -2.975774e+000 -1.040864e+001 131 107 108
1.608203e+000 1.564394e+000 -9.338364e+000 179 118 82
-2.115786e+000 1.115584e+000 -7.884256e+000 204 178 141
-1.163682e+000 9.950199e-001 -7.732832e+000 171 33 41
-8.692027e-001 6.301784e-001 -7.388931e+000 171 26 41
5.004211e+000 6.528508e-001 -9.503436e+000 171 78 44
-2.421462e+000 -4.174579e-001 -7.933311e+000 165 133 103
3.929575e+000 -5.199616e-001 -9.769788e+000 131 55 16
-2.345362e+000 -7.186727e-001 -8.135933e+000 162 134 104
6.470618e-001 -5.810608e-001 -8.389576e+000 159 36 40
3.302354e+000 -1.205412e+000 -1.036895e+001 41 32 40
-8.411062e-001 -7.179696e-001 -7.896652e+000 35 63 30
-1.168656e-001 -8.575294e-001 -8.345945e+000 164 165 135
-1.554446e+000 1.493614e+000 -8.154204e+000 50 100 118
6.272553e-001 1.595272e+000 -9.016766e+000 178 114 93
4.615476e-001 1.550453e+000 -8.903321e+000 169 148 119
1.282441e+000 1.510094e+000 -9.202025e+000 17 63 90
7.212175e-001 1.420162e+000 -8.834771e+000 164 147 115
5.173843e-001 1.182079e+000 -8.439534e+000 143 146 115
-2.151148e+000 8.979944e-001 -7.747786e+000 206 180 146
-2.080416e+000 9.351176e-001 -7.692166e+000 208 184 147
-2.084533e-001 1.022425e+000 -8.049920e+000 29 60 27
1.141806e+000 1.176048e+000 -8.651623e+000 136 42 27
-2.484434e-001 9.652511e-001 -7.992621e+000 173 149 56
2.314777e+000 9.834120e-001 -8.864164e+000 108 77 75
2.805263e-001 8.016174e-001 -7.975326e+000 162 151 100
2.771142e-001 8.053628e-001 -7.961325e+000 162 151 100
4.549025e+000 8.301794e-001 -9.579353e+000 180 146 111
4.018305e+000 7.972065e-001 -9.378346e+000 164 117 81
3.270043e+000 6.439056e-001 -9.001944e+000 82 57 64
-3.170350e-001 -3.542697e-001 -7.850189e+000 27 56 35
2.461720e+000 -5.053804e-001 -9.067241e+000 201 138 106
5.063356e+000 -2.173405e+000 -9.891332e+000 55 45 48
-3.614028e-001 1.638013e+000 -8.740413e+000 99 124 100
-1.377888e+000 1.288075e+000 -8.015411e+000 174 85 68
-1.377888e+000 1.288075e+000 -8.015411e+000 174 85 68
-5.230082e-001 1.303253e+000 -8.253274e+000 29 52 34
4.234399e-001 1.426119e+000 -8.714913e+000 165 146 115
1.312192e+000 1.440122e+000 -9.129861e+000 17 65 94
-7.658433e-001 1.190049e+000 -8.107863e+000 171 150 75
-1.773027e-001 1.177548e+000 -8.238824e+000 177 157 83
2.521916e+000 1.248268e+000 -9.231134e+000 29 17 25
-7.309828e-001 9.820179e-001 -7.910661e+000 25 48 33
-4.102872e-001 1.045419e+000 -7.983129e+000 32 53 34
-4.102872e-001 1.045419e+000 -7.983129e+000 32 53 34
1.105271e+000 1.109206e+000 -8.624823e+000 146 26 35
4.738604e+000 1.213229e+000 -1.006421e+001 148 86 48
2.874338e+000 7.583483e-001 -8.920456e+000 143 116 97
4.806099e+000 2.405168e-002 -9.704054e+000 192 107 40
-1.087507e+000 -5.534042e-001 -7.693553e+000 29 93 136
3.534387e+000 1.904207e+000 -1.065564e+001 149 106 64
-3.687875e-001 1.409753e+000 -8.561397e+000 27 52 36
-4.445453e-001 1.334074e+000 -8.351640e+000 172 155 107
-5.414526e-001 1.044170e+000 -7.982968e+000 167 147 106
-4.531966e-001 9.368627e-001 -7.922027e+000 169 153 103
-4.529863e-001 9.405864e-001 -7.917859e+000 169 153 103
4.220413e+000 8.564186e-001 -9.468313e+000 175 87 31
-3.003408e-001 2.182767e-001 -7.509747e+000 89 119 129
4.838890e+000 1.521425e-001 -9.640348e+000 206 121 61
2.905978e+000 -5.973406e-001 -9.383413e+000 171 37 48
3.581988e+000 1.797602e+000 -1.043210e+001 47 16 21
5.188912e-001 8.463295e-001 -8.086473e+000 159 143 117
-3.677242e-001 6.655117e-001 -7.613746e+000 159 146 108
-9.290604e-002 1.526420e+000 -8.635311e+000 124 119 35
1.503936e+000 1.616819e+000 -9.392910e+000 144 40 42
1.503936e+000 1.616819e+000 -9.392910e+000 144 40 42
4.574926e+000 -2.687104e-001 -9.917785e+000 172 143 122
-8.905360e-002 1.522786e+000 -8.629066e+000 99 101 31
1.619870e-001 1.508969e+000 -8.767546e+000 165 149 116
4.351996e+000 1.036479e+000 -9.741606e+000 142 23 43
4.351996e+000 1.036479e+000 -9.741606e+000 142 23 43
4.073030e-002 -8.937575e-001 -8.548283e+000 160 159 141
-9.424972e-001 3.698475e-001 -7.250827e+000 91 124 133
4.864174e+000 -2.997669e-001 -9.842037e+000 35 24 33
4.996174e+000 9.285365e-001 -9.628957e+000 41 30 38
3.784998e+000 -4.700806e-001 -9.974312e+000 195 142 95
3.905935e+000 1.462383e+000 -1.021161e+001 153 111 71
3.905935e+000 1.462383e+000 -1.021161e+001 153 111 71
-4.188208e+001 -2.880614e+001 -1.012019e+002 65 46 50
-3.499758e+001 -3.431206e+001 -9.105374e+001 162 128 104
-3.969331e+001 -3.342817e+001 -9.216924e+001 74 45 28
-3.505825e+001 -3.353433e+001 -9.361860e+001 119 90 76
-3.505825e+001 -3.353433e+001 -9.361860e+001 119 90 76
-3.696391e+001 -3.361313e+001 -8.864806e+001 156 125 104
2.210336e+000 1.335014e+000 -9.215717e+000 96 73 79
1.585505e+000 1.084326e+000 -8.728654e+000 12 69 115
-1.037129e+000 6.993887e-001 -7.394180e+000 165 38 41
2.462801e+000 5.941558e-001 -8.642689e+000 91 38 45
3.044879e+000 1.174857e+000 -9.333108e+000 122 93 96
2.279270e+000 7.097968e-001 -8.620445e+000 128 66 75
2.818945e+000 5.127107e-001 -8.743227e+000 178 130 81
1.170970e+000 1.274862e+000 -8.796806e+000 157 33 30
5.391663e+000 -1.598127e+000 -8.969315e+000 157 137 130
5.392240e+000 -2.500338e+000 -8.911119e+000 163 144 138
3.257500e+000 -1.682369e-002 -9.044987e+000 201 141 105
-3.656256e+001 -3.855292e+001 -8.682295e+001 146 123 110
-3.391293e+001 -3.891674e+001 -8.906438e+001 142 113 97
-1.226507e+000 1.097947e+000 -7.851653e+000 149 73 51
-3.281986e+001 -4.260696e+001 -8.542813e+001 123 93 81
-3.299855e+001 -4.291816e+001 -8.595411e+001 123 93 81
-3.589094e+001 -3.659672e+001 -8.594348e+001 155 124 106
-4.558669e-001 1.202963e+000 -8.122934e+000 27 60 26
-3.780353e+001 -3.821160e+001 -8.806219e+001 56 37 37
-3.494936e+001 -3.584080e+001 -9.314277e+001 118 94 74
-3.863853e+001 -3.955675e+001 -8.443557e+001 31 30 47
1.964390e+000 1.780145e+000 -9.877920e+000 29 60 84
2.227930e+000 1.806988e+000 -9.899972e+000 79 98 106
2.271402e+000 1.748837e+000 -9.833246e+000 83 104 121
-8.547022e-001 1.434287e+000 -8.360141e+000 91 108 93
-8.521160e-001 1.440156e+000 -8.342581e+000 91 108 93
1.518521e+000 1.616072e+000 -9.372213e+000 141 42 41
2.631066e+000 1.562582e+000 -9.611187e+000 166 122 99
-1.141278e+000 1.259935e+000 -8.078608e+000 166 33 38
-1.286533e+000 1.194742e+000 -7.938572e+000 180 26 37
1.087110e+000 1.270432e+000 -8.750167e+000 184 156 106
-1.972340e+000 8.720606e-001 -7.577892e+000 205 181 145
2.178760e+000 1.053252e+000 -8.910444e+000 84 57 63
2.705950e+000 1.085762e+000 -9.116960e+000 157 125 111
-1.083142e+000 8.107678e-001 -7.516725e+000 186 142 109
1.010141e-001 8.275476e-001 -7.931818e+000 156 150 46
-7.467919e-001 5.549393e-001 -7.342446e+000 148 146 29
1.850171e+000 6.329321e-001 -8.429181e+000 178 134 80
3.441073e+000 6.407752e-001 -9.051639e+000 32 30 58
2.562193e+000 4.893725e-001 -8.549250e+000 174 120 76
2.991492e+000 3.781900e-001 -8.825905e+000 126 73 31
3.268023e-002 -9.432244e-002 -7.760375e+000 88 93 61
5.446165e+000 -1.025573e+000 -8.858434e+000 45 32 42
2.377993e+000 1.586248e+000 -9.626727e+000 166 134 109
1.257985e+000 1.171339e+000 -8.725750e+000 155 28 39
1.257985e+000 1.171339e+000 -8.725750e+000 155 28 39
1.882241e+000 1.037860e+000 -8.744945e+000 77 24 33
1.493064e-001 5.270369e-001 -7.718308e+000 164 150 28
5.006478e+000 6.020037e-001 -9.605350e+000 125 35 17
9.847192e-001 -2.076416e-002 -8.107755e+000 13 67 103
5.279791e+000 -1.818581e+000 -9.295459e+000 171 148 142
2.174391e+000 1.249319e+000 -9.134391e+000 87 62 68
7.744034e-001 8.316917e-001 -8.135673e+000 154 148 116
4.843256e+000 -2.575665e+000 -1.020470e+001 58 44 45
1.513388e+000 1.230370e+000 -8.856217e+000 91 97 87
4.760732e+000 1.276174e+000 -1.018889e+001 135 73 48
-8.702130e-001 6.306066e-001 -7.387120e+000 171 26 41
3.126402e+000 5.758040e-001 -8.883832e+000 166 123 69
4.914969e+000 -2.492834e+000 -1.005375e+001 145 130 127
2.896404e+000 8.387584e-001 -8.965642e+000 155 119 105
5.157274e+000 -1.803165e+000 -9.509754e+000 51 39 49
4.913628e+000 -2.449161e+000 -1.012635e+001 49 41 41
5.915100e-002 1.275897e+000 -8.396675e+000 32 56 32
8.595417e-001 1.032222e+000 -8.412987e+000 162 148 121
8.595417e-001 1.032222e+000 -8.412987e+000 162 148 121
3.015503e-001 1.109521e+000 -8.224188e+000 163 147 116
8.738754e-001 6.898662e-001 -8.095854e+000 169 147 116
1.346671e+000 6.857093e-001 -8.265621e+000 150 23 32
1.687967e+000 6.754769e-001 -8.403299e+000 16 69 109
-1.440772e-001 1.732756e+000 -9.015894e+000 148 142 47
4.463630e+000 2.007863e+000 -1.120895e+001 152 93 56
-3.028005e-002 1.605018e+000 -8.827619e+000 157 149 70
2.169197e+000 1.776742e+000 -9.807311e+000 69 92 99
1.319427e+000 1.626674e+000 -9.327855e+000 17 53 78
1.319067e+000 1.626342e+000 -9.328069e+000 17 53 78
1.522835e+000 1.615724e+000 -9.380663e+000 121 40 37
2.810159e+000 1.587834e+000 -9.787153e+000 144 112 97
2.794493e+000 1.490451e+000 -9.663582e+000 80 31 26
2.879033e+000 1.521156e+000 -9.661246e+000 96 76 78
-2.106649e+000 1.031140e+000 -7.781668e+000 197 177 143
-1.235290e+000 1.192291e+000 -7.963642e+000 172 33 39
-1.236179e+000 1.193097e+000 -7.961881e+000 172 33 39
-1.165011e+000 1.224354e+000 -7.857896e+000 160 15 19
-2.468752e-001 1.227218e+000 -8.114151e+000 27 51 20
-1.867024e-001 1.276429e+000 -8.379858e+000 25 52 11
9.560189e-001 1.307772e+000 -8.510459e+000 148 138 103
1.414360e+000 1.376100e+000 -9.014166e+000 148 146 115
1.414360e+000 1.376100e+000 -9.014166e+000 148 146 115
2.358156e+000 1.336657e+000 -9.287647e+000 116 90 73
-1.178634e+000 1.109597e+000 -7.905534e+000 195 149 113
-1.141065e+000 1.046289e+000 -7.815165e+000 181 142 102
1.924126e+000 1.205061e+000 -8.996185e+000 137 84 76
-2.104555e+000 8.204687e-001 -7.658524e+000 203 180 148
-1.082178e+000 9.217230e-001 -7.669946e+000 171 146 89
-1.081206e+000 9.199686e-001 -7.673691e+000 171 146 89
-8.004915e-001 8.798638e-001 -7.838944e+000 149 146 33
5.205929e-001 9.616361e-001 -8.224071e+000 141 22 24
5.205929e-001 9.616361e-001 -8.224071e+000 141 22 24
1.249880e+000 1.101724e+000 -8.618527e+000 145 17 19
2.174853e+000 1.131740e+000 -8.979804e+000 72 50 55
2.566212e+000 1.153056e+000 -9.134634e+000 110 82 70
-2.092481e+000 6.914901e-001 -7.586095e+000 202 177 146
-2.092335e+000 6.918520e-001 -7.585821e+000 202 177 146
-2.008323e+000 6.317290e-001 -7.494420e+000 206 184 150
-1.132394e+000 8.704789e-001 -7.577116e+000 156 36 41
-1.062531e+000 7.973306e-001 -7.501488e+000 153 44 48
1.914857e+000 9.845418e-001 -8.739532e+000 78 22 23
1.981656e+000 9.825761e-001 -8.745839e+000 74 16 11
1.970360e+000 9.552994e-001 -8.726398e+000 158 92 67
2.050365e+000 9.836276e-001 -8.777921e+000 78 28 21
2.143062e+000 9.199268e-001 -8.739856e+000 60 20 20
-2.060723e+000 5.925674e-001 -7.522704e+000 205 181 145
-7.049627e-001 7.858299e-001 -7.594020e+000 140 138 28
2.661523e+000 7.439558e-001 -8.790281e+000 94 55 50
3.138434e+000 8.363606e-001 -9.054971e+000 80 48 48
3.132918e+000 8.414262e-001 -9.046214e+000 80 48 48
2.128214e+000 6.378434e-001 -8.526619e+000 77 28 31
4.626747e+000 5.910347e-001 -9.469086e+000 165 79 55
-6.200133e-001 5.094810e-001 -7.400799e+000 161 154 31
4.056670e+000 4.917795e-001 -9.287470e+000 162 114 70
4.463317e+000 2.973037e-001 -9.357247e+000 28 9 3
1.971051e+000 -1.490897e-001 -8.633005e+000 191 139 99
5.513315e+000 -8.557077e-001 -8.590718e+000 135 121 113
-7.155027e-001 1.531628e+000 -8.565703e+000 142 138 34
2.223515e+000 1.702468e+000 -9.774224e+000 76 104 107
2.224325e+000 1.703661e+000 -9.773688e+000 76 104 107
2.104186e+000 1.688309e+000 -9.708414e+000 18 58 87
2.218558e+000 1.622534e+000 -9.629915e+000 86 21 25
-2.779439e+000 8.453537e-001 -8.405461e+000 157 29 31
-2.128312e+000 1.090811e+000 -7.835607e+000 198 179 137
-2.128853e+000 1.088971e+000 -7.841114e+000 198 179 137
4.730793e+000 1.332943e+000 -1.052342e+001 133 88 66
-1.183444e+000 1.056987e+000 -7.815341e+000 168 31 49
-1.183444e+000 1.056987e+000 -7.815341e+000 168 31 49
1.228185e+000 1.237114e+000 -8.792208e+000 136 22 28
1.548562e+000 1.155773e+000 -8.799621e+000 13 60 83
2.837377e+000 1.173541e+000 -9.325600e+000 132 104 90
1.160797e+000 1.099640e+000 -8.582175e+000 181 145 102
2.260565e+000 1.010402e+000 -8.867625e+000 60 29 34
-1.989315e+000 7.623272e-001 -7.529478e+000 207 188 148
-1.096808e+000 8.520272e-001 -7.567067e+000 179 148 95
1.810338e+000 9.950408e-001 -8.685867e+000 149 51 30
2.828661e+000 9.568124e-001 -8.993235e+000 121 98 84
3.827935e+000 9.393570e-001 -9.430406e+000 160 103 72
2.092765e+000 8.037865e-001 -8.619879e+000 157 85 67
2.549080e+000 8.554074e-001 -8.815274e+000 129 97 84
-2.382139e+000 2.070511e-001 -7.794608e+000 179 153 124
4.146760e+000 6.816551e-001 -9.324019e+000 180 99 44
4.796473e+000 6.458085e-001 -9.558220e+000 175 137 112
3.172970e+000 4.877982e-001 -8.963558e+000 165 127 72
4.009815e+000 4.240956e-001 -9.197132e+000 155 53 40
5.203725e+000 4.835191e-001 -9.600924e+000 32 21 37
-3.252630e-001 1.670755e-001 -7.495719e+000 91 124 139
9.030692e-001 4.631041e-002 -8.037818e+000 79 35 67
1.327212e+000 -5.785392e-002 -8.258019e+000 126 67 48
1.327212e+000 -5.785392e-002 -8.258019e+000 126 67 48
3.332266e+000 -1.967621e-001 -9.179661e+000 195 143 104
4.649429e+000 -3.128592e+000 -1.056748e+001 134 118 105
4.651642e+000 -3.137444e+000 -1.057762e+001 134 118 105
3.399280e+000 -5.794474e+000 -1.319814e+001 69 61 71
4.469580e+000 -3.628393e+000 -1.081339e+001 131 114 106
4.469580e+000 -3.628393e+000 -1.081339e+001 131 114 106
4.494647e+000 -4.247860e+000 -1.085858e+001 154 140 131
9.414921e-001 1.780277e+000 -9.634772e+000 144 41 35
1.564061e+000 1.812998e+000 -9.796953e+000 146 58 52
2.054992e+000 1.831702e+000 -9.993607e+000 17 55 79
4.523786e+000 2.025610e+000 -1.112524e+001 29 18 24
3.372378e+000 1.831015e+000 -1.039772e+001 141 100 56
1.482107e+000 1.326284e+000 -8.983545e+000 24 59 99
2.703384e+000 1.411162e+000 -9.498587e+000 160 116 99
-1.974796e+000 9.270484e-001 -7.611144e+000 201 182 139
-1.977419e+000 9.230863e-001 -7.618809e+000 201 182 139
-1.942045e+000 8.402080e-001 -7.534046e+000 204 185 145
-1.943368e+000 8.385197e-001 -7.535676e+000 204 185 145
-1.117686e+000 8.008733e-001 -7.480533e+000 181 154 109
2.344773e+000 6.759096e-001 -8.639878e+000 73 22 27
4.108774e+000 3.865220e-001 -9.280451e+000 196 115 48
3.853097e+000 1.583177e-001 -9.205697e+000 105 27 36
4.985267e+000 1.888480e-001 -9.633607e+000 143 81 49
2.667545e+000 1.029013e-001 -8.712608e+000 152 26 36
4.772181e+000 -2.729232e+000 -1.026571e+001 149 137 125
4.850821e+000 -2.544086e+000 -1.009489e+001 149 132 124
4.995405e+000 -2.224215e+000 -9.804325e+000 145 134 130
4.427780e+000 -3.514646e+000 -1.098851e+001 138 129 116
4.825474e+000 -2.797156e+000 -9.970877e+000 133 119 108
5.017619e+000 -3.240901e+000 -9.629904e+000 164 147 137
5.017619e+000 -3.240901e+000 -9.629904e+000 164 147 137
1.924964e+000 1.706516e+000 -9.595198e+000 106 14 26
2.301748e+000 1.691355e+000 -9.815357e+000 18 53 80
-1.308029e+000 1.139457e+000 -7.875580e+000 166 29 36
-1.165147e+000 9.987907e-001 -7.726334e+000 156 32 27
2.798513e+000 1.031898e+000 -9.106557e+000 138 113 93
3.755734e+000 9.440258e-001 -9.395721e+000 150 107 68
2.871717e+000 6.119140e-001 -8.824505e+000 65 22 32
7.404763e-001 -1.547706e-001 -8.116569e+000 158 25 40
5.415889e+000 -1.079595e+000 -8.852162e+000 54 43 46
5.501088e+000 -9.991635e-001 -8.708234e+000 145 128 119
4.816468e+000 -2.625545e+000 -1.015779e+001 148 133 126
4.071186e+000 -4.318360e+000 -1.172639e+001 140 130 127
4.154733e+000 -4.125322e+000 -1.154628e+001 154 145 131
4.275552e+000 -3.850182e+000 -1.129252e+001 144 133 124
3.483647e+000 -5.827621e+000 -1.316757e+001 146 136 135
3.382774e+000 1.903882e+000 -1.063066e+001 30 13 21
-9.027511e-001 1.503076e+000 -8.424731e+000 76 79 11
-7.924480e-001 1.424963e+000 -8.377363e+000 100 107 71
1.249529e+000 1.569927e+000 -9.266872e+000 14 58 88
-2.210552e+000 1.006840e+000 -7.880623e+000 199 177 138
1.032396e+000 1.256015e+000 -8.764574e+000 135 20 32
1.124424e+000 1.240443e+000 -8.751361e+000 146 52 40
1.482873e+000 1.289469e+000 -8.928741e+000 116 119 101
1.486023e+000 1.289218e+000 -8.932636e+000 116 119 101
2.747127e+000 1.447615e+000 -9.514560e+000 93 53 49
5.210122e-001 1.180030e+000 -8.445017e+000 161 140 116
4.662393e+000 1.097986e+000 -9.957152e+000 160 88 43
-2.050790e+000 6.517659e-001 -7.534164e+000 208 186 151
5.652941e+000 -6.007556e-001 -8.346028e+000 142 124 120
5.464622e+000 -1.080231e+000 -8.780299e+000 143 131 119
4.091449e+000 -4.147073e+000 -1.165979e+001 55 50 49
4.399016e+000 -3.395656e+000 -1.095764e+001 51 47 52
5.822479e+000 -1.263168e+000 -7.961947e+000 157 136 133
5.829293e+000 -1.270819e+000 -7.969014e+000 157 136 133
4.809563e+000 -3.590502e+000 -1.014689e+001 157 141 128
8.260368e-001 1.729980e+000 -9.296339e+000 140 27 34
8.209583e-001 1.719484e+000 -9.309081e+000 140 27 34
3.361779e+000 1.865860e+000 -1.040211e+001 121 87 39
3.361779e+000 1.865860e+000 -1.040211e+001 121 87 39
7.045405e-001 1.415347e+000 -8.845820e+000 159 142 111
8.066410e-001 1.170256e+000 -8.572641e+000 151 140 112
2.061987e+000 6.080965e-001 -8.490321e+000 99 43 45
9.217876e-001 1.878320e-002 -8.032021e+000 28 65 108
5.003171e+000 -3.221124e+000 -9.698388e+000 164 147 137
5.016616e+000 -3.245614e+000 -9.724382e+000 164 147 137
-3.690529e-001 1.405039e+000 -8.569764e+000 31 53 37
1.371074e+000 1.313417e+000 -8.973104e+000 10 68 99
7.730485e-001 8.729162e-001 -8.213434e+000 159 145 118
2.838771e-001 8.372603e-001 -7.938998e+000 162 151 121
7.623742e-001 1.576794e+000 -8.987811e+000 159 142 112
-9.412529e-002 1.333298e+000 -8.410728e+000 166 149 104
2.375728e+000 1.294467e+000 -9.262361e+000 137 112 92
2.628813e-002 8.362463e-001 -7.921265e+000 160 149 123
4.389870e+000 -3.712168e+000 -1.110259e+001 140 127 118
2.512594e+000 1.533984e+000 -9.574183e+000 148 120 96
-9.106455e-001 1.691235e+000 -8.967648e+000 73 101 102
2.560569e+000 1.808656e+000 -1.026700e+001 146 108 69
4.413354e+000 1.873919e+000 -1.103530e+001 134 101 68
4.413354e+000 1.873919e+000 -1.103530e+001 134 101 68
2.935301e+000 1.301618e+000 -9.388616e+000 69 48 53
3.926549e-001 8.751486e-001 -8.523312e+000 158 147 116
1.558635e+000 -4.884474e-001 -1.914478e+001 67 51 14
-2.687158e-001 1.744054e+000 -8.923851e+000 149 136 51
1.989755e+000 1.802907e+000 -9.872812e+000 137 138 96
2.071482e+000 1.811397e+000 -9.908341e+000 134 135 114
2.071142e+000 1.811388e+000 -9.908155e+000 134 135 114
2.133467e+000 1.780344e+000 -9.846377e+000 27 52 55
2.147474e+000 1.752264e+000 -9.812785e+000 29 54 61
3.139764e+000 1.852250e+000 -1.041448e+001 144 97 51
-8.783443e-001 1.529975e+000 -8.456222e+000 29 41 28
3.335113e-001 1.587863e+000 -8.933560e+000 143 26 31
1.364771e+000 1.610550e+000 -9.320626e+000 148 145 106
1.360929e+000 1.615039e+000 -9.308388e+000 148 145 106
2.238194e+000 1.748438e+000 -9.857891e+000 27 54 58
2.239266e+000 1.746017e+000 -9.863335e+000 27 54 58
2.258147e+000 1.720246e+000 -9.810621e+000 27 57 68
1.496450e+000 1.573368e+000 -9.366590e+000 145 43 47
1.376313e+000 1.513223e+000 -9.179916e+000 24 59 71
1.376313e+000 1.513223e+000 -9.179916e+000 24 59 71
1.422418e+000 1.498101e+000 -9.168723e+000 145 154 119
1.507553e+000 1.521044e+000 -9.278803e+000 75 15 26
1.628525e+000 1.498984e+000 -9.226041e+000 170 117 81
2.697093e+000 1.538024e+000 -9.669993e+000 102 47 26
2.886932e+000 1.535039e+000 -9.788173e+000 101 71 64
-2.712936e+000 8.425314e-001 -8.375182e+000 149 80 62
-2.695610e+000 7.978887e-001 -8.438521e+000 180 141 98
-9.019277e-001 1.240982e+000 -8.245243e+000 147 138 3
-7.994033e-001 1.200509e+000 -8.178759e+000 158 143 29
7.463219e-001 1.323632e+000 -8.720240e+000 155 144 95
1.036254e+000 1.361735e+000 -8.869370e+000 185 151 90
1.126698e+000 1.364861e+000 -8.909222e+000 187 141 97
1.803713e+000 1.409614e+000 -9.187857e+000 139 74 59
1.825058e+000 1.367661e+000 -9.140358e+000 157 81 72
1.824649e+000 1.367484e+000 -9.140288e+000 157 81 72
2.826513e+000 1.481232e+000 -9.644088e+000 144 85 73
2.842077e+000 1.414476e+000 -9.559919e+000 139 78 65
