ply
format ascii 1.0
element face 0
property list uchar int vertex_indices
element vertex 868
property float x
property float y
property float z
property uchar diffuse_red
property uchar diffuse_green
property uchar diffuse_blue
end_header
-2.637787e-001 1.047232e+000 -7.744071e+000 175 28 34
-1.716475e+000 -3.720842e+000 -1.056645e+001 49 45 46
-1.731025e+000 -4.024893e+000 -1.064305e+001 59 53 57
-5.340952e-003 -1.824967e-002 -6.948830e+000 137 120 112
8.525257e-002 6.065888e-002 -6.934590e+000 200 190 178
2.971800e-001 1.309866e+000 -7.113152e+000 16 2 8
-2.534541e-001 2.217521e-001 -7.725170e+000 206 194 178
-1.053055e-001 3.106340e-001 -6.987876e+000 118 104 93
-3.248287e-001 -4.941190e-002 -6.879491e+000 73 18 22
1.007233e+000 4.915263e-001 -6.387446e+000 67 57 58
-6.796153e-002 1.136406e+000 -7.402996e+000 187 46 45
-1.423071e+000 -5.220189e+000 -1.019367e+001 89 76 67
6.763155e-001 7.777671e-001 -6.716761e+000 207 53 61
5.462422e-001 -3.997130e-001 -6.829676e+000 134 121 104
-3.702264e-001 2.478632e-001 -8.074408e+000 30 36 25
-2.036711e-001 3.072171e-001 -7.476798e+000 127 115 103
-1.233169e+000 -1.148859e+001 -1.045222e+001 57 59 72
-7.094603e-002 1.127189e+000 -7.449301e+000 200 50 59
6.269109e-001 8.472152e-001 -6.767580e+000 220 61 68
6.888166e-001 -8.241330e-001 -6.745644e+000 252 246 237
7.845292e-001 -9.290734e-001 -6.718208e+000 201 64 68
8.809621e-001 -8.040631e-001 -6.586283e+000 253 247 241
1.161867e+000 -1.586053e-001 -6.224544e+000 16 10 14
-2.785420e-001 -1.114197e-001 -7.794970e+000 213 207 195
6.962271e-001 5.268667e-001 -6.599533e+000 254 254 249
-2.941150e-001 -2.649031e-002 -7.856179e+000 171 110 93
-2.206715e-001 -7.183899e-002 -7.712353e+000 197 185 167
5.882014e-002 6.320638e-001 -7.295763e+000 193 185 174
6.725669e-002 6.383711e-001 -7.273341e+000 197 187 175
1.164223e-001 7.796521e-001 -7.149385e+000 181 174 164
-7.790327e-001 -1.810137e-001 -7.091760e+000 122 35 18
-1.464243e+000 -4.871301e+000 -1.036818e+001 29 23 26
-7.467022e-001 -2.068743e-001 -7.083037e+000 99 21 14
-1.696829e-001 1.463716e-001 -7.201006e+000 114 98 85
-9.171875e-002 5.507969e-002 -6.987495e+000 170 157 143
-5.482957e-001 -1.351708e-001 -6.698146e+000 126 31 9
-1.462443e-001 1.262830e-002 -6.879123e+000 135 118 108
2.524269e-001 1.775094e-001 -7.011931e+000 155 141 128
4.155945e-001 -6.480713e-001 -6.935781e+000 252 249 235
4.155945e-001 -6.480713e-001 -6.935781e+000 252 249 235
1.147204e+000 1.229801e-001 -6.261456e+000 32 16 19
1.009022e+000 -6.399624e-001 -6.369623e+000 163 17 27
-1.926733e+000 -3.472566e+000 -1.079654e+001 47 42 46
-1.837563e+000 -3.704913e+000 -1.070204e+001 51 46 50
-1.732309e+000 -3.995552e+000 -1.061291e+001 63 59 60
1.423156e-001 9.868234e-001 -7.298708e+000 208 201 191
5.185456e-002 6.591225e-001 -7.291208e+000 235 226 217
-2.869103e-001 1.136678e-001 -7.108975e+000 128 111 101
-1.392384e+000 -4.971983e+000 -1.032889e+001 69 61 65
-1.241348e+000 -5.293388e+000 -1.023568e+001 43 33 36
-6.515236e-002 5.510043e-002 -6.972369e+000 126 112 99
1.649467e-002 -2.480979e-001 -6.884033e+000 248 244 234
4.768726e-001 1.657089e-001 -6.929412e+000 135 122 105
3.885828e-001 7.806145e-002 -6.809300e+000 191 177 164
3.520190e-001 -3.974174e-002 -6.788987e+000 248 241 231
3.520190e-001 -3.974174e-002 -6.788987e+000 248 241 231
6.026849e-001 -7.161809e-001 -6.819469e+000 231 218 201
1.043473e+000 3.735989e-001 -6.339205e+000 26 10 15
3.997371e-001 -3.842637e+000 -7.812201e+000 179 181 193
1.106737e+000 3.267562e-002 -6.195616e+000 99 87 84
-1.480389e-002 1.336436e+000 -7.323774e+000 70 10 20
-1.626877e-001 6.366690e-001 -7.493373e+000 167 157 146
-1.257812e-001 7.061823e-001 -7.440340e+000 169 157 145
-1.690554e+000 -4.102290e+000 -1.055080e+001 55 49 52
-1.690627e+000 -4.061557e+000 -1.067558e+001 31 25 27
-2.294823e-001 1.811115e-001 -7.344594e+000 155 141 128
-6.261673e-001 -5.848156e-002 -6.903846e+000 101 41 29
-1.307206e+000 -5.329805e+000 -1.039084e+001 78 69 74
-1.357551e+000 -5.362439e+000 -1.020118e+001 124 114 116
-6.369738e-001 -1.176790e-001 -6.692798e+000 114 38 26
5.158134e-001 1.301671e-001 -6.827381e+000 146 133 117
7.303534e-001 8.305376e-001 -6.545889e+000 73 4 9
7.111165e-001 7.764413e-001 -6.540870e+000 250 96 104
6.820210e-001 -1.942404e+000 -7.161954e+000 167 173 175
2.865594e-001 1.146610e+000 -7.123201e+000 211 55 54
4.333343e-001 1.043627e+000 -6.938966e+000 237 75 85
-5.949318e-001 -1.295116e-001 -6.708046e+000 132 42 21
-4.992196e-001 -2.727794e-001 -6.667382e+000 163 22 24
7.156345e-001 7.939393e-002 -6.840908e+000 186 174 162
9.503650e-001 2.142190e-001 -6.436268e+000 253 224 210
9.482776e-001 4.816232e-001 -6.353106e+000 249 97 103
9.872561e-001 -4.174288e-002 -6.328364e+000 236 87 87
1.011353e+000 -4.417179e-001 -6.293698e+000 248 231 179
-4.277361e-001 7.194584e-001 -7.917101e+000 193 183 173
-1.326718e-001 7.115840e-001 -7.604460e+000 200 191 176
2.359704e-001 8.705720e-001 -7.204901e+000 199 191 182
2.359443e-001 8.705146e-001 -7.204841e+000 199 191 182
-3.929257e-001 -1.941234e-001 -6.700471e+000 128 37 22
1.006301e+000 2.434639e-001 -6.419899e+000 241 84 93
-1.339468e-003 1.319038e+000 -7.450255e+000 18 8 10
-1.034243e-001 7.441499e-001 -7.561341e+000 171 161 149
-1.034243e-001 7.441499e-001 -7.561341e+000 171 161 149
1.035666e+000 1.271855e-001 -6.331837e+000 228 73 81
1.645720e-002 1.177617e+000 -7.344532e+000 214 48 58
3.804363e-001 1.227088e+000 -6.986174e+000 213 51 62
3.864176e-001 9.734460e-001 -7.002022e+000 218 208 199
3.811813e-001 9.782498e-001 -6.994714e+000 218 208 199
5.681984e-001 9.280058e-001 -6.822423e+000 220 58 66
3.344115e-001 1.739211e-001 -6.860957e+000 152 139 122
7.003726e-001 9.002513e-001 -6.657219e+000 205 60 66
4.367728e-001 -2.982988e-001 -6.884890e+000 254 254 246
-9.811982e-001 -1.124758e+001 -1.018525e+001 45 43 56
1.240526e+000 -2.119145e-001 -6.129315e+000 255 245 192
-2.416875e-001 3.202266e-001 -7.554866e+000 197 184 173
-2.815103e-001 -2.593587e-001 -7.888432e+000 207 197 185
3.366607e-001 9.247340e-002 -6.814180e+000 212 203 190
-2.150851e-001 1.093852e+000 -7.709495e+000 214 63 69
9.295141e-001 4.567276e-001 -6.384244e+000 247 81 93
-4.133540e-001 2.785387e-001 -7.979814e+000 40 28 28
1.192370e+000 -2.800541e-001 -6.161266e+000 254 251 196
-3.486063e-001 5.791628e-001 -7.841993e+000 225 218 207
1.866828e-001 6.894319e-001 -7.164790e+000 197 189 180
-1.056819e+000 -4.108780e-002 -6.380564e+000 44 19 4
-3.382378e-002 1.291292e+000 -7.451917e+000 130 23 33
-9.565853e-001 -1.632039e-004 -6.291476e+000 210 134 120
-5.547438e-002 1.123907e+000 -7.694807e+000 150 26 34
-9.457515e-001 3.563131e-002 -6.323457e+000 60 25 15
-2.390226e-002 1.145891e+000 -7.421325e+000 204 45 60
3.880233e-001 1.233448e+000 -7.109976e+000 220 69 78
2.060884e-001 1.275090e+000 -6.015605e+000 63 51 51
-1.024354e-001 5.211677e-001 -7.375856e+000 190 180 168
1.909528e-001 7.053913e-001 -7.249566e+000 190 181 172
-2.438017e-001 1.663246e-001 -7.278861e+000 114 97 88
-2.427977e-001 1.677415e-001 -7.229475e+000 122 106 93
-1.640513e-001 2.115545e-001 -7.105785e+000 111 95 82
-6.310922e-004 1.778309e-001 -7.097707e+000 131 114 101
-5.243677e-001 -7.084510e-002 -6.745678e+000 151 67 46
-5.243677e-001 -7.084510e-002 -6.745678e+000 151 67 46
-1.017954e-001 9.464921e-002 -6.965130e+000 132 117 104
1.603161e-001 2.094524e-001 -6.976335e+000 167 151 135
5.760561e-001 6.508296e-001 -6.816692e+000 205 197 184
-1.324141e-002 1.314005e+000 -7.352416e+000 179 35 45
-1.434214e+000 -4.846976e+000 -1.034928e+001 67 58 61
2.332567e-001 9.923368e-001 -7.212240e+000 207 200 192
2.332567e-001 9.923368e-001 -7.212240e+000 207 200 192
-7.359037e-001 -1.168074e-001 -6.999383e+000 75 16 8
8.102658e-001 5.009786e-001 -6.550123e+000 198 52 59
3.171224e-001 1.132053e+000 -7.086347e+000 209 48 56
-1.270899e-001 2.319077e-001 -7.201121e+000 120 107 91
2.513073e-001 2.695453e-001 -7.019955e+000 123 107 92
1.042318e+000 1.388498e-001 -6.336605e+000 235 81 89
-4.802257e-001 -2.522383e-001 -6.688343e+000 239 136 95
-3.681746e-002 1.074373e+000 -7.391905e+000 214 205 198
-1.268907e+000 -5.221799e+000 -1.025806e+001 48 39 42
3.618475e-001 1.259010e+000 -7.008130e+000 175 38 44
-5.400159e-001 -3.976685e-002 -6.769528e+000 139 64 45
-1.803449e-001 1.315202e-001 -6.998134e+000 119 103 90
-5.979663e-001 -1.162894e-001 -6.694015e+000 114 28 13
-5.162209e-001 -3.531096e-002 -6.772352e+000 107 31 15
-3.621132e-001 -3.804887e-002 -6.888599e+000 48 13 12
-2.019322e-001 8.502807e-002 -6.936708e+000 150 133 125
-4.419622e-001 -1.249288e-001 -6.689012e+000 114 27 12
7.939931e-002 9.696338e-002 -6.955497e+000 211 199 187
-5.462069e-001 -3.712450e-001 -6.655197e+000 87 89 104
2.949572e-001 2.437132e-001 -6.932029e+000 133 117 101
5.932758e-001 1.062880e+000 -6.783423e+000 213 61 71
2.418437e-001 -3.261509e+000 -7.973560e+000 151 154 166
3.192828e-001 -3.544667e+000 -7.946565e+000 221 230 238
4.470000e-001 -2.751412e+000 -7.666289e+000 189 199 198
1.015105e+000 1.066660e-001 -6.346526e+000 206 68 72
1.052146e+000 -2.994601e+000 -6.895758e+000 141 142 136
-4.027286e-001 9.953037e-001 -7.810100e+000 168 36 45
-2.687289e-001 8.914700e-001 -7.762075e+000 219 62 70
-1.469759e+000 -4.713511e+000 -1.035481e+001 70 65 69
-2.004870e-001 1.647073e-003 -7.714523e+000 146 93 82
-2.147319e-001 -5.245619e-002 -7.678310e+000 212 204 191
-1.474687e-001 4.668524e-001 -7.409180e+000 183 171 159
-6.180157e-001 -8.576002e-002 -6.719790e+000 102 20 8
-5.323214e-001 -5.657073e-002 -6.759145e+000 112 30 15
-8.567548e-002 5.916635e-002 -6.939428e+000 172 164 151
-9.298067e-001 -1.536992e-002 -6.300890e+000 197 128 114
-5.258854e-002 4.654006e-002 -6.920323e+000 137 125 113
2.754782e-001 2.211589e-001 -6.929351e+000 154 140 120
2.133895e-001 -5.888550e-001 -6.887072e+000 113 111 104
4.076237e-001 6.466725e-002 -6.807414e+000 143 130 114
4.573526e-001 -2.718299e+000 -7.631530e+000 133 142 141
7.775747e-001 1.472007e-001 -6.567104e+000 245 238 228
1.011387e+000 -1.238825e-001 -6.370493e+000 223 82 86
-3.139521e-001 1.017309e+000 -7.784528e+000 165 29 37
-2.129403e-001 6.542673e-001 -7.690825e+000 173 164 149
-1.510431e+000 -4.559854e+000 -1.035800e+001 66 61 65
-1.344600e-001 6.204334e-001 -7.590505e+000 182 170 156
-1.269176e+000 -5.247026e+000 -1.016895e+001 90 84 88
3.101198e-001 1.174945e+000 -7.109053e+000 230 75 82
-7.792063e-001 -4.891902e+000 -9.541364e+000 84 76 77
-3.467971e-001 -1.906937e-002 -6.882311e+000 77 42 36
2.791606e-001 3.398804e-001 -7.061135e+000 172 160 146
-5.950676e-001 -2.505895e-001 -6.657469e+000 198 106 65
-4.672026e-001 -1.253871e-001 -6.733044e+000 88 25 16
6.156683e-002 1.641308e-001 -6.974334e+000 166 150 137
5.222218e-001 1.218437e-001 -6.832001e+000 142 129 113
5.004852e-001 -1.878509e+000 -7.462466e+000 112 118 115
6.933697e-001 1.808994e-001 -6.772896e+000 208 200 185
7.282469e-001 7.855003e-001 -6.547969e+000 107 14 25
8.343415e-001 5.331308e-001 -6.545366e+000 167 33 42
1.126658e+000 -1.783188e+000 -6.640183e+000 178 180 175
-2.187893e-001 1.016525e+000 -7.708643e+000 169 32 39
-2.354997e-001 3.570907e-001 -7.611178e+000 206 196 184
3.709912e-001 1.122389e+000 -7.018505e+000 234 78 82
3.834746e-001 1.048658e+000 -6.994068e+000 211 178 166
-7.107156e-001 -2.938144e-001 -6.521534e+000 64 22 24
9.461821e-002 -9.389083e-002 -6.860783e+000 235 227 214
4.264754e-001 -5.741817e-001 -6.894940e+000 248 244 227
8.109529e-001 8.139051e-001 -6.582010e+000 21 11 12
6.155045e-001 -3.486316e-001 -6.713047e+000 178 165 147
1.032546e+000 1.718533e-001 -6.351259e+000 215 59 70
-4.923692e-001 4.433965e-001 -7.908800e+000 220 209 191
-1.928579e-001 4.118871e-001 -7.648000e+000 215 207 194
-2.033416e-001 4.224093e-001 -7.483800e+000 131 117 106
-3.040596e-001 2.551266e-001 -7.901868e+000 185 46 50
-2.250401e-001 2.802373e-001 -7.715012e+000 157 139 127
-2.101052e-001 2.121635e-001 -7.339840e+000 159 146 130
1.026558e-001 7.528155e-001 -7.250353e+000 182 172 162
4.382780e-001 2.947804e-001 -7.004564e+000 145 136 121
6.180411e-001 6.456917e-001 -6.745840e+000 235 226 211
7.155656e-001 8.302421e-001 -6.588931e+000 89 13 18
9.463237e-001 4.764278e-001 -6.372071e+000 234 78 88
-2.004574e-001 5.063934e-001 -7.682937e+000 228 220 209
-2.398798e-001 1.356541e-002 -7.789077e+000 75 11 16
-1.211443e-001 2.186533e-001 -7.188481e+000 123 111 96
-2.227848e-001 -1.865632e-001 -6.825070e+000 230 220 213
8.608001e-001 1.013065e-001 -6.542279e+000 229 222 211
1.019324e+000 -3.709845e-001 -6.306515e+000 174 151 101
6.721717e-001 -5.042944e-001 -6.652129e+000 254 252 203
7.820913e-001 -2.298853e-001 -6.531093e+000 245 237 228
-4.154482e-001 9.333947e-001 -7.828001e+000 211 63 69
7.566444e-002 4.235854e-001 -7.194391e+000 151 142 127
-6.665207e-001 -1.644730e-001 -6.682795e+000 74 20 18
4.975874e-001 -6.149421e-001 -6.842537e+000 145 122 98
7.884876e-001 -1.619771e-001 -6.501310e+000 231 222 213
1.553213e-001 6.142962e-001 -7.215887e+000 144 132 122
2.635628e-001 -8.658829e-002 -6.825521e+000 252 250 240
3.482192e-001 2.459207e-001 -6.995805e+000 136 123 107
-3.449803e-002 1.324203e+000 -7.396044e+000 85 13 23
-1.765044e-001 5.284954e-001 -7.479771e+000 162 148 134
-2.121525e-001 1.836552e-001 -7.164667e+000 118 103 89
1.523051e-001 7.065042e-001 -7.220241e+000 191 184 174
-6.145831e-001 -9.044882e-002 -6.758269e+000 126 56 44
-4.814487e-001 -1.503549e-001 -6.701778e+000 126 31 15
4.435969e-001 -2.639438e+000 -7.609645e+000 180 193 183
3.952741e-001 -5.680987e-001 -6.932434e+000 232 228 216
-4.109359e-001 7.725993e-001 -7.844199e+000 174 152 139
1.413761e-001 9.803212e-001 -7.278504e+000 205 198 190
-2.680818e-001 1.193369e-001 -7.301482e+000 123 109 96
-3.496116e-001 6.541361e-002 -7.109245e+000 67 24 18
-2.325976e-001 9.494908e-002 -7.061506e+000 140 124 111
-1.182706e-001 1.707493e-001 -7.136579e+000 115 99 86
-7.837277e-002 2.194477e-001 -7.077529e+000 174 165 150
-2.636095e-002 2.120938e-001 -7.149139e+000 161 148 132
-6.287578e-001 -1.130685e-001 -6.733949e+000 81 17 8
-5.815775e-001 -7.022838e-002 -6.771519e+000 86 21 12
1.395891e-001 2.409379e-001 -6.972752e+000 163 147 131
4.067034e-002 -2.546640e-001 -6.874263e+000 209 197 184
5.335278e-001 5.920037e-001 -6.753130e+000 160 148 133
4.311124e-001 -1.502000e-001 -6.768369e+000 238 232 220
4.401908e-001 -5.403071e-002 -6.733440e+000 201 192 177
7.703678e-001 -5.196510e-001 -6.510401e+000 225 212 179
1.207221e+000 -2.314107e+000 -6.505157e+000 169 167 170
-2.544483e-001 3.085964e-001 -7.779094e+000 175 163 149
-2.544483e-001 3.085964e-001 -7.779094e+000 175 163 149
-1.697612e-001 6.135284e-001 -7.554481e+000 148 136 122
-5.377492e-001 -9.777831e-002 -6.728637e+000 180 88 59
-5.377492e-001 -9.777831e-002 -6.728637e+000 180 88 59
1.225710e-001 -2.644812e-002 -6.866470e+000 179 169 156
7.061346e-001 8.692734e-002 -6.711920e+000 208 198 189
8.570293e-001 5.241768e-001 -6.579141e+000 230 84 95
9.666240e-001 4.884112e-001 -6.364389e+000 30 15 15
1.082204e+000 -4.846102e-001 -6.283925e+000 162 56 53
-3.800683e-001 8.598843e-001 -7.759167e+000 224 69 77
-9.580909e-002 2.656383e-001 -7.233016e+000 135 121 108
-2.255444e-001 1.366892e-001 -7.004469e+000 155 139 124
-5.772123e-002 1.029676e-001 -6.984454e+000 128 115 99
3.941527e-001 1.379128e-001 -6.843084e+000 197 183 170
7.251803e-001 1.066117e-001 -6.728763e+000 194 184 172
9.674503e-001 -3.923759e-001 -6.343778e+000 216 193 139
-6.642759e-003 3.506471e-002 -6.935977e+000 196 186 176
4.381674e-001 5.666926e-001 -6.977590e+000 193 181 174
5.799581e-001 -7.881732e-001 -6.828930e+000 252 252 242
9.891611e-001 -6.943403e-001 -6.380780e+000 237 98 109
1.282507e+000 -4.092393e-001 -6.134202e+000 255 246 198
1.282507e+000 -4.092393e-001 -6.134202e+000 255 246 198
-4.637683e-001 7.226844e-001 -7.959121e+000 178 38 48
-3.333017e-002 1.299831e+000 -7.380678e+000 200 53 55
1.196539e-001 5.859931e-001 -7.183637e+000 149 137 121
4.091606e-001 6.956257e-001 -6.958040e+000 252 245 237
7.585265e-001 8.797730e-001 -6.622894e+000 40 26 27
6.734431e-001 -6.666934e-001 -6.744914e+000 213 202 182
8.823624e-001 2.008490e-001 -6.476707e+000 175 157 145
9.311210e-001 -2.222213e-001 -6.447334e+000 216 202 193
1.284135e+000 -2.452109e-001 -6.147236e+000 250 242 186
8.781410e-001 8.511568e-002 -6.549156e+000 230 224 212
-2.495455e-001 -3.555336e-001 -7.700676e+000 238 231 220
6.548915e-001 7.507715e-001 -6.737259e+000 216 209 198
-5.584757e-001 -8.710060e-002 -6.737190e+000 117 27 18
8.777211e-001 -2.818581e-001 -6.451544e+000 85 70 54
-2.018898e-001 9.278386e-001 -7.661913e+000 174 158 147
7.062468e-001 5.253504e-001 -6.605345e+000 254 251 244
-2.775798e-001 -1.285944e-001 -7.799028e+000 208 201 185
1.133558e+000 -6.574656e-002 -6.284528e+000 180 46 54
-2.002117e-001 7.235437e-001 -7.632013e+000 224 217 207
-2.021780e-001 4.417315e-002 -7.669072e+000 124 59 57
-1.640356e-001 5.018640e-001 -7.481122e+000 181 168 152
-8.271223e-001 -2.974551e-001 -7.035873e+000 210 139 115
-9.581628e-001 -3.602125e-001 -6.730005e+000 218 193 173
-9.563752e-001 -3.386805e-001 -6.739116e+000 130 47 25
-3.181871e-001 1.056427e-001 -7.060226e+000 81 40 31
2.189903e-001 1.323693e+000 -7.142649e+000 182 42 51
-7.390996e-001 -2.942574e-001 -6.516239e+000 45 15 13
-7.338510e-001 -2.891894e-001 -6.501460e+000 163 160 148
1.918668e-001 1.259346e-001 -6.916343e+000 183 171 156
1.918668e-001 1.259346e-001 -6.916343e+000 183 171 156
3.445371e-001 -3.741188e-002 -6.778634e+000 254 245 236
6.401712e-001 -1.234564e+000 -7.078333e+000 127 126 122
4.986358e-001 -4.652185e-001 -6.904189e+000 154 137 115
7.032213e-001 -1.505921e+000 -7.067913e+000 157 159 156
7.599707e-001 -1.482328e+000 -6.979681e+000 174 176 175
7.852817e-001 7.276233e-001 -6.550057e+000 250 75 85
9.928970e-001 -1.740072e+000 -6.784085e+000 183 183 185
1.078816e+000 -2.985230e+000 -6.796586e+000 162 157 163
1.078816e+000 -2.985230e+000 -6.796586e+000 162 157 163
1.021212e+000 -1.780634e+000 -6.739792e+000 182 181 187
9.826119e-001 -1.146572e+000 -6.664168e+000 171 166 170
9.094058e-001 6.491249e-001 -6.496499e+000 81 68 68
9.786401e-001 -5.465126e-003 -6.328471e+000 232 92 100
1.328102e+000 -5.996829e-001 -6.129742e+000 155 149 153
-3.242115e-001 6.428122e-001 -7.783514e+000 237 233 222
-1.237297e-001 8.132060e-001 -7.429105e+000 212 202 193
-2.448511e-001 -1.418090e-001 -7.627717e+000 178 165 150
1.270896e-001 1.004859e+000 -7.289150e+000 217 210 200
4.895882e-002 6.613519e-001 -7.278495e+000 237 229 218
-9.727618e-001 -3.612032e-001 -6.738938e+000 39 17 15
-2.357274e-001 1.508854e-001 -7.089594e+000 140 124 111
-4.129107e-002 -3.729466e+000 -8.334220e+000 184 192 194
-4.317983e-001 -8.664369e-002 -6.822223e+000 82 18 14
-4.316391e-001 -5.251242e-002 -6.810310e+000 87 23 13
-3.607048e-001 -4.659187e-002 -6.940684e+000 53 13 13
-5.161236e-001 -2.190967e-001 -6.686482e+000 250 148 120
3.135916e-001 2.395593e-001 -6.988340e+000 159 142 126
3.688980e-001 -5.278266e-001 -6.953199e+000 168 148 111
6.483491e-001 9.800654e-001 -6.692175e+000 216 73 82
8.802796e-001 -2.270088e+000 -6.927200e+000 170 170 172
8.836768e-001 -1.344544e+000 -6.881028e+000 169 169 169
6.589101e-001 -3.046331e-001 -6.646121e+000 183 171 159
9.709328e-001 -1.819863e+000 -6.847935e+000 153 154 156
8.354975e-001 7.364278e-001 -6.525259e+000 76 63 64
1.187655e+000 -2.422292e+000 -6.522862e+000 167 165 168
1.016419e+000 -4.327418e-001 -6.311877e+000 191 168 118
1.275152e+000 -2.234070e-001 -6.106300e+000 149 140 141
1.322487e+000 -1.730169e-001 -6.132644e+000 142 138 138
-3.627004e-001 2.831274e-001 -8.017006e+000 56 47 42
-3.240558e-001 6.596666e-002 -7.845310e+000 153 25 32
-1.620974e-001 5.768431e-001 -7.618329e+000 204 194 182
-2.592235e-002 1.110397e+000 -7.424153e+000 223 207 194
6.508280e-003 1.318037e+000 -7.372599e+000 75 8 16
-2.043432e-001 5.175746e-001 -7.456858e+000 147 134 119
3.842885e-002 6.079259e-001 -7.293525e+000 214 205 194
-8.321303e-001 -2.360518e-001 -6.477280e+000 47 11 17
4.795214e-001 1.228177e+000 -6.937415e+000 72 58 55
7.032322e-001 -1.552717e+000 -7.141811e+000 158 163 157
5.385864e-001 -3.259362e-001 -6.837438e+000 180 169 149
6.553380e-001 -1.088229e+000 -7.014516e+000 154 153 149
5.285419e-001 -3.179744e-001 -6.789608e+000 254 250 238
7.197448e-001 9.033758e-001 -6.654422e+000 213 70 78
7.599320e-001 8.653655e-001 -6.607348e+000 23 14 17
9.570200e-001 -1.836020e+000 -6.826312e+000 179 180 182
9.372205e-001 -1.712685e+000 -6.809085e+000 190 190 192
7.003477e-001 -3.873165e-001 -6.507613e+000 231 211 155
1.123512e+000 4.398079e-003 -6.231007e+000 229 103 110
-2.288142e-001 2.780456e-001 -7.390670e+000 177 165 149
3.102304e-001 1.235016e+000 -7.077642e+000 209 49 61
5.963211e-001 -4.910177e-001 -6.836151e+000 214 209 190
7.877015e-001 -7.169643e-001 -6.659496e+000 254 253 249
-5.805994e-001 5.620234e-001 -8.161207e+000 230 75 79
-1.133619e-001 7.351643e-001 -7.473221e+000 136 123 110
-1.175439e-001 7.830678e-001 -7.397508e+000 169 155 143
-4.600277e-001 -1.343970e-001 -7.238043e+000 124 117 119
-4.725894e-001 -1.427558e-002 -7.096124e+000 90 38 25
-4.763711e-001 -8.811042e-003 -7.092079e+000 90 38 25
3.309517e-001 1.272970e+000 -7.044938e+000 229 73 86
-8.403843e-001 -2.402606e-001 -6.521009e+000 51 22 10
1.285296e-001 -5.016727e-002 -6.851937e+000 254 255 243
4.671871e-001 3.550229e-001 -6.980298e+000 211 201 192
6.814037e-001 -9.049662e-001 -6.808628e+000 169 51 49
8.194121e-001 -1.735326e+000 -6.920209e+000 156 158 157
8.147083e-001 -7.444244e-001 -6.633311e+000 220 211 196
1.314328e+000 -4.905836e-001 -6.156639e+000 127 123 124
-2.084886e-001 3.748472e-001 -7.582090e+000 147 134 117
-5.436296e-001 -1.334807e-001 -7.242709e+000 129 127 126
-6.813795e-001 -2.476421e-001 -6.624929e+000 149 70 48
3.538116e-001 1.066996e+000 -7.019799e+000 249 241 239
6.331245e-002 -1.647027e-002 -6.917770e+000 141 128 115
6.331245e-002 -1.647027e-002 -6.917770e+000 141 128 115
4.317474e-001 7.634860e-001 -6.998043e+000 249 245 236
3.919267e-001 -6.319488e-001 -6.882526e+000 228 222 210
4.970756e-001 -2.468095e-001 -6.755084e+000 253 246 236
6.800692e-001 -8.231302e-001 -6.736635e+000 248 237 228
6.646720e-001 -8.021615e-001 -6.727250e+000 248 237 228
6.722419e-001 -1.271765e-001 -6.590510e+000 245 241 232
1.053766e+000 -5.799682e-001 -6.359340e+000 178 35 39
1.131457e+000 3.672898e-002 -6.256227e+000 125 15 24
1.131457e+000 3.672898e-002 -6.256227e+000 125 15 24
1.303933e+000 -4.199551e-001 -6.152280e+000 255 251 205
-2.958600e-001 -3.773043e-001 -7.826363e+000 223 216 205
-2.508917e-001 -1.033593e-001 -6.833174e+000 94 33 32
-3.202188e-001 -2.168489e-001 -6.669090e+000 112 25 18
-3.059496e-001 5.625655e-001 -7.756449e+000 229 222 212
-5.982711e-001 -2.976719e-001 -6.659596e+000 246 208 163
-1.555415e-001 -1.479389e-001 -6.829836e+000 253 246 240
1.350023e-001 2.014428e-001 -6.997606e+000 222 214 203
-4.665566e-001 8.776290e-001 -7.947081e+000 215 62 67
-5.160629e-001 5.516654e-001 -8.028830e+000 194 184 172
-6.087205e-001 6.505287e-001 -8.098950e+000 202 46 50
-2.247289e-001 1.262585e-001 -7.640825e+000 88 17 24
-2.247289e-001 1.262585e-001 -7.640825e+000 88 17 24
-1.457450e-001 8.988788e-001 -7.418731e+000 229 222 212
5.264740e-001 5.970824e-001 -6.930483e+000 233 226 216
1.234698e+000 -3.235914e-001 -6.191980e+000 255 251 203
4.902942e-001 1.185186e-001 -6.756722e+000 154 141 123
9.254208e-001 6.687657e-002 -6.504443e+000 253 246 240
-3.891824e-001 1.026102e+000 -7.898489e+000 21 12 15
1.491476e-001 1.296783e+000 -7.465126e+000 16 7 10
-3.588517e-001 6.230933e-001 -7.816255e+000 226 220 208
-1.387466e+000 -1.178041e+001 -1.081919e+001 96 98 111
7.546693e-001 5.890135e-001 -6.594964e+000 244 76 87
-7.701282e-002 7.992725e-001 -7.601591e+000 222 214 203
-6.994995e-002 3.525854e-001 -7.314189e+000 145 132 115
-1.778902e-001 6.560362e-001 -7.474072e+000 168 155 141
1.029516e+000 -1.007581e+000 -6.583701e+000 142 141 139
5.852217e-001 5.413802e-001 -6.826735e+000 170 158 142
-2.555666e-001 -2.306208e-001 -7.754626e+000 178 166 150
-2.181667e-001 2.770059e-001 -7.575858e+000 175 163 151
-1.187631e-001 7.695489e-001 -7.433683e+000 187 175 161
2.060483e-001 1.152591e+000 -7.222509e+000 216 61 69
1.101517e-001 -3.705245e+000 -8.177679e+000 179 188 183
-6.094341e-001 -7.371025e-002 -6.765280e+000 83 19 10
-3.118127e-001 1.035907e-003 -6.947925e+000 63 23 19
7.080224e-001 -1.592426e+000 -7.118899e+000 116 122 118
-6.443178e-001 6.227146e-001 -8.212781e+000 44 33 30
-4.017455e-001 7.646105e-001 -7.853021e+000 169 155 139
-2.177937e-001 1.428697e-001 -7.227389e+000 152 136 121
-2.177937e-001 1.428697e-001 -7.227389e+000 152 136 121
-2.125292e-001 1.532393e-001 -7.236646e+000 121 105 90
2.346471e-001 2.911952e-001 -7.040564e+000 145 131 118
3.041867e-001 2.475483e-001 -6.987814e+000 159 142 126
6.383998e-001 -8.922622e-002 -6.645164e+000 239 231 220
1.002527e+000 -2.943748e+000 -6.912957e+000 164 162 165
8.530479e-001 5.783137e-001 -6.529639e+000 192 49 57
1.002717e+000 -2.576335e-001 -6.414307e+000 139 113 100
-1.473007e-001 5.937690e-001 -7.607008e+000 191 179 165
-1.947438e-001 3.489685e-001 -7.464618e+000 172 158 145
4.550812e-001 7.403779e-004 -6.730624e+000 177 166 147
8.720446e-001 -2.786787e-001 -6.490880e+000 158 141 129
9.489191e-001 -3.735867e-001 -6.335255e+000 227 205 154
1.015741e+000 -6.367720e-001 -6.349484e+000 235 106 111
8.086028e-002 6.022496e-001 -7.230087e+000 158 145 129
5.078740e-001 5.168121e-001 -6.927581e+000 166 157 144
6.188893e-001 7.506121e-001 -6.794455e+000 193 183 174
1.714611e+000 -1.084253e+001 -6.559369e+000 99 102 133
1.396909e+000 -1.028254e+001 -6.623354e+000 108 113 143
-4.837717e-001 7.423280e-001 -7.936095e+000 179 40 48
2.703770e-001 1.167282e+000 -7.129056e+000 217 62 68
-4.990652e-001 5.504847e-001 -8.031504e+000 195 185 173
2.706779e-001 8.498129e-001 -7.114343e+000 156 144 130
-4.193155e-001 9.741415e-001 -7.823551e+000 177 41 54
-1.750621e-001 -2.151489e+000 -8.280168e+000 153 160 152
-1.800273e-001 1.205459e-001 -7.698736e+000 140 35 37
-8.176164e-001 -2.978657e-001 -7.050935e+000 102 34 16
-2.763942e-002 1.319473e+000 -7.358343e+000 175 36 46
-7.949642e-001 -2.831507e-001 -7.029015e+000 160 166 153
-7.841916e-001 -2.009370e-001 -7.041839e+000 172 80 53
-2.769481e-001 1.252582e-001 -7.286185e+000 123 106 94
-1.343752e-001 1.519730e-001 -7.169190e+000 119 103 88
-7.703033e-002 2.250231e-001 -7.162795e+000 153 137 122
-3.379984e-001 2.460790e-002 -6.914051e+000 107 79 68
-1.965279e-001 7.876197e-002 -6.940357e+000 156 140 127
-5.681079e-002 2.910419e-002 -6.940434e+000 182 168 156
-3.833668e-002 2.426253e-002 -6.918099e+000 143 130 117
2.643006e-002 -1.987069e-001 -6.848197e+000 212 199 184
6.888954e-001 -1.930552e+000 -7.190475e+000 137 137 139
7.378175e-001 -1.957719e+000 -7.184543e+000 132 133 135
6.480133e-001 -1.575430e+000 -7.113389e+000 183 183 183
5.891519e-001 -6.991435e-001 -6.819452e+000 236 219 199
8.973229e-001 -4.929577e-001 -6.606676e+000 172 152 126
1.010714e+000 4.632597e-001 -6.581213e+000 218 75 79
1.085649e+000 -5.404142e-001 -6.324144e+000 203 124 111
1.408166e+000 -1.131288e+000 -6.146491e+000 143 137 137
1.359988e+000 -5.438530e-001 -6.135704e+000 167 161 161
-5.784287e-001 5.835217e-001 -8.077003e+000 238 75 81
-2.566061e-001 -8.140136e-003 -7.778360e+000 169 95 86
-2.250560e-001 -2.440939e+000 -8.400443e+000 155 162 155
-1.561846e-001 -1.618447e+000 -8.149129e+000 165 169 163
-1.568732e-001 -8.694948e-001 -8.025907e+000 140 140 132
-1.568732e-001 -8.694948e-001 -8.025907e+000 140 140 132
-1.665429e-001 5.597450e-001 -7.574950e+000 169 156 140
-1.207247e-001 8.083022e-001 -7.498555e+000 209 199 187
-2.360712e-001 -1.515833e-001 -7.453171e+000 246 242 229
-5.022456e-001 -5.141783e-002 -7.031811e+000 82 41 36
-2.176629e-001 1.933743e-001 -7.179034e+000 155 137 124
1.462744e-001 9.791999e-001 -7.287716e+000 214 205 196
1.446136e-001 9.814702e-001 -7.286553e+000 214 205 196
-1.019688e+000 -2.542582e-001 -6.512354e+000 177 159 132
-2.417329e-001 1.318516e-001 -6.994015e+000 113 95 83
1.872677e-001 2.533389e-001 -7.046893e+000 133 117 101
3.163578e-001 1.265587e+000 -7.064446e+000 201 47 54
3.322124e-001 2.034690e-001 -6.979079e+000 137 119 104
7.116558e-001 -2.610173e+000 -7.300409e+000 188 186 187
9.835879e-001 -2.603096e+000 -6.926513e+000 159 157 162
7.192801e-001 -6.469707e-001 -6.730175e+000 255 255 210
6.738855e-001 6.335160e-001 -6.649684e+000 155 132 116
8.297768e-001 9.995862e-002 -6.607229e+000 247 240 230
1.022229e+000 -1.113293e+000 -6.660153e+000 141 139 142
7.747112e-001 9.861775e-001 -6.564988e+000 67 55 55
8.751632e-001 5.458393e-001 -6.533558e+000 221 74 80
9.590260e-001 -3.836359e-001 -6.342981e+000 226 209 157
9.753686e-001 4.691711e-001 -6.388209e+000 227 75 88
1.076665e+000 -4.812670e-001 -6.279474e+000 175 43 49
1.526095e+000 -1.246281e+000 -6.103518e+000 130 126 125
1.406328e+000 -7.448621e-001 -6.104407e+000 168 164 163
1.246321e+000 -3.007866e-001 -6.112725e+000 155 144 141
1.474218e+000 -1.166082e+000 -6.061697e+000 121 117 114
-2.459654e-001 -2.169301e+000 -8.330531e+000 202 208 204
-1.750411e-001 7.006870e-001 -7.549706e+000 155 146 131
-9.778444e-001 -3.490639e-001 -6.713019e+000 34 8 3
2.048148e-001 8.961192e-001 -7.222043e+000 215 206 196
9.618220e-002 2.842266e-001 -7.028618e+000 145 127 107
1.268150e-001 -9.750488e-002 -6.843152e+000 219 210 194
4.511249e-001 -5.250526e-001 -6.919145e+000 203 186 139
4.907074e-001 -4.312892e-001 -6.805551e+000 145 122 78
7.936632e-001 -1.001370e+000 -6.782948e+000 132 123 124
7.147285e-001 -7.387027e-001 -6.540495e+000 138 136 141
7.604576e-001 -6.796685e-001 -6.644476e+000 253 253 244
7.976298e-001 -6.379342e-001 -6.634862e+000 254 243 184
1.592888e+000 -7.328862e+000 -6.280711e+000 56 54 65
1.035709e+000 -4.633363e-001 -6.301652e+000 252 230 176
1.136624e+000 5.428757e-002 -6.216289e+000 186 118 116
1.365694e+000 -5.245204e-001 -6.113974e+000 169 163 161
1.398585e+000 -7.518767e-001 -6.072249e+000 148 142 142
1.398585e+000 -7.518767e-001 -6.072249e+000 148 142 142
-3.372083e-001 2.081288e-002 -7.891052e+000 78 55 49
-2.207923e-001 1.125995e+000 -7.589540e+000 200 59 64
-2.935028e-001 2.721998e-001 -7.673652e+000 215 196 182
-1.809242e-001 -1.855133e+000 -8.309179e+000 154 159 153
-1.487811e-001 1.285910e-001 -7.716515e+000 130 15 23
-8.143900e-001 -3.161719e-001 -6.996456e+000 169 164 148
-7.857256e-001 -1.693239e-001 -6.981129e+000 97 29 16
-2.049532e-001 1.676268e-001 -7.325806e+000 122 105 94
6.136541e-002 1.168413e+000 -7.307650e+000 229 72 78
-1.020202e+000 -2.428293e-001 -6.528258e+000 62 27 13
-5.896414e-001 -2.627428e-001 -6.660236e+000 196 111 76
-2.226747e-001 -1.338579e-001 -6.830193e+000 95 25 19
4.359806e-001 -5.341417e-001 -6.864952e+000 132 111 77
4.744153e-001 -5.773250e-001 -6.887209e+000 132 111 77
7.042864e-001 7.395288e-001 -6.698274e+000 194 41 51
3.336256e+000 -1.107630e+001 -6.381115e+000 73 71 84
2.935797e+000 -9.100920e+000 -5.910274e+000 91 92 110
1.416360e+000 -7.546038e-001 -6.150874e+000 133 127 127
1.267545e+000 -1.332853e-001 -6.183473e+000 158 153 150
-1.845098e-001 1.062399e+000 -7.650846e+000 191 51 54
-1.956833e-001 4.377363e-001 -7.672750e+000 168 154 135
-2.414180e-001 -1.542631e-001 -6.808370e+000 246 244 229
2.602199e-001 -6.130626e-001 -6.906205e+000 248 247 236
2.602199e-001 -6.130626e-001 -6.906205e+000 248 247 236
6.970804e-001 -1.081730e+000 -6.958990e+000 169 167 169
8.778786e-001 -7.327083e-001 -6.518364e+000 249 242 236
1.039840e+000 4.836216e-001 -6.408945e+000 92 83 81
2.455629e+000 -1.064150e+001 -5.954953e+000 111 112 140
2.913494e+000 -9.282721e+000 -6.072099e+000 17 14 23
2.999861e+000 -9.530645e+000 -5.993123e+000 78 77 91
1.201908e+000 -1.160950e-001 -6.225529e+000 157 145 143
2.908884e+000 -1.016104e+001 -5.771635e+000 91 94 116
3.030863e+000 -1.016963e+001 -5.746482e+000 19 16 26
3.075260e+000 -1.003450e+001 -5.729623e+000 101 105 130
-4.798910e-001 5.086451e-001 -7.915486e+000 185 170 157
-2.697511e-001 5.049555e-001 -7.751682e+000 200 190 178
-2.099487e-001 3.310870e-001 -7.651638e+000 219 212 193
-1.382436e-001 7.052993e-001 -7.599285e+000 198 189 174
-4.124336e-001 -2.494357e-001 -6.699540e+000 144 29 20
4.508481e-001 4.299448e-001 -6.962893e+000 196 184 172
5.508467e-001 1.758471e-001 -6.875077e+000 169 157 143
1.296469e+000 -3.104871e-001 -6.114535e+000 160 153 154
-2.222713e-001 -1.195760e-001 -7.597261e+000 196 185 167
-7.448872e-001 -1.180174e-001 -7.139474e+000 80 23 13
-9.450519e-001 -2.832868e-001 -6.645057e+000 211 122 87
1.647704e-001 3.576870e-001 -7.085426e+000 210 202 187
8.260167e-002 -4.930438e-001 -6.901663e+000 255 255 245
4.482140e-001 1.182824e+000 -6.911366e+000 222 69 74
4.402142e-001 -4.580699e-001 -6.833797e+000 254 251 203
9.304735e-001 4.649117e-001 -6.387091e+000 232 85 86
-8.259618e-002 7.434776e-001 -7.359292e+000 233 225 214
2.380774e-001 -3.012418e-001 -6.869358e+000 101 79 56
-2.312631e-001 1.003760e+000 -7.692347e+000 200 53 60
-1.922501e-001 8.543453e-001 -7.539294e+000 229 221 208
1.257071e-001 5.628315e-002 -6.895814e+000 157 145 129
8.566145e-001 1.870851e-001 -6.556594e+000 252 251 241
-5.953955e-001 6.354947e-001 -8.117864e+000 207 52 56
-1.874846e-001 2.573663e-001 -7.663879e+000 199 187 173
-8.596131e-001 -1.752235e-001 -7.053804e+000 152 157 143
6.909601e-001 6.911511e-001 -6.637505e+000 149 35 40
7.910664e-001 6.765767e-001 -6.552087e+000 242 76 86
1.532519e-001 6.168789e-001 -7.213008e+000 155 140 126
-2.983968e-001 -5.024717e-002 -6.862906e+000 93 34 29
2.759236e-001 8.467378e-001 -7.119369e+000 156 142 129
8.219386e-001 5.092940e-001 -6.480365e+000 152 25 33
-2.754015e-001 1.257756e-001 -7.852192e+000 135 15 28
9.842763e-001 -4.274475e-002 -6.458596e+000 243 236 226
3.696060e-001 5.873142e-001 -7.056596e+000 230 222 211
4.489330e-001 8.572743e-001 -6.900596e+000 241 234 228
-1.119582e-001 1.281497e+000 -7.575740e+000 29 20 23
9.735206e-001 6.742829e-001 -6.587444e+000 83 69 66
-5.225963e-003 8.904474e-001 -7.041835e+000 216 208 195
-1.846785e-001 9.604175e-001 -7.665774e+000 214 207 190
-2.071174e-001 3.058878e-001 -7.504497e+000 163 151 137
-3.388679e-001 7.516601e-001 -7.828633e+000 211 200 188
-9.148352e-001 -3.677428e-001 -6.753412e+000 154 152 151
-1.933870e-001 1.649669e-001 -7.221288e+000 121 105 92
-5.900173e-001 -6.433889e-002 -6.751873e+000 144 70 54
5.771320e-001 7.247139e-001 -6.768582e+000 204 190 178
7.254711e-001 8.126159e-001 -6.561833e+000 167 54 60
1.341817e+000 -1.127559e+000 -6.246072e+000 135 131 132
1.074644e+000 9.526097e-002 -6.356474e+000 224 83 90
-1.641904e-001 6.120476e-001 -7.668343e+000 165 154 138
4.405407e-002 6.654024e-001 -7.277807e+000 229 221 210
-3.981014e-001 -2.001874e-001 -6.689060e+000 132 41 27
1.119752e+000 -8.724160e-001 -6.413938e+000 133 127 128
8.960135e-001 2.271410e-001 -6.483599e+000 249 239 232
-5.431252e-001 -2.192119e-001 -7.274101e+000 58 18 19
-5.431252e-001 -2.192119e-001 -7.274101e+000 58 18 19
4.588162e-001 5.168948e-001 -6.940543e+000 206 194 180
5.100588e-001 5.108451e-001 -6.975238e+000 171 161 149
6.237458e-001 -3.595376e-001 -6.720357e+000 177 165 146
6.654072e-001 7.900514e-001 -6.718888e+000 210 63 73
-3.869631e-001 3.142744e-001 -7.989562e+000 70 56 56
-3.050439e-001 -3.796895e-001 -7.918382e+000 98 88 85
-2.225462e-001 1.042229e-001 -7.087006e+000 110 92 80
-4.649723e-001 -4.097337e-001 -6.660956e+000 110 26 26
6.194971e-001 -8.294034e-001 -6.785365e+000 164 40 44
9.225618e-001 1.659317e-001 -6.450704e+000 246 237 228
9.573155e-001 2.572156e-001 -6.437485e+000 234 90 97
1.319664e+000 -2.659749e-001 -6.148057e+000 255 243 193
-9.113856e-002 4.626942e-001 -7.401233e+000 200 189 179
8.645244e-001 -8.650842e-001 -6.619495e+000 247 238 229
7.253044e-001 -2.965256e-001 -6.597956e+000 248 242 231
-1.945626e-002 1.156515e+000 -7.410640e+000 196 46 48
-9.718308e-001 -3.311661e-001 -6.705868e+000 114 59 47
-6.937852e-001 -2.604303e-001 -6.616726e+000 125 57 35
5.584869e-001 -6.804410e-001 -6.865912e+000 154 137 111
2.684902e+000 -9.254453e+000 -6.223637e+000 17 16 22
1.209555e+000 -9.574601e-002 -6.198920e+000 158 154 153
5.207560e-001 1.109477e+000 -6.842279e+000 216 71 74
1.093060e+000 -4.400402e-001 -6.296922e+000 135 118 82
1.438877e-001 8.115619e-001 -7.240447e+000 236 229 221
6.876976e-001 6.950601e-001 -6.637340e+000 138 38 36
-8.160958e-001 -3.002292e-001 -7.052668e+000 102 34 16
-7.809229e-001 -2.433198e-001 -7.022572e+000 123 32 23
5.012699e-001 1.082776e+000 -6.865546e+000 232 78 85
7.897097e-001 8.523634e-002 -6.636380e+000 240 232 220
1.073238e+000 -5.701552e-001 -6.330105e+000 178 144 145
-3.238203e-001 1.037980e+000 -7.759624e+000 171 32 39
4.215571e-001 2.076311e-001 -6.918506e+000 138 124 108
5.203008e-001 5.442484e-001 -6.850270e+000 146 134 118
8.216548e-001 5.583849e-001 -6.542439e+000 230 85 92
8.614145e-001 -2.764794e-001 -6.493000e+000 158 144 125
1.333351e+000 -1.121076e+000 -6.246101e+000 124 120 119
7.950495e-001 9.882978e-001 -6.551792e+000 63 51 51
1.013464e+000 2.144512e-001 -6.359070e+000 239 90 96
2.481650e+000 -9.090316e+000 -6.194718e+000 73 71 84
-1.921792e-001 1.090025e+000 -7.456334e+000 145 117 104
3.015413e+000 -9.077621e+000 -5.854260e+000 71 72 84
3.400841e-001 3.371010e-001 -7.043117e+000 194 180 167
2.873158e-001 1.153278e+000 -7.133529e+000 217 60 67
-2.840881e-001 -2.321036e-001 -7.805204e+000 213 201 189
-2.466991e-001 -2.633978e-001 -7.768865e+000 209 197 183
-1.857760e-001 -5.854457e-002 -7.677435e+000 131 103 92
7.791767e-002 1.113642e+000 -7.406846e+000 206 43 54
4.204113e-001 -4.445567e-001 -6.849219e+000 209 194 142
8.325900e-001 6.460740e-001 -6.522735e+000 197 53 62
-4.051787e-001 -3.523571e-002 -6.839586e+000 67 19 17
2.359052e-001 -1.197234e-002 -7.275371e+000 166 153 137
-3.281573e-001 6.979586e-001 -7.690345e+000 230 223 213
-2.598806e-001 1.035407e+000 -7.759716e+000 177 33 40
-3.240942e-001 1.095345e-001 -7.051484e+000 78 36 30
2.166271e+000 -9.466565e+000 -6.884486e+000 47 45 50
2.907295e+000 -9.073950e+000 -5.849985e+000 45 44 57
1.126911e+000 -2.916803e-002 -6.227469e+000 168 48 46
-2.109974e-001 6.065342e-001 -7.676266e+000 172 160 148
8.102565e-001 4.354618e-001 -6.523763e+000 185 163 149
3.223355e+000 -8.960118e+000 -5.612391e+000 59 55 64
-5.319373e-001 -1.014178e-001 -6.703746e+000 121 43 32
2.602672e+000 -9.265375e+000 -6.092653e+000 74 77 87
2.864070e+000 -1.006384e+001 -5.765544e+000 87 92 115
2.817774e+000 -9.517418e+000 -6.047159e+000 32 28 42
-2.860220e-001 3.025936e-001 -7.808368e+000 210 198 186
-2.481262e-001 -1.826835e-001 -7.808226e+000 191 179 163
-2.481262e-001 -1.826835e-001 -7.808226e+000 191 179 163
-2.716396e-001 1.323108e+000 -7.172543e+000 215 55 61
-1.132222e-001 5.181747e-001 -7.402422e+000 182 172 160
4.451566e-001 -9.913916e-003 -6.728894e+000 178 165 146
-8.028609e-001 -2.883156e-001 -7.010779e+000 126 28 21
4.536195e-001 5.173284e-001 -6.941561e+000 206 194 180
3.104604e+000 -1.060089e+001 -5.363054e+000 243 247 253
2.923054e+000 -1.074429e+001 -5.630210e+000 25 24 29
2.615559e-001 -3.336890e+000 -7.987915e+000 186 185 183
1.340740e-001 -1.688156e+000 -7.888684e+000 170 169 167
-1.998820e-001 3.590985e-001 -7.671906e+000 216 204 191
4.032993e-001 -2.902008e+000 -7.724426e+000 166 164 167
-7.870420e-002 -4.238765e-001 -7.557418e+000 182 131 86
-1.186830e-001 5.312817e-001 -7.366730e+000 196 186 174
-9.591398e-001 -2.691781e-001 -6.612012e+000 178 112 88
-3.280321e-001 1.156089e-001 -7.055672e+000 82 39 32
2.431990e+000 -9.221261e+000 -6.336467e+000 32 30 41
4.639618e-001 -2.181771e-001 -6.764866e+000 222 214 201
4.216175e-001 -8.653128e-002 -6.742103e+000 224 216 205
1.071806e+000 -1.677892e+000 -6.624146e+000 145 139 139
1.417661e+000 -1.112414e+000 -6.088321e+000 156 158 157
-5.285425e-001 7.902204e-001 -8.082710e+000 15 13 23
-2.055556e-001 -9.663855e-002 -7.722026e+000 198 186 170
-2.259281e-001 3.063357e-001 -7.516343e+000 153 141 127
4.723426e-001 -2.728406e+000 -7.624471e+000 139 137 140
-2.257720e-001 1.667334e-001 -7.251199e+000 146 129 115
-2.142494e-001 1.316988e-001 -6.998088e+000 152 135 121
4.697199e-002 2.160007e-001 -7.058950e+000 165 151 138
1.481473e-001 9.637336e-001 -7.266775e+000 199 192 182
6.378859e-002 9.272980e-002 -6.963497e+000 199 192 176
-6.226862e-001 5.785236e-001 -8.231699e+000 198 56 54
-6.239341e-001 5.794378e-001 -8.230504e+000 198 56 54
-1.926309e-001 6.405669e-001 -7.671491e+000 212 203 190
-3.555712e-001 9.762063e-002 -7.038394e+000 79 48 44
-5.426775e-001 -7.332267e-002 -6.729072e+000 149 62 44
-2.373528e-001 1.747676e-002 -6.881749e+000 192 178 167
-2.024520e-001 6.961071e-002 -6.921685e+000 135 121 108
3.569097e-001 2.301350e-001 -6.961395e+000 128 112 97
3.740382e-001 1.301733e+000 -7.032133e+000 76 64 62
4.690488e-001 -4.623866e-002 -6.695170e+000 184 171 152
9.248765e-001 -1.065273e-001 -6.492998e+000 242 237 230
8.477828e-001 5.419273e-001 -6.566158e+000 233 90 99
-2.487305e-001 -1.556420e-001 -7.537477e+000 166 151 132
-7.521630e-001 -1.504155e-001 -7.019842e+000 118 51 33
-1.083219e-001 7.535485e-001 -7.538700e+000 161 149 137
-3.379800e-001 1.041080e-001 -7.019215e+000 70 21 17
-9.929347e-003 3.861958e-002 -6.935228e+000 197 188 173
2.270221e-001 4.794415e-002 -6.845795e+000 235 230 215
1.968202e-001 1.351037e+000 -7.299604e+000 64 55 56
2.632757e+000 -9.150069e+000 -6.198347e+000 19 18 22
3.697462e-001 9.987535e-001 -6.989481e+000 210 202 186
5.645328e-001 9.186460e-001 -6.821870e+000 230 81 91
-2.999023e-001 5.750909e-001 -7.748180e+000 231 223 212
-2.340112e-001 3.461368e-001 -7.527972e+000 205 196 182
2.104929e-001 5.575803e-001 -7.147474e+000 227 223 211
2.688561e-001 1.780700e-001 -6.892355e+000 208 200 183
4.525159e-001 5.015749e-001 -6.997818e+000 237 229 218
-2.196766e-001 5.456896e-001 -7.657213e+000 218 210 197
-2.213599e-001 2.750684e-001 -7.425013e+000 177 164 148
-2.213599e-001 2.750684e-001 -7.425013e+000 177 164 148
-1.579710e-001 6.033755e-001 -7.441390e+000 136 119 103
2.628135e+000 -1.027195e+001 -5.868346e+000 85 90 112
-2.372896e-001 7.932261e-001 -7.673530e+000 143 124 110
-1.998431e-001 4.177404e-001 -7.569547e+000 143 127 111
-1.770746e-001 8.498862e-001 -7.549821e+000 215 207 194
-1.758564e-001 8.490034e-001 -7.550423e+000 215 207 194
-2.187660e-001 -8.216032e-002 -7.728305e+000 208 200 183
-1.856167e-001 2.635289e-001 -7.670718e+000 198 181 166
-7.024177e-002 5.566732e-001 -7.343622e+000 201 191 179
-7.024177e-002 5.566732e-001 -7.343622e+000 201 191 179
-2.895764e-002 7.326277e-001 -7.320118e+000 219 210 201
6.216283e-001 2.917509e-001 -6.808727e+000 236 228 215
-3.463777e-001 8.127706e-002 -7.829780e+000 149 31 31
-2.400912e-001 -2.416316e-001 -7.738087e+000 167 155 140
-8.062324e-001 -2.472155e-001 -6.933857e+000 89 22 15
2.166881e-001 6.664710e-001 -7.224449e+000 203 194 185
3.198589e+000 -1.058045e+001 -5.585988e+000 100 93 90
9.048925e-001 -6.937482e-001 -6.485808e+000 170 52 45
2.092974e+000 -1.076412e+001 -5.988795e+000 137 132 133
1.106922e+000 -1.816862e+000 -6.697169e+000 148 146 148
3.453630e+000 -8.830776e+000 -5.201112e+000 25 22 29
1.629123e+000 -3.995049e-001 -5.702203e+000 136 133 140
-3.046462e-001 1.261179e-001 -7.056209e+000 100 82 72
5.519062e-002 1.304435e-001 -6.957297e+000 217 207 192
4.938674e-001 -1.526039e-002 -6.671987e+000 216 208 197
4.491715e+000 -1.145974e+001 -3.373177e+000 226 238 245
-1.396568e-001 1.220996e+000 -7.558083e+000 203 67 75
-2.869445e-003 8.779494e-001 -7.324787e+000 189 177 165
-2.076495e-003 8.772305e-001 -7.324896e+000 189 177 165
6.459560e-001 7.067979e-001 -6.739746e+000 190 176 167
-2.068300e-001 2.609638e-001 -7.586413e+000 157 140 125
-1.568426e-001 4.036806e-001 -7.623620e+000 133 120 104
1.224011e-001 4.942449e-002 -6.914856e+000 130 117 101
3.021118e+000 -1.014804e+001 -5.753489e+000 16 15 18
4.219185e+000 -9.001608e+000 -3.165132e+000 102 98 116
-4.782713e-001 7.294947e-001 -7.959185e+000 171 38 43
-1.862716e-001 1.004852e+000 -7.565742e+000 163 145 131
4.074478e+000 -8.128116e+000 -3.491215e+000 77 75 86
-5.540126e-001 6.870340e-001 -8.112255e+000 189 49 52
-2.288378e-001 8.584466e-001 -7.725178e+000 155 139 126
3.101216e+000 -1.061895e+001 -5.313928e+000 236 244 247
3.984156e+000 -8.956727e+000 -3.845853e+000 90 87 108
-5.472151e-001 5.949964e-001 -8.158505e+000 194 51 57
-9.519285e-001 -2.099827e-001 -6.523218e+000 40 19 12
2.711945e-001 8.496988e-001 -7.114180e+000 147 133 120
5.896615e-001 5.176497e-001 -6.803616e+000 128 112 97
-3.431055e-001 8.307510e-001 -7.789852e+000 217 61 70
4.259868e-001 -8.961772e-002 -6.759795e+000 251 244 233
-1.930727e-001 2.863980e-001 -7.214259e+000 144 129 113
-3.203075e-001 -9.490276e-003 -6.929950e+000 99 65 58
-1.285950e-001 1.182871e+000 -7.567403e+000 140 15 24
3.003746e+000 -1.054143e+001 -4.997450e+000 253 254 255
-2.022719e-001 2.845886e-001 -7.496990e+000 119 104 89
-2.979568e-001 1.647737e-001 -7.091333e+000 124 107 97
1.987879e+000 -1.061477e+001 -6.034248e+000 126 120 120
2.082213e+000 -9.271676e+000 -6.863896e+000 41 40 46
-1.585639e-001 4.593936e-001 -7.534295e+000 134 118 103
-5.546350e-001 5.436699e-001 -8.077363e+000 193 162 133
-2.574531e-002 -5.974090e-001 -7.678832e+000 241 92 97
-7.584036e-001 -1.967059e-001 -7.073843e+000 106 29 15
-3.517136e-001 3.873813e-001 -7.456895e+000 154 141 122
-2.602841e-001 1.437448e-001 -7.282793e+000 110 92 78
-1.123108e-001 2.048911e-001 -7.123653e+000 152 139 121
9.104672e-001 -6.883690e-001 -6.502264e+000 193 184 157
1.349091e+000 -1.283344e+000 -6.221442e+000 139 137 140
8.510993e-001 3.578118e-001 -6.449739e+000 236 80 92
-1.936344e-001 -1.784800e+000 -8.193362e+000 174 170 171
-2.436522e-001 -1.524608e+000 -8.118169e+000 177 173 176
-9.217938e-002 -1.667308e+000 -8.019897e+000 182 178 177
-3.028201e-001 -4.218928e-001 -7.882345e+000 130 118 112
-8.862741e-001 -3.526963e-001 -6.785658e+000 129 48 20
-2.737639e-001 1.089984e+000 -7.648647e+000 153 22 27
-1.497917e-001 4.698516e-001 -7.436048e+000 154 141 125
4.647107e-001 -4.497618e-001 -6.814843e+000 223 202 145
1.045940e+000 -4.217249e-001 -6.263765e+000 160 157 156
1.387376e+000 -7.517387e-001 -6.080863e+000 147 145 148
1.387385e+000 -7.246065e-001 -6.136397e+000 134 129 135
1.665548e+000 -1.164621e+000 -5.805962e+000 152 147 153
8.177408e-001 6.630184e-001 -6.518074e+000 191 57 62
8.684857e-001 6.136070e-001 -6.491411e+000 166 37 42
-1.531595e-002 -1.973505e+000 -7.998609e+000 96 92 91
-1.578574e-002 -1.925969e+000 -7.896457e+000 182 178 179
-3.811280e-001 3.157096e-001 -7.959012e+000 211 81 81
-3.010828e-001 2.119323e-001 -7.896984e+000 197 63 66
-6.423136e-002 -5.413122e-001 -7.683937e+000 149 38 43
-9.057233e-002 -4.800017e-001 -7.669507e+000 232 171 124
-3.167192e-001 1.015055e+000 -7.821827e+000 152 31 38
-2.039967e-001 3.007746e-001 -7.577326e+000 145 132 113
-2.083936e-001 6.552769e-001 -7.685385e+000 160 152 133
-9.506295e-001 -3.157948e-001 -6.676473e+000 147 67 38
-4.262458e-001 -2.036755e-003 -7.080589e+000 46 12 11
-2.619098e-001 1.296883e-001 -7.269345e+000 141 125 110
-9.712934e-001 -3.043144e-001 -6.590435e+000 41 13 11
-5.398785e-001 -4.268779e-002 -6.900536e+000 44 4 2
-6.266369e-001 -1.385813e-001 -6.737507e+000 68 18 13
-3.439393e-001 1.116917e-001 -6.964776e+000 94 31 26
-2.772208e-001 4.666556e-002 -6.918271e+000 68 24 15
3.573416e-002 6.095027e-001 -7.292668e+000 201 192 174
4.638451e-002 1.169061e+000 -7.304937e+000 212 67 70
7.516043e-001 -8.351139e-001 -6.685496e+000 238 98 99
1.628956e+000 -1.045532e+000 -5.863689e+000 145 143 148
1.508286e+000 -4.133580e-001 -5.918865e+000 177 170 175
-5.728959e-001 5.504004e-001 -8.173503e+000 226 76 81
-3.209933e-001 1.774451e-001 -7.936414e+000 210 79 84
-9.651239e-002 -4.861325e-001 -7.705672e+000 173 47 44
-2.684743e-001 5.030248e-001 -7.757272e+000 185 176 162
-2.134115e-001 3.406617e-001 -7.598005e+000 202 189 176
-7.702251e-001 -2.031771e-001 -6.978097e+000 85 26 17
-9.277058e-001 -3.107203e-001 -6.749035e+000 114 41 21
3.000531e+000 -8.881426e+000 -5.677971e+000 29 26 35
-5.587322e-002 4.168614e-001 -7.351856e+000 150 138 122
-1.252459e-001 8.147718e-001 -7.497036e+000 199 190 173
-9.897964e-001 -1.900043e-001 -6.459092e+000 64 37 25
7.529790e-001 -3.204216e-001 -6.599255e+000 234 226 209
6.109208e-001 6.102047e-001 -6.797343e+000 169 157 137
