ply
format ascii 1.0
element face 0
property list uchar int vertex_indices
element vertex 882
property float x
property float y
property float z
property uchar diffuse_red
property uchar diffuse_green
property uchar diffuse_blue
end_header
-1.044038e+000 -1.240252e+000 -8.269748e+000 80 63 53
-8.680166e-001 -1.186977e+000 -8.483293e+000 110 106 105
-7.705974e-001 -1.234195e+000 -8.640132e+000 27 24 31
-3.774449e-001 -1.124235e+000 -8.359646e+000 140 136 125
1.327688e-001 -1.144015e+000 -8.159625e+000 56 43 33
4.921037e-001 -9.906376e-001 -7.817487e+000 95 58 35
5.633572e-001 -9.125545e-001 -7.791815e+000 65 27 15
-2.157652e+000 -1.312775e+000 -7.963373e+000 108 77 58
-1.236840e+000 -1.319616e+000 -8.222199e+000 30 14 15
-1.245004e+000 -1.342699e+000 -8.172401e+000 56 44 44
-1.099017e+000 -1.287841e+000 -8.283380e+000 78 62 49
9.599934e-002 -1.284514e+000 -8.126176e+000 51 23 11
1.459876e-001 -1.170924e+000 -8.002150e+000 124 95 65
2.665156e-001 -1.222448e+000 -8.092926e+000 60 32 20
2.089499e-001 -1.223131e+000 -7.907841e+000 112 87 65
3.332480e-001 -1.132186e+000 -7.955133e+000 131 97 71
5.472805e-001 -1.049912e+000 -7.784743e+000 135 98 69
5.802479e-001 -1.133794e+000 -7.759805e+000 66 28 8
1.060428e+000 -1.059070e+000 -7.781502e+000 69 41 20
1.001449e+000 -1.021173e+000 -7.566214e+000 165 130 100
-2.564690e+000 -1.416463e+000 -7.929523e+000 181 157 132
-2.244793e+000 -1.495567e+000 -7.944339e+000 145 123 100
-2.066455e+000 -1.459653e+000 -8.141895e+000 110 87 74
-2.016873e+000 -1.448299e+000 -8.107715e+000 59 42 39
-1.930328e+000 -1.413101e+000 -8.061216e+000 38 27 28
-1.803764e+000 -1.496843e+000 -7.936202e+000 49 35 32
4.077483e-001 -1.260232e+000 -7.708146e+000 97 56 36
5.031146e-001 -1.209615e+000 -7.800809e+000 83 42 20
5.570828e-001 -1.261870e+000 -7.717188e+000 112 63 50
7.690875e-001 -1.198081e+000 -7.727493e+000 90 45 23
7.447298e-001 -1.225649e+000 -7.749922e+000 161 119 96
9.255259e-001 -1.241083e+000 -7.620396e+000 173 135 99
9.812885e-001 -1.126322e+000 -7.558076e+000 150 111 73
9.778422e-001 -1.116719e+000 -7.528255e+000 150 111 73
-2.328230e-001 -1.724942e+000 -8.393475e+000 43 34 34
6.413158e-001 -1.358467e+000 -7.708548e+000 106 57 27
6.514787e-001 -1.408104e+000 -7.737999e+000 173 128 90
6.514787e-001 -1.408104e+000 -7.737999e+000 173 128 90
6.883232e-001 -1.401542e+000 -7.748825e+000 137 91 57
7.875135e-001 -1.293440e+000 -7.688140e+000 89 45 20
8.806198e-001 -1.349467e+000 -7.615152e+000 189 145 103
2.034174e+000 -1.548401e+000 -8.674418e+000 167 148 113
4.236943e-001 -1.581151e+000 -7.831865e+000 176 132 93
5.491075e-001 -1.588519e+000 -7.848557e+000 142 99 55
6.580945e-001 -1.493416e+000 -7.698446e+000 151 104 62
9.494330e-001 -1.731488e+000 -7.953974e+000 174 134 96
9.376458e-001 -1.766494e+000 -7.944694e+000 210 172 135
1.178973e+000 -1.742856e+000 -7.975508e+000 139 112 85
1.123904e+000 -1.767023e+000 -7.943954e+000 156 124 90
9.468576e-001 -1.946241e+000 -8.141525e+000 190 160 134
6.110218e-001 2.079801e+000 -8.586471e+000 172 134 98
5.652249e-001 2.053706e+000 -8.504883e+000 141 102 69
7.747612e-001 2.081297e+000 -8.512495e+000 73 45 34
7.672480e-001 1.911709e+000 -8.361237e+000 70 36 26
6.782510e-001 1.868834e+000 -8.567658e+000 163 132 106
7.127402e-001 1.842476e+000 -8.617850e+000 88 60 39
1.739717e+000 1.805460e+000 -8.579961e+000 109 94 73
1.128580e+000 1.682742e+000 -8.239830e+000 28 16 16
1.051794e+000 1.593732e+000 -8.281664e+000 83 66 58
7.484635e-001 1.539871e+000 -8.630199e+000 138 118 103
7.484635e-001 1.539871e+000 -8.630199e+000 138 118 103
8.719190e-001 1.451691e+000 -8.610570e+000 43 38 35
1.015025e+000 1.472765e+000 -8.422956e+000 36 18 18
1.674666e+000 1.477163e+000 -8.349357e+000 64 32 19
1.747770e+000 1.496898e+000 -8.315944e+000 84 59 44
1.068622e+000 1.330275e+000 -8.706376e+000 44 36 40
1.407859e+000 1.452872e+000 -8.279767e+000 132 97 71
1.109153e+000 1.192729e+000 -8.734472e+000 32 28 29
1.488050e+000 1.255647e+000 -8.617002e+000 21 16 20
4.838638e-001 8.827287e-001 -9.386549e+000 28 22 25
-1.928164e+000 5.520994e-001 -9.148645e+000 95 63 43
-1.160758e-001 6.269855e-001 -9.687935e+000 18 12 12
8.017556e-002 6.078418e-001 -9.823574e+000 16 11 10
6.220741e-001 7.516542e-001 -9.244945e+000 40 36 37
-2.231109e+000 4.176123e-001 -8.685402e+000 170 136 91
-1.961977e+000 4.983402e-001 -8.788453e+000 104 64 29
-1.104186e+000 3.858006e-001 -9.393902e+000 153 144 111
-1.050998e+000 4.271260e-001 -9.371506e+000 49 42 31
-1.050998e+000 4.271260e-001 -9.371506e+000 49 42 31
-1.004154e+000 4.568474e-001 -9.449272e+000 164 158 132
-5.943140e-001 4.948994e-001 -9.321683e+000 35 26 24
-4.980865e-001 4.746977e-001 -9.261310e+000 26 20 17
-2.333050e-001 4.584419e-001 -9.140024e+000 124 117 106
-2.333050e-001 4.584419e-001 -9.140024e+000 124 117 106
1.825515e-001 5.509920e-001 -9.463142e+000 19 14 8
-2.450753e+000 3.043626e-001 -8.623803e+000 137 99 61
-1.825577e+000 3.389975e-001 -8.471019e+000 122 90 65
-1.912040e+000 2.824635e-001 -8.459713e+000 79 45 33
-1.763005e+000 3.682441e-001 -8.622111e+000 76 45 24
-1.351585e+000 3.654619e-001 -9.259209e+000 101 79 55
-9.812299e-001 2.644655e-001 -9.253497e+000 133 129 110
-1.139396e-001 3.965850e-001 -9.049203e+000 29 20 24
-1.772428e-002 3.698977e-001 -9.000279e+000 24 18 22
-2.083365e-002 3.699570e-001 -8.996953e+000 24 18 22
2.705730e-001 4.638465e-001 -9.058643e+000 31 27 22
1.228548e+000 4.661989e-001 -7.816028e+000 33 23 22
1.729933e+000 6.028596e-001 -7.126894e+000 191 168 133
-2.353409e+000 1.872138e-001 -8.359906e+000 184 151 102
-2.355226e+000 1.083715e-001 -8.382453e+000 151 114 69
-2.000710e+000 1.620820e-001 -8.420810e+000 67 36 16
-1.583944e+000 2.305870e-001 -8.708595e+000 48 25 15
-9.610090e-001 2.099552e-001 -9.256646e+000 29 23 20
-8.718700e-001 2.131731e-001 -9.142271e+000 52 50 38
-9.090026e-001 1.115651e-001 -9.155010e+000 48 43 39
-2.155755e+000 8.393746e-002 -8.205014e+000 120 84 50
-1.866503e+000 6.699861e-002 -8.348004e+000 53 23 13
-1.713864e+000 1.032726e-001 -8.175650e+000 37 13 9
-1.717141e+000 7.421891e-002 -8.379689e+000 98 64 45
-1.719056e+000 7.449031e-002 -8.377901e+000 98 64 45
-5.082261e-001 4.045659e-002 -8.701650e+000 34 28 27
1.261092e+000 2.876450e-001 -7.528699e+000 128 89 60
1.293306e+000 2.747061e-001 -7.418813e+000 203 173 133
1.693366e+000 3.320051e-001 -7.027960e+000 140 103 64
1.769206e+000 2.941408e-001 -6.982042e+000 198 167 123
-2.625798e+000 -2.238207e-001 -8.252569e+000 117 75 35
-1.719553e+000 -1.666977e-001 -8.118606e+000 61 34 13
-6.151257e-001 -1.791822e-001 -8.727889e+000 98 90 67
-3.826617e-001 -1.176050e-001 -8.664984e+000 25 17 28
1.686362e+000 2.614868e-001 -7.027679e+000 110 70 36
-2.040320e+000 -2.985910e-001 -7.993467e+000 170 144 107
-1.957336e+000 -3.076179e-001 -8.044720e+000 107 74 41
-1.884150e+000 -2.806389e-001 -8.041308e+000 160 132 97
-1.675738e+000 -2.017860e-001 -8.091388e+000 148 120 95
1.234794e+000 -1.418016e-001 -8.305352e+000 92 83 74
1.280182e+000 -2.860978e-003 -7.545721e+000 173 143 99
1.398163e+000 7.342287e-002 -7.186037e+000 187 145 105
1.715682e+000 1.526302e-001 -6.960895e+000 156 115 72
-2.275544e+000 -4.280928e-001 -8.037800e+000 112 76 42
-2.056969e+000 -3.850699e-001 -8.000371e+000 109 72 43
-2.056969e+000 -3.850699e-001 -8.000371e+000 109 72 43
1.368606e+000 -2.529569e-001 -8.085319e+000 75 66 59
1.485556e+000 -1.346960e-001 -7.237725e+000 191 149 110
1.654491e+000 3.605158e-003 -6.916895e+000 199 149 103
1.634423e+000 -6.521185e-002 -7.002010e+000 190 139 96
2.564668e+000 -5.731269e-002 -7.414226e+000 57 49 47
1.577777e+000 -1.226333e-001 -7.047210e+000 127 74 34
2.334302e+000 -2.083019e-001 -7.209186e+000 30 19 20
-2.375110e+000 -7.313903e-001 -7.932982e+000 186 157 117
-2.167733e+000 -6.348701e-001 -7.891007e+000 160 131 99
-1.581977e+000 -6.914831e-001 -7.915858e+000 73 39 12
-1.465870e+000 -5.955170e-001 -7.912636e+000 85 52 21
-1.148147e+000 -7.250972e-001 -8.135684e+000 84 47 24
1.574919e+000 -3.201746e-001 -7.246452e+000 186 158 117
1.933311e+000 -2.303030e-001 -7.037223e+000 207 175 137
2.201442e+000 -3.291927e-001 -7.244779e+000 146 121 101
-2.629554e+000 -9.040703e-001 -8.081166e+000 169 126 85
-2.105952e+000 -8.627841e-001 -7.896601e+000 117 76 51
-2.451586e+000 -9.658511e-001 -7.926081e+000 183 144 104
-2.269165e+000 -1.037332e+000 -7.953796e+000 70 32 16
-1.745676e+000 -9.020002e-001 -7.781391e+000 84 48 25
-7.587096e-001 -1.149893e+000 -8.614621e+000 21 19 21
1.327812e-001 -9.970980e-001 -8.496550e+000 19 14 18
9.722325e-001 -7.810807e-001 -8.015005e+000 78 63 49
-6.511985e-001 -1.217380e+000 -8.485374e+000 145 149 152
-2.797851e-001 -1.192365e+000 -8.589708e+000 33 28 25
2.583528e-001 -1.188392e+000 -8.065171e+000 67 37 23
2.583528e-001 -1.188392e+000 -8.065171e+000 67 37 23
3.878481e-001 -1.177288e+000 -7.804690e+000 143 104 79
6.630168e-001 -1.099583e+000 -7.892601e+000 57 24 14
9.635218e-001 -1.106547e+000 -7.792053e+000 83 45 21
1.086188e+000 -1.022109e+000 -7.574834e+000 103 76 55
5.103898e-001 -1.305578e+000 -7.819032e+000 106 60 36
-1.782810e+000 -1.622049e+000 -8.169216e+000 49 34 31
-1.642750e+000 -1.671785e+000 -8.162745e+000 55 33 24
1.336768e-001 -1.471519e+000 -7.961703e+000 31 16 20
2.480163e-001 -1.475049e+000 -7.887989e+000 67 44 33
4.341400e-001 -1.394285e+000 -7.739389e+000 69 34 12
5.590343e-001 -1.391809e+000 -7.710991e+000 161 115 81
5.590343e-001 -1.391809e+000 -7.710991e+000 161 115 81
1.266294e+000 -1.306409e+000 -7.750586e+000 93 69 45
1.228382e+000 -1.394120e+000 -7.657540e+000 169 140 106
2.033258e+000 -1.490891e+000 -8.490258e+000 89 76 74
-1.829324e+000 -1.729425e+000 -8.115098e+000 114 96 81
8.387265e-002 -1.646524e+000 -8.097116e+000 39 24 23
8.784560e-001 -1.634338e+000 -7.880803e+000 217 179 141
1.222144e+000 -1.493397e+000 -7.732353e+000 167 136 105
8.153941e-002 -1.818506e+000 -8.112688e+000 120 92 73
1.921669e-001 -1.822520e+000 -8.112286e+000 153 121 102
5.311205e-001 -1.943557e+000 -8.107041e+000 174 146 119
7.177431e-001 1.910477e+000 -8.326090e+000 133 97 72
5.783909e-001 1.854462e+000 -8.915365e+000 94 63 43
5.783909e-001 1.854462e+000 -8.915365e+000 94 63 43
1.574594e+000 1.810495e+000 -8.138258e+000 149 125 96
1.761187e+000 1.777456e+000 -8.511182e+000 15 9 19
7.240437e-001 1.639600e+000 -9.498432e+000 41 35 33
1.426291e+000 1.531112e+000 -8.297509e+000 144 105 71
1.475499e+000 1.588123e+000 -8.258260e+000 139 101 63
1.220771e+000 1.355769e+000 -8.487668e+000 46 26 21
1.030601e+000 1.241637e+000 -8.813277e+000 49 40 42
1.117829e+000 1.285167e+000 -8.582761e+000 43 34 35
1.232255e+000 1.244680e+000 -8.734739e+000 33 25 28
4.944404e-001 8.262266e-001 -9.380419e+000 61 52 52
2.117241e+000 9.706014e-001 -7.910703e+000 76 54 40
2.328080e-001 6.558941e-001 -9.321337e+000 35 29 31
1.263060e+000 7.701088e-001 -7.706793e+000 26 22 23
1.362234e+000 8.531291e-001 -7.740981e+000 170 134 89
1.474870e+000 7.751921e-001 -7.417838e+000 149 108 62
-1.143357e+000 4.336198e-001 -9.475044e+000 48 40 27
-9.667553e-001 4.149792e-001 -9.330444e+000 49 43 33
-9.667553e-001 4.149792e-001 -9.330444e+000 49 43 33
-8.260802e-001 4.834906e-001 -9.290590e+000 33 26 24
-8.083326e-001 4.274023e-001 -9.309718e+000 145 136 108
-8.083326e-001 4.274023e-001 -9.309718e+000 145 136 108
-7.369446e-001 4.552240e-001 -9.298551e+000 29 22 25
-6.382970e-001 4.309414e-001 -9.242936e+000 28 23 22
-5.655221e-001 4.534538e-001 -9.268379e+000 123 115 94
1.694188e+000 6.708138e-001 -7.191405e+000 185 162 119
1.695830e+000 6.713035e-001 -7.192201e+000 185 162 119
-9.458256e-001 3.590282e-001 -9.290020e+000 166 161 140
-8.832080e-001 3.925564e-001 -9.321031e+000 39 39 31
-8.832080e-001 3.925564e-001 -9.321031e+000 39 39 31
-8.547197e-001 3.423138e-001 -9.234743e+000 149 142 114
-8.547197e-001 3.423138e-001 -9.234743e+000 149 142 114
-8.352311e-001 2.887462e-001 -9.201123e+000 38 36 39
-8.352311e-001 2.887462e-001 -9.201123e+000 38 36 39
-8.996112e-001 2.550389e-001 -9.183272e+000 154 149 117
-8.996112e-001 2.550389e-001 -9.183272e+000 154 149 117
-7.759722e-001 3.824235e-001 -9.148738e+000 44 37 32
-7.759722e-001 3.824235e-001 -9.148738e+000 44 37 32
-7.108843e-001 4.070372e-001 -9.222288e+000 137 131 109
-6.910417e-001 3.530079e-001 -9.190305e+000 29 24 26
-6.910417e-001 3.530079e-001 -9.190305e+000 29 24 26
-7.602835e-001 3.251432e-001 -9.178113e+000 149 143 115
-7.602835e-001 3.251432e-001 -9.178113e+000 149 143 115
-7.319661e-001 2.792523e-001 -9.056116e+000 41 35 31
-6.657082e-001 3.028311e-001 -9.121162e+000 144 136 109
-6.657082e-001 3.028311e-001 -9.121162e+000 144 136 109
-6.148408e-001 3.812750e-001 -9.170763e+000 132 125 99
-5.412164e-001 4.071380e-001 -9.176621e+000 28 27 23
-5.412164e-001 4.071380e-001 -9.176621e+000 28 27 23
-5.900120e-001 3.330060e-001 -9.096722e+000 18 16 19
-3.512223e-001 3.701936e-001 -9.068010e+000 30 23 20
-4.280640e-001 3.368310e-001 -9.085340e+000 137 129 107
-4.051627e-001 2.902164e-001 -9.041479e+000 32 26 32
-4.051627e-001 2.902164e-001 -9.041479e+000 32 26 32
-3.334859e-001 3.208988e-001 -9.044465e+000 146 142 116
-3.334859e-001 3.208988e-001 -9.044465e+000 146 142 116
-2.785901e-001 3.965826e-001 -9.067063e+000 136 129 111
-2.785901e-001 3.965826e-001 -9.067063e+000 136 129 111
-2.597858e-001 3.505414e-001 -9.031720e+000 32 27 22
-2.382388e-001 3.059280e-001 -8.980493e+000 147 143 107
-2.381777e-001 3.068680e-001 -8.974335e+000 147 143 107
2.970417e-001 3.933229e-001 -9.083494e+000 43 37 40
5.780161e-001 4.748627e-001 -9.171003e+000 10 8 10
5.868730e-001 3.408391e-001 -8.945484e+000 55 51 51
-1.108865e+000 2.418560e-001 -8.660079e+000 76 55 34
-1.072142e+000 1.419020e-001 -9.399857e+000 80 70 69
-8.056897e-001 2.455004e-001 -9.087485e+000 146 136 102
-8.116463e-001 2.405347e-001 -9.137006e+000 146 136 102
-7.170331e-001 2.245157e-001 -9.072637e+000 142 138 114
-6.439054e-001 2.543455e-001 -9.059190e+000 28 24 24
-6.439054e-001 2.543455e-001 -9.059190e+000 28 24 24
-5.500428e-001 2.327151e-001 -9.009347e+000 27 27 27
-5.500428e-001 2.327151e-001 -9.009347e+000 27 27 27
-6.207581e-001 2.088155e-001 -8.993060e+000 132 128 98
-6.226124e-001 2.065514e-001 -9.017139e+000 132 128 98
-4.716090e-001 2.636376e-001 -8.983867e+000 152 147 125
-4.748663e-001 2.591315e-001 -9.030764e+000 152 147 125
-5.290656e-001 1.865639e-001 -8.966350e+000 126 120 93
-5.290656e-001 1.865639e-001 -8.966350e+000 126 120 93
-4.540727e-001 2.130129e-001 -8.968918e+000 34 29 35
-4.539815e-001 2.128411e-001 -8.969698e+000 34 29 35
-3.113758e-001 2.761532e-001 -8.969781e+000 35 32 28
-3.120130e-001 2.757411e-001 -8.970254e+000 35 32 28
-2.893144e-001 2.276777e-001 -8.914120e+000 150 143 114
1.332519e+000 4.491673e-001 -7.319314e+000 145 91 47
1.386945e+000 4.146103e-001 -7.216401e+000 212 175 128
-2.382498e+000 6.413841e-003 -8.241279e+000 166 127 83
1.228228e+000 1.974233e-001 -7.843755e+000 28 24 27
1.549578e+000 1.906453e-001 -7.058189e+000 188 141 99
2.269069e+000 1.924219e-001 -7.181106e+000 144 118 91
2.269069e+000 1.924219e-001 -7.181106e+000 144 118 91
2.540872e+000 1.677428e-001 -7.657622e+000 24 15 17
-2.543438e+000 -2.404724e-001 -8.150099e+000 186 148 105
-2.518492e+000 -2.912739e-001 -8.163332e+000 106 65 28
2.137909e+000 1.754360e-001 -7.060736e+000 145 123 87
2.137909e+000 1.754360e-001 -7.060736e+000 145 123 87
-2.129060e+000 -3.826710e-001 -8.087342e+000 168 139 107
-1.834866e+000 -3.479573e-001 -7.936241e+000 106 75 46
-1.834866e+000 -3.479573e-001 -7.936241e+000 106 75 46
-1.947040e+000 -3.847487e-001 -7.885594e+000 170 145 105
-3.845674e-001 -3.333391e-001 -8.589574e+000 28 23 29
4.508562e-001 -4.037166e-001 -8.595099e+000 131 121 91
5.655539e-001 -4.441157e-001 -8.646022e+000 118 106 83
1.198275e+000 -2.761945e-001 -8.169761e+000 65 58 49
1.370963e+000 -1.493460e-001 -7.490383e+000 185 160 131
-1.816395e+000 -5.637185e-001 -7.896034e+000 102 60 38
-1.838319e+000 -4.889871e-001 -8.022422e+000 82 51 21
1.512835e+000 -1.285367e-001 -7.098300e+000 140 90 47
1.744913e+000 -2.105324e-001 -7.030941e+000 154 108 70
1.744913e+000 -2.105324e-001 -7.030941e+000 154 108 70
1.970853e+000 -1.472216e-001 -6.937322e+000 133 94 70
-2.198182e+000 -7.286348e-001 -7.925543e+000 168 141 112
5.614775e-001 -6.882815e-001 -8.688408e+000 62 59 55
5.638639e-001 -7.031576e-001 -8.755416e+000 62 59 55
4.265812e-001 -7.498126e-001 -8.622996e+000 60 52 47
4.921850e-001 -7.185726e-001 -8.643505e+000 18 13 19
4.921850e-001 -7.185726e-001 -8.643505e+000 18 13 19
6.473590e-001 -7.402432e-001 -8.738104e+000 71 66 62
5.759414e-001 -7.556943e-001 -8.695198e+000 15 10 13
5.759414e-001 -7.556943e-001 -8.695198e+000 15 10 13
7.086849e-001 -7.239449e-001 -8.708359e+000 16 14 19
1.882713e+000 -4.017530e-001 -7.336427e+000 189 165 142
-8.574501e-001 -8.489457e-001 -8.351151e+000 21 15 17
-5.717298e-001 -9.104378e-001 -8.484033e+000 142 136 113
1.755739e-001 -9.205279e-001 -8.514808e+000 20 12 14
2.432181e-001 -8.929847e-001 -8.534731e+000 88 70 69
3.800513e-001 -8.358796e-001 -8.547143e+000 44 38 37
3.108199e-001 -8.694417e-001 -8.555830e+000 14 8 16
3.964815e-001 -8.989867e-001 -8.549858e+000 14 9 14
4.472321e-001 -8.143660e-001 -8.626696e+000 19 13 17
5.098713e-001 -7.848205e-001 -8.655406e+000 47 40 40
4.690858e-001 -9.113581e-001 -8.760897e+000 36 31 35
6.660549e-001 -8.281627e-001 -8.810067e+000 16 11 17
1.851558e+000 -4.371970e-001 -7.352855e+000 23 17 25
2.047649e+000 -4.470746e-001 -7.357148e+000 34 24 31
-2.428345e+000 -1.103509e+000 -8.073399e+000 171 127 90
-2.046990e+000 -1.026385e+000 -7.890751e+000 79 44 32
-1.749557e+000 -9.631693e-001 -7.827430e+000 115 79 52
-1.035945e+000 -8.959409e-001 -8.064897e+000 128 98 72
-6.593341e-001 -1.051841e+000 -8.503101e+000 24 22 27
-5.396920e-001 -9.668547e-001 -8.420547e+000 25 24 22
-5.736654e-001 -1.074031e+000 -8.433965e+000 27 24 25
-5.141102e-001 -1.037874e+000 -8.420281e+000 144 141 122
-3.312939e-002 -9.899517e-001 -8.447853e+000 120 111 90
3.338815e-001 -9.611768e-001 -8.664749e+000 51 42 43
5.484262e-001 -8.294815e-001 -7.881535e+000 67 47 34
8.426271e-001 -7.241626e-001 -7.804215e+000 126 111 88
-2.528384e+000 -1.197829e+000 -8.066344e+000 115 67 31
-1.580896e-001 -1.187289e+000 -8.392111e+000 122 115 107
3.313119e-001 -1.048689e+000 -7.966661e+000 138 97 69
9.616835e-002 -1.195084e+000 -8.166074e+000 44 29 21
7.720361e-001 -1.015966e+000 -7.589389e+000 82 44 23
7.720361e-001 -1.015966e+000 -7.589389e+000 82 44 23
-1.320356e+000 -1.458231e+000 -8.101258e+000 28 16 17
-1.056555e+000 -1.520058e+000 -8.489305e+000 158 141 133
7.844572e-001 -1.442266e+000 -7.762100e+000 212 169 124
6.302037e-001 -1.605504e+000 -7.746961e+000 209 173 131
-1.159963e-001 -1.965430e+000 -8.341586e+000 135 139 169
7.919396e-001 -1.668742e+000 -7.815701e+000 210 173 129
9.209382e-001 -1.837061e+000 -8.022585e+000 142 99 64
9.209382e-001 -1.837061e+000 -8.022585e+000 142 99 64
4.723629e-001 2.086496e+000 -8.857967e+000 183 157 127
7.447295e-001 1.779428e+000 -8.471792e+000 164 137 107
7.484168e-001 1.781957e+000 -8.491652e+000 164 137 107
1.221680e+000 1.733883e+000 -8.259207e+000 52 35 28
1.704109e+000 1.530062e+000 -8.320596e+000 133 102 74
1.714561e+000 1.357278e+000 -8.459348e+000 79 57 43
5.587283e-001 1.280199e+000 -8.949066e+000 70 66 59
4.971447e-001 9.423686e-001 -9.335391e+000 56 51 47
-2.323647e+000 3.788796e-001 -8.457523e+000 146 109 66
-2.351350e+000 4.442035e-001 -8.998401e+000 141 101 63
-1.851898e+000 4.873165e-001 -8.577311e+000 133 97 65
-2.121162e+000 2.627046e-001 -8.363891e+000 149 115 80
-2.116553e+000 3.208002e-001 -8.472164e+000 156 123 82
-2.119724e+000 3.196587e-001 -8.487662e+000 156 123 82
-2.051365e+000 2.996529e-001 -8.558898e+000 134 105 70
-1.248863e+000 3.098018e-001 -9.342898e+000 196 186 163
-1.248863e+000 3.098018e-001 -9.342898e+000 196 186 163
1.714158e+000 5.749570e-001 -7.198646e+000 65 41 31
1.273367e+000 3.344123e-001 -7.843375e+000 193 168 134
1.631362e-001 -3.603871e-002 -8.670054e+000 135 130 101
1.161483e-001 -1.326121e-001 -8.646506e+000 136 126 99
4.808320e-001 2.332137e-003 -8.682672e+000 23 17 23
-2.334566e+000 -3.518451e-001 -8.119167e+000 163 134 94
-2.483428e-001 -2.723848e-001 -8.598143e+000 27 21 19
-1.744124e-001 -2.433831e-001 -8.606088e+000 144 133 105
4.342528e-002 -1.591430e-001 -8.628747e+000 23 19 20
6.306373e-001 -1.848508e-001 -8.621966e+000 24 18 21
6.588399e-001 -2.601515e-001 -8.620604e+000 114 108 79
7.338252e-001 -2.380196e-001 -8.637212e+000 21 16 25
1.549749e+000 9.326782e-002 -6.959371e+000 207 165 119
1.814096e+000 1.180113e-001 -6.979461e+000 101 64 37
1.792238e+000 7.567032e-002 -6.900972e+000 193 148 106
-2.027659e+000 -3.629808e-001 -7.972281e+000 120 80 49
-2.065506e+000 -3.870817e-001 -8.091835e+000 120 80 49
-2.924575e-001 -3.703264e-001 -8.568626e+000 20 18 19
-3.351325e-001 -4.676590e-001 -8.531730e+000 28 22 21
-2.201638e-001 -3.404780e-001 -8.574026e+000 148 138 103
2.803752e-002 -3.224174e-001 -8.568052e+000 135 125 98
-1.645052e-002 -4.174419e-001 -8.536384e+000 137 125 103
1.265958e-001 -3.652758e-001 -8.557043e+000 123 114 87
1.993210e-001 -3.449497e-001 -8.609561e+000 25 22 16
1.554153e-001 -4.408603e-001 -8.576470e+000 20 19 21
2.723765e-001 -3.189815e-001 -8.627868e+000 146 132 111
6.095677e-001 -3.505865e-001 -8.619993e+000 143 134 109
1.072253e+000 -3.033282e-001 -8.403530e+000 58 52 52
1.648664e+000 -8.166770e-002 -6.909595e+000 200 155 113
2.573354e+000 -5.106375e-003 -7.435872e+000 18 12 14
-4.068049e-001 -5.012374e-001 -8.543874e+000 142 132 110
-4.493692e-001 -6.019010e-001 -8.523865e+000 148 136 114
-4.493537e-001 -6.018254e-001 -8.523336e+000 148 136 114
-3.768400e-001 -5.636966e-001 -8.491789e+000 26 19 24
-2.763859e-001 -6.011506e-001 -8.482363e+000 29 23 33
-1.330112e-001 -5.461349e-001 -8.510901e+000 23 19 27
-6.012441e-002 -5.157100e-001 -8.509028e+000 134 123 101
1.252702e-002 -4.907900e-001 -8.530256e+000 21 19 23
-3.074988e-002 -5.875457e-001 -8.504414e+000 23 23 24
8.430624e-002 -4.650132e-001 -8.550375e+000 127 116 94
1.827482e-001 -5.112127e-001 -8.561879e+000 121 106 90
1.121132e-001 -5.367408e-001 -8.539191e+000 20 18 16
2.830860e-001 -5.577629e-001 -8.578262e+000 122 115 88
6.517350e-001 -4.984438e-001 -8.652346e+000 155 144 116
1.248140e+000 -3.806381e-001 -8.396734e+000 58 50 48
-2.840920e+000 -7.683835e-001 -8.317385e+000 168 138 109
-2.158325e+000 -6.564260e-001 -7.931868e+000 158 129 97
-1.131115e+000 -6.287408e-001 -8.241725e+000 95 63 38
-4.917173e-001 -7.040012e-001 -8.505505e+000 145 137 113
-4.195808e-001 -6.659320e-001 -8.481914e+000 23 23 21
-3.902576e-001 -7.280437e-001 -8.444505e+000 140 127 110
-4.618078e-001 -7.697176e-001 -8.478842e+000 23 19 20
-2.458308e-001 -6.618394e-001 -8.434169e+000 141 130 106
-2.192874e-001 -7.372380e-001 -8.443203e+000 23 21 24
-4.459700e-002 -7.527288e-001 -8.468657e+000 110 101 83
2.379310e-001 -6.527107e-001 -8.533169e+000 113 100 83
2.380186e-001 -6.551039e-001 -8.542794e+000 113 100 83
9.609807e-002 -7.049019e-001 -8.509303e+000 144 134 98
7.574740e-001 -6.053653e-001 -8.278311e+000 75 72 67
1.968976e+000 -3.972697e-001 -7.301414e+000 173 145 121
-2.412139e+000 -9.339950e-001 -7.996037e+000 172 135 98
-8.823812e-001 -9.661257e-001 -8.461181e+000 18 14 13
-5.324683e-001 -8.030448e-001 -8.485096e+000 139 134 107
-4.329056e-001 -8.306906e-001 -8.434197e+000 126 121 102
-4.726702e-001 -9.225804e-001 -8.379508e+000 143 138 119
-4.726702e-001 -9.225804e-001 -8.379508e+000 143 138 119
-4.051415e-001 -8.955937e-001 -8.406645e+000 26 24 26
-4.051415e-001 -8.955937e-001 -8.406645e+000 26 24 26
-2.309498e-001 -8.956297e-001 -8.376828e+000 142 129 105
-8.688803e-002 -8.482262e-001 -8.426943e+000 118 113 84
9.036203e-001 -7.042948e-001 -7.833688e+000 30 30 30
-1.457042e+000 -9.354756e-001 -8.074314e+000 56 26 17
-4.467396e-001 -9.970701e-001 -8.393439e+000 26 26 21
-3.760803e-001 -9.623635e-001 -8.387646e+000 141 129 113
-2.738826e-001 -9.970198e-001 -8.372520e+000 128 123 91
-1.317603e-001 -9.458175e-001 -8.412226e+000 130 118 99
2.521422e-001 -1.048172e+000 -8.427758e+000 17 11 17
2.661834e-001 -9.710292e-001 -8.568648e+000 16 12 13
4.554431e-001 -8.662431e-001 -8.030366e+000 110 79 56
-9.397737e-001 -1.294405e+000 -8.741754e+000 42 33 32
-2.277432e+000 -1.383337e+000 -8.086010e+000 136 107 85
-5.033082e-001 -1.272318e+000 -8.396470e+000 129 122 112
-3.469046e-001 -1.430330e+000 -8.452346e+000 37 36 34
-1.620719e+000 -1.442856e+000 -8.053223e+000 29 18 23
-1.426288e+000 -1.604794e+000 -8.302623e+000 73 49 42
6.925144e-001 -1.243926e+000 -7.833963e+000 83 42 24
7.835690e-001 -1.238256e+000 -7.621224e+000 113 68 45
-1.747721e+000 -1.620349e+000 -8.200247e+000 41 25 25
-1.492503e+000 -1.757814e+000 -8.356186e+000 187 165 146
9.893835e-001 -1.289928e+000 -7.492814e+000 155 115 78
9.893835e-001 -1.289928e+000 -7.492814e+000 155 115 78
2.072636e+000 -1.592285e+000 -8.492819e+000 78 73 78
-2.868742e-001 -1.804402e+000 -8.541775e+000 181 178 179
8.851875e-001 -1.926454e+000 -8.117194e+000 195 162 129
1.007243e+000 -1.887445e+000 -8.066597e+000 196 162 131
1.022197e+000 -2.035757e+000 -8.279095e+000 124 119 125
5.261671e-001 2.295479e+000 -8.692694e+000 190 165 132
9.541684e-001 1.910223e+000 -8.252398e+000 35 26 25
1.516504e+000 1.333504e+000 -8.456511e+000 116 85 64
1.571974e+000 1.249884e+000 -8.762581e+000 28 24 27
2.809846e-001 9.838750e-001 -9.801637e+000 29 25 26
2.809846e-001 9.838750e-001 -9.801637e+000 29 25 26
4.040869e-001 1.011058e+000 -9.387294e+000 67 62 56
5.014621e-001 1.086979e+000 -9.518385e+000 19 15 14
1.895526e+000 9.645779e-001 -7.672024e+000 67 39 33
-1.854013e+000 4.008788e-001 -8.571048e+000 75 38 25
1.493836e+000 6.421944e-001 -7.269409e+000 90 55 30
-2.534857e+000 3.124931e-001 -8.874296e+000 145 107 67
3.919047e-001 2.197818e-001 -8.847064e+000 19 14 20
1.348106e+000 3.838756e-001 -7.282182e+000 147 96 53
-1.617101e+000 4.858330e-002 -7.983319e+000 57 30 21
-9.667496e-001 7.796303e-002 -8.791730e+000 19 15 16
1.462978e+000 3.037554e-001 -7.177431e+000 205 162 117
-5.331071e-001 -1.073152e-001 -8.711722e+000 29 24 28
-5.331071e-001 -1.073152e-001 -8.711722e+000 29 24 28
1.325757e+000 -2.511744e-001 -8.081315e+000 64 55 50
1.673982e+000 -2.052073e-001 -7.152460e+000 166 113 72
2.382174e+000 -2.121327e-001 -7.257860e+000 24 15 20
-2.444097e+000 -7.649342e-001 -8.048964e+000 178 148 110
-2.785869e+000 -9.029856e-001 -8.232739e+000 187 157 129
-1.410711e+000 -7.819721e-001 -7.944069e+000 81 46 27
3.220687e-001 -9.561244e-001 -8.087470e+000 142 107 74
-4.397121e-001 -1.429769e+000 -8.465342e+000 173 168 172
6.337470e-001 -1.087643e+000 -7.869675e+000 64 32 23
2.695817e-001 -1.279307e+000 -7.949782e+000 76 43 34
2.681162e-001 -1.263687e+000 -7.901796e+000 76 43 34
2.828848e+000 -8.451368e-001 -6.950617e+000 97 84 78
-1.681948e+000 -1.685384e+000 -8.346577e+000 59 41 39
2.055841e+000 -1.688492e+000 -8.490480e+000 225 197 152
1.023170e+000 2.252397e+000 -8.372129e+000 185 161 125
1.643243e+000 1.748886e+000 -8.432887e+000 136 115 86
1.750658e+000 1.703482e+000 -8.538683e+000 30 19 26
9.318587e-001 1.155852e+000 -8.974400e+000 83 76 70
1.563998e-001 6.688076e-001 -9.572789e+000 135 126 108
4.340841e-001 5.535505e-001 -9.159184e+000 120 114 100
1.568873e+000 7.582878e-001 -7.482027e+000 64 25 17
1.287382e+000 5.257414e-001 -7.926140e+000 196 174 142
-2.272509e+000 4.716396e-002 -8.373128e+000 105 66 33
2.027484e-001 8.483198e-002 -8.700316e+000 95 89 70
1.779373e+000 3.340401e-001 -6.993761e+000 193 164 123
-2.492898e+000 -4.425262e-001 -8.026140e+000 151 106 67
1.340958e+000 -1.395800e-001 -7.740692e+000 68 61 55
-1.902170e+000 -5.151567e-001 -7.852362e+000 147 118 83
6.158960e-001 -8.688436e-001 -7.904641e+000 116 81 59
1.715961e+000 -1.005615e+000 -8.705689e+000 17 14 23
1.033000e+000 -9.279127e-001 -7.999670e+000 89 69 46
2.902410e+000 -7.475496e-001 -7.066486e+000 95 81 74
-1.038735e-001 -1.407718e+000 -8.256825e+000 127 116 98
1.908528e-001 -1.480792e+000 -7.910116e+000 39 27 23
1.113365e-001 -1.961348e+000 -8.250516e+000 59 49 46
9.205479e-001 1.926752e+000 -8.328553e+000 34 22 21
1.080564e+000 1.927202e+000 -8.288122e+000 183 161 122
-6.013402e-001 1.899435e+000 -9.782760e+000 44 36 38
1.465298e+000 1.752029e+000 -8.305993e+000 159 132 95
1.291032e+000 1.361741e+000 -8.334893e+000 106 75 55
1.398419e+000 1.264301e+000 -8.409161e+000 39 33 35
1.391041e+000 7.485340e-001 -7.130210e+000 157 114 72
-2.628111e+000 1.318019e-001 -8.526270e+000 184 151 109
1.282617e+000 3.686511e-001 -7.619337e+000 190 157 126
1.397678e+000 4.579870e-001 -7.168810e+000 195 153 111
-1.567785e+000 4.323308e-002 -8.225340e+000 164 144 114
-2.577071e+000 -8.295325e-001 -8.079805e+000 138 102 68
1.605577e+000 -8.335766e-001 -8.406928e+000 46 44 49
6.489757e-001 -9.717869e-001 -7.863533e+000 59 29 21
2.313651e+000 -1.773412e+000 -8.323167e+000 131 122 113
2.017281e+000 1.438396e+000 -9.057751e+000 20 15 22
1.274584e+000 6.099884e-001 -8.454566e+000 14 12 23
1.592198e+000 6.896301e-001 -7.163907e+000 182 160 119
-1.686297e+000 1.833432e-001 -8.403474e+000 29 19 20
-1.023370e-001 1.008226e-001 -8.748205e+000 20 17 24
2.197117e+000 5.610852e-002 -7.138859e+000 154 133 104
-1.709092e+000 -7.086440e-001 -7.866641e+000 115 80 49
-1.487848e+000 -8.324569e-001 -8.030091e+000 89 51 37
-1.487848e+000 -8.324569e-001 -8.030091e+000 89 51 37
1.850841e-001 -1.050318e+000 -8.500284e+000 17 15 21
8.950422e-001 -8.127657e-001 -7.926510e+000 79 56 35
1.210756e+000 -1.192906e+000 -7.901088e+000 76 53 39
8.260975e-001 -1.493877e+000 -7.726125e+000 198 157 113
-1.418513e+000 3.674739e-001 -8.925767e+000 98 71 50
-1.390916e+000 1.861214e-002 -8.173108e+000 58 40 38
-9.739143e-001 -3.976463e-003 -9.139373e+000 40 33 25
1.453357e+000 -1.563685e-001 -7.422673e+000 177 143 106
8.215320e-001 -1.481658e+000 -7.689968e+000 195 154 110
7.810022e-001 2.144363e+000 -8.215118e+000 104 73 58
1.381832e+000 7.860288e-001 -7.561768e+000 168 131 87
-1.600084e+000 -4.031657e-001 -8.086062e+000 24 14 22
3.956119e-001 -1.728952e+000 -8.003451e+000 145 106 67
1.115678e+000 1.682024e+000 -8.371816e+000 41 31 32
1.584074e+000 1.456829e+000 -8.243762e+000 108 73 44
4.843279e-001 -7.973552e-001 -8.520574e+000 47 43 44
4.787878e-001 -7.668399e-001 -8.393487e+000 47 43 44
1.994651e+000 1.921938e+000 -8.890461e+000 17 14 21
-1.987925e-001 6.625332e-001 -9.355012e+000 85 80 74
-1.252409e+000 -3.155054e-001 -8.093841e+000 162 138 100
-1.252409e+000 -3.155054e-001 -8.093841e+000 162 138 100
-2.208363e+000 -1.264808e+000 -8.143622e+000 61 41 42
8.728852e-001 -1.638250e+000 -7.849355e+000 210 174 136
9.914525e-001 4.800539e-001 -8.718133e+000 35 30 34
2.001648e+000 1.402919e+000 -8.171581e+000 17 12 18
-4.477029e-001 1.368680e+000 -9.914035e+000 143 106 64
2.846175e-001 -2.089381e-001 -8.654595e+000 142 137 117
-4.916619e-001 -5.662788e-001 -8.537543e+000 27 24 16
6.185395e-001 -5.615662e-001 -8.677207e+000 120 113 102
8.180345e-001 -5.708326e-001 -8.563761e+000 32 28 29
-1.271644e+001 -8.717459e+000 -2.806173e+001 78 81 114
7.741952e-001 -1.359744e-001 -8.662269e+000 113 109 98
7.741952e-001 -1.359744e-001 -8.662269e+000 113 109 98
7.516323e-001 -1.626878e-001 -8.659163e+000 20 16 13
5.820645e-001 7.796175e-001 -9.245059e+000 52 48 47
1.617045e+000 2.876084e-001 -7.041762e+000 103 68 37
-1.505218e+001 2.551227e-001 -3.502043e+001 208 205 201
-1.681075e+000 6.105396e-002 -8.427367e+000 26 17 18
5.665109e-001 -4.428738e-001 -8.645318e+000 116 109 91
-1.070619e+001 -6.926060e+000 -2.644803e+001 77 82 114
1.448493e-001 -2.036176e-001 -8.634749e+000 25 22 23
-2.748838e-001 -1.000857e+000 -8.381156e+000 138 131 108
-9.772559e+000 -6.723024e+000 -2.515128e+001 255 252 253
-9.792864e+000 -7.042762e+000 -2.543096e+001 140 120 105
-9.565030e+000 -6.848865e+000 -2.545385e+001 58 54 54
-9.120042e+000 -7.236525e+000 -2.443856e+001 69 60 64
2.728743e+000 2.813338e+000 -1.145015e+001 39 23 26
3.007980e+000 2.841050e+000 -1.144870e+001 31 20 19
3.077795e+000 2.513687e+000 -1.112289e+001 51 41 43
4.251949e+000 2.467573e+000 -1.038407e+001 37 22 19
4.245231e+000 2.465709e+000 -1.036903e+001 37 22 19
1.239834e+000 1.961117e+000 -8.282399e+000 183 160 126
1.008695e+000 1.759738e+000 -8.285857e+000 74 64 52
2.215721e+000 1.902380e+000 -8.377486e+000 86 76 65
4.493165e+000 2.075773e+000 -9.907934e+000 44 30 30
3.621360e+000 2.015641e+000 -1.039099e+001 40 28 31
3.980535e+000 1.927041e+000 -9.964487e+000 65 54 52
-6.962120e-001 1.195562e+000 -1.005653e+001 180 148 119
-5.800426e-001 1.236036e+000 -9.939774e+000 78 47 25
4.355681e+000 1.470351e+000 -9.394075e+000 37 23 23
-7.317920e-001 9.849320e-001 -1.003527e+001 116 84 52
-7.317920e-001 9.849320e-001 -1.003527e+001 116 84 52
-2.896326e+000 2.395285e-001 -9.048741e+000 144 123 95
-1.636265e+000 3.128362e-001 -8.688835e+000 57 29 17
3.819443e-001 3.366262e-001 -8.939054e+000 125 122 105
-2.461670e-003 2.935149e-001 -8.890767e+000 24 17 9
7.259734e-005 2.946456e-001 -8.888245e+000 24 17 9
8.807227e-003 1.930638e-001 -8.778956e+000 133 126 99
4.405624e-002 2.089622e-001 -8.780888e+000 97 92 81
5.148282e-001 2.641136e-001 -8.753323e+000 123 118 105
-1.816050e+000 -3.341655e-002 -8.183909e+000 131 104 74
-4.934265e-001 8.365312e-002 -8.840281e+000 32 24 17
-6.595402e-002 4.290969e-002 -8.698854e+000 117 43 46
8.444951e-001 7.439330e-002 -8.681539e+000 45 41 40
-1.293352e+000 -2.863266e-002 -8.108019e+000 138 119 80
7.169248e-001 -1.906624e-002 -8.716831e+000 122 116 102
-4.170649e-001 -2.644539e-001 -8.601145e+000 107 27 27
-4.239179e-001 -3.218846e-001 -8.598393e+000 138 129 108
7.311380e-001 -6.164869e-001 -8.642739e+000 16 15 13
-2.741274e-001 -1.058123e+000 -8.371414e+000 26 20 20
-1.414246e+000 -1.070939e+000 -8.050078e+000 54 26 14
-1.350904e+000 -1.123813e+000 -8.045773e+000 58 30 17
-1.575667e+001 -8.728035e+000 -3.002408e+001 82 83 104
-1.561776e+001 -8.628490e+000 -2.976149e+001 82 83 104
1.045603e+000 -1.077754e+000 -7.568408e+000 137 103 76
1.045603e+000 -1.077754e+000 -7.568408e+000 137 103 76
-1.224057e+001 -8.010059e+000 -2.742149e+001 88 100 144
-1.663041e+001 -9.685947e+000 -3.038562e+001 176 160 157
-1.332445e+001 -9.118243e+000 -2.785292e+001 21 17 31
-1.938296e+000 -1.888142e+000 -8.208223e+000 95 88 86
3.807673e+000 2.888032e+000 -1.100662e+001 36 22 20
3.025483e+000 2.681907e+000 -1.118977e+001 68 56 51
3.346742e+000 2.856574e+000 -1.106815e+001 113 96 78
3.192767e+000 2.491904e+000 -1.102164e+001 67 58 53
3.202653e+000 2.455585e+000 -1.094723e+001 34 22 22
4.462748e+000 2.120808e+000 -9.980685e+000 48 32 32
-1.899928e-001 1.672421e+000 -1.004731e+001 73 52 23
-1.899928e-001 1.672421e+000 -1.004731e+001 73 52 23
3.946170e+000 1.949020e+000 -1.002852e+001 70 61 56
3.904533e+000 1.750331e+000 -1.000871e+001 30 18 18
3.904533e+000 1.750331e+000 -1.000871e+001 30 18 18
3.969467e+000 1.716421e+000 -9.883843e+000 65 54 52
3.970835e+000 1.714990e+000 -9.890346e+000 65 54 52
3.986964e+000 1.674181e+000 -9.878407e+000 30 19 17
3.982156e+000 1.675368e+000 -9.869552e+000 30 19 17
4.161959e+000 1.731479e+000 -9.672189e+000 43 31 31
3.960944e+000 1.597751e+000 -9.792220e+000 34 24 23
4.214066e+000 1.528816e+000 -9.594537e+000 30 18 22
-5.136728e-001 1.234951e+000 -9.943016e+000 145 119 89
-6.052834e-004 1.194733e+000 -1.009114e+001 41 25 14
4.225902e+000 1.412389e+000 -9.528257e+000 27 12 16
-9.228696e+000 5.312315e-001 -3.785664e+001 45 40 49
4.250235e+000 1.274990e+000 -9.327433e+000 66 52 52
-3.683028e-002 2.375696e-001 -8.846840e+000 97 91 69
5.994958e-001 2.078007e-001 -8.764064e+000 51 44 35
-2.327821e+000 5.287428e-002 -8.314865e+000 155 117 78
-3.008827e+000 -4.707652e-001 -8.754641e+000 148 128 121
-2.028208e+000 -2.538545e-001 -8.092454e+000 161 127 90
-1.849209e+000 -1.899979e-001 -8.053892e+000 145 114 86
-6.554156e-001 -2.450515e-001 -8.692427e+000 100 91 76
1.052475e+000 -2.298975e-001 -8.506977e+000 68 63 62
-1.928164e+001 -6.117750e+000 -3.610178e+001 198 186 174
-1.997638e+001 -6.839788e+000 -3.756916e+001 151 133 111
-2.162219e+001 -7.592575e+000 -4.057379e+001 151 133 111
-9.151932e-001 -6.011558e-001 -8.458055e+000 39 21 17
-5.069778e-001 -6.117210e-001 -8.521512e+000 26 16 16
-2.000733e+001 -8.223952e+000 -3.886514e+001 118 102 79
-1.223887e+000 -1.170428e+000 -8.147128e+000 87 61 44
-9.347855e-002 -1.104548e+000 -8.440225e+000 26 21 17
-1.074244e+001 -7.600449e+000 -2.595043e+001 93 97 133
-9.202827e+000 -7.062624e+000 -2.409621e+001 185 173 160
-1.393606e+001 -9.045582e+000 -2.809385e+001 110 110 128
-1.577710e+000 -1.795060e+000 -8.390886e+000 182 164 147
-4.721346e-001 -1.718779e+000 -8.745950e+000 163 164 168
-1.337970e+001 -9.041004e+000 -2.772222e+001 52 48 62
-1.389380e+001 -1.165123e+001 -2.611396e+001 110 104 118
3.227118e+000 2.873817e+000 -1.115677e+001 39 24 21
3.167657e+000 2.835709e+000 -1.121348e+001 75 61 60
3.239789e+000 2.713723e+000 -1.106358e+001 36 25 24
2.932227e+000 2.655469e+000 -1.116468e+001 73 62 58
3.372109e+000 2.500956e+000 -1.088927e+001 50 41 37
3.858268e+000 2.504222e+000 -1.041478e+001 102 85 80
4.125256e+000 2.562656e+000 -1.052064e+001 102 88 79
4.323393e+000 2.427885e+000 -1.026517e+001 98 79 72
3.599470e+000 2.223424e+000 -1.055880e+001 25 14 18
4.230703e+000 2.035857e+000 -9.976850e+000 77 63 55
-1.604086e-001 1.715566e+000 -1.008002e+001 140 121 88
4.022661e+000 1.869838e+000 -9.934253e+000 67 53 50
3.996158e+000 1.765813e+000 -9.912931e+000 40 30 31
-3.184760e-001 1.256753e+000 -9.975251e+000 67 44 25
4.176963e+000 1.391629e+000 -9.536148e+000 66 54 54
-9.151904e+000 2.820836e-001 -3.826057e+001 122 114 104
-9.063932e+000 1.077096e-001 -3.855646e+001 77 66 49
-2.191308e-001 8.436379e-001 -9.935912e+000 102 86 71
9.133066e-001 7.074165e-001 -9.028896e+000 41 36 40
5.233656e-003 3.313179e-001 -8.938315e+000 112 109 90
-5.964863e-001 1.635818e-001 -8.962690e+000 33 23 31
4.166681e-001 3.106935e-001 -8.943627e+000 59 55 44
-4.231508e-001 4.227471e-002 -8.780599e+000 158 149 117
5.447844e-001 7.359310e-003 -8.690768e+000 127 119 103
-3.005440e+000 -5.057346e-001 -8.694736e+000 37 26 31
-2.941005e+000 -6.939698e-001 -8.611829e+000 162 138 112
-1.009459e+001 -5.566483e+000 -2.484891e+001 88 90 106
-1.526153e+001 -8.371637e+000 -2.979965e+001 82 76 76
-2.364105e+000 -1.367620e+000 -8.133466e+000 112 87 62
-5.998697e-001 -1.284499e+000 -8.430201e+000 168 164 162
-1.667293e+000 -1.799824e+000 -8.395351e+000 182 165 151
-1.411527e+001 -9.331317e+000 -2.751726e+001 109 97 99
-1.405512e+001 -9.195206e+000 -2.803308e+001 109 101 99
-1.526215e+001 -1.005630e+001 -2.743579e+001 131 123 134
-1.330228e+001 -1.051080e+001 -2.678278e+001 103 93 104
3.104128e+000 2.828197e+000 -1.122673e+001 46 34 34
3.291469e+000 2.420395e+000 -1.085284e+001 32 22 20
3.642852e+000 2.268951e+000 -1.029358e+001 43 31 31
1.611609e+000 1.836907e+000 -8.372815e+000 149 125 96
3.947793e+000 1.802571e+000 -9.962419e+000 73 58 55
4.122364e+000 1.784142e+000 -9.706794e+000 63 49 44
-4.432514e-001 1.283998e+000 -9.929924e+000 71 45 31
-2.560575e-001 1.273946e+000 -9.959065e+000 129 105 74
-2.152073e-001 1.176324e+000 -9.917598e+000 128 109 78
4.359924e+000 1.407141e+000 -9.396059e+000 39 25 24
4.364884e+000 1.407147e+000 -9.407601e+000 39 25 24
-6.335290e-001 1.024784e+000 -9.999825e+000 70 39 11
4.220415e+000 1.294018e+000 -9.403925e+000 34 21 25
-1.069304e+001 2.166244e-001 -3.764693e+001 120 109 91
-2.876867e+000 2.288960e-001 -9.087559e+000 53 35 14
-9.479695e-001 3.582966e-001 -9.301781e+000 166 161 140
-2.983448e-001 -1.426198e-001 -8.646022e+000 25 22 28
-1.498999e-001 -8.891756e-002 -8.653344e+000 25 23 23
1.290096e+000 6.940870e-002 -7.457148e+000 133 92 55
-3.025613e+000 -5.164679e-001 -8.739418e+000 31 20 26
-1.704142e+000 -6.022510e-001 -7.999737e+000 75 42 19
-1.077554e+000 -5.685981e-001 -8.289943e+000 142 117 87
6.052174e-001 -5.868881e-001 -8.676758e+000 94 84 70
-1.144142e+000 -6.909404e-001 -8.190079e+000 132 98 71
-5.568908e-001 -7.392698e-001 -8.506642e+000 30 20 21
-2.483708e+000 -1.212320e+000 -8.098677e+000 165 136 104
-1.283535e+001 -8.696365e+000 -2.797455e+001 27 29 41
-1.068903e+001 -8.144993e+000 -2.558234e+001 91 99 134
-1.405472e+001 -9.763499e+000 -2.745406e+001 75 63 64
-1.372070e+001 -9.714389e+000 -2.719954e+001 107 96 93
-1.174195e+001 -9.990729e+000 -2.754689e+001 74 81 110
-1.441972e+001 -1.022372e+001 -2.665240e+001 114 103 113
9.557550e-002 -2.037612e+000 -8.242308e+000 135 141 164
-1.408609e+001 -1.078373e+001 -2.659207e+001 102 93 99
-1.306388e+001 -1.035288e+001 -2.584194e+001 136 133 141
-1.377195e+001 -1.119019e+001 -2.616461e+001 126 119 130
-1.317723e+001 -1.096876e+001 -2.599681e+001 31 27 44
-1.392712e+001 -1.129473e+001 -2.590304e+001 116 105 111
3.115689e+000 2.657800e+000 -1.110335e+001 28 19 18
-1.852384e-001 2.004182e+000 -1.040924e+001 95 70 48
4.448641e+000 1.260205e+000 -9.237904e+000 57 45 41
-1.216602e+000 3.216992e-001 -9.610907e+000 43 40 42
1.630016e-001 -3.601947e-002 -8.670102e+000 135 130 101
3.631263e-001 -1.225465e-001 -8.661269e+000 156 144 118
2.173417e-001 -1.782083e-001 -8.651969e+000 139 128 97
3.152932e-001 -2.228154e-001 -8.642760e+000 159 148 119
-2.955464e+000 -5.568136e-001 -8.664257e+000 177 149 127
-1.906121e-001 -4.087551e-001 -8.552663e+000 23 19 20
5.860485e-001 -2.801348e-001 -8.612168e+000 30 28 22
-2.340012e-001 -5.054555e-001 -8.522673e+000 19 20 15
-2.048268e-001 -5.743755e-001 -8.501510e+000 137 124 105
-2.914313e-001 -7.678809e-001 -8.442170e+000 134 127 109
-1.761557e-001 -6.421317e-001 -8.481125e+000 19 19 17
-2.619154e-001 -8.349382e-001 -8.418558e+000 26 23 28
-1.577745e+000 -1.747873e+000 -8.466182e+000 69 48 43
-1.485701e+001 -9.486287e+000 -2.851190e+001 72 61 65
-1.420694e+001 -9.287833e+000 -2.782644e+001 107 97 96
-1.400691e+001 -9.377146e+000 -2.786782e+001 32 23 26
-1.030771e+001 -8.452604e+000 -2.593036e+001 255 255 254
-1.279133e+001 -1.033922e+001 -2.603536e+001 115 110 123
3.528453e+000 2.315919e+000 -1.065852e+001 31 21 22
3.905197e+000 2.013938e+000 -1.009034e+001 27 19 17
-1.860124e+001 -4.669377e+000 -3.607877e+001 201 190 180
7.833468e-001 -9.690710e-001 -7.637064e+000 106 72 45
-2.399754e+000 -1.543220e+000 -8.036762e+000 161 137 112
-1.250898e+001 -8.778346e+000 -2.758475e+001 27 27 35
-1.628549e+000 -1.764475e+000 -8.371498e+000 167 139 119
-1.357503e+001 -9.835609e+000 -2.743117e+001 39 36 45
-1.441881e+001 -1.080512e+001 -2.668415e+001 111 101 109
-1.386203e+001 -1.051871e+001 -2.650353e+001 131 121 130
-1.264736e+001 -1.077117e+001 -2.551576e+001 109 107 129
-1.197814e+001 -1.109232e+001 -2.656430e+001 23 21 34
9.241593e-001 2.245348e+000 -8.401656e+000 165 139 103
-6.733007e-001 1.217100e+000 -1.007706e+001 137 104 72
4.323151e+000 1.301403e+000 -9.321131e+000 68 54 54
-1.402593e+001 -8.584818e+000 -2.983489e+001 125 115 98
-1.449713e+001 -8.924734e+000 -2.904155e+001 83 73 71
-1.360397e+001 -9.439961e+000 -2.742771e+001 107 98 101
3.380222e+000 2.855532e+000 -1.097823e+001 106 90 67
3.380222e+000 2.855532e+000 -1.097823e+001 106 90 67
3.723156e+000 2.238044e+000 -1.022993e+001 34 21 24
4.143257e+000 1.979818e+000 -9.926760e+000 95 78 71
4.143257e+000 1.979818e+000 -9.926760e+000 95 78 71
4.261530e+000 1.833209e+000 -9.649179e+000 93 75 63
-1.589006e+001 -8.837975e+000 -3.015241e+001 83 81 104
-1.471668e+001 -8.717396e+000 -3.008198e+001 30 28 33
-1.369755e+000 -1.693444e+000 -8.401860e+000 187 163 148
-1.138912e+001 -1.019319e+001 -2.693673e+001 53 49 72
-1.287704e+001 -1.059269e+001 -2.567762e+001 31 28 41
-1.377915e+001 -1.071056e+001 -2.617030e+001 121 115 129
-1.303730e+001 -1.022220e+001 -2.650347e+001 104 95 99
2.982113e+000 2.912920e+000 -1.141921e+001 35 21 20
3.185997e+000 2.781236e+000 -1.113059e+001 36 22 19
3.539687e+000 2.726447e+000 -1.080489e+001 66 47 32
1.088665e+000 2.088938e+000 -8.322617e+000 181 158 116
4.066067e+000 2.438992e+000 -1.026952e+001 86 72 64
1.363739e+000 1.899701e+000 -8.274539e+000 177 154 115
1.359577e+000 1.875706e+000 -8.281567e+000 66 43 12
3.400255e+000 2.258047e+000 -1.065910e+001 28 17 15
-4.964082e-001 1.610720e+000 -1.008762e+001 149 104 67
1.314496e+000 1.772503e+000 -8.266632e+000 166 142 104
-5.690484e-001 1.445634e+000 -9.998188e+000 104 64 29
8.746689e-001 1.583593e+000 -8.390419e+000 131 108 78
9.397963e-001 1.594805e+000 -8.270780e+000 61 46 43
1.413578e+000 1.571326e+000 -8.245393e+000 96 59 28
3.537078e+000 1.913791e+000 -1.038391e+001 39 26 20
-6.529899e-001 1.206270e+000 -9.971821e+000 126 95 59
4.282275e+000 1.758663e+000 -9.533120e+000 84 70 61
3.900495e+000 1.568902e+000 -9.768803e+000 64 57 51
4.225042e+000 1.524575e+000 -9.613095e+000 32 22 23
-3.281688e-001 8.302895e-001 -9.937193e+000 126 101 77
4.198541e+000 1.427849e+000 -9.542287e+000 72 60 60
7.215749e-001 8.160025e-001 -9.102637e+000 70 63 59
7.215749e-001 8.160025e-001 -9.102637e+000 70 63 59
-1.151323e+000 3.993035e-001 -9.485652e+000 43 37 17
-1.151323e+000 3.993035e-001 -9.485652e+000 43 37 17
-1.008378e+000 4.369849e-001 -9.400151e+000 164 159 127
-1.716433e+000 3.375705e-001 -8.596582e+000 120 84 60
-1.350994e+000 1.623707e-001 -8.308117e+000 136 113 82
2.072634e-001 3.550549e-001 -8.984832e+000 138 131 112
3.955763e-001 2.655724e-001 -8.916577e+000 77 73 64
-1.202483e+000 4.444493e-002 -8.193064e+000 124 107 81
-6.085732e-001 1.323364e-001 -8.930529e+000 117 114 92
2.374120e-001 1.350301e-001 -8.732639e+000 99 93 75
4.394337e-001 2.669821e-001 -8.875026e+000 93 90 74
-1.281159e+000 -5.766407e-002 -8.086085e+000 148 124 86
-1.013770e+000 -1.195017e-001 -8.304566e+000 56 38 14
-1.013770e+000 -1.195017e-001 -8.304566e+000 56 38 14
-3.759851e-001 -7.993146e-002 -8.680348e+000 100 37 40
-3.808652e-001 -8.104821e-002 -8.679413e+000 100 37 40
1.600677e+000 4.445068e-001 -7.076796e+000 138 103 60
1.654423e+000 3.740552e-001 -7.075316e+000 141 104 62
-1.689385e+001 -6.713945e+000 -3.717379e+001 87 74 57
-2.007971e+000 -2.685665e-001 -8.109943e+000 150 116 79
-2.586952e-001 -1.110977e-001 -8.672633e+000 137 127 98
-2.586952e-001 -1.110977e-001 -8.672633e+000 137 127 98
1.440392e+000 2.323878e-001 -7.258713e+000 141 93 47
1.526538e+000 3.018787e-001 -7.109060e+000 127 83 36
1.685963e+000 1.270571e-001 -6.995085e+000 130 85 44
2.603876e+000 1.516640e-001 -7.495052e+000 16 8 11
2.596822e+000 1.291965e-001 -7.482978e+000 63 43 47
2.596822e+000 1.291965e-001 -7.482978e+000 63 43 47
-9.151046e-001 -5.785752e-001 -8.412329e+000 37 20 12
5.911331e-001 -3.775853e-001 -8.629207e+000 138 132 107
9.001122e-001 -2.815565e-001 -8.524897e+000 52 48 47
-1.797675e+000 -6.957168e-001 -7.935923e+000 134 98 64
-5.330692e-001 -6.635956e-001 -8.519157e+000 20 16 17
4.652738e-001 -5.476562e-001 -8.598851e+000 22 13 18
6.951261e-001 -5.796323e-001 -8.633067e+000 21 16 18
2.524060e-001 -7.518036e-001 -8.526487e+000 17 13 14
-2.549195e+000 -1.069729e+000 -8.073570e+000 183 138 93
-1.568459e+000 -9.124633e-001 -7.962454e+000 79 44 24
-7.252658e-001 -1.035524e+000 -8.547455e+000 25 21 12
-1.238458e+001 -7.911847e+000 -2.759976e+001 108 123 158
-4.060045e-001 -1.138176e+000 -8.361412e+000 139 135 124
-2.058002e-001 -1.032928e+000 -8.386909e+000 134 122 97
-2.057635e-001 -1.035740e+000 -8.395112e+000 134 122 97
2.366427e-001 -1.117574e+000 -8.051842e+000 53 24 12
9.137005e-001 -1.178578e+000 -7.556154e+000 116 74 34
-1.186034e+001 -9.980929e+000 -2.722106e+001 71 73 88
-1.060834e+001 -9.761846e+000 -2.523629e+001 71 70 86
3.332899e+000 2.784340e+000 -1.094146e+001 52 35 23
1.003943e+000 2.105751e+000 -8.336958e+000 180 156 112
3.401815e+000 2.529410e+000 -1.084806e+001 37 26 24
-4.265982e-001 2.020175e+000 -1.020537e+001 54 38 37
3.591119e+000 2.317699e+000 -1.046810e+001 29 17 19
3.977709e+000 1.991642e+000 -1.002526e+001 38 26 26
4.449670e+000 2.165385e+000 -9.935376e+000 74 58 57
3.550050e+000 1.835006e+000 -1.030591e+001 69 58 52
3.652536e+000 1.842204e+000 -1.026355e+001 25 16 19
4.358906e+000 1.678916e+000 -9.472004e+000 46 31 26
-3.412435e-001 1.155658e+000 -9.889319e+000 84 57 27
4.057822e+000 1.490352e+000 -9.703546e+000 23 14 15
4.174573e+000 1.325836e+000 -9.533853e+000 29 18 22
-1.921253e+000 3.701105e-001 -8.548447e+000 83 47 20
-4.232704e-001 5.228451e-001 -9.363902e+000 42 35 25
2.177966e+000 9.743344e-001 -7.968504e+000 80 65 54
2.180353e+000 9.749211e-001 -7.972201e+000 80 65 54
