ply
format ascii 1.0
element face 0
property list uchar int vertex_indices
element vertex 895
property float x
property float y
property float z
property uchar diffuse_red
property uchar diffuse_green
property uchar diffuse_blue
end_header
-4.043582e-001 -7.994439e-002 -8.681341e+000 96 36 40
4.117108e+000 1.318923e+000 -9.518624e+000 46 34 32
4.136746e+000 1.348680e+000 -9.548209e+000 23 15 12
2.661837e-002 -6.315725e-002 -8.663985e+000 135 123 81
2.661837e-002 -6.315725e-002 -8.663985e+000 135 123 81
-2.550022e+000 -8.203910e-001 -8.106206e+000 140 101 58
9.273815e-001 -4.517047e-001 -8.554001e+000 47 42 37
4.506748e+000 9.566940e-001 -8.875404e+000 29 15 12
-2.265816e+000 -1.865385e+000 -8.196533e+000 254 253 249
1.056155e+000 -3.517849e-001 -8.383301e+000 51 44 37
4.534157e+000 8.782171e-001 -8.854968e+000 61 47 41
1.250383e+000 2.608872e-001 -7.733274e+000 121 93 62
1.564195e+000 7.307221e-001 -7.429585e+000 116 84 46
-6.980226e+000 -1.898773e+001 -2.139737e+001 143 129 116
6.880952e-001 -8.663704e-001 -7.761955e+000 94 62 38
-8.619809e+000 -2.038470e+001 -1.948414e+001 102 100 102
-8.020788e+000 -1.928971e+001 -1.911910e+001 139 144 166
-5.571401e+000 -1.850123e+001 -1.821166e+001 131 134 146
8.501373e-001 -1.163840e+000 -7.622300e+000 108 63 22
4.766109e+000 1.503711e-001 -8.074984e+000 80 66 54
-5.289019e+000 -1.880052e+001 -1.765669e+001 131 126 119
-5.061809e+000 -1.870015e+001 -1.777670e+001 193 188 184
-1.581782e+000 -1.154461e+001 -1.414045e+001 43 41 47
-1.371084e+000 -1.141190e+001 -1.381932e+001 60 58 61
-9.123887e+000 -2.090630e+001 -1.751979e+001 170 188 224
-6.313142e+000 -1.943350e+001 -1.723260e+001 136 115 96
-4.407440e+000 -1.809514e+001 -1.686795e+001 225 219 219
-8.797441e+000 -2.116429e+001 -1.688282e+001 178 195 222
-8.797441e+000 -2.116429e+001 -1.688282e+001 178 195 222
-6.028874e+000 -1.980752e+001 -1.685271e+001 215 190 152
-5.876814e+000 -1.918427e+001 -1.663149e+001 195 171 142
-5.340202e+000 -1.923466e+001 -1.672462e+001 189 176 171
2.946740e+000 2.916585e+000 -1.134098e+001 28 14 11
3.711770e+000 3.149279e+000 -1.124633e+001 80 64 53
-4.439298e-001 1.746489e+000 -1.016143e+001 122 88 51
-6.027785e-002 1.757683e+000 -1.016517e+001 45 25 4
2.908898e+000 2.563918e+000 -1.115999e+001 40 26 23
3.202240e+000 2.777352e+000 -1.106511e+001 32 21 17
3.561130e+000 2.923130e+000 -1.113364e+001 47 33 30
2.692556e+000 2.185391e+000 -1.148982e+001 61 48 39
3.249404e+000 2.650766e+000 -1.100874e+001 30 20 15
3.716709e+000 2.734536e+000 -1.088116e+001 62 49 43
3.734214e+000 2.789556e+000 -1.093401e+001 58 45 39
3.734214e+000 2.789556e+000 -1.093401e+001 58 45 39
-5.090674e-001 1.370405e+000 -9.964891e+000 96 66 42
1.084785e+000 2.528231e+000 -8.701610e+000 93 68 27
2.897023e+000 2.213168e+000 -1.107747e+001 63 51 37
3.886514e+000 2.693118e+000 -1.081443e+001 32 18 17
-8.188632e+000 -8.483553e+000 -2.291154e+001 134 118 98
-7.369006e-001 1.000583e+000 -1.002757e+001 66 38 13
-7.369006e-001 1.000583e+000 -1.002757e+001 66 38 13
6.560883e-001 2.391072e+000 -8.398021e+000 82 42 17
2.899761e+000 2.019025e+000 -1.112419e+001 54 45 34
3.676764e+000 2.612436e+000 -1.062967e+001 48 34 25
-3.023130e+000 2.381868e-001 -9.299834e+000 196 178 140
-2.837069e+000 3.105880e-001 -9.334926e+000 139 117 80
7.860866e-001 2.237232e+000 -8.424580e+000 60 33 21
-1.967596e+000 5.731914e-001 -9.171563e+000 79 59 46
-3.214218e-001 8.334603e-001 -9.927927e+000 118 94 59
3.107858e+000 1.764072e+000 -1.082045e+001 77 65 49
3.233011e+000 2.023033e+000 -1.059258e+001 72 59 43
4.066360e+000 2.473333e+000 -1.045113e+001 61 48 39
-2.062065e+000 4.576435e-001 -8.787831e+000 62 32 13
1.018630e+000 2.186923e+000 -8.323134e+000 163 135 88
-2.304101e+000 3.698335e-001 -8.725911e+000 123 88 58
-1.623993e+000 4.678127e-001 -8.906808e+000 81 57 32
3.870970e+000 2.109069e+000 -1.006753e+001 35 24 17
-2.125676e+000 3.191598e-001 -8.611198e+000 57 28 12
-1.988900e+000 3.843135e-001 -8.617517e+000 98 68 50
-1.561516e+000 4.013081e-001 -8.778638e+000 80 58 43
-1.525928e+000 3.040906e-001 -8.836987e+000 29 10 3
3.473979e+000 1.729878e+000 -1.031938e+001 77 62 45
3.571913e+000 1.684437e+000 -1.021385e+001 81 66 47
3.590540e+000 1.506447e+000 -1.015502e+001 82 65 49
3.968788e+000 1.883322e+000 -9.932273e+000 34 19 16
6.535081e-001 7.785717e-001 -9.171583e+000 20 14 16
3.560906e+000 1.413823e+000 -1.022365e+001 73 60 42
3.560906e+000 1.413823e+000 -1.022365e+001 73 60 42
-2.390836e+000 -1.825370e-001 -8.293830e+000 107 65 25
-3.405031e-001 1.955049e-001 -8.903899e+000 26 17 15
-3.405031e-001 1.955049e-001 -8.903899e+000 26 17 15
7.600506e-001 7.492920e-001 -9.060694e+000 12 10 7
3.605851e+000 1.283393e+000 -1.013000e+001 78 61 47
3.889316e+000 1.575394e+000 -9.836360e+000 51 40 36
-1.826250e+000 -2.526814e-002 -8.221135e+000 62 31 10
-2.981689e-003 2.944829e-001 -8.892000e+000 20 17 8
1.294774e+000 1.345635e+000 -8.253429e+000 29 17 14
4.290303e+000 1.671229e+000 -9.486416e+000 72 53 46
-8.955233e+000 -1.682282e+001 -2.490747e+001 189 166 125
-1.043885e+000 6.231216e-002 -8.357781e+000 103 86 58
-2.003165e-001 9.339761e-002 -8.794295e+000 136 123 80
8.507356e-001 4.023154e-001 -8.843970e+000 45 40 38
-1.593835e+000 -2.822211e-001 -8.244307e+000 132 102 61
6.657431e-002 7.480617e-002 -8.725971e+000 80 69 51
3.996058e+000 9.438910e-001 -9.648669e+000 42 28 11
6.568778e-001 8.131357e-002 -8.696502e+000 108 100 79
4.313032e+000 1.250079e+000 -9.260996e+000 66 53 44
4.357849e+000 1.278847e+000 -9.244606e+000 30 20 17
1.184558e+000 3.503591e-001 -8.430978e+000 66 59 49
4.414222e+000 1.145539e+000 -9.170740e+000 29 20 15
4.233851e-001 -7.387158e-001 -8.604815e+000 51 40 36
7.429297e-001 -3.753621e-001 -8.608375e+000 21 14 4
9.096802e-001 -3.328920e-001 -8.582431e+000 40 35 33
1.392954e+000 8.660760e-001 -7.603370e+000 133 99 63
4.233707e+000 6.692967e-001 -9.104859e+000 75 60 43
8.864177e-002 -9.624998e-001 -8.499374e+000 86 76 55
1.611946e+000 8.632065e-001 -7.503735e+000 50 29 20
4.621122e+000 8.523787e-001 -8.791997e+000 29 15 15
1.287527e+000 4.439845e-001 -7.307971e+000 158 114 65
5.839894e-002 -1.267162e+000 -8.128476e+000 103 81 60
5.716525e-002 -1.255801e+000 -8.117849e+000 103 81 60
5.896873e-001 -8.611006e-001 -7.946546e+000 44 21 13
6.005981e-001 -8.627940e-001 -7.905096e+000 104 77 56
1.585784e+000 4.870470e-001 -7.178993e+000 159 122 77
4.716752e+000 6.774699e-001 -8.458081e+000 33 18 18
1.269524e-001 -1.293148e+000 -8.018875e+000 49 27 14
1.527279e+000 2.859578e-001 -7.142641e+000 121 76 34
-8.667666e+000 -2.020845e+001 -1.903368e+001 128 126 131
1.669523e+000 1.300156e-001 -7.001851e+000 146 102 57
1.888915e+000 3.465512e-001 -6.986182e+000 160 132 81
-1.958474e+000 -1.147179e+001 -1.390499e+001 90 89 98
-9.216153e+000 -2.128386e+001 -1.751575e+001 166 180 215
-8.942756e+000 -2.078817e+001 -1.727056e+001 199 215 248
-9.043657e+000 -2.111409e+001 -1.745734e+001 199 215 248
-8.850332e+000 -2.090849e+001 -1.729727e+001 168 182 217
-6.284528e+000 -1.957195e+001 -1.717986e+001 190 165 134
-5.262868e+000 -1.889318e+001 -1.759599e+001 116 105 102
-5.392860e+000 -1.961415e+001 -1.752723e+001 106 92 84
-5.645423e+000 -1.948263e+001 -1.653437e+001 222 214 225
-5.248474e+000 -1.936460e+001 -1.657972e+001 214 200 186
3.360086e+000 3.195161e+000 -1.142500e+001 67 51 47
2.899324e+000 2.836263e+000 -1.141331e+001 32 22 20
-5.243004e-001 1.448669e+000 -1.003423e+001 100 65 37
-5.243004e-001 1.448669e+000 -1.003423e+001 100 65 37
-2.601765e-001 1.514396e+000 -9.980131e+000 57 35 12
-6.916213e-001 1.192601e+000 -1.001811e+001 137 107 73
2.941477e+000 1.996740e+000 -1.100490e+001 34 25 15
3.210816e+000 2.260520e+000 -1.071790e+001 47 36 34
-2.704616e+000 2.943886e-001 -9.257648e+000 107 86 57
-8.410095e-002 1.086928e+000 -1.002403e+001 58 39 17
9.856824e-001 2.341471e+000 -8.399894e+000 153 125 76
3.451258e+000 2.281892e+000 -1.060884e+001 30 19 18
-1.887259e+000 5.466569e-001 -9.165836e+000 66 44 31
-1.679056e+000 4.411713e-001 -9.731779e+000 101 78 47
-1.674386e+000 5.550910e-001 -9.146811e+000 50 24 7
3.915440e+000 2.291976e+000 -1.027528e+001 99 79 68
3.930481e+000 2.147522e+000 -1.012204e+001 28 17 13
-2.097894e+000 3.120219e-001 -8.509853e+000 115 86 56
4.132206e-002 5.837270e-001 -9.622383e+000 81 74 46
3.416859e+000 1.528291e+000 -1.045750e+001 74 61 42
3.825388e+000 1.952319e+000 -1.009513e+001 57 42 39
3.895053e+000 2.064126e+000 -9.993716e+000 57 43 37
4.137557e+000 2.078655e+000 -9.934143e+000 36 19 12
5.131481e-001 7.409702e-001 -9.368080e+000 15 9 9
4.098639e+000 2.051899e+000 -9.921578e+000 83 64 52
1.926972e-001 4.954949e-001 -9.367717e+000 13 9 9
3.813414e+000 1.627872e+000 -9.863119e+000 47 36 30
3.798787e+000 1.638045e+000 -9.840682e+000 47 36 30
3.954147e+000 1.708858e+000 -9.891461e+000 56 46 37
-2.278586e+000 -1.240508e-001 -8.270787e+000 106 73 28
-1.720482e+000 7.144387e-002 -8.398525e+000 83 60 41
2.863319e-001 3.602326e-001 -9.029268e+000 69 62 45
3.676249e+000 1.112718e+000 -9.995767e+000 85 73 57
-2.276163e+000 -4.066758e-001 -8.177562e+000 118 81 44
-2.276163e+000 -4.066758e-001 -8.177562e+000 118 81 44
-2.028679e+000 -2.229485e-001 -8.127479e+000 101 66 29
-1.734451e+000 -1.763726e-001 -8.176200e+000 72 42 18
-1.734451e+000 -1.763726e-001 -8.176200e+000 72 42 18
-1.044215e+000 -4.536803e-003 -8.327391e+000 108 88 55
3.957493e+000 1.319171e+000 -9.692252e+000 87 69 58
4.141941e+000 1.401728e+000 -9.501429e+000 63 51 42
3.455678e-001 1.719822e-001 -8.750503e+000 81 72 55
6.086023e-001 2.024840e-001 -8.762124e+000 40 31 25
-2.812207e+000 -1.228367e+000 -8.251751e+000 254 255 249
4.284792e+000 1.263257e+000 -9.285967e+000 36 23 17
4.284792e+000 1.263257e+000 -9.285967e+000 36 23 17
-1.742658e+000 -7.905170e-001 -7.922484e+000 96 61 29
4.426670e-001 -4.064359e-001 -8.601473e+000 124 110 75
4.471517e+000 9.534395e-001 -8.955635e+000 31 19 18
4.582791e+000 1.091540e+000 -8.927013e+000 30 19 13
1.226771e+000 2.761616e-001 -7.770828e+000 85 73 54
1.851158e+000 8.762993e-001 -7.504149e+000 139 115 74
1.343861e+000 5.804422e-001 -7.410537e+000 95 51 14
1.321235e+000 5.295457e-001 -7.375219e+000 77 40 12
3.058257e-001 -9.635535e-001 -8.144581e+000 95 69 44
1.659492e+000 7.465226e-001 -7.261947e+000 141 113 72
1.009948e-001 -1.198550e+000 -8.076275e+000 49 27 14
3.493545e-001 -1.040559e+000 -8.023288e+000 72 41 24
7.942096e-001 -9.554736e-001 -7.680233e+000 123 87 55
8.459535e-001 -9.017312e-001 -7.699232e+000 76 42 19
-7.694596e+000 -1.898453e+001 -1.840948e+001 161 166 191
-7.719786e+000 -1.961223e+001 -1.879952e+001 148 153 175
4.694405e+000 1.180299e-001 -8.135282e+000 74 61 45
-6.200302e+000 -1.897968e+001 -1.783367e+001 149 139 130
-5.953599e+000 -1.900532e+001 -1.769730e+001 203 190 177
-5.952237e+000 -1.899857e+001 -1.769245e+001 203 190 177
-1.439933e+000 -1.125140e+001 -1.398961e+001 20 18 21
4.842552e+000 -1.302216e-001 -7.916276e+000 77 61 46
-7.440839e+000 -2.032207e+001 -1.665316e+001 191 169 143
-6.486547e+000 -1.994362e+001 -1.685212e+001 127 116 112
-6.088848e+000 -1.963919e+001 -1.659345e+001 147 127 101
-5.596364e+000 -1.936936e+001 -1.666939e+001 195 194 192
-5.206787e+000 -1.933872e+001 -1.677168e+001 150 131 109
-5.206787e+000 -1.933872e+001 -1.677168e+001 150 131 109
2.915145e+000 2.886884e+000 -1.137487e+001 54 41 34
2.975980e+000 2.726231e+000 -1.117252e+001 29 18 16
3.401720e+000 2.633216e+000 -1.081729e+001 36 24 24
-2.631544e+000 1.931847e-001 -8.674311e+000 160 123 79
-1.012314e+000 4.972931e-001 -9.470518e+000 23 19 12
-9.254946e-001 4.839867e-001 -9.408390e+000 21 19 16
-2.625650e-001 6.421579e-001 -9.611416e+000 18 11 8
-1.146222e-001 6.314196e-001 -9.649511e+000 15 9 9
9.955434e-003 6.365164e-001 -9.757057e+000 52 45 36
5.181510e-001 1.191172e+000 -9.430767e+000 55 48 38
-9.719196e-002 5.870265e-001 -9.591334e+000 63 53 37
-4.447502e-002 6.096916e-001 -9.667553e+000 54 48 34
6.868239e-002 5.582559e-001 -9.561849e+000 17 12 14
8.984084e-001 1.722719e+000 -8.278614e+000 117 99 72
3.825685e+000 1.907863e+000 -1.017272e+001 29 20 15
-2.461257e+000 -2.118739e-003 -8.408177e+000 88 49 16
-2.312664e+000 1.359300e-001 -8.524657e+000 83 47 14
-1.109627e+000 2.339080e-001 -9.033023e+000 66 48 34
1.083559e-001 5.107085e-001 -9.421072e+000 20 11 12
1.407878e+000 1.850783e+000 -8.281090e+000 65 36 19
-1.155161e+000 1.716412e-001 -8.793881e+000 100 82 60
-1.350692e-001 4.402541e-001 -9.111365e+000 92 78 52
1.265437e-001 4.967551e-001 -9.340794e+000 76 69 54
3.876191e-002 4.124834e-001 -9.090236e+000 14 11 4
2.102308e-001 3.963645e-001 -9.066237e+000 78 69 53
2.102308e-001 3.963645e-001 -9.066237e+000 78 69 53
-2.227682e+000 -2.945199e-001 -8.150933e+000 112 74 37
-2.227682e+000 -2.945199e-001 -8.150933e+000 112 74 37
4.241825e+000 1.550145e+000 -9.653307e+000 32 20 20
-1.973217e+000 -3.062327e-001 -8.116060e+000 94 58 24
-1.973217e+000 -3.062327e-001 -8.116060e+000 94 58 24
3.853121e+000 9.614150e-001 -9.628255e+000 34 21 18
4.354790e+000 1.415584e+000 -9.407505e+000 32 21 17
-1.689432e+000 -4.501370e-001 -8.106588e+000 32 24 21
1.436383e+000 9.197070e-001 -8.022271e+000 31 27 24
-1.822460e+000 -6.663459e-001 -7.956428e+000 97 58 25
1.075083e+000 1.240675e-001 -8.651215e+000 50 43 35
-6.021231e-001 -8.531663e-001 -8.516054e+000 34 33 27
1.557288e+000 9.628558e-001 -7.619613e+000 108 79 60
-1.613582e+000 -9.292989e-001 -7.928163e+000 89 54 23
1.084523e+000 -2.141707e-001 -8.602637e+000 64 55 46
-3.548105e-001 -1.036042e+000 -8.382449e+000 32 30 17
4.372930e+000 6.556884e-001 -8.713238e+000 77 61 45
1.539726e+000 5.082427e-001 -7.218847e+000 90 50 14
4.728255e+000 5.463881e-001 -8.317161e+000 52 40 39
4.696877e+000 3.154563e-001 -8.364411e+000 20 11 12
4.777418e+000 3.067483e-001 -8.102610e+000 53 39 38
7.682440e-001 -1.236890e+000 -7.622150e+000 129 82 40
-8.313325e+000 -1.988920e+001 -1.775941e+001 204 214 248
-8.172757e+000 -2.001811e+001 -1.790090e+001 115 106 111
-8.172757e+000 -2.001811e+001 -1.790090e+001 115 106 111
-6.148953e+000 -1.867182e+001 -1.765175e+001 152 141 135
4.899844e+000 4.494615e-002 -7.956369e+000 30 19 17
-4.535809e+000 -1.797259e+001 -1.678581e+001 255 254 252
-4.461904e+000 -1.830459e+001 -1.710697e+001 148 145 146
4.872769e+000 4.012104e-006 -7.924611e+000 71 55 43
-6.373885e+000 -1.973038e+001 -1.700154e+001 183 167 146
-6.381751e+000 -1.976226e+001 -1.702022e+001 183 167 146
-5.944785e+000 -1.944443e+001 -1.707416e+001 227 209 194
-7.281685e+000 -2.032205e+001 -1.666414e+001 206 182 154
3.591827e+000 2.965994e+000 -1.102948e+001 36 25 23
3.613958e+000 2.954246e+000 -1.107497e+001 36 25 23
-6.422157e-001 1.484438e+000 -1.003309e+001 141 98 56
-9.077551e-002 1.152709e+000 -1.003766e+001 110 86 50
4.025010e+000 2.431675e+000 -1.023475e+001 75 61 49
8.882923e-001 2.066010e+000 -8.377120e+000 53 33 24
-1.076643e+000 4.769553e-001 -9.471267e+000 131 117 89
-8.278476e-001 4.743936e-001 -9.353174e+000 25 24 16
3.715389e+000 1.956617e+000 -1.027961e+001 29 14 17
-8.544136e-001 3.399065e-001 -9.247375e+000 116 99 73
-6.581996e-001 4.794915e-001 -9.305321e+000 111 99 71
-6.581443e-001 4.857935e-001 -9.296145e+000 111 99 71
-5.845289e-001 4.982463e-001 -9.317844e+000 20 13 16
-5.638805e-001 4.568064e-001 -9.255488e+000 111 96 69
-8.104817e-001 2.399388e-001 -9.139220e+000 113 103 65
-8.104867e-001 2.423278e-001 -9.135923e+000 113 103 65
-6.892789e-001 3.576844e-001 -9.184649e+000 26 18 19
-6.163314e-001 3.822536e-001 -9.191500e+000 111 97 65
-5.938394e-001 3.295432e-001 -9.141598e+000 22 17 17
-4.477623e-001 3.848657e-001 -9.149852e+000 24 18 13
-3.195653e-001 4.829450e-001 -9.219249e+000 102 90 58
-3.013794e-001 4.394672e-001 -9.158045e+000 22 19 12
-2.279626e-001 4.578482e-001 -9.170628e+000 101 88 63
-7.175956e-001 2.235588e-001 -9.080984e+000 120 112 81
-5.728241e-001 2.816514e-001 -9.083267e+000 115 100 67
-6.234787e-001 2.030842e-001 -9.026486e+000 113 99 65
-4.986997e-001 3.072127e-001 -9.090298e+000 22 16 13
-4.266526e-001 3.385381e-001 -9.091361e+000 118 106 80
-4.769680e-001 2.589680e-001 -9.032679e+000 124 111 85
-2.614796e-001 3.511108e-001 -9.037688e+000 20 20 12
-2.078914e-001 4.195109e-001 -9.104912e+000 16 15 10
1.538166e+000 1.673534e+000 -8.329169e+000 65 33 20
-4.562527e-001 2.142549e-001 -8.972647e+000 25 22 15
-3.129496e-001 2.767604e-001 -8.974949e+000 23 25 14
-2.403486e-001 3.060393e-001 -8.978684e+000 120 110 80
-1.301923e-001 2.949313e-001 -8.919660e+000 72 57 22
1.806273e-003 3.336096e-001 -8.939458e+000 94 85 59
1.708006e-001 3.619087e-001 -8.988252e+000 78 63 34
-2.118172e+000 -3.520666e-001 -8.092877e+000 134 105 63
-2.569834e+000 -7.076507e-001 -8.110879e+000 154 115 73
-8.740745e-002 -5.850536e-002 -8.672324e+000 139 120 88
-1.796873e+000 -5.547258e-001 -8.015189e+000 119 84 52
-1.796873e+000 -5.547258e-001 -8.015189e+000 119 84 52
-3.673318e-001 -4.079111e-001 -8.580571e+000 136 122 83
1.590907e-001 -3.605322e-002 -8.675088e+000 141 126 83
2.307204e-001 -8.503835e-003 -8.686460e+000 30 23 22
1.233505e+000 4.183654e-001 -8.611489e+000 39 34 29
-1.372717e+000 -5.529390e-001 -8.167391e+000 77 43 16
6.257551e-001 -1.853309e-001 -8.636119e+000 22 14 10
1.976111e+000 8.945964e-001 -7.616496e+000 115 88 57
-3.671971e-001 -1.456733e+000 -8.433086e+000 71 62 56
4.722978e+000 5.168745e-001 -8.411761e+000 27 17 16
-2.113304e+000 -1.205876e+001 -1.454251e+001 17 15 18
4.752019e+000 2.233626e-001 -8.057984e+000 31 21 20
-8.912764e+000 -2.084495e+001 -1.829555e+001 218 237 255
-7.160578e+000 -2.027799e+001 -1.700402e+001 136 127 131
-5.375801e+000 -1.868993e+001 -1.657323e+001 255 255 255
-1.169341e-001 1.682939e+000 -1.003875e+001 118 94 56
4.056956e+000 2.251791e+000 -1.012408e+001 37 26 24
-2.990305e+000 -4.082205e-001 -8.845193e+000 94 67 48
3.813380e+000 1.594152e+000 -1.003963e+001 25 14 10
1.951833e+000 9.596923e-001 -8.130746e+000 12 12 12
1.487960e+000 9.026766e-001 -7.599204e+000 30 13 6
4.452846e+000 6.612899e-001 -8.705128e+000 23 13 12
1.977783e-001 -1.249301e+000 -8.033768e+000 53 27 14
-2.263712e+000 -1.206306e+001 -1.438678e+001 252 253 248
-2.263712e+000 -1.206306e+001 -1.438678e+001 252 253 248
-6.192318e+000 -1.950140e+001 -1.733523e+001 205 178 150
-6.034612e+000 -2.045987e+001 -1.790474e+001 137 124 118
-2.661148e-001 1.841739e+000 -1.008722e+001 51 32 17
3.512593e+000 2.882939e+000 -1.099467e+001 41 29 29
1.008388e+000 2.270844e+000 -8.328208e+000 158 130 82
-9.541348e-001 5.088606e-001 -9.748481e+000 94 86 65
-7.297929e-001 5.901814e-001 -9.725155e+000 91 80 59
-1.289777e+000 1.630756e-001 -9.744845e+000 131 143 158
-1.871787e+000 3.801377e-001 -8.650810e+000 39 18 13
3.715695e+000 1.716684e+000 -1.009788e+001 22 12 10
3.929970e+000 1.446598e+000 -9.728789e+000 39 28 26
-2.491616e+000 -6.494968e-001 -8.165449e+000 161 122 75
7.060400e-001 -9.274075e-001 -8.234778e+000 86 69 41
5.675063e-001 -8.871626e-001 -8.020265e+000 39 20 13
1.138827e+000 -9.991354e-001 -8.011876e+000 57 44 28
-6.039329e+000 -1.913059e+001 -1.823468e+001 105 96 97
-5.639191e+000 -1.865860e+001 -1.806012e+001 255 255 255
-5.639191e+000 -1.865860e+001 -1.806012e+001 255 255 255
-5.790965e+000 -1.868301e+001 -1.710922e+001 123 113 108
-4.289957e+000 -1.876192e+001 -1.676572e+001 236 227 214
6.182994e-001 -9.328507e-001 -7.717396e+000 55 23 8
7.591378e-001 -1.527210e+000 -7.746516e+000 188 151 103
-8.935924e+000 -2.069136e+001 -1.778480e+001 185 200 233
-8.477873e+000 -2.057200e+001 -1.774953e+001 107 98 99
-5.295095e+000 -1.876141e+001 -1.790667e+001 95 93 98
-4.884271e+000 -1.846422e+001 -1.723504e+001 255 255 255
-1.454009e+000 -1.178364e+001 -1.371264e+001 35 33 36
1.632012e+000 7.643132e-001 -7.373586e+000 139 115 67
-7.942897e+000 -2.019453e+001 -1.852347e+001 108 99 101
-7.942897e+000 -2.019453e+001 -1.852347e+001 108 99 101
1.694889e+000 8.608364e-001 -7.789225e+000 25 16 15
-6.542727e+000 -1.950497e+001 -1.785260e+001 122 108 98
2.570670e+000 2.972957e+000 -1.179847e+001 104 87 68
-4.893841e-001 1.894805e+000 -1.009100e+001 90 54 19
1.384384e-001 1.978477e+000 -1.038137e+001 111 101 91
3.240151e+000 3.050107e+000 -1.118194e+001 116 94 71
3.384698e+000 3.019022e+000 -1.128250e+001 31 17 12
-6.717023e-001 1.561714e+000 -1.010095e+001 141 97 48
-4.171093e-001 1.760403e+000 -1.015255e+001 81 46 13
3.644272e+000 2.998396e+000 -1.134986e+001 78 65 56
-7.555765e-001 1.291597e+000 -1.016347e+001 60 26 1
-3.115602e+000 1.352207e-001 -9.606612e+000 105 99 100
-3.048911e+000 1.684820e-001 -9.793357e+000 151 143 136
-7.122271e-001 1.092077e+000 -1.018338e+001 81 49 29
-4.533880e-001 1.345147e+000 -9.906166e+000 120 82 41
3.070012e+000 2.555200e+000 -1.106206e+001 26 15 13
-2.080408e+000 4.306593e-001 -9.657610e+000 47 28 14
-5.094794e-001 1.100852e+000 -9.885267e+000 134 101 58
-4.255116e-001 1.222210e+000 -9.945387e+000 94 61 25
-2.748247e-001 1.282787e+000 -9.975398e+000 137 109 61
1.079594e+000 2.556793e+000 -9.265535e+000 27 9 3
-2.658018e+000 1.670010e-001 -9.439131e+000 99 73 46
-2.539720e+000 3.792961e-001 -9.258211e+000 111 80 49
-5.390648e-001 9.713767e-001 -9.931698e+000 142 102 51
2.724589e-001 1.003224e+000 -1.043696e+001 114 112 114
3.304963e+000 2.333054e+000 -1.088906e+001 31 17 13
3.280773e+000 2.326705e+000 -1.081154e+001 33 20 17
-2.418492e+000 3.829815e-001 -8.968712e+000 86 47 17
-2.088638e+000 4.411812e-001 -9.250144e+000 67 40 19
4.675280e-001 2.099317e+000 -8.870545e+000 74 52 25
4.675280e-001 2.099317e+000 -8.870545e+000 74 52 25
6.174475e-001 2.414349e+000 -8.468252e+000 158 113 70
6.577924e-001 2.452917e+000 -8.523427e+000 162 117 72
9.107089e-001 2.492305e+000 -8.628984e+000 126 86 37
9.124429e-001 2.429726e+000 -8.637341e+000 121 84 32
-2.903044e+000 -8.373053e-002 -8.881856e+000 131 89 38
-1.800532e+000 5.149513e-001 -8.961209e+000 108 80 57
-1.247469e-001 6.579516e-001 -9.896497e+000 57 47 37
2.944047e+000 1.628196e+000 -1.085019e+001 19 9 7
-1.920329e+000 4.232101e-001 -8.686680e+000 86 63 43
-1.746473e+000 4.591656e-001 -8.884767e+000 43 20 9
-1.620219e+000 4.623095e-001 -8.979915e+000 50 23 4
-1.543737e+000 4.414259e-001 -9.061834e+000 64 39 16
-1.378692e+000 3.810202e-001 -9.158283e+000 80 57 40
-5.496868e-001 5.503174e-001 -9.663212e+000 101 97 77
-5.496868e-001 5.503174e-001 -9.663212e+000 101 97 77
-5.151198e-001 5.777961e-001 -9.648625e+000 23 17 14
-4.939601e-001 5.631074e-001 -9.529145e+000 21 11 11
5.019379e-001 1.793495e+000 -8.757819e+000 122 96 55
4.084354e+000 2.429455e+000 -1.043386e+001 35 21 14
-2.812619e+000 -1.409970e-001 -8.631645e+000 99 61 24
-1.619846e+000 3.767032e-001 -8.813149e+000 93 68 46
-1.513478e+000 4.479044e-001 -8.821970e+000 88 67 43
-1.243248e+000 2.969741e-001 -9.061205e+000 83 62 43
6.896739e-001 1.877336e+000 -8.480393e+000 96 55 21
4.013138e+000 2.328295e+000 -1.021412e+001 34 17 6
-2.791452e+000 -1.860722e-001 -8.500065e+000 111 73 38
-1.729562e+000 3.195724e-001 -8.648898e+000 35 11 1
-1.711323e+000 3.065706e-001 -8.620682e+000 80 54 37
-1.711323e+000 3.065706e-001 -8.620682e+000 80 54 37
-1.688323e+000 2.466718e-001 -8.657048e+000 44 19 4
-1.547359e+000 2.525642e-001 -8.845829e+000 67 47 35
-1.426940e+000 2.058175e-001 -8.842440e+000 90 64 37
4.083547e+000 2.152083e+000 -1.002572e+001 80 61 54
-2.582078e+000 -1.425139e-001 -8.356104e+000 117 74 30
-2.469642e+000 -2.018853e-001 -8.321197e+000 108 63 22
5.859848e-002 4.579037e-001 -9.228852e+000 95 84 57
5.859848e-002 4.579037e-001 -9.228852e+000 95 84 57
6.231346e-001 7.642911e-001 -9.172654e+000 35 30 26
3.966811e+000 1.969954e+000 -1.003851e+001 40 22 18
-1.894699e+000 -2.504826e-003 -8.271244e+000 62 32 4
2.599115e-001 4.239534e-001 -9.215269e+000 17 10 3
9.151909e-001 1.730999e+000 -8.245067e+000 60 40 23
9.286342e-001 1.677894e+000 -8.232305e+000 109 83 58
-2.007663e+000 -1.056580e-001 -8.170551e+000 129 96 55
-2.007663e+000 -1.056580e-001 -8.170551e+000 129 96 55
-1.976555e+000 -1.497054e-001 -8.119951e+000 147 112 72
-1.952293e+000 -5.917508e-002 -8.142850e+000 135 101 64
-1.902349e+000 -3.871725e-002 -8.190078e+000 69 35 8
-1.879093e+000 -4.823797e-002 -8.222603e+000 112 78 51
-9.332648e-001 -1.369653e-001 -8.852619e+000 46 37 27
9.460925e-001 1.648783e+000 -8.214552e+000 131 104 77
4.434753e+000 2.028509e+000 -9.822762e+000 44 25 18
-1.928170e+000 -2.822633e-001 -8.067843e+000 142 107 67
-1.315774e+000 -2.113840e-003 -8.121898e+000 56 35 17
-1.659762e-001 -1.215070e-001 -8.634709e+000 152 131 78
-1.659762e-001 -1.215070e-001 -8.634709e+000 152 131 78
1.320658e+000 1.353838e+000 -8.249849e+000 115 93 43
1.320658e+000 1.353838e+000 -8.249849e+000 115 93 43
1.669000e+000 1.530801e+000 -8.207627e+000 29 16 8
-2.552911e+000 -1.188090e+000 -8.100069e+000 130 88 36
-1.739969e+000 -5.143722e-001 -7.940646e+000 122 83 47
-1.537970e+000 -4.489907e-001 -8.121271e+000 42 25 10
5.093852e-001 -1.475872e-002 -8.645997e+000 146 126 74
4.493892e+000 1.589557e+000 -9.338046e+000 32 17 12
-2.047930e+000 -7.346284e-001 -7.887859e+000 126 87 46
4.412228e+000 1.529344e+000 -9.238962e+000 94 77 51
4.484662e+000 1.518683e+000 -9.231812e+000 84 65 49
5.913592e-001 -5.100237e-001 -8.668065e+000 21 15 5
1.503577e+000 8.859556e-001 -8.061659e+000 102 84 62
-6.453199e-001 -1.225239e+000 -8.487473e+000 187 181 165
-4.544365e-001 -1.032934e+000 -8.371535e+000 151 139 91
-4.544365e-001 -1.032934e+000 -8.371535e+000 151 139 91
-4.703159e-001 -1.174784e+000 -8.396710e+000 131 119 91
-3.444334e-001 -1.087661e+000 -8.365362e+000 114 100 69
-3.067591e-001 -1.077913e+000 -8.373119e+000 122 113 82
1.811503e-001 -8.883573e-001 -8.506807e+000 19 13 8
7.039905e-001 -5.192141e-001 -8.612637e+000 84 74 65
1.486565e+000 1.016259e+000 -7.768370e+000 73 50 37
1.486565e+000 1.016259e+000 -7.768370e+000 73 50 37
2.044148e+000 9.563238e-001 -8.091706e+000 33 14 9
1.314920e+000 7.328052e-001 -7.749620e+000 99 60 19
4.492020e+000 1.195735e+000 -8.852919e+000 66 50 38
3.954900e-001 -9.384981e-001 -8.351664e+000 39 19 12
9.839057e-001 -1.163049e+000 -8.638351e+000 121 121 122
1.253727e+000 3.286459e-001 -7.696353e+000 114 76 31
1.329159e+000 7.397553e-001 -7.512181e+000 82 41 19
1.395434e+000 8.437195e-001 -7.552913e+000 122 84 45
1.427525e+000 8.963681e-001 -7.463614e+000 77 38 2
-2.136618e-001 -1.748488e+000 -8.271119e+000 58 41 31
1.226284e+000 2.383416e-001 -7.738598e+000 72 56 34
1.373554e+000 6.260980e-001 -7.215576e+000 163 121 78
2.400068e-001 -1.405621e+000 -7.879813e+000 144 105 70
2.400068e-001 -1.405621e+000 -7.879813e+000 144 105 70
6.646520e-001 -1.017874e+000 -7.715734e+000 126 81 50
8.608669e-001 -8.084606e-001 -7.743362e+000 108 77 48
8.608669e-001 -8.084606e-001 -7.743362e+000 108 77 48
1.347144e+000 4.251433e-001 -7.232045e+000 106 60 8
1.400667e+000 5.317404e-001 -7.083594e+000 176 128 80
4.524349e+000 4.709371e-001 -8.393794e+000 33 20 11
1.450001e+000 3.151753e-001 -7.036994e+000 171 125 76
4.962586e+000 7.688296e-001 -8.125521e+000 100 76 64
5.001471e+000 7.656661e-001 -8.120711e+000 43 26 17
4.832557e+000 6.400159e-001 -7.986635e+000 66 49 42
5.056194e+000 6.155007e-001 -7.867041e+000 97 76 66
5.057577e+000 5.782953e-001 -7.873621e+000 57 39 25
3.120222e+000 3.321647e+000 -1.163066e+001 50 30 18
3.460782e+000 3.390674e+000 -1.186928e+001 38 21 12
2.947078e+000 3.078299e+000 -1.166734e+001 55 40 33
-2.281685e-002 2.000165e+000 -1.057687e+001 38 25 16
3.400395e+000 3.208131e+000 -1.161934e+001 80 59 54
3.408491e+000 3.183420e+000 -1.157693e+001 18 4 3
8.843649e-002 1.949048e+000 -1.046436e+001 104 94 84
8.843649e-002 1.949048e+000 -1.046436e+001 104 94 84
3.020587e+000 2.843193e+000 -1.142042e+001 60 45 38
3.360127e+000 3.060606e+000 -1.136322e+001 34 18 9
3.333516e+000 3.060356e+000 -1.126297e+001 83 64 52
3.625102e+000 3.096607e+000 -1.141714e+001 57 44 36
-7.173113e-001 1.506225e+000 -1.020016e+001 158 114 66
-4.696790e-001 1.648102e+000 -1.012548e+001 131 87 48
4.580347e-002 1.736733e+000 -1.032343e+001 37 19 5
2.971704e+000 2.697890e+000 -1.126702e+001 56 43 34
2.977024e+000 2.760383e+000 -1.121584e+001 21 8 7
3.413456e+000 2.927168e+000 -1.123925e+001 67 45 32
3.537931e+000 2.960102e+000 -1.128663e+001 61 44 36
-6.776110e-001 1.364200e+000 -1.013620e+001 100 58 19
-6.776110e-001 1.364200e+000 -1.013620e+001 100 58 19
3.278188e+000 2.821954e+000 -1.109447e+001 41 26 21
-7.938930e-001 1.010045e+000 -1.023074e+001 134 98 62
-7.612727e-001 1.134688e+000 -1.020095e+001 56 28 5
-6.139536e-001 1.168424e+000 -1.000399e+001 125 95 58
-6.139536e-001 1.168424e+000 -1.000399e+001 125 95 58
3.572453e+000 2.802113e+000 -1.085353e+001 34 19 15
3.584627e+000 2.833233e+000 -1.081739e+001 56 40 32
3.735361e+000 2.836027e+000 -1.111975e+001 32 19 14
3.735361e+000 2.836027e+000 -1.111975e+001 32 19 14
-6.913751e-001 1.068364e+000 -1.000485e+001 85 55 21
-4.682365e-001 1.217174e+000 -9.926713e+000 67 38 8
-4.307447e-001 1.218334e+000 -9.893495e+000 135 104 60
-4.054386e-001 1.156554e+000 -9.879362e+000 127 96 50
3.856802e+000 2.740237e+000 -1.091917e+001 33 18 15
-2.201764e+000 4.446934e-001 -9.412807e+000 36 16 6
-2.119485e+000 5.028611e-001 -9.243750e+000 35 18 10
-3.955268e-001 1.109259e+000 -9.845743e+000 136 103 60
9.031475e-001 2.495841e+000 -8.812878e+000 133 93 44
3.819301e+000 2.648229e+000 -1.084961e+001 67 54 43
3.819301e+000 2.648229e+000 -1.084961e+001 67 54 43
3.858824e+000 2.652426e+000 -1.077899e+001 79 65 56
-1.939242e+000 5.335453e-001 -9.190489e+000 39 18 7
-1.847355e+000 5.262802e-001 -9.184269e+000 48 26 15
-1.215037e+000 2.360344e-001 -1.006035e+001 100 85 66
9.490489e-001 2.484702e+000 -8.714946e+000 115 77 30
1.613931e+000 2.364888e+000 -9.231691e+000 71 61 44
-2.515765e+000 2.773920e-001 -8.947959e+000 85 46 13
-2.404400e+000 3.718411e-001 -8.912897e+000 109 68 35
-2.065050e+000 4.424941e-001 -8.972011e+000 71 36 16
-1.939950e+000 4.967263e-001 -8.893813e+000 71 45 28
-1.186201e+000 3.680301e-001 -9.560295e+000 75 66 52
8.747489e-001 2.415060e+000 -8.569944e+000 82 46 10
8.592643e-001 2.415491e+000 -8.459558e+000 149 118 71
3.605816e+000 2.210906e+000 -1.042921e+001 30 17 9
3.873455e+000 2.491153e+000 -1.052303e+001 45 28 20
-2.410372e+000 2.911102e-001 -8.680654e+000 142 104 64
-2.408119e+000 2.621827e-001 -8.632634e+000 134 97 53
-2.271524e+000 3.095191e-001 -8.722706e+000 126 90 54
-2.145626e+000 3.488082e-001 -8.685740e+000 116 81 48
-2.052153e+000 3.579909e-001 -8.668314e+000 56 27 9
-1.987497e+000 3.871175e-001 -8.853731e+000 52 23 8
-1.770262e+000 3.998817e-001 -8.813640e+000 39 15 5
-9.459653e-001 4.806747e-001 -9.494558e+000 73 66 52
-9.459653e-001 4.806747e-001 -9.494558e+000 73 66 52
-8.383907e-001 4.751138e-001 -9.521379e+000 34 25 17
3.749305e+000 2.275242e+000 -1.032901e+001 32 19 12
4.061066e+000 2.344354e+000 -1.041075e+001 37 19 15
-2.900611e+000 -2.510981e-001 -8.620428e+000 80 53 26
-2.900611e+000 -2.510981e-001 -8.620428e+000 80 53 26
-1.707470e+000 4.105819e-001 -8.824297e+000 52 24 8
-1.543121e+000 3.879967e-001 -8.871234e+000 39 19 3
-1.543121e+000 3.879967e-001 -8.871234e+000 39 19 3
-1.392317e+000 3.477156e-001 -9.012160e+000 50 27 14
4.197023e-001 8.972532e-001 -9.382879e+000 44 37 32
-2.900619e+000 -5.144870e-001 -8.648082e+000 156 127 97
-2.670658e+000 -1.394949e-001 -8.449146e+000 91 50 19
-2.545510e+000 -8.594476e-002 -8.491572e+000 136 91 49
-2.360686e+000 2.910502e-002 -8.407643e+000 103 62 18
-2.153402e+000 1.926242e-001 -8.461248e+000 75 39 7
-1.958940e+000 1.982908e-001 -8.453743e+000 64 34 14
-1.816030e+000 3.037233e-001 -8.580873e+000 48 20 4
5.103169e-001 8.772768e-001 -9.418770e+000 50 43 33
3.775543e+000 2.037615e+000 -1.016382e+001 31 19 13
3.872699e+000 2.144094e+000 -1.002900e+001 70 53 45
4.062652e+000 2.154038e+000 -1.005927e+001 40 27 19
-1.940850e+000 9.206878e-002 -8.337035e+000 58 29 6
-1.909425e+000 1.704238e-001 -8.425529e+000 46 15 2
-9.356800e-001 5.954378e-002 -8.952511e+000 58 46 32
7.878609e-001 1.663731e+000 -8.441836e+000 121 89 48
7.878609e-001 1.663731e+000 -8.441836e+000 121 89 48
4.076181e+000 2.141364e+000 -9.932876e+000 85 66 52
-2.410669e+000 -2.157491e-001 -8.260761e+000 139 98 54
-1.053795e+000 3.075438e-002 -8.810715e+000 92 72 47
-1.008630e+000 -1.264804e-003 -8.831611e+000 44 30 18
1.184603e-001 3.836824e-001 -9.010166e+000 17 11 13
2.569187e-001 5.055037e-001 -9.172543e+000 105 97 78
9.877862e-001 1.784444e+000 -8.252461e+000 85 63 40
1.259541e+000 1.908787e+000 -8.277962e+000 72 38 10
3.944609e+000 1.659320e+000 -9.906119e+000 25 11 7
4.182891e+000 1.998090e+000 -9.827516e+000 36 19 11
4.182891e+000 1.998090e+000 -9.827516e+000 36 19 11
4.361902e+000 2.112636e+000 -9.818563e+000 39 25 18
-2.484472e+000 -4.049328e-001 -8.230803e+000 141 97 49
-2.428198e+000 -3.192594e-001 -8.208004e+000 153 110 59
-2.481656e+000 -4.105675e-001 -8.147932e+000 117 69 28
-2.100958e+000 -1.094717e-001 -8.164421e+000 141 106 66
-1.848242e+000 -1.230894e-001 -8.175113e+000 72 38 13
-1.767052e+000 -8.167677e-002 -8.182893e+000 100 69 40
-1.475655e+000 1.813414e-001 -8.260699e+000 137 114 67
1.356518e+000 1.665631e+000 -8.316285e+000 64 29 8
1.681548e+000 1.744678e+000 -8.427422e+000 62 36 19
4.038584e+000 1.619155e+000 -9.803750e+000 27 13 7
4.372229e+000 1.994246e+000 -9.786686e+000 63 48 41
4.372229e+000 1.994246e+000 -9.786686e+000 63 48 41
-1.893921e+000 -2.364518e-001 -8.124128e+000 79 46 11
5.146822e-001 2.684614e-001 -8.893065e+000 48 35 21
1.689066e+000 1.565210e+000 -8.440242e+000 70 41 17
1.778824e+000 1.627732e+000 -8.395182e+000 63 46 26
-2.559618e+000 -7.877425e-001 -8.117431e+000 109 66 24
-2.439920e+000 -7.675238e-001 -8.014961e+000 173 137 87
-1.856824e+000 -3.193788e-001 -8.062710e+000 121 89 48
-2.151113e-001 -4.360390e-002 -8.684844e+000 24 21 23
-1.394196e-001 -7.683223e-002 -8.658268e+000 31 25 20
1.910959e-001 5.167097e-002 -8.683749e+000 131 120 59
2.224567e-001 5.364596e-002 -8.697122e+000 134 118 61
1.463981e+000 1.454840e+000 -8.217708e+000 24 14 12
1.700933e+000 1.516906e+000 -8.263875e+000 135 109 75
1.786660e+000 1.554464e+000 -8.345096e+000 79 61 38
1.786660e+000 1.554464e+000 -8.345096e+000 79 61 38
4.188079e+000 1.537857e+000 -9.578882e+000 39 26 18
4.356758e+000 1.727549e+000 -9.376454e+000 33 18 14
-1.711376e+000 -6.040513e-001 -8.011630e+000 89 53 19
-1.592601e+000 -4.888754e-001 -8.015382e+000 109 77 47
-1.464637e+000 -4.843034e-001 -8.104779e+000 86 51 22
3.838443e+000 1.085460e+000 -9.621317e+000 34 22 8
3.939805e+000 9.713861e-001 -9.647445e+000 80 68 45
3.931606e+000 9.432701e-001 -9.602286e+000 35 22 5
4.017855e+000 1.020238e+000 -9.561137e+000 83 65 43
4.270799e+000 1.357219e+000 -9.419793e+000 32 18 17
-2.336615e+000 -1.410364e+000 -8.123542e+000 64 36 3
4.815882e-001 -2.851990e-001 -8.593240e+000 96 82 46
5.199128e-001 -2.916074e-001 -8.612094e+000 106 92 64
5.199128e-001 -2.916074e-001 -8.612094e+000 106 92 64
1.282900e+000 4.513399e-001 -8.508881e+000 25 18 14
1.302261e+000 4.668439e-001 -8.544913e+000 31 24 17
4.466607e+000 1.556794e+000 -9.267592e+000 115 98 71
4.491970e+000 1.576776e+000 -9.260048e+000 40 23 16
4.426771e+000 1.605108e+000 -9.070603e+000 48 30 21
-2.496124e+000 -1.539341e+000 -8.066722e+000 198 171 128
-1.759417e+000 -7.894287e-001 -7.859408e+000 133 93 58
4.219999e-001 -5.532872e-001 -8.577664e+000 17 14 9
4.628675e-001 -4.586290e-001 -8.588813e+000 16 11 17
4.628675e-001 -4.586290e-001 -8.588813e+000 16 11 17
6.137847e-001 -3.373884e-001 -8.614650e+000 103 94 69
6.137847e-001 -3.373884e-001 -8.614650e+000 103 94 69
6.309150e-001 -4.850534e-001 -8.650759e+000 97 88 62
6.309150e-001 -4.850534e-001 -8.650759e+000 97 88 62
6.029754e-001 -5.660262e-001 -8.669794e+000 67 60 49
6.029754e-001 -5.660262e-001 -8.669794e+000 67 60 49
6.327992e-001 -3.953286e-001 -8.615525e+000 24 18 6
1.439669e+000 7.801665e-001 -8.044193e+000 28 24 13
4.295583e+000 1.268993e+000 -9.236176e+000 72 58 45
4.561798e+000 1.533500e+000 -9.028800e+000 79 58 53
-5.203042e-002 -9.163961e-001 -8.444069e+000 21 17 12
2.991877e-001 -7.693891e-001 -8.540793e+000 66 59 41
6.698226e-001 -5.327389e-001 -8.634191e+000 22 14 12
4.584923e+000 1.369669e+000 -8.976715e+000 119 99 83
1.031075e+000 -3.455715e-001 -8.423161e+000 18 8 6
1.243149e+000 7.732380e-001 -7.618018e+000 127 88 50
1.304856e+000 8.207876e-001 -7.590764e+000 144 102 60
1.400234e+000 9.208587e-001 -7.666307e+000 67 36 17
4.141262e+000 6.381433e-001 -9.090982e+000 65 49 37
4.548110e+000 1.124227e+000 -8.886683e+000 37 23 16
1.010946e-001 -1.175778e+000 -8.265636e+000 33 19 8
1.242424e+000 6.655684e-001 -7.593725e+000 86 46 23
1.279996e+000 7.748613e-001 -7.532043e+000 139 100 62
1.404201e+000 9.192302e-001 -7.516779e+000 129 90 51
1.394169e+000 9.191133e-001 -7.463785e+000 141 99 51
2.039905e+000 8.864755e-001 -7.703485e+000 58 38 12
4.518538e+000 9.743211e-001 -8.733451e+000 29 14 11
4.532903e+000 1.034515e+000 -8.750190e+000 34 19 14
4.699929e+000 1.161455e+000 -8.685455e+000 126 109 80
7.513630e-001 -8.304470e-001 -8.061786e+000 97 73 46
1.306837e+000 -8.531564e-001 -8.358106e+000 8 7 12
1.226610e+000 4.568912e-001 -7.455392e+000 169 125 78
1.250386e+000 6.660302e-001 -7.395693e+000 144 100 53
1.379746e+000 7.610481e-001 -7.328595e+000 161 117 70
4.742983e+000 1.077865e+000 -8.574115e+000 121 101 75
3.164095e-001 -1.083826e+000 -7.887304e+000 122 82 56
4.659089e-001 -8.525078e-001 -7.809999e+000 98 63 41
4.897358e-001 -9.335099e-001 -7.787866e+000 72 34 13
7.921264e-001 -8.346985e-001 -7.862990e+000 66 34 11
1.216369e+000 4.210992e-001 -7.342589e+000 171 126 74
4.314293e+000 4.788662e-001 -8.706440e+000 77 61 46
4.773949e+000 1.020773e+000 -8.417030e+000 119 96 70
6.752067e-001 -9.289629e-001 -7.674146e+000 89 46 13
1.351240e+000 5.924875e-001 -7.176466e+000 181 135 86
1.710091e+000 7.272557e-001 -7.211971e+000 159 132 76
4.571501e+000 6.768144e-001 -8.447133e+000 27 16 12
4.812485e+000 9.820850e-001 -8.376326e+000 115 90 74
7.278074e-001 -1.034412e+000 -7.566389e+000 159 111 63
1.272185e+000 -2.925362e-002 -7.318380e+000 115 109 101
1.489364e+000 4.521630e-001 -7.099421e+000 80 37 3
4.880935e+000 8.570663e-001 -8.215426e+000 121 95 73
9.539083e-001 -9.114322e-001 -7.498017e+000 147 108 63
4.728668e+000 5.772128e-001 -8.151573e+000 29 18 12
4.918022e+000 8.071325e-001 -8.158022e+000 116 94 72
1.621834e+000 3.419943e-001 -6.963035e+000 155 112 57
1.621834e+000 3.419943e-001 -6.963035e+000 155 112 57
1.697073e+000 3.517148e-001 -6.973279e+000 127 89 39
1.756565e+000 -4.046120e-002 -6.890599e+000 162 130 84
5.107616e+000 5.466074e-001 -7.736220e+000 113 89 72
6.521161e-002 1.972566e+000 -1.049167e+001 71 61 53
6.521161e-002 1.972566e+000 -1.049167e+001 71 61 53
2.749754e+000 2.757089e+000 -1.132894e+001 37 23 22
3.068822e+000 2.901290e+000 -1.125918e+001 63 45 33
-2.229321e+000 -2.615580e+000 -1.549575e+001 123 132 139
3.209623e+000 2.743630e+000 -1.126005e+001 64 49 41
3.568371e+000 2.866953e+000 -1.118401e+001 22 8 5
3.577020e+000 2.828271e+000 -1.111779e+001 24 15 10
3.716782e+000 2.889225e+000 -1.112432e+001 70 53 45
-8.630293e-001 9.118366e-001 -1.038962e+001 55 31 11
3.390956e+000 2.516505e+000 -1.083424e+001 36 25 21
3.681881e+000 2.675065e+000 -1.075901e+001 90 70 59
-4.185100e-001 1.057156e+000 -9.957246e+000 80 46 7
2.301943e-001 9.757633e-001 -1.039741e+001 109 109 109
9.594059e-001 2.495979e+000 -8.846977e+000 150 110 61
3.242971e+000 2.343315e+000 -1.083897e+001 55 44 38
3.724225e+000 2.659539e+000 -1.074603e+001 31 18 10
-2.187673e+000 4.272922e-001 -9.161379e+000 49 23 10
1.962063e-001 9.509090e-001 -1.025383e+001 105 103 104
8.617772e-001 2.436154e+000 -8.775649e+000 97 51 9
1.540162e+000 2.407168e+000 -9.160935e+000 39 24 15
-2.862893e+000 3.727278e-002 -8.877054e+000 141 100 55
-2.704401e+000 8.396840e-002 -8.826142e+000 126 85 39
-2.316057e+000 3.488677e-001 -8.915025e+000 100 63 34
-2.004627e+000 4.939824e-001 -8.984528e+000 81 50 29
-1.975821e+000 4.527123e-001 -8.896462e+000 36 14 1
-1.843607e+000 4.808060e-001 -9.008657e+000 44 21 13
-1.584390e+000 4.407544e-001 -9.137311e+000 59 32 12
-1.555536e+000 5.046580e-001 -9.125383e+000 53 28 9
-1.554295e-001 6.061654e-001 -1.008811e+001 25 16 16
-8.867430e-002 6.164112e-001 -9.997774e+000 13 12 9
3.365356e+000 2.050233e+000 -1.058421e+001 32 22 13
3.889617e+000 2.475345e+000 -1.047320e+001 92 73 66
-2.166469e+000 3.188131e-001 -8.637860e+000 137 104 63
-2.166469e+000 3.188131e-001 -8.637860e+000 137 104 63
-2.064905e+000 4.373590e-001 -8.807924e+000 58 25 4
-2.017459e+000 3.724287e-001 -8.682929e+000 50 22 8
-1.703791e+000 4.500399e-001 -8.951235e+000 45 19 7
-1.582606e+000 3.955539e-001 -8.973233e+000 45 22 6
-1.390188e+000 3.720858e-001 -9.094542e+000 41 18 5
-1.390188e+000 3.720858e-001 -9.094542e+000 41 18 5
-1.157146e+000 2.611540e-001 -9.559253e+000 13 7 4
-1.157146e+000 2.611540e-001 -9.559253e+000 13 7 4
-4.144070e-001 6.020610e-001 -9.676006e+000 107 102 71
-2.794891e+000 -1.215533e-001 -8.680069e+000 71 36 4
-2.150651e+000 2.740596e-001 -8.524458e+000 75 41 13
-2.017363e+000 2.899158e-001 -8.656358e+000 50 23 6
-1.937945e+000 3.039009e-001 -8.608845e+000 41 13 2
-1.750536e+000 3.636541e-001 -8.727055e+000 35 14 8
2.089433e-001 7.019996e-001 -9.663322e+000 72 63 47
8.753849e-001 2.141709e+000 -8.401502e+000 63 36 17
3.394214e+000 1.875466e+000 -1.037720e+001 81 64 44
3.530786e+000 1.829822e+000 -1.028285e+001 77 58 43
3.798053e+000 2.159992e+000 -1.022896e+001 37 22 20
-2.577270e+000 -6.381811e-002 -8.437597e+000 132 89 44
-2.234765e+000 9.237609e-002 -8.537212e+000 78 39 10
-2.234765e+000 9.237609e-002 -8.537212e+000 78 39 10
-1.886055e+000 3.038706e-001 -8.522336e+000 54 25 11
-1.564189e+000 1.911442e-001 -8.792604e+000 32 12 5
-1.184880e+000 2.193081e-001 -9.084457e+000 65 47 28
-1.021608e+000 1.685652e-001 -9.038289e+000 19 12 9
6.793653e-001 1.825477e+000 -8.506202e+000 151 118 75
-2.580089e+000 -2.183646e-001 -8.322484e+000 68 31 2
-2.580089e+000 -2.183646e-001 -8.322484e+000 68 31 2
-2.475102e+000 -5.701616e-002 -8.353450e+000 107 64 27
-9.834967e-001 1.000154e-001 -8.969420e+000 21 12 12
7.670111e-001 1.593054e+000 -8.545646e+000 77 55 32
-2.331243e+000 -2.380035e-001 -8.205226e+000 151 114 67
8.460984e-001 1.504112e+000 -8.430618e+000 128 102 67
1.062983e+000 1.667760e+000 -8.268016e+000 52 33 22
3.933921e+000 1.816307e+000 -9.908957e+000 64 47 39
-2.306385e+000 -2.475212e-001 -8.169837e+000 125 87 40
-2.228683e+000 -2.344324e-001 -8.222445e+000 129 88 42
-1.770644e+000 5.894310e-002 -8.144442e+000 72 40 17
3.863293e-001 4.200506e-001 -9.010081e+000 51 42 29
3.969637e+000 1.774576e+000 -9.757324e+000 72 54 45
1.179095e+000 1.408858e+000 -8.273134e+000 123 90 54
1.222281e+000 1.414356e+000 -8.199190e+000 124 93 62
1.321032e+000 1.414000e+000 -8.255609e+000 18 15 9
1.321032e+000 1.414000e+000 -8.255609e+000 18 15 9
1.868910e+000 1.548900e+000 -8.482747e+000 27 17 15
4.025598e+000 1.512758e+000 -9.685541e+000 23 12 9
-2.764614e+000 -1.215237e+000 -8.318480e+000 252 254 252
-2.192696e+000 -5.877448e-001 -7.954724e+000 121 87 42
-1.699244e+000 -3.440427e-001 -8.128728e+000 47 29 17
-1.588716e+000 -2.722306e-001 -8.033913e+000 28 21 18
-3.561873e-001 -1.761844e-001 -8.664050e+000 142 130 82
-1.456764e-001 -8.207679e-002 -8.659559e+000 35 27 15
4.314143e+000 1.663976e+000 -9.403763e+000 74 56 44
-2.432659e+000 -9.153756e-001 -8.006024e+000 153 113 62
-2.432659e+000 -9.153756e-001 -8.006024e+000 153 113 62
-2.172243e+000 -6.346982e-001 -7.945857e+000 147 110 65
-1.629653e+000 -5.228734e-001 -8.055491e+000 62 38 10
-9.858911e-001 -4.742447e-001 -8.293321e+000 67 40 10
-9.314982e-001 -5.607814e-001 -8.361309e+000 88 65 33
-4.270701e-001 -4.293692e-001 -8.565774e+000 33 25 12
3.962356e+000 1.080671e+000 -9.581257e+000 84 66 42
-1.037220e+000 -5.404998e-001 -8.252789e+000 102 66 30
-9.699108e-001 -6.084513e-001 -8.314830e+000 118 84 46
-8.316210e-001 -8.040352e-001 -8.548240e+000 108 92 66
-5.134533e-001 -6.335857e-001 -8.528500e+000 31 27 14
6.551915e-001 -7.711892e-002 -8.654582e+000 21 17 14
-9.174255e-001 -1.208036e+000 -8.448112e+000 14 14 13
-9.174255e-001 -1.208036e+000 -8.448112e+000 14 14 13
-7.168087e-001 -1.088578e+000 -8.549695e+000 160 154 133
-6.358125e-001 -9.444922e-001 -8.505117e+000 63 57 39
-6.358125e-001 -9.444922e-001 -8.505117e+000 63 57 39
-6.350967e-001 -1.107257e+000 -8.479528e+000 163 156 137
5.844881e-001 -2.586959e-001 -8.600392e+000 26 19 14
6.884254e-001 -3.615810e-001 -8.582165e+000 105 91 64
1.438320e+000 8.601625e-001 -7.997967e+000 145 119 86
4.300639e+000 1.209037e+000 -9.154545e+000 28 14 11
1.383311e+000 8.304732e-001 -7.926779e+000 141 113 71
1.443343e+000 8.751507e-001 -7.825972e+000 66 40 17
1.462668e+000 1.043795e+000 -7.791141e+000 38 16 5
2.007864e+000 9.468992e-001 -8.100296e+000 69 44 22
4.595047e+000 1.392527e+000 -8.925215e+000 36 18 11
-3.727452e-001 -1.249600e+000 -8.353947e+000 142 128 101
-1.498046e-001 -1.109526e+000 -8.414357e+000 41 34 21
5.121660e-001 -1.162219e+000 -8.695997e+000 30 19 17
4.349583e+000 9.746273e-001 -9.059527e+000 54 40 34
5.594072e-001 -9.311358e-001 -8.421371e+000 70 56 43
1.782056e+000 9.349224e-001 -7.696433e+000 36 19 11
1.907332e+000 9.076900e-001 -7.673836e+000 97 74 42
2.297221e+000 8.414394e-001 -7.954714e+000 77 54 38
2.297221e+000 8.414394e-001 -7.954714e+000 77 54 38
1.023287e-001 -1.144927e+000 -8.086465e+000 39 18 7
3.024490e-001 -9.091258e-001 -7.997289e+000 121 84 49
1.420109e+000 8.428459e-001 -7.324317e+000 141 99 57
1.767381e+000 9.372044e-001 -7.443261e+000 54 26 11
1.767381e+000 9.372044e-001 -7.443261e+000 54 26 11
1.847242e+000 9.634508e-001 -7.522530e+000 128 101 63
4.704332e+000 1.131714e+000 -8.617574e+000 129 109 84
4.731332e+000 1.168994e+000 -8.541225e+000 84 65 54
-6.291576e-002 -1.691711e+000 -8.186445e+000 46 31 26
6.015206e-001 -7.842157e-001 -7.796918e+000 61 29 9
1.338277e+000 6.575304e-001 -7.225859e+000 113 67 24
1.397633e+000 7.007760e-001 -7.326975e+000 92 50 10
1.669214e+000 8.242494e-001 -7.241793e+000 57 25 4
1.669214e+000 8.242494e-001 -7.241793e+000 57 25 4
4.233484e+000 4.454600e-001 -8.550584e+000 34 21 13
4.743497e+000 1.058818e+000 -8.497546e+000 126 105 76
2.325589e-001 -1.543300e+000 -7.935873e+000 120 81 48
2.886391e-001 -1.146591e+000 -7.819259e+000 112 74 37
7.608783e-001 -8.703138e-001 -7.728264e+000 83 46 19
1.675112e+000 6.772766e-001 -7.082378e+000 160 127 70
4.069653e+000 2.985840e-001 -8.282754e+000 21 11 12
4.116564e+000 2.676476e-001 -8.266137e+000 52 39 34
4.116564e+000 2.676476e-001 -8.266137e+000 52 39 34
4.164384e+000 2.982772e-001 -8.266581e+000 46 35 31
4.164384e+000 2.982772e-001 -8.266581e+000 46 35 31
1.692749e+000 4.514882e-001 -7.010841e+000 153 117 65
1.642401e+000 3.042565e-001 -6.948213e+000 94 50 12
4.540618e+000 2.050915e-001 -8.141145e+000 79 62 45
4.567938e+000 1.929764e-001 -8.108668e+000 66 49 34
4.868672e+000 6.203457e-001 -8.052398e+000 32 19 15
4.877630e+000 5.714780e-001 -7.995295e+000 27 14 14
4.877630e+000 5.714780e-001 -7.995295e+000 27 14 14
4.992847e+000 6.977223e-001 -7.985870e+000 93 69 53
1.748839e+000 1.407498e-001 -6.938051e+000 116 73 22
4.637638e+000 9.382632e-002 -7.964104e+000 79 64 43
1.748270e+000 4.735547e-002 -6.855266e+000 186 149 101
5.018442e+000 5.150292e-001 -7.763617e+000 74 54 45
5.081037e+000 5.828402e-001 -7.808285e+000 110 85 67
5.207421e+000 4.105455e-001 -7.810269e+000 51 37 31
4.758574e+000 -5.237209e-002 -7.850940e+000 79 62 44
-9.917089e-002 1.907286e+000 -1.037089e+001 41 22 15
3.076327e+000 2.839855e+000 -1.129775e+001 67 54 42
3.515935e+000 3.011164e+000 -1.128141e+001 26 13 7
3.235903e+000 2.729199e+000 -1.120857e+001 30 17 9
-3.006284e+000 1.593557e-001 -9.552385e+000 191 164 120
1.174889e+000 2.495217e+000 -9.319015e+000 41 31 19
-2.900340e+000 1.151896e-001 -9.217027e+000 114 81 50
-2.423957e+000 4.179800e-001 -9.139861e+000 79 44 16
-2.416721e+000 4.605760e-001 -9.210167e+000 84 46 22
-2.493232e+000 3.218636e-001 -8.961602e+000 109 69 34
-2.222879e+000 4.588938e-001 -9.038882e+000 58 29 13
7.390081e-002 9.012604e-001 -1.013295e+001 47 39 24
6.400668e-001 2.281682e+000 -8.684370e+000 97 55 22
1.186762e+000 2.558720e+000 -8.782832e+000 128 97 53
-1.136178e-001 6.444195e-001 -1.002558e+001 122 121 121
-1.645791e-004 6.696753e-001 -9.944132e+000 54 46 34
-1.085460e+000 2.996179e-001 -9.419762e+000 14 9 11
-8.408011e-001 4.736561e-001 -9.446465e+000 111 103 67
-7.656336e-001 5.000435e-001 -9.456842e+000 24 21 15
