ply
format ascii 1.0
element face 0
property list uchar int vertex_indices
element vertex 865
property float x
property float y
property float z
property uchar diffuse_red
property uchar diffuse_green
property uchar diffuse_blue
end_header
6.919100e+000 2.703323e+001 2.178168e+000 63 52 53
1.178465e+001 2.393423e+001 1.414201e+001 124 111 103
-5.681763e-001 -1.753489e+000 -8.988251e+000 154 149 154
1.214599e+001 2.576458e+001 1.273247e+001 111 106 110
8.259634e+000 2.700452e+001 9.386211e+000 135 121 118
-7.596129e-001 -1.233671e+000 -9.975103e+000 143 146 155
4.729958e+000 2.684653e+001 4.600792e+000 126 119 126
4.191172e+000 2.584393e+001 4.025433e+000 86 77 73
4.287971e+000 2.667740e+001 4.025993e+000 58 48 46
7.695087e+000 2.652892e+001 1.117163e+000 42 21 23
9.998371e+000 2.706787e+001 1.037421e+001 84 35 65
-8.943337e-001 -8.238256e-001 -1.037271e+001 88 90 99
3.950202e+000 2.571678e+001 3.800043e+000 153 142 137
6.122489e+000 2.693001e+001 2.699991e+000 5 255 106
8.353469e+000 2.700522e+001 1.667669e+000 67 62 80
1.146234e+001 2.522998e+001 1.405085e+001 107 99 96
9.239855e+000 2.556985e+001 1.093591e+001 76 73 82
1.029855e+001 2.761141e+001 9.901860e+000 195 182 182
-2.926931e+000 -1.079945e+000 -9.065899e+000 142 89 48
1.043080e+001 2.606631e+001 1.288950e+001 96 91 96
1.104110e+001 2.698671e+001 1.051949e+001 76 64 81
1.111230e+001 2.789683e+001 9.350943e+000 180 164 165
-3.450633e-001 -1.196932e+000 -1.025068e+001 116 112 123
8.932681e+000 2.968605e+001 9.280643e+000 150 135 131
1.152885e+001 2.597783e+001 1.306327e+001 114 110 116
1.028298e+001 2.712971e+001 1.328955e+001 177 174 181
1.158647e+001 2.433698e+001 1.392360e+001 194 185 186
9.978312e+000 2.709246e+001 1.390503e+001 32 30 43
1.076985e+001 2.666331e+001 1.165211e+001 91 85 95
1.173611e+001 3.662441e+001 1.036693e+001 52 49 58
-5.960218e-002 -1.958896e+000 -8.547855e+000 28 15 22
-5.060979e-003 -1.989018e+000 -8.597120e+000 16 10 11
-2.707204e-001 -1.921407e+000 -9.354134e+000 135 132 140
-2.628444e+000 -1.593411e+000 -8.467463e+000 133 95 69
-1.843055e+000 -1.489422e+000 -9.584605e+000 139 100 69
-1.402662e+000 -1.153801e+000 -9.793015e+000 153 133 109
-2.407504e+000 -9.429438e-001 -9.776210e+000 183 149 113
-2.990406e+000 -3.745838e-001 -9.618549e+000 174 133 105
-5.111963e-001 6.620410e-001 -1.079089e+001 94 88 92
-3.027807e+000 1.034433e-001 -9.618272e+000 180 146 116
-8.462950e-001 1.090768e+000 -1.073747e+001 80 52 38
-6.941431e-002 1.419241e+000 -1.100642e+001 100 89 83
-7.573364e-001 -1.535274e+000 -8.741729e+000 188 185 176
-2.616004e+000 -1.613932e+000 -8.442621e+000 97 56 35
-2.810709e+000 -1.373165e+000 -8.466244e+000 134 90 51
-2.349289e+000 -1.518086e+000 -9.147568e+000 190 143 101
-2.928728e+000 -1.263405e+000 -8.696116e+000 196 160 118
-2.866189e+000 -1.347369e+000 -8.943032e+000 169 120 80
-2.284407e+000 -1.540773e+000 -9.299008e+000 130 85 46
-1.359501e+000 -1.130786e+000 -9.839653e+000 115 92 76
-1.551257e+000 -8.160007e-001 -1.006671e+001 149 123 106
-2.042879e+000 -1.853820e+000 -8.208925e+000 201 183 155
-2.329609e+000 -1.648817e+000 -9.017454e+000 185 144 108
-2.777877e+000 -1.389924e+000 -8.732158e+000 199 161 121
-2.415085e+000 -1.387653e+000 -9.374021e+000 157 107 70
-2.822874e+000 -1.208065e+000 -9.120798e+000 187 137 86
-3.158151e+000 -4.717689e-001 -8.840926e+000 51 34 27
-2.402301e+000 -7.806105e-001 -9.841506e+000 188 157 126
-2.443007e+000 -1.622057e+000 -8.974944e+000 178 139 104
-2.810249e+000 -1.410822e+000 -8.931432e+000 164 120 81
-2.990330e+000 -1.041830e+000 -8.818211e+000 182 140 87
-2.712264e+000 -1.017807e+000 -9.400328e+000 150 103 75
-3.117418e+000 -4.617683e-001 -9.362662e+000 169 126 93
-2.630343e+000 -1.545664e+000 -8.731741e+000 148 103 63
3.317084e-002 -1.524366e+000 -1.018880e+001 86 85 99
-1.637486e+000 -8.723846e-001 -1.004259e+001 134 107 89
-3.200137e+000 -3.507029e-001 -9.291375e+000 167 138 106
-9.224212e-001 1.012985e+000 -1.062546e+001 60 43 33
-2.805743e+000 -1.491772e+000 -8.296926e+000 161 116 75
-7.560806e-001 -6.313814e-001 -1.049353e+001 117 114 121
-7.763666e-001 -6.470921e-001 -1.049751e+001 117 114 121
-2.514928e+000 -5.408630e-001 -9.872371e+000 155 113 71
-2.629491e+000 -1.598660e+000 -8.531705e+000 151 105 76
-2.244382e+000 -1.322918e+000 -9.515300e+000 138 102 81
-3.167980e+000 -6.970771e-001 -9.140635e+000 183 132 95
-4.203062e-002 -1.188874e+000 -1.028148e+001 86 89 97
-2.464325e+000 -1.447214e+000 -9.287102e+000 177 126 81
-1.441737e+000 -1.448890e+000 -9.533223e+000 178 167 172
1.538539e+001 2.726921e+001 7.185980e+000 158 129 141
1.048264e+001 2.708732e+001 1.416416e+001 135 128 132
1.100161e+001 2.560683e+001 1.373557e+001 55 47 44
1.612060e+001 2.597307e+001 1.115525e+001 157 156 151
1.386535e+001 2.906976e+001 6.387304e+000 96 95 103
1.279525e+001 2.659059e+001 1.217913e+001 180 168 168
-1.948594e+000 -1.903898e+000 -8.156413e+000 204 188 162
-9.589151e-001 -9.153786e-001 -1.025121e+001 131 131 141
-2.290318e+000 -9.343036e-001 -9.830820e+000 110 81 58
-2.452237e+000 -3.232625e-001 -9.948339e+000 138 105 78
-3.030195e+000 9.535354e-002 -9.617302e+000 180 146 116
-9.025522e-001 1.248671e+000 -1.053705e+001 82 51 27
-7.052549e-002 1.414835e+000 -1.100470e+001 100 89 83
-7.449857e-001 -1.576002e+000 -8.772319e+000 202 199 194
-2.959145e+000 -1.239195e+000 -8.760656e+000 193 162 117
1.521379e+001 2.703736e+001 7.039279e+000 152 121 138
8.579029e+000 2.748712e+001 1.025211e+001 96 91 123
-2.704049e+000 -1.543729e+000 -8.448816e+000 151 108 76
-2.789416e+000 -1.364804e+000 -8.712470e+000 145 95 63
1.501275e+001 2.557409e+001 8.256719e+000 64 65 113
-8.210452e-001 -1.318765e+000 -9.953754e+000 139 139 149
8.306841e+000 2.695195e+001 1.018874e+001 72 69 112
-2.951748e+000 -1.029450e+000 -9.096123e+000 176 119 77
-3.133631e+000 9.767140e-002 -9.549044e+000 173 138 107
-6.387043e-001 1.958040e+000 -1.017121e+001 213 195 164
-8.470125e-001 -1.537257e+000 -8.889053e+000 53 51 56
1.461670e+001 2.567322e+001 1.027353e+001 146 144 149
-2.759989e+000 -1.429040e+000 -8.791498e+000 188 145 103
8.392947e+000 2.810313e+001 9.457382e+000 144 130 127
-2.917627e+000 -8.307698e-001 -9.548706e+000 140 94 61
-2.246557e+000 -7.108008e-001 -9.950599e+000 167 132 102
-2.207253e+000 -6.683633e-001 -9.935948e+000 167 132 102
-3.075034e+000 -5.398673e-001 -9.357917e+000 105 58 32
1.198158e+001 2.810183e+001 1.192158e+001 81 69 89
1.024440e+001 2.728006e+001 9.882249e+000 180 164 161
1.024440e+001 2.728006e+001 9.882249e+000 180 164 161
1.368554e+001 2.698082e+001 7.276511e+000 164 160 161
1.180522e+001 2.777861e+001 1.042577e+001 185 172 176
-1.518206e-002 -1.796619e+000 -8.215815e+000 55 45 44
-2.350629e+000 -1.819229e+000 -8.152945e+000 132 106 89
-1.708145e+000 -1.713063e+000 -8.127346e+000 90 68 45
-1.708145e+000 -1.713063e+000 -8.127346e+000 90 68 45
-5.376087e-003 -1.398836e+000 -8.031340e+000 59 35 17
-2.517164e+000 -1.736836e+000 -8.412874e+000 63 26 15
-1.980166e+000 -1.717198e+000 -8.429581e+000 84 51 36
-4.480844e-001 -1.732354e+000 -9.101804e+000 159 156 165
-2.597990e+000 -1.489985e+000 -8.341639e+000 83 44 27
-1.772099e+000 -1.700954e+000 -9.011032e+000 105 63 44
-2.510717e+000 -1.575487e+000 -8.707260e+000 121 78 44
-1.711589e+000 -1.692656e+000 -9.209785e+000 136 93 61
-1.711589e+000 -1.692656e+000 -9.209785e+000 136 93 61
-2.684050e+000 -1.472677e+000 -8.787653e+000 188 147 117
-2.200143e+000 -1.577770e+000 -9.133010e+000 126 80 52
-2.840983e+000 -1.327415e+000 -8.586141e+000 125 81 49
-2.482546e+000 -1.424567e+000 -9.193498e+000 176 132 97
-1.897806e+000 -1.557152e+000 -9.470601e+000 144 114 89
-1.813864e+000 -1.428018e+000 -9.474892e+000 147 107 85
-1.177631e+000 -1.487304e+000 -9.714353e+000 114 90 82
-1.271596e+000 -1.402660e+000 -9.762004e+000 113 89 78
-1.157353e+000 -1.338770e+000 -9.811168e+000 78 50 38
-2.973786e+000 -1.038737e+000 -8.819029e+000 189 145 100
-1.408313e+000 -1.262613e+000 -9.774043e+000 73 53 52
-1.155555e+000 -9.040213e-001 -1.012093e+001 146 137 139
-3.026009e+000 -9.881164e-001 -9.327413e+000 171 122 82
-2.642850e+000 -7.739745e-001 -9.776936e+000 177 143 108
-2.675699e+000 -4.041548e-001 -9.921596e+000 80 39 19
-2.397436e+000 -4.070887e-001 -9.972659e+000 135 99 73
-1.285437e+000 1.246132e-001 -1.013351e+001 120 115 111
-1.311287e+000 1.733707e-001 -1.015453e+001 78 73 65
-2.788315e+000 -1.445312e-001 -9.716977e+000 134 99 71
-9.673992e-001 8.006288e-001 -1.082317e+001 82 55 34
2.783776e-001 -1.903524e+000 -8.394503e+000 60 50 51
9.833517e-001 -1.904278e+000 -8.369208e+000 163 129 98
7.828875e-001 -1.927992e+000 -8.506313e+000 182 148 124
1.101468e+000 -1.854068e+000 -8.460899e+000 139 119 103
1.114215e+000 -1.826102e+000 -8.506736e+000 155 135 126
5.530375e-001 -1.857510e+000 -8.555868e+000 111 81 70
-2.332961e+000 -1.800774e+000 -8.165775e+000 173 150 138
-2.289599e+000 -1.834454e+000 -8.235229e+000 80 65 65
-1.653470e+000 -1.643168e+000 -8.068677e+000 175 156 119
-1.555198e+000 -1.820114e+000 -8.318548e+000 199 180 150
-2.475355e+000 -1.729715e+000 -8.487070e+000 41 13 8
-2.010466e+000 -1.807537e+000 -8.643412e+000 161 124 98
-2.017343e+000 -1.808421e+000 -8.677598e+000 103 61 36
-2.017343e+000 -1.808421e+000 -8.677598e+000 103 61 36
-6.241145e-001 -1.650269e+000 -8.916090e+000 168 165 176
-2.985503e-001 -1.788940e+000 -9.173060e+000 126 127 142
-2.724286e+000 -1.546310e+000 -8.243991e+000 151 101 74
-2.554569e+000 -1.571348e+000 -8.435778e+000 134 97 78
-2.394056e+000 -1.687068e+000 -8.535398e+000 69 43 25
-2.342974e+000 -1.632816e+000 -8.507430e+000 132 92 71
-1.983564e+000 -1.759440e+000 -8.869113e+000 137 96 64
-2.672982e+000 -1.423014e+000 -8.306820e+000 144 101 67
-2.687801e+000 -1.562092e+000 -8.503669e+000 147 111 80
-2.472462e+000 -1.552988e+000 -8.641103e+000 164 122 84
-1.619305e+000 -1.704645e+000 -9.011925e+000 99 59 34
1.278588e+000 -1.358278e+000 -9.518901e+000 103 102 110
-2.780511e+000 -1.357511e+000 -8.391197e+000 111 67 40
-2.429287e+000 -1.568316e+000 -8.712248e+000 191 148 120
-1.679193e+000 -1.734902e+000 -9.176597e+000 188 143 112
-1.657140e+000 -1.710107e+000 -9.190085e+000 122 76 43
-1.749638e+000 -1.729107e+000 -9.261798e+000 188 145 110
-1.605917e+000 -1.692230e+000 -9.255975e+000 162 131 107
-2.640226e+000 -1.489170e+000 -8.712957e+000 182 141 113
-2.216833e+000 -1.619481e+000 -9.094137e+000 175 139 106
-2.109585e+000 -1.600506e+000 -9.125645e+000 204 167 126
-1.214267e+000 -1.571669e+000 -9.335135e+000 94 70 59
-2.884188e+000 -1.344994e+000 -8.596682e+000 174 140 107
-2.860906e+000 -1.331686e+000 -8.699463e+000 128 89 60
-2.651661e+000 -1.443454e+000 -8.862221e+000 181 145 113
-1.141147e+000 -1.485037e+000 -9.436390e+000 127 97 86
-1.187657e+000 -1.522612e+000 -9.574912e+000 134 100 85
-1.184642e+000 -1.501700e+000 -9.597149e+000 77 50 33
-2.683315e+000 -1.372878e+000 -8.931189e+000 130 87 55
-2.286364e+000 -1.491110e+000 -9.389105e+000 94 51 31
-1.988780e+000 -1.572488e+000 -9.490990e+000 146 114 91
-1.988780e+000 -1.572488e+000 -9.490990e+000 146 114 91
-1.811696e+000 -1.325603e+000 -9.507769e+000 133 98 78
-1.811696e+000 -1.325603e+000 -9.507769e+000 133 98 78
-1.471152e+000 -1.403870e+000 -9.674393e+000 111 103 101
-2.767537e+000 -1.274631e+000 -9.101806e+000 190 148 110
-2.737784e+000 -1.319966e+000 -9.169837e+000 133 88 59
-2.832462e+000 -1.277269e+000 -9.193637e+000 176 132 95
-2.523585e+000 -1.289694e+000 -9.377555e+000 126 85 65
-2.357426e+000 -1.360540e+000 -9.421495e+000 103 65 46
-1.501960e+000 -1.280074e+000 -9.679105e+000 132 117 112
-1.484921e+000 -1.271801e+000 -9.709501e+000 77 57 50
-1.484921e+000 -1.271801e+000 -9.709501e+000 77 57 50
2.629608e-001 -1.186216e+000 -1.042030e+001 112 113 124
-2.479113e+000 -1.176679e+000 -9.421231e+000 128 90 69
-1.945916e+000 -1.252674e+000 -9.643924e+000 33 18 15
-1.944021e+000 -1.259967e+000 -9.672546e+000 82 64 60
2.467407e-001 -1.089481e+000 -1.062214e+001 7 1 11
-2.865017e+000 -1.011836e+000 -9.162585e+000 163 111 74
-1.379600e+000 -1.130909e+000 -9.957219e+000 154 127 108
-2.887969e+000 -1.047640e+000 -9.346646e+000 129 80 54
-1.037564e+000 -8.628542e-001 -1.021561e+001 20 15 21
-3.148664e+000 -6.907863e-001 -9.172635e+000 138 91 61
-2.964753e+000 -7.317462e-001 -9.284720e+000 171 125 91
-2.805430e+000 -9.395887e-001 -9.575648e+000 143 101 71
-2.192621e+000 -8.644760e-001 -9.904869e+000 119 88 62
-1.875615e+000 -9.091835e-001 -1.004341e+001 106 79 56
-1.619659e+000 -8.241288e-001 -1.005178e+001 125 104 85
-1.355107e+000 -6.651267e-001 -1.019760e+001 128 115 107
-1.071088e+000 -7.586710e-001 -1.043973e+001 76 75 81
-2.718910e+000 -7.906239e-001 -9.684765e+000 78 37 16
-2.223812e+000 -7.184931e-001 -9.977419e+000 76 44 24
-1.171796e+000 -5.458737e-001 -1.028972e+001 100 91 84
-3.190965e+000 -5.679681e-001 -9.355263e+000 62 31 26
-2.767478e+000 -7.024000e-001 -9.697032e+000 149 106 74
-2.462469e+000 -6.956655e-001 -9.834443e+000 88 49 32
-1.897167e+000 -6.267106e-001 -1.014098e+001 33 22 20
-2.991422e+000 -3.609776e-001 -9.463188e+000 160 112 73
-3.223398e+000 -2.071006e-001 -9.382094e+000 138 99 63
-2.985204e+000 -4.764966e-001 -9.648227e+000 153 114 98
-2.987679e+000 -4.886863e-001 -9.680458e+000 87 49 26
-2.956359e+000 -4.814083e-001 -9.688911e+000 165 128 102
-3.227654e+000 -6.936666e-002 -9.400825e+000 164 121 84
-2.468125e+000 -2.920496e-001 -9.995007e+000 113 88 69
-3.028504e+000 -5.958352e-002 -9.603651e+000 89 54 32
-9.401551e-001 1.140302e+000 -1.060549e+001 55 33 21
-8.306638e-001 1.420849e+000 -1.059535e+001 131 95 63
2.794127e-001 -1.870493e+000 -8.111569e+000 26 17 18
3.572099e-001 -1.928418e+000 -8.277425e+000 69 59 58
1.134852e+000 -1.854833e+000 -8.248253e+000 136 101 73
6.626612e-001 -1.920779e+000 -8.410879e+000 61 36 28
1.009858e-001 -1.872473e+000 -8.614393e+000 128 127 141
-2.557821e+000 -1.717985e+000 -8.271930e+000 153 105 75
-2.212321e+000 -1.815870e+000 -8.375417e+000 44 32 31
-1.827595e+000 -1.761625e+000 -8.350820e+000 108 81 63
-2.741679e+000 -1.667081e+000 -8.241303e+000 166 122 83
-2.545722e+000 -1.730151e+000 -8.417835e+000 119 81 60
-2.419382e+000 -1.734739e+000 -8.401634e+000 36 14 16
-2.454902e+000 -1.723985e+000 -8.506771e+000 92 59 45
-2.286782e+000 -1.691301e+000 -8.468224e+000 54 31 25
-2.693376e+000 -1.608530e+000 -8.314501e+000 143 94 64
-2.442396e+000 -1.622686e+000 -8.548677e+000 138 100 79
-2.113675e+000 -1.762316e+000 -8.793178e+000 166 122 94
-2.141305e+000 -1.752272e+000 -8.855684e+000 90 45 21
-2.740092e+000 -1.470205e+000 -8.625467e+000 130 87 53
-2.631545e+000 -1.516003e+000 -8.580093e+000 165 122 90
-2.454758e+000 -1.546128e+000 -8.742626e+000 191 155 121
-2.454758e+000 -1.546128e+000 -8.742626e+000 191 155 121
-2.015882e+000 -1.692750e+000 -8.997377e+000 180 139 107
-1.720399e+000 -1.731523e+000 -9.159125e+000 129 82 56
-1.676212e+000 -1.688708e+000 -9.164188e+000 188 143 116
-1.696069e+000 -1.743083e+000 -9.277001e+000 126 83 56
-1.707789e+000 -1.672544e+000 -9.267181e+000 145 101 69
-2.184002e+000 -1.590935e+000 -9.157344e+000 194 153 122
-2.662979e+000 -1.431811e+000 -8.885444e+000 180 142 110
-1.932389e+000 -1.556539e+000 -9.350130e+000 152 121 96
-1.961161e+000 -1.609414e+000 -9.428135e+000 168 135 111
-1.690599e+000 -1.516357e+000 -9.433117e+000 123 105 100
-1.568940e+000 -1.535044e+000 -9.475173e+000 174 164 174
-2.503467e+000 -1.404168e+000 -9.124059e+000 142 93 60
-2.252395e+000 -1.504799e+000 -9.371964e+000 111 69 45
-1.455111e+000 -1.417010e+000 -9.609966e+000 78 70 68
-1.227281e+000 -1.425873e+000 -9.695840e+000 118 94 78
-2.506293e+000 -1.347264e+000 -9.206947e+000 192 146 113
-1.533208e+000 -1.331530e+000 -9.645809e+000 146 132 127
-2.935371e+000 -1.065291e+000 -8.813935e+000 200 158 116
-2.935371e+000 -1.065291e+000 -8.813935e+000 200 158 116
-2.644134e+000 -1.290733e+000 -9.293555e+000 120 72 49
-1.440761e+000 -1.256958e+000 -9.739619e+000 138 119 116
-1.843684e+000 -1.239055e+000 -9.809184e+000 50 41 38
-1.843684e+000 -1.239055e+000 -9.809184e+000 50 41 38
-1.265843e+000 -1.141956e+000 -9.954137e+000 164 137 118
-1.222482e+000 -1.139332e+000 -9.978644e+000 122 94 72
-3.097466e+000 -8.081823e-001 -8.731611e+000 32 17 12
-2.839653e+000 -9.479930e-001 -9.103550e+000 122 68 41
-2.799502e+000 -1.150704e+000 -9.294439e+000 168 124 94
-2.658292e+000 -1.115579e+000 -9.348153e+000 92 47 28
-1.519573e+000 -1.032987e+000 -9.847772e+000 48 36 31
-3.107156e+000 -5.772095e-001 -8.788195e+000 116 88 75
-2.369770e-001 -9.121026e-001 -1.054408e+001 75 77 86
-2.946845e+000 -9.764165e-001 -9.465396e+000 94 47 31
-2.946845e+000 -9.764165e-001 -9.465396e+000 94 47 31
-2.620765e+000 -9.728387e-001 -9.675465e+000 145 110 88
-1.962648e+000 -9.540204e-001 -9.931935e+000 108 81 63
-1.814540e+000 -1.054902e+000 -1.002694e+001 122 93 71
-3.192986e+000 -5.638098e-001 -9.100131e+000 175 126 93
-3.103464e+000 -7.442539e-001 -9.231571e+000 175 128 98
-3.012662e+000 -7.332026e-001 -9.324089e+000 162 114 76
-3.052691e+000 -7.962711e-001 -9.432825e+000 139 89 52
-2.951955e+000 -9.306867e-001 -9.508172e+000 109 59 32
-2.350013e+000 -8.761800e-001 -9.843002e+000 164 136 114
-1.257834e+000 -6.638820e-001 -1.025620e+001 174 165 160
-3.191839e+000 -4.859882e-001 -9.023718e+000 171 128 83
-3.162916e+000 -4.783871e-001 -9.037434e+000 111 65 38
-3.195875e+000 -5.880021e-001 -9.183246e+000 106 61 31
-3.117098e+000 -6.280745e-001 -9.240439e+000 170 128 99
-3.117098e+000 -6.280745e-001 -9.240439e+000 170 128 99
-3.108791e+000 -6.109247e-001 -9.301864e+000 96 57 39
-2.251485e+000 -6.407145e-001 -9.983082e+000 168 137 110
-2.406538e+000 -6.061032e-001 -9.956166e+000 161 125 98
-3.222265e+000 -3.092900e-002 -9.332833e+000 155 107 69
-3.026175e+000 -1.093198e-001 -9.545856e+000 145 106 77
-2.360932e+000 -2.691958e-001 -1.000071e+001 54 35 29
-3.074924e+000 -7.653622e-002 -9.592893e+000 151 118 96
-3.074924e+000 -7.653622e-002 -9.592893e+000 151 118 96
-8.305825e-001 7.640340e-001 -1.081925e+001 89 63 46
-9.150565e-001 7.669822e-001 -1.079327e+001 99 70 53
5.020512e-001 -1.926893e+000 -8.250175e+000 31 21 20
1.115501e+000 -1.768523e+000 -8.528456e+000 64 50 44
1.278202e+000 -1.676487e+000 -8.503246e+000 119 104 99
-1.671198e+000 -1.684531e+000 -8.128138e+000 65 39 32
-2.188949e+000 -1.636046e+000 -8.160048e+000 113 90 77
-2.774069e+000 -1.627867e+000 -8.120744e+000 210 177 138
-2.050001e+000 -1.709228e+000 -8.416643e+000 70 44 34
-1.974679e+000 -1.822963e+000 -8.658448e+000 119 77 54
-1.410645e+000 -1.735580e+000 -8.664418e+000 194 171 154
-2.572380e+000 -1.576956e+000 -8.323870e+000 70 27 10
-2.511854e+000 -1.636296e+000 -8.517831e+000 109 73 57
-7.343400e-001 -1.523226e+000 -8.771966e+000 51 46 42
-4.438217e-001 -1.762499e+000 -9.230588e+000 134 132 143
-2.327081e+000 -1.676991e+000 -8.707480e+000 126 77 37
-1.613768e+000 -1.756461e+000 -9.143758e+000 179 138 108
-2.737540e+000 -1.400058e+000 -8.364868e+000 165 122 87
-2.775201e+000 -1.495721e+000 -8.607177e+000 180 141 110
-2.537085e+000 -1.544507e+000 -8.692956e+000 171 131 101
-2.266304e+000 -1.681644e+000 -8.935224e+000 173 137 105
-2.345228e+000 -1.647688e+000 -9.104717e+000 149 105 79
-2.345228e+000 -1.647688e+000 -9.104717e+000 149 105 79
-1.557219e+000 -1.610749e+000 -9.423378e+000 131 116 119
-2.253205e+000 -1.642997e+000 -9.315467e+000 185 142 107
-2.089145e+000 -1.636037e+000 -9.323996e+000 162 126 96
-2.022890e+000 -1.665125e+000 -9.375267e+000 139 103 81
-1.912096e+000 -1.568302e+000 -9.447023e+000 118 86 63
-1.555961e+000 -1.520134e+000 -9.511258e+000 143 133 142
-1.335133e+000 -1.534081e+000 -9.514403e+000 187 174 174
-1.078766e+000 -1.546657e+000 -9.571730e+000 114 87 64
-2.428266e+000 -1.498990e+000 -9.217988e+000 183 138 96
-2.410483e+000 -1.527141e+000 -9.290037e+000 181 134 92
-2.008643e+000 -1.486650e+000 -9.465407e+000 84 49 30
-2.766878e+000 -1.277942e+000 -8.967631e+000 140 88 54
-2.563376e+000 -1.377174e+000 -9.154941e+000 138 88 51
-2.007392e+000 -1.469349e+000 -9.507840e+000 138 105 88
-1.877257e+000 -1.471959e+000 -9.546761e+000 106 65 47
-1.887434e+000 -1.372689e+000 -9.594753e+000 104 67 54
-1.426356e+000 -1.357813e+000 -9.750622e+000 174 162 162
-1.287951e+000 -1.346922e+000 -9.765206e+000 136 115 109
2.031969e-001 -1.262914e+000 -1.033609e+001 81 80 98
-2.535195e+000 -1.314626e+000 -9.351410e+000 109 64 35
-1.511800e+000 -1.338360e+000 -9.749687e+000 99 82 75
-1.223804e+000 -1.237705e+000 -9.784223e+000 66 41 34
-2.533703e+000 -1.253595e+000 -9.356791e+000 89 48 30
-1.375966e+000 -1.186964e+000 -9.909663e+000 170 155 136
-2.372740e+000 -1.197845e+000 -9.624812e+000 35 22 17
-1.838674e+000 -1.131856e+000 -9.768973e+000 38 25 19
-1.728993e+000 -1.093129e+000 -9.795968e+000 31 20 16
-3.065416e+000 -7.652555e-001 -8.977701e+000 121 80 51
-2.935542e+000 -9.213652e-001 -9.161632e+000 107 51 25
-2.485163e+000 -1.018816e+000 -9.562447e+000 107 81 64
-2.122128e+000 -1.037649e+000 -9.743427e+000 112 83 65
-2.120579e+000 -1.037647e+000 -9.745521e+000 112 83 65
-3.002997e+000 -8.483893e-001 -9.223299e+000 88 44 29
-2.802840e+000 -9.595809e-001 -9.470985e+000 73 32 9
-2.699678e+000 -9.871756e-001 -9.654466e+000 185 145 120
-1.747388e+000 -9.669126e-001 -9.962768e+000 40 21 17
-1.410498e+000 -8.799598e-001 -1.009177e+001 128 110 88
-3.186863e+000 -5.760879e-001 -9.060074e+000 103 58 27
-3.091942e+000 -7.504079e-001 -9.189478e+000 96 49 23
-3.091942e+000 -7.504079e-001 -9.189478e+000 96 49 23
-3.076643e+000 -7.274387e-001 -9.289884e+000 174 125 95
-2.018232e+000 -8.166121e-001 -1.000523e+001 63 37 22
-1.969875e+000 -9.217611e-001 -1.001176e+001 100 71 57
-1.847863e+000 -8.522708e-001 -1.000273e+001 169 142 121
-1.847863e+000 -8.522708e-001 -1.000273e+001 169 142 121
-1.842900e+000 -7.947685e-001 -1.006446e+001 153 133 104
-1.886568e+000 -8.309940e-001 -1.008266e+001 153 133 104
-3.164201e+000 -5.637147e-001 -9.280944e+000 59 23 11
-2.371682e+000 -8.289454e-001 -9.877452e+000 158 127 109
-3.187533e+000 -3.249827e-001 -9.044520e+000 160 112 74
-3.195549e+000 -4.422940e-001 -9.281941e+000 134 93 61
-2.889255e+000 -6.845811e-001 -9.632008e+000 177 133 96
-2.889255e+000 -6.845811e-001 -9.632008e+000 177 133 96
-2.710577e+000 -7.004165e-001 -9.790160e+000 82 41 21
-2.697907e+000 -6.879299e-001 -9.783853e+000 82 41 21
-2.996560e+000 -5.151729e-001 -9.587645e+000 137 93 65
-2.842765e+000 1.163393e-002 -9.698258e+000 140 106 79
-4.748417e-001 6.035237e-001 -1.084878e+001 67 61 64
-1.660272e-001 1.059134e+000 -1.098211e+001 85 75 74
-8.263100e-001 1.446797e+000 -1.034219e+001 146 105 65
-9.090780e-001 9.090020e-001 -1.088933e+001 158 124 83
1.468371e-001 -1.774852e+000 -8.083958e+000 26 16 17
-1.950411e+000 -1.868536e+000 -8.139368e+000 112 86 58
-8.112822e-002 -1.813129e+000 -8.312165e+000 25 16 19
-2.374732e+000 -1.851563e+000 -8.281007e+000 55 34 30
-2.559547e+000 -1.790235e+000 -8.360953e+000 150 105 74
3.282270e-001 -1.872640e+000 -9.065349e+000 47 33 33
-2.546360e+000 -1.688739e+000 -8.331439e+000 139 94 71
-2.185456e+000 -1.702335e+000 -8.738594e+000 120 71 43
-2.754756e+000 -1.348543e+000 -8.203969e+000 162 116 79
-1.763944e+000 -1.696104e+000 -9.059050e+000 181 150 126
-1.763944e+000 -1.696104e+000 -9.059050e+000 181 150 126
-2.768758e+000 -1.262923e+000 -8.283100e+000 113 72 42
-2.588246e+000 -1.550435e+000 -8.827267e+000 185 148 124
-2.445365e+000 -1.527302e+000 -9.127160e+000 175 131 104
-2.449880e+000 -1.443364e+000 -9.238747e+000 189 146 104
-1.382723e+000 -1.428584e+000 -9.670841e+000 175 164 157
-2.083044e+000 -1.437828e+000 -9.463955e+000 130 95 74
-1.166987e+000 -1.333728e+000 -9.759303e+000 53 28 23
-2.958413e+000 -9.635110e-001 -8.740889e+000 148 102 61
-1.935117e+000 -1.386927e+000 -9.666906e+000 122 90 72
-1.029477e+000 -1.228850e+000 -9.886245e+000 67 43 39
-2.916886e+000 -1.073444e+000 -9.065510e+000 134 82 43
-1.038103e+000 -1.065131e+000 -9.953669e+000 158 137 125
-2.047085e+000 -1.191072e+000 -9.695147e+000 25 11 13
-1.168123e+000 -9.706735e-001 -9.981189e+000 101 67 49
-2.787669e+000 -1.090033e+000 -9.402752e+000 132 81 55
-2.323893e+000 -1.042141e+000 -9.638216e+000 55 36 30
-2.271462e+000 -1.064250e+000 -9.744782e+000 123 89 66
-1.936611e+000 -1.016672e+000 -9.835657e+000 70 47 39
-3.109594e+000 -5.278606e-001 -8.811540e+000 50 29 24
-2.573097e+000 -1.073789e+000 -9.724990e+000 89 58 38
-3.028675e+000 -6.935821e-001 -9.441887e+000 112 62 38
-2.936796e+000 -6.537568e-001 -9.506248e+000 77 39 26
-1.087853e+000 -6.153234e-001 -1.038713e+001 20 18 19
-3.083017e+000 -6.283547e-001 -9.427326e+000 176 135 100
-2.979094e+000 -6.236052e-001 -9.604435e+000 147 109 90
-2.955554e+000 -4.969235e-001 -9.610543e+000 65 26 9
-2.754335e+000 -5.684568e-001 -9.747807e+000 174 138 108
-2.702386e+000 -5.948586e-001 -9.773310e+000 104 64 36
-2.414114e+000 -5.396398e-001 -9.971239e+000 78 47 27
-2.909022e+000 -3.657616e-001 -9.630258e+000 86 48 25
-1.308639e+000 1.394922e-001 -1.009461e+001 33 31 31
-1.308934e+000 1.392438e-001 -1.009487e+001 33 31 31
-2.797958e+000 -4.176144e-003 -9.714261e+000 83 49 26
-2.823488e+000 9.843841e-002 -9.698253e+000 86 50 33
-5.444738e-001 6.585486e-001 -1.092045e+001 84 67 59
-7.980109e-001 1.011991e+000 -1.095652e+001 114 75 46
-4.489696e-001 1.368216e+000 -1.104179e+001 124 91 65
3.178516e-001 -1.891332e+000 -8.456341e+000 26 16 17
-2.249067e+000 -1.820584e+000 -8.126319e+000 155 135 123
1.170989e+000 -1.695514e+000 -8.644577e+000 53 42 38
-1.559161e+000 -1.764610e+000 -8.562398e+000 140 100 69
-2.640247e-001 -1.466917e+000 -8.330179e+000 74 65 66
-2.640247e-001 -1.466917e+000 -8.330179e+000 74 65 66
-3.192767e-001 -1.629471e+000 -8.552890e+000 62 57 61
2.597968e-002 -1.823767e+000 -8.971474e+000 127 125 139
-2.473703e+000 -1.667955e+000 -8.533541e+000 54 24 17
-6.651916e-001 -1.519927e+000 -8.855201e+000 161 158 169
-2.529591e+000 -1.545467e+000 -8.538755e+000 123 83 58
-2.382927e+000 -1.783007e+000 -8.835039e+000 165 119 83
-2.224875e+000 -1.652329e+000 -8.984047e+000 149 107 83
-1.735462e+000 -1.570314e+000 -9.525982e+000 172 158 158
1.157841e-001 -1.380597e+000 -1.001133e+001 96 96 108
-2.762161e+000 -1.292607e+000 -9.029823e+000 199 165 128
-2.249870e+000 -1.421657e+000 -9.498402e+000 125 88 62
-1.363893e+000 -1.388223e+000 -9.723543e+000 67 46 42
-2.998594e+000 -1.046929e+000 -8.958927e+000 177 133 88
-2.802349e+000 -1.057363e+000 -9.238368e+000 94 45 30
-2.250799e+000 -1.155067e+000 -9.645231e+000 42 25 25
-1.646822e+000 -1.135558e+000 -9.823125e+000 27 17 16
-2.887218e+000 -9.934050e-001 -9.339635e+000 87 39 25
-1.935031e+000 -9.600857e-001 -1.003269e+001 163 136 115
-2.675114e+000 -9.358805e-001 -9.694325e+000 99 61 38
-2.638171e+000 -7.119990e-001 -9.842991e+000 101 66 41
-2.928378e+000 -5.657701e-001 -9.641684e+000 182 147 117
-3.183998e+000 -1.423194e-001 -9.242498e+000 197 158 114
-3.138689e+000 -2.641092e-001 -9.383509e+000 146 110 84
-3.515430e-001 6.158832e-001 -1.080873e+001 83 79 80
9.270674e-001 -1.739636e+000 -8.659396e+000 120 106 101
-2.469611e+000 -1.689282e+000 -8.816026e+000 182 140 105
-1.771039e+000 -1.679948e+000 -9.143235e+000 130 84 72
-2.125238e+000 -1.474577e+000 -9.558960e+000 82 48 36
-2.910703e+000 -1.127615e+000 -9.221538e+000 171 118 78
-2.033095e+000 -9.728850e-001 -9.794168e+000 146 114 93
-1.261653e+000 -8.584005e-001 -1.029684e+001 188 183 179
-2.743477e+000 -8.071793e-001 -9.730598e+000 114 75 46
-3.032546e+000 -1.873752e-001 -9.517668e+000 147 108 75
-2.879793e+000 -2.408749e-001 -9.712310e+000 135 97 60
-3.134015e+000 5.201486e-002 -9.515006e+000 193 160 129
-1.015617e+000 1.178414e+000 -1.069684e+001 147 109 73
-4.851534e-001 1.385139e+000 -1.101328e+001 128 92 60
3.206949e-001 -1.899063e+000 -8.581904e+000 147 147 155
-9.470129e-002 -1.490857e+000 -8.187641e+000 160 156 157
-4.600952e-001 -1.800027e+000 -8.777634e+000 178 171 178
-2.588495e+000 -1.628490e+000 -8.318207e+000 78 38 24
-2.731572e+000 -1.505262e+000 -8.188742e+000 124 73 43
-2.447470e+000 -1.647142e+000 -8.614541e+000 138 93 62
-2.153514e+000 -1.742365e+000 -8.940726e+000 137 100 60
-3.068696e+000 -7.504446e-001 -8.773255e+000 160 129 98
-3.016950e+000 -9.045194e-001 -9.074029e+000 164 115 77
-3.027520e+000 -9.116522e-001 -9.078588e+000 164 115 77
-3.151549e+000 -7.214236e-001 -8.951791e+000 189 152 123
2.148374e-001 -1.811620e+000 -9.094274e+000 167 167 175
-9.567787e-001 -1.495004e+000 -9.375563e+000 31 22 24
-1.126731e+000 -9.738848e-001 -1.011506e+001 177 168 169
-1.366638e+000 -5.396667e-001 -1.017573e+001 180 166 153
-8.893500e-001 1.997513e-001 -1.062639e+001 117 114 116
-9.275919e-001 1.544221e+000 -1.015868e+001 205 189 164
-2.382089e+000 -7.799503e-001 -9.799752e+000 195 164 135
-2.391667e+000 -7.913699e-001 -9.814385e+000 195 164 135
-2.981103e+000 -5.998109e-001 -9.513408e+000 101 64 38
-3.067917e+000 -4.675701e-001 -9.446112e+000 168 124 87
-1.428011e+000 -1.442825e+000 -9.528080e+000 172 163 168
-2.132957e+000 -1.622115e+000 -9.215107e+000 186 147 108
-2.133419e+000 -9.723022e-001 -9.974642e+000 139 108 83
-2.133419e+000 -9.723022e-001 -9.974642e+000 139 108 83
3.358142e+000 2.664740e+001 2.664133e+000 74 68 72
3.158670e+000 3.865280e+001 -2.180258e+000 97 90 90
9.423557e+000 3.542603e+001 1.030165e+001 56 52 55
1.099150e+001 2.730109e+001 1.124601e+001 128 116 116
1.603662e+001 2.699174e+001 7.814113e+000 160 153 152
1.100796e+001 2.834091e+001 1.038623e+001 89 75 90
1.358418e+001 2.815333e+001 8.337874e+000 120 101 112
1.364851e+001 2.555434e+001 1.011238e+001 179 167 161
1.649366e+001 2.678866e+001 8.140221e+000 126 116 126
1.716826e+001 2.754562e+001 7.019676e+000 116 114 125
1.565127e+001 2.625710e+001 8.885348e+000 120 117 125
9.630794e+000 2.691655e+001 1.141848e+001 82 77 85
1.633388e+001 2.662469e+001 1.036992e+001 110 107 114
1.802973e+001 2.649157e+001 9.138444e+000 103 96 114
1.279765e+001 2.850122e+001 8.144797e+000 182 169 163
1.072304e+001 2.789217e+001 1.066786e+001 147 141 136
1.555926e+001 2.757414e+001 6.492941e+000 98 99 123
1.817946e+001 2.616769e+001 8.882998e+000 101 101 115
1.568812e+001 2.746026e+001 7.466807e+000 66 40 70
1.056933e+001 2.795346e+001 9.150618e+000 182 169 162
1.137644e+001 2.451080e+001 1.455295e+001 146 133 119
-2.811129e+000 -1.390139e+000 -8.727242e+000 145 95 63
1.156499e+001 2.716721e+001 1.182717e+001 117 108 123
1.085390e+001 2.691894e+001 1.124435e+001 190 186 175
1.673353e+001 2.662267e+001 8.073414e+000 161 164 175
1.336480e+001 2.691726e+001 8.576332e+000 185 174 174
1.615512e+001 2.778494e+001 6.900957e+000 108 94 119
1.646704e+001 2.658169e+001 7.664793e+000 91 80 112
-3.008547e+000 -9.605958e-001 -8.640730e+000 38 23 25
1.673131e+001 2.732728e+001 6.952708e+000 98 96 111
9.484005e+000 2.722437e+001 9.948202e+000 140 122 130
1.228874e+001 2.572223e+001 1.128389e+001 183 175 172
-2.983215e+000 -1.075669e+000 -8.850017e+000 153 108 66
-1.020392e+000 -7.901536e-001 -1.020545e+001 149 141 138
9.891419e+000 2.711222e+001 9.927908e+000 135 66 85
-6.427416e-001 1.016917e+000 -1.083390e+001 161 128 96
-2.470631e+000 -1.728736e+000 -8.483220e+000 41 13 8
-2.318878e+000 -1.526122e+000 -9.320931e+000 169 123 89
-3.145513e+000 -7.249391e-001 -9.248456e+000 176 127 100
-3.144995e+000 -6.316413e-001 -9.296249e+000 155 120 94
-2.564010e+000 -5.343099e-001 -9.835274e+000 92 54 35
9.880975e+000 2.742684e+001 1.026216e+001 91 47 60
9.051006e+000 2.813511e+001 1.032265e+001 144 128 131
2.134861e-001 -1.151722e+000 -1.046509e+001 112 113 126
-1.186107e+000 -8.804247e-001 -1.007279e+001 184 175 178
-1.572967e+000 -8.819425e-001 -1.005933e+001 112 84 62
-3.195826e+000 -4.640749e-002 -9.412979e+000 136 92 53
-1.053918e+000 -1.023836e+000 -1.003021e+001 177 161 153
-1.477645e-001 -8.174608e-001 -1.048427e+001 97 95 105
-2.709479e-001 -7.550892e-001 -1.049813e+001 78 76 87
-2.265915e+000 -6.530422e-001 -9.937247e+000 67 41 28
-4.580522e-003 -1.335295e+000 -1.016388e+001 98 98 110
-2.624423e+000 -1.041906e+000 -9.446990e+000 126 83 58
1.154281e+001 2.643727e+001 1.153799e+001 105 98 104
-3.201687e+000 2.061947e-002 -9.484802e+000 130 82 44
-2.653925e+000 -1.459169e+000 -8.924202e+000 143 100 64
-2.553523e+000 -1.034239e+000 -9.548730e+000 81 51 40
-2.286121e+000 -7.884824e-001 -9.883761e+000 69 40 22
1.325487e+001 2.758039e+001 8.499369e+000 177 166 165
1.346465e+001 2.919665e+001 8.257356e+000 121 115 119
-2.305142e+000 -1.674085e+000 -8.945783e+000 163 127 95
3.297644e-001 -1.976499e+000 -8.656828e+000 173 143 118
-5.925443e-001 -1.698308e+000 -8.924194e+000 135 133 152
-2.898232e+000 -1.364648e+000 -8.664356e+000 183 148 117
-2.209936e+000 -1.582151e+000 -9.139849e+000 137 96 64
-1.398029e+000 -1.432330e+000 -9.630901e+000 120 104 107
-1.184590e+000 -1.359396e+000 -9.668987e+000 81 56 50
1.063753e+000 -9.948448e-001 -1.021984e+001 75 74 92
-3.030591e+000 -9.770404e-001 -8.623511e+000 62 44 41
-2.879224e+000 -1.275698e+000 -9.060906e+000 185 141 106
-2.936520e+000 -1.125934e+000 -9.062191e+000 132 79 39
-2.478191e+000 -1.246926e+000 -9.464264e+000 149 111 92
-1.956323e+000 -1.214676e+000 -9.784776e+000 125 110 103
-2.151062e+000 -9.636391e-001 -9.872340e+000 106 77 59
-1.205779e+000 -7.501825e-001 -1.015523e+001 132 120 125
-3.166166e+000 -5.774707e-001 -8.977284e+000 132 86 62
-2.710005e+000 -7.985002e-001 -9.706515e+000 132 96 75
-2.586997e+000 -8.060307e-001 -9.755837e+000 105 72 53
-2.225539e+000 -8.072852e-001 -9.877642e+000 140 111 85
-2.108777e+000 -7.723514e-001 -1.001207e+001 86 55 33
-1.046341e+000 -6.375730e-001 -1.042076e+001 100 97 100
-3.126792e+000 -5.698719e-001 -9.286674e+000 148 112 91
-3.112571e+000 -5.600130e-001 -9.306460e+000 106 69 56
-3.041024e+000 -6.364243e-001 -9.472994e+000 93 49 22
-2.059104e+000 -7.451460e-001 -1.002635e+001 142 120 89
-2.992753e+000 -5.186400e-001 -9.531958e+000 147 104 84
-2.988503e+000 -4.636611e-001 -9.513524e+000 148 105 75
-2.710740e+000 -6.150228e-001 -9.733766e+000 143 106 76
-1.820247e+000 -5.226741e-001 -1.009055e+001 69 57 59
-2.659823e+000 -4.744091e-001 -9.820185e+000 159 125 107
-1.972893e+000 -3.808354e-001 -1.007317e+001 30 16 15
-1.297011e+000 2.662890e-001 -1.007450e+001 132 122 111
-1.274066e+000 2.049058e-001 -1.014583e+001 76 69 63
-7.774705e-001 1.124266e+000 -1.074962e+001 130 99 70
-2.622203e+000 -1.629344e+000 -8.561858e+000 155 114 94
-2.719876e+000 -1.551753e+000 -8.512245e+000 91 55 35
-2.226296e+000 -1.717713e+000 -8.930123e+000 127 82 57
-2.067305e+000 -1.718132e+000 -9.118746e+000 207 174 143
-2.828027e+000 -1.438259e+000 -8.889693e+000 189 150 117
-2.642283e+000 -1.424436e+000 -8.983225e+000 148 103 76
-2.457357e+000 -1.351508e+000 -9.273342e+000 135 82 48
-1.030689e+000 -1.293877e+000 -9.775975e+000 137 113 103
-2.507174e+000 -1.249424e+000 -9.381466e+000 127 83 67
-1.918502e+000 -1.264490e+000 -9.717509e+000 139 110 102
-2.419951e+000 -1.010097e+000 -9.696031e+000 75 46 32
-2.028742e+000 -9.947160e-001 -9.764325e+000 152 120 105
-1.081437e+000 -8.183215e-001 -1.016126e+001 146 144 148
-3.161207e+000 -6.044438e-001 -8.998279e+000 166 122 94
-2.400256e+000 -9.219920e-001 -9.742367e+000 98 66 42
-1.533569e+000 -8.444348e-001 -1.007338e+001 91 65 51
-3.172517e+000 -4.867845e-001 -8.855320e+000 48 28 19
-3.169735e+000 -5.714695e-001 -9.006498e+000 181 136 109
-2.107013e+000 -7.510701e-001 -9.989499e+000 170 146 125
-1.054438e+000 -6.768142e-001 -1.032635e+001 147 142 146
-2.764685e+000 -6.496675e-001 -9.682486e+000 102 60 36
-2.424864e+000 -7.108041e-001 -9.835362e+000 174 146 124
-1.980600e+000 -6.847713e-001 -1.008425e+001 32 17 19
-2.425233e+000 -5.115960e-001 -9.923343e+000 123 90 73
-2.624221e+000 -4.840298e-001 -9.820569e+000 80 50 28
-1.879138e+000 -2.909526e-001 -1.013787e+001 109 99 90
-2.449119e+000 -2.813969e-001 -9.944658e+000 39 17 6
-1.308438e+000 1.931005e-001 -1.011923e+001 158 148 136
-2.495058e+000 -2.055699e-001 -9.946203e+000 90 71 57
-2.658512e+000 7.604987e-002 -9.760407e+000 97 66 37
-3.015177e+000 1.360471e-001 -9.670412e+000 179 150 120
-8.194351e-001 1.170606e+000 -1.031089e+001 83 52 27
-8.940207e-001 1.146938e+000 -1.054372e+001 54 34 28
-8.888905e-001 1.025291e+000 -1.059217e+001 32 22 13
-8.305622e-001 1.085748e+000 -1.073143e+001 84 57 40
-2.384291e+000 -1.854865e+000 -8.405889e+000 57 41 42
-2.394121e+000 -1.860220e+000 -8.415778e+000 57 41 42
-2.801700e+000 -1.567557e+000 -8.308738e+000 117 70 36
-2.724161e+000 -1.555609e+000 -8.469300e+000 148 110 86
-2.441449e+000 -1.635137e+000 -8.669429e+000 171 126 97
-2.428668e+000 -1.681759e+000 -8.859345e+000 150 107 72
-2.435717e+000 -1.681697e+000 -8.918786e+000 172 131 99
-2.868176e+000 -1.424244e+000 -8.835766e+000 200 160 122
-2.171488e+000 -1.612807e+000 -9.334286e+000 177 141 105
-2.171488e+000 -1.612807e+000 -9.334286e+000 177 141 105
-2.535513e+000 -1.462759e+000 -9.170436e+000 188 144 107
-2.881597e+000 -1.168051e+000 -9.174424e+000 180 129 86
-1.925713e+000 -1.263306e+000 -9.690485e+000 52 33 26
-1.044331e+000 -9.755226e-001 -1.009107e+001 188 186 189
-2.435528e+000 -9.607427e-001 -9.705318e+000 151 118 93
-1.754843e+000 -8.828985e-001 -1.001912e+001 53 32 29
-1.150638e+000 -7.767660e-001 -1.014633e+001 162 161 165
-2.969553e+000 -7.260181e-001 -9.473856e+000 124 87 67
-3.116814e+000 -6.072667e-001 -9.345601e+000 170 132 115
-2.674760e+000 -7.281106e-001 -9.753708e+000 162 128 102
-2.380465e+000 -6.763271e-001 -9.873615e+000 108 71 53
-3.067237e+000 -5.299155e-001 -9.537794e+000 115 68 40
-2.839550e+000 -5.562004e-001 -9.669842e+000 152 116 92
-3.011947e+000 -3.983397e-001 -9.632320e+000 154 114 88
-1.904867e+000 -4.075382e-001 -1.013571e+001 107 93 85
-7.336053e-001 1.161294e+000 -1.078929e+001 132 99 68
-5.241912e-001 1.511167e+000 -1.080426e+001 137 91 56
-2.400335e+000 -1.694214e+000 -8.877208e+000 167 126 92
-2.467355e+000 -1.400113e+000 -9.351596e+000 145 95 62
-1.079698e+000 -1.219366e+000 -9.854556e+000 156 131 134
-2.813972e+000 -1.234563e+000 -9.256351e+000 164 115 82
-1.380536e+000 -1.090784e+000 -9.866133e+000 137 118 111
-3.112928e+000 -7.742567e-001 -9.160761e+000 166 118 95
-3.027066e+000 -8.395456e-001 -9.199005e+000 179 133 99
-3.176140e+000 -4.420128e-001 -8.959874e+000 43 23 19
-1.932737e+000 -5.042734e-001 -1.010914e+001 34 24 31
-3.108499e+000 -4.210382e-001 -9.419736e+000 164 123 93
-2.939676e+000 -4.841481e-001 -9.646289e+000 145 112 96
-2.617565e+000 -4.616654e-001 -9.853137e+000 171 139 114
-6.306869e-001 1.438174e+000 -1.076994e+001 165 123 80
-2.674483e+000 -1.579881e+000 -8.629509e+000 170 125 95
-2.301860e+000 -1.728624e+000 -8.881709e+000 174 129 98
-2.994511e+000 -8.851277e-001 -9.261752e+000 191 141 108
-2.876492e+000 -9.844121e-001 -9.330947e+000 87 42 26
-2.975792e+000 -9.054429e-001 -9.434454e+000 143 93 61
-2.101421e+000 -8.495310e-001 -9.913176e+000 163 139 114
-1.683447e+000 -7.366370e-001 -1.006207e+001 102 81 67
-1.683447e+000 -7.366370e-001 -1.006207e+001 102 81 67
-3.127542e+000 -5.366533e-001 -9.341045e+000 174 139 116
-3.101074e+000 -5.688256e-001 -9.381890e+000 102 60 44
-6.280719e-001 -1.744425e-001 -1.064253e+001 103 102 107
-2.994190e+000 6.179307e-002 -9.569266e+000 118 83 64
-8.784794e-001 1.111494e+000 -1.048004e+001 55 38 30
-2.523646e+000 -1.535665e+000 -8.982911e+000 193 158 128
-2.737440e+000 -1.322923e+000 -9.140436e+000 138 92 59
-2.847690e+000 -1.096604e+000 -9.267284e+000 100 49 26
-3.044574e+000 -8.479583e-001 -9.148433e+000 108 61 40
-1.632490e+000 -7.881146e-001 -1.006064e+001 53 35 30
-3.000036e+000 -5.891521e-001 -9.508352e+000 84 45 27
-6.341043e-001 -2.383522e-001 -1.060237e+001 135 133 138
-3.059494e+000 -4.442434e-001 -9.570827e+000 146 99 69
-2.813001e+000 -1.260134e+000 -9.141181e+000 178 135 93
-2.813001e+000 -1.260134e+000 -9.141181e+000 178 135 93
-1.265987e+000 1.783856e-001 -1.020160e+001 131 126 124
-6.124993e-001 1.027788e+000 -1.089289e+001 160 129 98
-3.070945e+000 -4.676143e-001 -9.447589e+000 157 112 79
-2.707003e-002 -1.982904e+000 -8.402863e+000 59 49 48
1.073151e+001 2.681488e+001 1.093313e+001 132 118 125
-2.879828e+000 -5.808898e-001 -9.638292e+000 169 132 100
-4.489164e-001 -1.778205e+000 -9.174916e+000 164 162 175
-9.019046e-001 -1.200234e+000 -9.986135e+000 14 14 21
1.206601e+001 2.426767e+001 1.475923e+001 178 162 147
-3.001771e+000 -3.886218e-001 -9.625750e+000 168 129 98
1.260289e+001 2.363707e+001 1.367019e+001 174 160 149
-4.801894e-001 -1.795095e+000 -9.109478e+000 153 155 168
-2.765758e+000 -1.480167e+000 -8.364654e+000 112 63 31
-2.451451e+000 -9.045124e-001 -9.731032e+000 96 62 40
-1.952310e+000 -4.125985e-001 -1.008122e+001 41 29 26
-2.397429e+000 -2.965351e-001 -9.989263e+000 96 77 67
-1.314188e+000 1.971928e-001 -1.006535e+001 141 130 117
-1.064010e+000 -1.017251e+000 -9.971635e+000 104 80 68
-3.131460e+000 -7.249185e-001 -9.293975e+000 135 89 57
-2.956038e+000 -5.786368e-001 -9.537037e+000 133 91 68
-2.321861e+000 -2.873961e-001 -1.001546e+001 56 35 28
-2.633560e+000 -1.042050e+000 -9.461967e+000 129 89 67
-3.181504e+000 1.768808e-002 -9.260659e+000 193 153 118
1.144354e+001 2.346574e+001 1.333299e+001 191 183 180
1.766979e-001 -7.285501e-001 -1.054375e+001 76 74 88
-2.997431e+000 -6.232463e-001 -9.353819e+000 169 124 91
-2.554190e+000 -1.635566e+000 -8.473506e+000 106 74 65
-2.717552e+000 -1.539245e+000 -8.337255e+000 137 86 57
-2.465593e+000 -1.633659e+000 -8.736628e+000 162 121 92
-6.906107e-001 -1.652245e+000 -8.829522e+000 109 106 123
-5.070445e-001 -1.779591e+000 -9.141279e+000 106 103 125
-2.209748e+000 -1.675315e+000 -8.982600e+000 150 109 81
-2.925907e+000 -1.171093e+000 -9.021154e+000 188 140 99
-1.490352e+000 -1.326620e+000 -9.652918e+000 167 155 165
-1.462363e+000 -1.278662e+000 -9.635731e+000 91 75 79
-1.419087e+000 -1.098900e+000 -9.849353e+000 145 126 120
-1.030001e+000 -1.069198e+000 -1.001432e+001 101 83 81
-3.107470e+000 -7.838460e-001 -9.185775e+000 159 111 88
-8.860108e-001 -8.512936e-001 -1.033366e+001 96 97 117
-2.378941e+000 -7.878309e-001 -9.860276e+000 116 87 71
-2.206459e+000 -7.754341e-001 -9.926167e+000 120 89 66
-1.942901e+000 -8.444820e-001 -1.000575e+001 154 135 124
-1.058623e+000 -7.910196e-001 -1.019188e+001 121 113 125
-2.609952e+000 -7.395746e-001 -9.758714e+000 174 143 124
-2.615859e+000 -7.259138e-001 -9.740372e+000 96 63 46
-2.615859e+000 -7.259138e-001 -9.740372e+000 96 63 46
-1.123188e+000 -5.627103e-001 -1.029762e+001 132 130 135
-1.386726e+000 -5.511425e-001 -1.021504e+001 174 160 157
-1.322444e+000 -4.367347e-001 -1.024541e+001 123 111 103
-1.952583e+000 -4.413050e-001 -1.005016e+001 28 15 22
-1.347686e+000 -3.356664e-001 -1.017278e+001 102 96 88
-2.544911e+000 -3.859983e-001 -9.886842e+000 133 98 78
-2.439975e+000 -2.704905e-001 -9.978496e+000 110 91 77
-2.350018e+000 -3.112925e-001 -1.000041e+001 137 111 97
-2.216425e+000 -3.173134e-001 -1.003444e+001 109 86 78
-2.144712e+000 -3.206593e-001 -1.003297e+001 77 60 53
-1.941924e+000 -2.907561e-001 -1.011772e+001 133 122 120
-1.277217e+000 4.729114e-002 -1.007364e+001 36 32 32
-3.021362e+000 -1.742033e-002 -9.381702e+000 129 96 76
-3.014977e+000 -5.436217e-002 -9.454037e+000 131 95 71
-3.014977e+000 -5.436217e-002 -9.454037e+000 131 95 71
-2.426207e+000 -2.226953e-001 -9.986162e+000 44 26 22
-2.945486e+000 7.465802e-002 -9.585433e+000 90 57 38
-2.803946e+000 4.749529e-002 -9.705396e+000 139 112 92
-1.290199e+000 1.939686e-001 -1.015306e+001 80 75 79
-3.140212e+000 1.543613e-001 -9.563618e+000 184 153 130
-7.318971e-001 1.348169e+000 -1.021349e+001 129 95 72
-8.196257e-001 1.146795e+000 -1.028919e+001 77 60 41
-8.633072e-001 9.650008e-001 -1.064015e+001 139 131 132
-6.557759e-001 1.214636e+000 -1.085363e+001 162 126 100
2.452982e-001 -1.968197e+000 -8.711761e+000 121 91 73
-3.700418e-001 -1.751827e+000 -8.528919e+000 133 129 145
-2.604931e+000 -1.706614e+000 -8.477136e+000 70 32 17
-2.721860e+000 -1.519939e+000 -8.350869e+000 94 44 20
-2.427056e+000 -1.654411e+000 -8.693806e+000 143 98 66
-5.905283e-001 -1.669166e+000 -8.907800e+000 98 99 120
-2.784457e+000 -1.435621e+000 -8.405901e+000 176 131 100
-2.514499e+000 -1.559993e+000 -8.970217e+000 206 168 146
-1.385403e+000 -1.637859e+000 -9.392862e+000 184 168 169
-2.952500e+000 -1.225810e+000 -8.481817e+000 190 160 136
-2.862667e+000 -1.336652e+000 -8.741538e+000 200 162 138
-2.464370e+000 -1.427515e+000 -9.254622e+000 199 153 121
-1.526012e+000 -1.413877e+000 -9.661828e+000 169 159 170
-8.713076e-001 -1.363601e+000 -9.818848e+000 141 141 165
-2.806530e+000 -1.257403e+000 -9.080532e+000 194 148 110
-1.954294e+000 -1.212288e+000 -9.782447e+000 127 112 104
-2.432589e+000 -9.875716e-001 -9.677960e+000 141 110 92
-1.981324e+000 -1.056227e+000 -9.810225e+000 101 75 62
-2.036936e+000 -1.033502e+000 -9.849558e+000 122 98 86
-3.041340e+000 -7.522318e-001 -9.076408e+000 129 77 50
-1.855442e+000 -9.485590e-001 -9.950725e+000 155 129 116
-3.182847e+000 -5.062437e-001 -8.909885e+000 125 98 77
-2.532346e+000 -7.779008e-001 -9.747932e+000 154 121 104
-2.417453e+000 -7.975905e-001 -9.806898e+000 152 124 107
-2.115665e+000 -8.197462e-001 -9.958452e+000 177 152 131
-1.791309e+000 -8.144122e-001 -1.003551e+001 91 63 52
-1.779077e+000 -8.301326e-001 -1.006192e+001 138 111 99
-1.114688e+000 -7.264640e-001 -1.016257e+001 92 79 89
-1.143140e+000 -6.930945e-001 -1.020579e+001 132 119 127
-1.143140e+000 -6.930945e-001 -1.020579e+001 132 119 127
-3.156702e+000 -3.524532e-001 -8.997008e+000 61 32 25
-3.214647e+000 -4.294184e-001 -9.072742e+000 148 109 77
-2.859754e+000 -7.010951e-001 -9.653151e+000 102 65 45
-2.079680e+000 -7.006402e-001 -9.992468e+000 50 26 14
-3.198482e+000 -4.114957e-001 -9.168803e+000 126 95 84
-2.979121e+000 -4.925290e-001 -9.537329e+000 77 31 15
-2.850334e+000 -6.243055e-001 -9.677009e+000 157 120 93
-2.630575e+000 -5.524204e-001 -9.791183e+000 165 131 104
-2.585396e+000 -5.345941e-001 -9.818930e+000 160 123 105
-2.929903e+000 -4.079056e-001 -9.577706e+000 78 38 28
-2.203695e+000 -3.592906e-001 -9.988869e+000 61 38 31
-1.397617e+000 -2.792751e-001 -1.016718e+001 100 99 97
-2.530547e+000 -3.429666e-001 -9.897382e+000 140 107 90
-2.154405e+000 -2.779311e-001 -1.006948e+001 31 13 11
-2.134023e+000 -2.917731e-001 -1.008799e+001 102 84 83
-2.873894e+000 -3.786039e-002 -9.567295e+000 66 37 19
-2.845786e+000 -2.998116e-003 -9.573886e+000 111 83 59
-2.544116e+000 -2.345016e-001 -9.929962e+000 68 42 28
-2.505778e+000 -2.129380e-001 -9.949236e+000 97 75 65
-2.310457e+000 -2.316607e-001 -1.008368e+001 115 101 95
-2.997876e+000 1.235180e-001 -9.599166e+000 160 129 111
6.664968e-001 2.426390e+000 -8.989059e+000 145 110 77
-7.603830e-001 8.216798e-001 -1.077226e+001 129 128 142
-6.710880e-001 8.136934e-001 -1.078294e+001 114 109 116
-8.839721e-001 1.141522e+000 -1.062489e+001 89 69 62
-8.408859e-001 1.392929e+000 -1.053931e+001 126 93 76
-7.656943e-001 1.186346e+000 -1.078625e+001 96 63 44
-7.737361e-001 1.180835e+000 -1.078815e+001 96 63 44
-5.740217e-001 1.157640e+000 -1.089818e+001 140 108 83
-5.525037e-001 1.172496e+000 -1.089850e+001 140 108 83
-6.039701e-001 1.431643e+000 -1.088144e+001 152 118 81
-5.342984e-002 -1.945314e+000 -8.494837e+000 23 17 21
-2.090631e+000 -1.783849e+000 -8.738559e+000 150 100 72
-2.090631e+000 -1.783849e+000 -8.738559e+000 150 100 72
-2.725566e+000 -1.552729e+000 -8.426583e+000 67 24 7
-2.486899e+000 -1.661757e+000 -8.591003e+000 143 105 83
-2.815894e+000 -1.448718e+000 -8.695035e+000 159 119 93
-2.042932e+000 -1.598153e+000 -9.369099e+000 143 107 87
-2.275892e+000 -1.491034e+000 -9.410734e+000 167 119 96
-1.813918e+000 -1.445114e+000 -9.513175e+000 125 83 61
-1.805799e+000 -1.475475e+000 -9.537438e+000 173 137 113
-9.814010e-001 -1.327735e+000 -9.806833e+000 118 104 101
-1.432949e+000 -1.168703e+000 -9.799901e+000 158 139 125
-6.817258e-001 -1.236201e+000 -1.010671e+001 102 104 127
-1.346068e+000 -1.133478e+000 -9.860649e+000 64 45 39
-1.368617e+000 -1.173529e+000 -9.912412e+000 164 157 147
-1.073826e+000 -1.020286e+000 -9.973104e+000 116 86 75
-3.009854e+000 -8.846542e-001 -9.136190e+000 175 122 89
-2.455703e+000 -9.913543e-001 -9.639445e+000 81 54 42
-1.629085e+000 -1.039886e+000 -9.881303e+000 118 92 90
-2.965301e+000 -8.018621e-001 -9.398813e+000 146 94 70
-2.929089e+000 -9.282043e-001 -9.465158e+000 147 100 70
-3.004262e+000 -6.976166e-001 -9.277807e+000 88 42 24
-2.176375e+000 -7.781943e-001 -9.940809e+000 150 119 98
-1.563592e+000 -8.132513e-001 -1.008647e+001 139 117 106
