ply
format ascii 1.0
element face 0
property list uchar int vertex_indices
element vertex 896
property float x
property float y
property float z
property uchar diffuse_red
property uchar diffuse_green
property uchar diffuse_blue
end_header
3.576587e+000 2.832611e+000 -1.081457e+001 56 40 32
3.726121e+000 2.835612e+000 -1.111665e+001 32 19 14
3.726121e+000 2.835612e+000 -1.111665e+001 32 19 14
-6.876020e-001 1.066590e+000 -9.997053e+000 85 55 21
-4.649052e-001 1.215331e+000 -9.919119e+000 67 38 8
-4.274311e-001 1.216534e+000 -9.885949e+000 135 104 60
-4.020994e-001 1.154902e+000 -9.871918e+000 127 96 50
3.847916e+000 2.739841e+000 -1.091697e+001 33 18 15
-2.193396e+000 4.433689e-001 -9.402701e+000 36 16 6
-2.110931e+000 5.015730e-001 -9.233703e+000 35 18 10
-3.921055e-001 1.107718e+000 -9.838360e+000 136 103 60
9.046060e-001 2.493176e+000 -8.806324e+000 133 93 44
3.811046e+000 2.647937e+000 -1.084793e+001 67 54 43
3.811046e+000 2.647937e+000 -1.084793e+001 67 54 43
3.850550e+000 2.652079e+000 -1.077740e+001 79 65 56
-1.930893e+000 5.323543e-001 -9.180761e+000 39 18 7
-1.839140e+000 5.251505e-001 -9.174766e+000 48 26 15
-1.209505e+000 2.355605e-001 -1.005252e+001 100 85 66
9.505756e-001 2.482069e+000 -8.708537e+000 115 77 30
1.613534e+000 2.363037e+000 -9.227007e+000 71 61 44
-2.505696e+000 2.763856e-001 -8.937465e+000 85 46 13
-2.394532e+000 3.707290e-001 -8.902512e+000 109 68 35
-2.055923e+000 4.414507e-001 -8.962240e+000 71 36 16
-1.930922e+000 4.956923e-001 -8.884241e+000 71 45 28
-1.179840e+000 3.675908e-001 -9.552281e+000 75 66 52
8.767114e-001 2.412378e+000 -8.563595e+000 82 46 10
8.614539e-001 2.412739e+000 -8.453266e+000 149 118 71
3.600051e+000 2.210894e+000 -1.042912e+001 30 17 9
3.866141e+000 2.490887e+000 -1.052241e+001 45 28 20
-2.399904e+000 2.902002e-001 -8.670494e+000 142 104 64
-2.397529e+000 2.612977e-001 -8.622594e+000 134 97 53
-2.261387e+000 3.086506e-001 -8.712819e+000 126 90 54
-2.135658e+000 3.479470e-001 -8.676096e+000 116 81 48
-2.042317e+000 3.571655e-001 -8.658889e+000 56 27 9
-1.978187e+000 3.862626e-001 -8.844280e+000 52 23 8
-1.761265e+000 3.991406e-001 -8.804688e+000 39 15 5
-9.400913e-001 4.802060e-001 -9.486862e+000 73 66 52
-9.400913e-001 4.802060e-001 -9.486862e+000 73 66 52
-8.328007e-001 4.747342e-001 -9.513895e+000 34 25 17
3.743238e+000 2.275137e+000 -1.032907e+001 32 19 12
4.053772e+000 2.344240e+000 -1.041108e+001 37 19 15
-2.888664e+000 -2.513658e-001 -8.610193e+000 80 53 26
-2.888664e+000 -2.513658e-001 -8.610193e+000 80 53 26
-1.698620e+000 4.098811e-001 -8.815438e+000 52 24 8
-1.534656e+000 3.874538e-001 -8.862743e+000 39 19 3
-1.534656e+000 3.874538e-001 -8.862743e+000 39 19 3
-1.384398e+000 3.473357e-001 -9.003981e+000 50 27 14
4.222265e-001 8.968431e-001 -9.377577e+000 44 37 32
-2.888465e+000 -5.143311e-001 -8.638378e+000 156 127 97
-2.658847e+000 -1.398227e-001 -8.439381e+000 91 50 19
-2.534040e+000 -8.626546e-002 -8.481956e+000 136 91 49
-2.349467e+000 2.867837e-002 -8.398331e+000 103 62 18
-2.142799e+000 1.920545e-001 -8.452053e+000 75 39 7
-1.948665e+000 1.978431e-001 -8.445004e+000 64 34 14
-1.806373e+000 3.031723e-001 -8.572155e+000 48 20 4
5.125857e-001 8.769450e-001 -9.413714e+000 50 43 33
3.770163e+000 2.037687e+000 -1.016477e+001 31 19 13
3.867085e+000 2.144002e+000 -1.002991e+001 70 53 45
4.056467e+000 2.153952e+000 -1.006055e+001 40 27 19
-1.930276e+000 9.178836e-002 -8.328691e+000 58 29 6
-1.899157e+000 1.700405e-001 -8.417007e+000 46 15 2
-9.283595e-001 6.010106e-002 -8.945926e+000 58 46 32
7.907202e-001 1.661934e+000 -8.436929e+000 121 89 48
7.907202e-001 1.661934e+000 -8.436929e+000 121 89 48
4.070186e+000 2.141215e+000 -9.934313e+000 85 66 52
-2.398845e+000 -2.158613e-001 -8.252008e+000 139 98 54
-1.045899e+000 3.127413e-002 -8.804076e+000 92 72 47
-1.000849e+000 -6.518719e-004 -8.825121e+000 44 30 18
1.227938e-001 3.841435e-001 -9.005403e+000 17 11 13
2.605044e-001 5.058083e-001 -9.167698e+000 105 97 78
9.905162e-001 1.782484e+000 -8.248047e+000 85 63 40
1.261647e+000 1.906813e+000 -8.273979e+000 72 38 10
3.939897e+000 1.659691e+000 -9.908635e+000 25 11 7
4.177082e+000 1.998073e+000 -9.829683e+000 36 19 11
4.177082e+000 1.998073e+000 -9.829683e+000 36 19 11
4.355193e+000 2.112439e+000 -9.820736e+000 39 25 18
-2.472291e+000 -4.048065e-001 -8.222309e+000 141 97 49
-2.416148e+000 -3.192498e-001 -8.199498e+000 153 110 59
-2.469317e+000 -4.104793e-001 -8.139560e+000 117 69 28
-2.089583e+000 -1.096114e-001 -8.156340e+000 141 106 66
-1.837335e+000 -1.230555e-001 -8.167701e+000 72 38 13
-1.756349e+000 -8.164787e-002 -8.175579e+000 100 69 40
-1.465916e+000 1.811411e-001 -8.253428e+000 137 114 67
1.358551e+000 1.664026e+000 -8.313079e+000 64 29 8
1.682776e+000 1.743219e+000 -8.424768e+000 62 36 19
4.033952e+000 1.619499e+000 -9.806716e+000 27 13 7
4.365882e+000 1.994202e+000 -9.789290e+000 63 48 41
4.365882e+000 1.994202e+000 -9.789290e+000 63 48 41
-1.882733e+000 -2.363017e-001 -8.116927e+000 79 46 11
5.183712e-001 2.692359e-001 -8.889753e+000 48 35 21
1.690402e+000 1.563932e+000 -8.438054e+000 70 41 17
1.780076e+000 1.626394e+000 -8.393152e+000 63 46 26
-2.546754e+000 -7.871916e-001 -8.109760e+000 109 66 24
-2.427099e+000 -7.670297e-001 -8.007708e+000 173 137 87
-1.845521e+000 -3.191286e-001 -8.055886e+000 121 89 48
-2.089296e-001 -4.256727e-002 -8.680625e+000 24 21 23
-1.333431e-001 -7.572884e-002 -8.654371e+000 31 25 20
1.961829e-001 5.264288e-002 -8.680398e+000 131 120 59
2.274370e-001 5.463365e-002 -8.693824e+000 134 118 61
1.466193e+000 1.453474e+000 -8.215432e+000 24 14 12
1.702652e+000 1.515566e+000 -8.262068e+000 135 109 75
1.788057e+000 1.553175e+000 -8.343328e+000 79 61 38
1.788057e+000 1.553175e+000 -8.343328e+000 79 61 38
4.183646e+000 1.538161e+000 -9.582610e+000 39 26 18
4.351822e+000 1.727504e+000 -9.380245e+000 33 18 14
-1.700019e+000 -6.033983e-001 -8.005965e+000 89 53 19
-1.581580e+000 -4.883053e-001 -8.009751e+000 109 77 47
-1.454041e+000 -4.835762e-001 -8.099328e+000 86 51 22
3.835150e+000 1.086097e+000 -9.625249e+000 34 22 8
3.936442e+000 9.721604e-001 -9.651916e+000 80 68 45
3.928390e+000 9.440154e-001 -9.606866e+000 35 22 5
4.014560e+000 1.020877e+000 -9.565850e+000 83 65 43
4.266716e+000 1.357636e+000 -9.424289e+000 32 18 17
-2.323653e+000 -1.409014e+000 -8.118003e+000 64 36 3
4.864954e-001 -2.837399e-001 -8.591704e+000 96 82 46
5.246975e-001 -2.901210e-001 -8.610648e+000 106 92 64
5.246975e-001 -2.901210e-001 -8.610648e+000 106 92 64
1.285607e+000 4.515625e-001 -8.508023e+000 25 18 14
1.304839e+000 4.670769e-001 -8.544011e+000 31 24 17
4.461873e+000 1.556885e+000 -9.272196e+000 115 98 71
4.487085e+000 1.576863e+000 -9.264630e+000 40 23 16
4.422372e+000 1.604948e+000 -9.075212e+000 48 30 21
-2.482670e+000 -1.538003e+000 -8.061155e+000 198 171 128
-1.747547e+000 -7.887831e-001 -7.854334e+000 133 93 58
4.273565e-001 -5.514798e-001 -8.576694e+000 17 14 9
4.680073e-001 -4.569385e-001 -8.587690e+000 16 11 17
4.680073e-001 -4.569385e-001 -8.587690e+000 16 11 17
6.183977e-001 -3.358455e-001 -8.613595e+000 103 94 69
6.183977e-001 -3.358455e-001 -8.613595e+000 103 94 69
6.355632e-001 -4.832691e-001 -8.650068e+000 97 88 62
6.355632e-001 -4.832691e-001 -8.650068e+000 97 88 62
6.077274e-001 -5.641012e-001 -8.669191e+000 67 60 49
6.077274e-001 -5.641012e-001 -8.669191e+000 67 60 49
6.374277e-001 -3.937082e-001 -8.614676e+000 24 18 6
1.442899e+000 7.794365e-001 -8.043836e+000 28 24 13
4.292018e+000 1.269270e+000 -9.241248e+000 72 58 45
4.557057e+000 1.533474e+000 -9.033858e+000 79 58 53
-4.489805e-002 -9.143293e-001 -8.443000e+000 21 17 12
3.051380e-001 -7.673585e-001 -8.540129e+000 66 59 41
6.744719e-001 -5.309218e-001 -8.633778e+000 22 14 12
4.580655e+000 1.369741e+000 -8.982399e+000 119 99 83
1.035280e+000 -3.444231e-001 -8.423824e+000 18 8 6
1.247742e+000 7.719942e-001 -7.617903e+000 127 88 50
1.309374e+000 8.194468e-001 -7.590752e+000 144 102 60
1.404317e+000 9.195084e-001 -7.666163e+000 67 36 17
4.139338e+000 6.385762e-001 -9.097610e+000 65 49 37
4.544720e+000 1.124406e+000 -8.893099e+000 37 23 16
1.085583e-001 -1.173890e+000 -8.266189e+000 33 19 8
1.247203e+000 6.643802e-001 -7.593956e+000 86 46 23
1.284755e+000 7.734804e-001 -7.532197e+000 139 100 62
1.408667e+000 9.176731e-001 -7.516929e+000 129 90 51
1.398788e+000 9.174793e-001 -7.464007e+000 141 99 51
2.043230e+000 8.850333e-001 -7.705308e+000 58 38 12
4.515838e+000 9.744375e-001 -8.740410e+000 29 14 11
4.529951e+000 1.034652e+000 -8.756949e+000 34 19 14
4.696024e+000 1.161592e+000 -8.692198e+000 126 109 80
7.575986e-001 -8.295222e-001 -8.063834e+000 97 73 46
1.311368e+000 -8.519514e-001 -8.361303e+000 8 7 12
1.232033e+000 4.556292e-001 -7.456443e+000 169 125 78
1.255678e+000 6.645220e-001 -7.396332e+000 144 100 53
1.384937e+000 7.593130e-001 -7.329477e+000 161 117 70
4.739197e+000 1.078039e+000 -8.581270e+000 121 101 75
3.242239e-001 -1.082999e+000 -7.889163e+000 122 82 56
4.733449e-001 -8.520071e-001 -7.811807e+000 98 63 41
4.972866e-001 -9.330688e-001 -7.790046e+000 72 34 13
7.988213e-001 -8.342986e-001 -7.865656e+000 66 34 11
1.222162e+000 4.196492e-001 -7.343939e+000 171 126 74
4.313233e+000 4.789618e-001 -8.714472e+000 77 61 46
4.770169e+000 1.021007e+000 -8.424464e+000 119 96 70
6.827297e-001 -9.289747e-001 -7.677168e+000 89 46 13
1.357110e+000 5.905686e-001 -7.178043e+000 181 135 86
1.715324e+000 7.251616e-001 -7.214165e+000 159 132 76
4.569646e+000 6.769419e-001 -8.455291e+000 27 16 12
4.808634e+000 9.823670e-001 -8.383977e+000 115 90 74
7.356882e-001 -1.034812e+000 -7.570154e+000 159 111 63
1.278597e+000 -3.067495e-002 -7.321294e+000 115 109 101
1.495512e+000 4.500328e-001 -7.101976e+000 80 37 3
4.876978e+000 8.575619e-001 -8.223594e+000 121 95 73
9.614852e-001 -9.122161e-001 -7.502276e+000 147 108 63
4.726411e+000 5.776273e-001 -8.160362e+000 29 18 12
4.913854e+000 8.078106e-001 -8.166339e+000 116 94 72
1.628453e+000 3.394509e-001 -6.966578e+000 155 112 57
1.628453e+000 3.394509e-001 -6.966578e+000 155 112 57
1.703590e+000 3.491412e-001 -6.976999e+000 127 89 39
1.763923e+000 -4.342018e-002 -6.895843e+000 162 130 84
5.101340e+000 5.488339e-001 -7.745168e+000 113 89 72
6.594553e-002 1.969810e+000 -1.048497e+001 71 61 53
6.594553e-002 1.969810e+000 -1.048497e+001 71 61 53
2.743441e+000 2.756462e+000 -1.132527e+001 37 23 22
3.061343e+000 2.900695e+000 -1.125507e+001 63 45 33
-2.231475e+000 -2.619703e+000 -1.550073e+001 123 132 139
3.202218e+000 2.743275e+000 -1.125690e+001 64 49 41
3.559492e+000 2.866519e+000 -1.118052e+001 22 8 5
3.568413e+000 2.827852e+000 -1.111463e+001 24 15 10
3.707360e+000 2.888723e+000 -1.112087e+001 70 53 45
-8.595233e-001 9.099680e-001 -1.038203e+001 55 31 11
3.384444e+000 2.516248e+000 -1.083260e+001 36 25 21
3.674178e+000 2.674662e+000 -1.075712e+001 90 70 59
-4.151983e-001 1.055645e+000 -9.949931e+000 80 46 7
2.314205e-001 9.747441e-001 -1.039167e+001 109 109 109
9.607101e-001 2.493358e+000 -8.840565e+000 150 110 61
3.237161e+000 2.343151e+000 -1.083770e+001 55 44 38
3.716456e+000 2.659156e+000 -1.074428e+001 31 18 10
-2.178744e+000 4.261410e-001 -9.151313e+000 49 23 10
1.977523e-001 9.499866e-001 -1.024795e+001 105 103 104
8.633987e-001 2.433528e+000 -8.769091e+000 97 51 9
1.539996e+000 2.405176e+000 -9.156043e+000 39 24 15
-2.851865e+000 3.652143e-002 -8.866194e+000 141 100 55
-2.693566e+000 8.320940e-002 -8.815622e+000 126 85 39
-2.306302e+000 3.478621e-001 -8.904871e+000 100 63 34
-1.995681e+000 4.928919e-001 -8.974779e+000 81 50 29
-1.966691e+000 4.517366e-001 -8.886890e+000 36 14 1
-1.834972e+000 4.798353e-001 -8.999278e+000 44 21 13
-1.576450e+000 4.400129e-001 -9.128498e+000 59 32 12
-1.547693e+000 5.038177e-001 -9.116518e+000 53 28 9
-1.525646e-001 6.057691e-001 -1.008180e+001 25 16 16
-8.581162e-002 6.160873e-001 -9.991578e+000 13 12 9
3.360118e+000 2.050316e+000 -1.058405e+001 32 22 13
3.882390e+000 2.475069e+000 -1.047271e+001 92 73 66
-2.156335e+000 3.180065e-001 -8.628248e+000 137 104 63
-2.156335e+000 3.180065e-001 -8.628248e+000 137 104 63
-2.055421e+000 4.363757e-001 -8.798221e+000 58 25 4
-2.007723e+000 3.716281e-001 -8.673517e+000 50 22 8
-1.695252e+000 4.492322e-001 -8.942248e+000 45 19 7
-1.574282e+000 3.949408e-001 -8.964587e+000 45 22 6
-1.382466e+000 3.716472e-001 -9.086267e+000 41 18 5
-1.382466e+000 3.716472e-001 -9.086267e+000 41 18 5
-1.150735e+000 2.609834e-001 -9.551443e+000 13 7 4
-1.150735e+000 2.609834e-001 -9.551443e+000 13 7 4
-4.101946e-001 6.016597e-001 -9.669169e+000 107 102 71
-2.783377e+000 -1.219770e-001 -8.669793e+000 71 36 4
-2.140265e+000 2.733367e-001 -8.515064e+000 75 41 13
-2.007487e+000 2.892661e-001 -8.647130e+000 50 23 6
-1.928126e+000 3.032669e-001 -8.599821e+000 41 13 2
-1.741358e+000 3.630313e-001 -8.718250e+000 35 14 8
2.116211e-001 7.018243e-001 -9.657691e+000 72 63 47
8.778104e-001 2.139289e+000 -8.395844e+000 63 36 17
3.389453e+000 1.875646e+000 -1.037760e+001 81 64 44
3.525951e+000 1.830103e+000 -1.028367e+001 77 58 43
3.792258e+000 2.159986e+000 -1.022953e+001 37 22 20
-2.565659e+000 -6.419492e-002 -8.427897e+000 132 89 44
-2.224078e+000 9.194327e-002 -8.527955e+000 78 39 10
-2.224078e+000 9.194327e-002 -8.527955e+000 78 39 10
-1.876154e+000 3.032681e-001 -8.513508e+000 54 25 11
-1.555327e+000 1.909751e-001 -8.784510e+000 32 12 5
-1.177414e+000 2.193465e-001 -9.076896e+000 65 47 28
-1.014362e+000 1.688334e-001 -9.031216e+000 19 12 9
6.822112e-001 1.823423e+000 -8.500583e+000 151 118 75
-2.568098e+000 -2.185480e-001 -8.313238e+000 68 31 2
-2.568098e+000 -2.185480e-001 -8.313238e+000 68 31 2
-2.463504e+000 -5.739495e-002 -8.344098e+000 107 64 27
-9.761369e-001 1.004524e-001 -8.962633e+000 21 12 12
7.697687e-001 1.591405e+000 -8.540706e+000 77 55 32
-2.319427e+000 -2.380552e-001 -8.196787e+000 151 114 67
8.489722e-001 1.502584e+000 -8.426218e+000 128 102 67
1.065627e+000 1.666001e+000 -8.264053e+000 52 33 22
3.928930e+000 1.816559e+000 -9.910960e+000 64 47 39
-2.294539e+000 -2.475766e-001 -8.161537e+000 125 87 40
-2.217079e+000 -2.344198e-001 -8.214239e+000 129 88 42
-1.759987e+000 5.871981e-002 -8.136855e+000 72 40 17
3.899724e-001 4.205460e-001 -9.005932e+000 51 42 29
3.964936e+000 1.774753e+000 -9.759684e+000 72 54 45
1.181702e+000 1.407512e+000 -8.270073e+000 123 90 54
1.224962e+000 1.412961e+000 -8.196349e+000 124 93 62
1.323424e+000 1.412678e+000 -8.252961e+000 18 15 9
1.323424e+000 1.412678e+000 -8.252961e+000 18 15 9
1.869906e+000 1.547748e+000 -8.481043e+000 27 17 15
4.021367e+000 1.513118e+000 -9.688851e+000 23 12 9
-2.751398e+000 -1.214118e+000 -8.311030e+000 252 254 252
-2.180358e+000 -5.874166e-001 -7.947802e+000 121 87 42
-1.688341e+000 -3.436080e-001 -8.122272e+000 47 29 17
-1.577918e+000 -2.719201e-001 -8.027727e+000 28 21 18
-3.494906e-001 -1.749710e-001 -8.659804e+000 142 130 82
-1.395821e-001 -8.096468e-002 -8.655654e+000 35 27 15
4.309430e+000 1.664031e+000 -9.407601e+000 74 56 44
-2.419709e+000 -9.146886e-001 -7.999144e+000 153 113 62
-2.419709e+000 -9.146886e-001 -7.999144e+000 153 113 62
-2.159884e+000 -6.342909e-001 -7.939103e+000 147 110 65
-1.618603e+000 -5.222387e-001 -8.049779e+000 62 38 10
-9.766918e-001 -4.731196e-001 -8.288800e+000 67 40 10
-9.224761e-001 -5.594368e-001 -8.357022e+000 88 65 33
-4.197672e-001 -4.278309e-001 -8.562123e+000 33 25 12
3.958984e+000 1.081308e+000 -9.585591e+000 84 66 42
-1.027769e+000 -5.393485e-001 -8.248370e+000 102 66 30
-9.606696e-001 -6.071086e-001 -8.310647e+000 118 84 46
-8.229717e-001 -8.021027e-001 -8.544477e+000 108 92 66
-5.056752e-001 -6.318027e-001 -8.525198e+000 31 27 14
6.593624e-001 -7.591709e-002 -8.652901e+000 21 17 14
-9.080249e-001 -1.205779e+000 -8.445365e+000 14 14 13
-9.080249e-001 -1.205779e+000 -8.445365e+000 14 14 13
-7.081698e-001 -1.086235e+000 -8.546973e+000 160 154 133
-6.274072e-001 -9.423601e-001 -8.502330e+000 63 57 39
-6.274072e-001 -9.423601e-001 -8.502330e+000 63 57 39
-6.264905e-001 -1.104977e+000 -8.477231e+000 163 156 137
5.891177e-001 -2.572764e-001 -8.599075e+000 26 19 14
6.929704e-001 -3.600578e-001 -8.581463e+000 105 91 64
1.441585e+000 8.592908e-001 -7.997479e+000 145 119 86
4.297281e+000 1.209325e+000 -9.159835e+000 28 14 11
1.386862e+000 8.295518e-001 -7.926340e+000 141 113 71
1.447011e+000 8.740477e-001 -7.825781e+000 66 40 17
1.466224e+000 1.042477e+000 -7.790618e+000 38 16 5
2.010076e+000 9.459918e-001 -8.101125e+000 69 44 22
4.590687e+000 1.392579e+000 -8.930852e+000 36 18 11
-3.643462e-001 -1.247387e+000 -8.353077e+000 142 128 101
-1.421829e-001 -1.107322e+000 -8.413608e+000 41 34 21
5.177184e-001 -1.159589e+000 -8.696726e+000 30 19 17
4.346764e+000 9.749651e-001 -9.065740e+000 54 40 34
5.652443e-001 -9.292540e-001 -8.422243e+000 70 56 43
1.785587e+000 9.335112e-001 -7.697344e+000 36 19 11
1.910832e+000 9.062287e-001 -7.675247e+000 97 74 42
2.299683e+000 8.403354e-001 -7.957003e+000 77 54 38
2.299683e+000 8.403354e-001 -7.957003e+000 77 54 38
1.101680e-001 -1.143472e+000 -8.087362e+000 39 18 7
3.098130e-001 -9.080666e-001 -7.998319e+000 121 84 49
1.425163e+000 8.410370e-001 -7.325094e+000 141 99 57
1.771625e+000 9.354040e-001 -7.444591e+000 54 26 11
1.771625e+000 9.354040e-001 -7.444591e+000 54 26 11
1.851154e+000 9.617431e-001 -7.523874e+000 128 101 63
4.700554e+000 1.131830e+000 -8.624479e+000 129 109 84
4.727348e+000 1.169062e+000 -8.548124e+000 84 65 54
-5.434732e-002 -1.689816e+000 -8.188242e+000 46 31 26
6.086556e-001 -7.838542e-001 -7.798979e+000 61 29 9
1.343935e+000 6.556880e-001 -7.227111e+000 113 67 24
1.402885e+000 6.990603e-001 -7.328090e+000 92 50 10
1.674268e+000 8.221975e-001 -7.243525e+000 57 25 4
1.674268e+000 8.221975e-001 -7.243525e+000 57 25 4
4.232928e+000 4.454007e-001 -8.558652e+000 34 21 13
4.739795e+000 1.058976e+000 -8.504811e+000 126 105 76
2.409779e-001 -1.542306e+000 -7.938771e+000 120 81 48
2.967507e-001 -1.145923e+000 -7.821381e+000 112 74 37
7.680372e-001 -8.702477e-001 -7.731256e+000 83 46 19
1.680834e+000 6.749538e-001 -7.084855e+000 160 127 70
4.070326e+000 2.980762e-001 -8.291241e+000 21 11 12
4.117247e+000 2.671429e-001 -8.274853e+000 52 39 34
4.117247e+000 2.671429e-001 -8.274853e+000 52 39 34
4.164902e+000 2.978184e-001 -8.275306e+000 46 35 31
4.164902e+000 2.978184e-001 -8.275306e+000 46 35 31
1.699002e+000 4.490148e-001 -7.014179e+000 153 117 65
1.649110e+000 3.016560e-001 -6.951959e+000 94 50 12
4.540388e+000 2.050277e-001 -8.150956e+000 79 62 45
4.567672e+000 1.929354e-001 -8.118591e+000 66 49 34
4.865431e+000 6.210166e-001 -8.061301e+000 32 19 15
4.874459e+000 5.721938e-001 -8.004395e+000 27 14 14
4.874459e+000 5.721938e-001 -8.004395e+000 27 14 14
4.988108e+000 6.988567e-001 -7.994527e+000 93 69 53
1.755760e+000 1.379953e-001 -6.942635e+000 116 73 22
4.637371e+000 9.392533e-002 -7.974488e+000 79 64 43
1.755610e+000 4.434736e-002 -6.860278e+000 186 149 101
5.013555e+000 5.166799e-001 -7.772812e+000 74 54 45
5.075362e+000 5.846344e-001 -7.817270e+000 110 85 67
5.201107e+000 4.129855e-001 -7.819747e+000 51 37 31
4.757990e+000 -5.187923e-002 -7.861903e+000 79 62 44
-9.790401e-002 1.904507e+000 -1.036377e+001 41 22 15
3.068949e+000 2.839349e+000 -1.129396e+001 67 54 42
3.506384e+000 3.010560e+000 -1.127680e+001 26 13 7
3.228571e+000 2.728839e+000 -1.120557e+001 30 17 9
-2.996749e+000 1.579936e-001 -9.540984e+000 191 164 120
1.175049e+000 2.492917e+000 -9.313013e+000 41 31 19
-2.890111e+000 1.141658e-001 -9.205868e+000 114 81 50
-2.414618e+000 4.166754e-001 -9.129326e+000 79 44 16
-2.407606e+000 4.591406e-001 -9.199606e+000 84 46 22
-2.483279e+000 3.207796e-001 -8.951083e+000 109 69 34
-2.213663e+000 4.577012e-001 -9.028711e+000 58 29 13
7.594973e-002 9.003975e-001 -1.012681e+001 47 39 24
6.423771e-001 2.279040e+000 -8.677612e+000 97 55 22
1.187692e+000 2.556229e+000 -8.776819e+000 128 97 53
-1.107675e-001 6.439983e-001 -1.001931e+001 122 121 121
2.542897e-003 6.693359e-001 -9.938038e+000 54 46 34
-1.078958e+000 2.994746e-001 -9.412080e+000 14 9 11
-8.350573e-001 4.733040e-001 -9.439002e+000 111 103 67
-7.601041e-001 4.996849e-001 -9.449491e+000 24 21 15
-7.601041e-001 4.996849e-001 -9.449491e+000 24 21 15
-6.265980e-001 5.480942e-001 -9.548269e+000 110 98 65
-6.265980e-001 5.480942e-001 -9.548269e+000 110 98 65
-6.874712e-001 5.282131e-001 -9.452468e+000 100 89 68
-6.112131e-001 5.285779e-001 -9.482669e+000 21 12 14
-5.506040e-001 5.609410e-001 -9.566957e+000 22 16 19
-4.795603e-001 5.853317e-001 -9.573719e+000 110 96 58
-4.795603e-001 5.853317e-001 -9.573719e+000 110 96 58
-4.033616e-001 6.025393e-001 -9.582322e+000 21 13 12
-5.360236e-001 5.505830e-001 -9.488135e+000 100 86 55
-5.360236e-001 5.505830e-001 -9.488135e+000 100 86 55
-4.584875e-001 5.595039e-001 -9.506359e+000 20 13 19
-3.837341e-001 5.782517e-001 -9.512122e+000 113 97 71
-3.837341e-001 5.782517e-001 -9.512122e+000 113 97 71
-2.692373e-001 6.430864e-001 -9.694849e+000 97 87 59
-3.268251e-001 6.106040e-001 -9.607838e+000 109 94 70
-3.268251e-001 6.106040e-001 -9.607838e+000 109 94 70
-3.128985e-001 6.007492e-001 -9.521832e+000 24 16 15
-3.128985e-001 6.007492e-001 -9.521832e+000 24 16 15
-2.420719e-001 6.145804e-001 -9.537815e+000 87 75 50
-1.938034e-001 6.428734e-001 -9.723515e+000 19 10 11
-1.186224e-001 6.340053e-001 -9.758102e+000 71 63 40
-6.690373e-002 6.883002e-001 -9.803453e+000 70 61 43
-6.690373e-002 6.883002e-001 -9.803453e+000 70 61 43
-5.000645e-002 6.453516e-001 -9.744350e+000 12 11 13
3.579779e+000 2.278370e+000 -1.031760e+001 67 51 44
3.670822e+000 2.112304e+000 -1.040929e+001 26 18 12
-2.570931e+000 8.716580e-002 -8.487954e+000 144 103 48
-2.323136e+000 1.877921e-001 -8.615466e+000 80 41 8
-9.398008e-001 3.640692e-001 -9.292396e+000 123 110 80
-9.398008e-001 3.640692e-001 -9.292396e+000 123 110 80
-5.186762e-001 5.301561e-001 -9.409450e+000 19 18 11
-4.424405e-001 5.291042e-001 -9.436872e+000 106 90 66
-4.424405e-001 5.291042e-001 -9.436872e+000 106 90 66
-3.671368e-001 5.609704e-001 -9.433313e+000 23 21 9
-3.671368e-001 5.609704e-001 -9.433313e+000 23 21 9
-4.248160e-001 5.128171e-001 -9.355102e+000 20 15 11
-4.248160e-001 5.128171e-001 -9.355102e+000 20 15 11
-2.949835e-001 5.647152e-001 -9.463872e+000 105 92 61
-2.237087e-001 5.815787e-001 -9.471713e+000 20 12 13
-2.770781e-001 5.478993e-001 -9.379852e+000 16 16 7
-1.664629e-001 6.041467e-001 -9.563680e+000 13 9 4
-9.332116e-002 5.797651e-001 -9.593615e+000 62 52 41
-1.434556e-001 5.578073e-001 -9.505708e+000 57 47 30
-7.072318e-002 5.426906e-001 -9.527822e+000 16 10 8
3.589709e-002 5.778118e-001 -9.717170e+000 16 8 10
4.775389e-002 5.770069e-001 -9.625183e+000 84 73 53
1.445791e-003 5.432251e-001 -9.547619e+000 85 76 49
-1.632596e-001 4.779722e-001 -9.272028e+000 81 68 46
-1.082844e-001 5.086279e-001 -9.354504e+000 71 61 38
-5.600527e-002 5.338144e-001 -9.436403e+000 67 58 43
-5.600527e-002 5.338144e-001 -9.436403e+000 67 58 43
-8.818448e-002 4.786804e-001 -9.288482e+000 20 15 12
-8.818448e-002 4.786804e-001 -9.288482e+000 20 15 12
-3.244549e-002 4.974665e-001 -9.381026e+000 23 16 6
-3.244549e-002 4.974665e-001 -9.381026e+000 23 16 6
-1.454857e-002 4.906399e-001 -9.291332e+000 88 80 62
1.982457e-002 5.222317e-001 -9.470589e+000 21 16 13
3.790826e-002 4.984986e-001 -9.402155e+000 84 77 49
3.790826e-002 4.984986e-001 -9.402155e+000 84 77 49
7.289590e-001 1.965185e+000 -8.361424e+000 80 43 18
1.041544e+000 2.092406e+000 -8.309203e+000 163 134 74
3.770283e+000 1.947294e+000 -1.010733e+001 36 23 17
4.122573e+000 2.191600e+000 -1.006253e+001 60 41 34
-1.480448e-001 4.671781e-001 -9.180090e+000 19 15 15
5.277198e-003 4.680974e-001 -9.221602e+000 16 11 7
5.277198e-003 4.680974e-001 -9.221602e+000 16 11 7
-5.355203e-002 4.424869e-001 -9.128412e+000 16 12 9
-5.355203e-002 4.424869e-001 -9.128412e+000 16 12 9
2.482315e-002 4.283024e-001 -9.166915e+000 79 67 42
2.482315e-002 4.283024e-001 -9.166915e+000 79 67 42
5.908165e-002 4.807844e-001 -9.329219e+000 20 17 12
5.908165e-002 4.807844e-001 -9.329219e+000 20 17 12
1.306062e-001 4.954962e-001 -9.337199e+000 76 64 46
1.047118e-001 4.232057e-001 -9.197303e+000 16 12 3
1.047118e-001 4.232057e-001 -9.197303e+000 16 12 3
1.721788e-001 4.383170e-001 -9.205550e+000 71 62 50
8.954935e-001 1.809594e+000 -8.295719e+000 45 27 16
-1.835576e+000 8.571999e-002 -8.312590e+000 65 33 11
5.289989e-002 4.168348e-001 -8.978359e+000 90 79 52
1.133525e-001 4.352310e-001 -9.083571e+000 91 77 54
1.944038e-001 4.138524e-001 -9.133840e+000 20 13 6
8.985025e-001 1.727841e+000 -8.266104e+000 110 91 56
3.979139e+000 1.870806e+000 -9.883630e+000 60 46 35
1.045804e+000 7.662827e-001 -8.989283e+000 19 13 14
1.085294e+000 9.295224e-001 -8.815448e+000 46 39 26
1.786540e+000 1.715019e+000 -8.465524e+000 64 46 30
3.934814e+000 1.635344e+000 -9.846329e+000 63 46 39
-1.764711e+000 -1.188553e-001 -8.137578e+000 103 70 35
4.329724e+000 1.867446e+000 -9.613379e+000 38 23 18
-1.791139e+000 -3.490183e-001 -8.006517e+000 120 88 49
-1.987641e-001 -1.840046e-001 -8.640903e+000 33 26 14
-1.290670e-001 -1.321476e-001 -8.628222e+000 144 125 78
8.884930e-002 -5.391028e-002 -8.653050e+000 31 24 13
8.884930e-002 -5.391028e-002 -8.653050e+000 31 24 13
-2.295777e+000 -8.317500e-001 -8.020464e+000 156 123 72
-8.714267e-001 -6.784547e-001 -8.469083e+000 28 17 14
-3.627544e-001 -3.833371e-001 -8.556683e+000 145 127 78
-2.456425e-001 -2.683364e-001 -8.600045e+000 33 27 12
-1.474869e-001 -2.911551e-001 -8.569675e+000 36 30 14
-7.342550e-002 -2.748971e-001 -8.585832e+000 146 124 87
4.407808e-002 -1.566913e-001 -8.630206e+000 35 29 12
4.407808e-002 -1.566913e-001 -8.630206e+000 35 29 12
-1.682294e-003 -2.497165e-001 -8.598009e+000 26 28 7
6.941351e-002 -2.209253e-001 -8.609266e+000 127 114 74
1.153029e-001 -1.214356e-001 -8.635966e+000 135 119 70
1.153029e-001 -1.214356e-001 -8.635966e+000 135 119 70
1.866430e-001 -9.022598e-002 -8.646557e+000 28 29 13
1.413123e-001 -1.914872e-001 -8.623748e+000 26 23 9
2.172282e-001 -1.663952e-001 -8.644612e+000 121 104 65
2.608201e-001 -6.783473e-002 -8.662295e+000 144 122 75
2.608201e-001 -6.783473e-002 -8.662295e+000 144 122 75
3.052285e-001 2.944291e-002 -8.682591e+000 141 125 84
3.326787e-001 -3.818272e-002 -8.667746e+000 37 31 12
3.326787e-001 -3.818272e-002 -8.667746e+000 37 31 12
2.878954e-001 -1.379064e-001 -8.651693e+000 31 26 7
2.878954e-001 -1.379064e-001 -8.651693e+000 31 26 7
3.618685e-001 -1.094724e-001 -8.654453e+000 149 133 76
4.046912e-001 -6.280929e-003 -8.667929e+000 153 131 81
5.051284e-001 -6.195689e-002 -8.657547e+000 145 128 76
5.725197e-001 -3.069067e-002 -8.660788e+000 26 21 17
4.287492e+000 1.470592e+000 -9.339439e+000 39 24 21
4.465150e+000 1.730190e+000 -9.240337e+000 83 64 50
-1.589957e-001 -4.681118e-001 -8.530683e+000 143 123 75
-1.677847e-002 -4.066905e-001 -8.545675e+000 129 115 74
1.027890e-002 -4.741876e-001 -8.527385e+000 28 24 9
1.027890e-002 -4.741876e-001 -8.527385e+000 28 24 9
2.530756e-002 -3.069895e-001 -8.572195e+000 137 120 79
9.731033e-002 -2.898658e-001 -8.595115e+000 29 22 14
1.238902e-001 -3.593943e-001 -8.582353e+000 121 101 71
8.232572e-002 -4.539197e-001 -8.550170e+000 125 109 68
1.699670e-001 -2.583464e-001 -8.612842e+000 124 107 64
1.699670e-001 -2.583464e-001 -8.612842e+000 124 107 64
1.975452e-001 -3.324065e-001 -8.606153e+000 27 17 11
2.438488e-001 -2.397293e-001 -8.637771e+000 29 21 5
2.719269e-001 -3.049660e-001 -8.623828e+000 134 119 79
2.967718e-001 -3.733987e-001 -8.610342e+000 29 28 16
3.117391e-001 -2.071219e-001 -8.638140e+000 148 128 78
3.117391e-001 -2.071219e-001 -8.638140e+000 148 128 78
3.839701e-001 -1.712499e-001 -8.628585e+000 38 28 26
3.839701e-001 -1.712499e-001 -8.628585e+000 38 28 26
3.419399e-001 -2.805143e-001 -8.626528e+000 34 30 4
3.419399e-001 -2.805143e-001 -8.626528e+000 34 30 4
4.107325e-001 -2.458897e-001 -8.609953e+000 152 134 83
4.551829e-001 -1.465848e-001 -8.624416e+000 155 133 93
4.551829e-001 -1.465848e-001 -8.624416e+000 155 133 93
5.288440e-001 -1.210574e-001 -8.626597e+000 34 29 26
4.787322e-001 -2.205357e-001 -8.607988e+000 38 27 23
5.554652e-001 -1.989674e-001 -8.612532e+000 139 117 78
6.010316e-001 -1.013303e-001 -8.643487e+000 121 99 64
6.268849e-001 -1.721646e-001 -8.624494e+000 23 19 13
4.313904e+000 1.550045e+000 -9.237220e+000 45 28 20
-5.393646e-001 -9.634631e-001 -8.446756e+000 39 36 26
-5.300756e-001 -7.893937e-001 -8.483872e+000 155 137 91
-4.999385e-001 -8.678422e-001 -8.464426e+000 32 30 23
-4.604874e-001 -7.518902e-001 -8.473019e+000 33 27 16
-4.316060e-001 -8.306192e-001 -8.454296e+000 145 124 82
-4.316060e-001 -8.306192e-001 -8.454296e+000 145 124 82
-4.045343e-001 -8.849365e-001 -8.415587e+000 30 29 24
-3.896092e-001 -7.275008e-001 -8.476407e+000 139 123 75
-2.186607e-001 -7.216046e-001 -8.442704e+000 32 27 9
-1.045276e-001 -6.047262e-001 -8.492681e+000 134 116 75
-1.472312e-001 -6.943179e-001 -8.456445e+000 131 112 72
-1.472312e-001 -6.943179e-001 -8.456445e+000 131 112 72
-7.844666e-002 -6.714771e-001 -8.477214e+000 27 18 15
-4.541761e-002 -7.363244e-001 -8.465720e+000 108 89 57
-4.541761e-002 -7.363244e-001 -8.465720e+000 108 89 57
-3.264503e-002 -5.734407e-001 -8.503752e+000 32 30 10
4.055778e-002 -5.507289e-001 -8.519303e+000 139 116 82
1.101543e-001 -5.246753e-001 -8.536564e+000 17 18 10
2.086127e-001 -5.690936e-001 -8.549835e+000 22 11 15
2.086127e-001 -5.690936e-001 -8.549835e+000 22 11 15
6.555992e-001 -2.357540e-001 -8.604550e+000 113 100 66
6.555992e-001 -2.357540e-001 -8.604550e+000 113 100 66
7.269336e-001 -2.196260e-001 -8.625434e+000 20 17 5
4.320751e+000 1.133555e+000 -9.176657e+000 55 40 33
4.293055e+000 1.502691e+000 -9.022277e+000 62 45 37
-3.047388e-001 -9.179746e-001 -8.391107e+000 34 26 14
-2.331478e-001 -8.892624e-001 -8.399932e+000 135 121 66
-2.331478e-001 -8.892624e-001 -8.399932e+000 135 121 66
-1.881456e-001 -7.936939e-001 -8.427416e+000 136 116 79
-1.619027e-001 -8.607037e-001 -8.411863e+000 30 21 15
-8.708002e-002 -8.394346e-001 -8.432863e+000 119 98 70
-8.708002e-002 -8.394346e-001 -8.432863e+000 119 98 70
-1.869906e-002 -8.088477e-001 -8.453622e+000 23 13 7
-1.869906e-002 -8.088477e-001 -8.453622e+000 23 13 7
1.904766e+000 8.665381e-001 -8.168289e+000 69 44 21
-1.786566e-001 -1.183866e+000 -8.401167e+000 115 103 77
1.381593e+000 9.145479e-001 -7.662792e+000 67 35 14
4.667444e-001 -8.916155e-001 -8.219718e+000 85 58 37
1.407830e+000 9.100482e-001 -7.494433e+000 135 94 48
4.003516e+000 3.996952e-001 -9.037868e+000 22 11 9
4.768520e+000 1.225226e+000 -8.812223e+000 30 18 17
-1.157989e-002 -1.329129e+000 -8.198167e+000 45 27 23
9.955186e-002 -1.344320e+000 -7.903689e+000 100 68 43
3.355477e-001 -9.885024e-001 -7.926169e+000 103 68 40
5.433043e-001 -8.588851e-001 -7.865862e+000 56 28 14
8.296027e-001 -8.366906e-001 -8.011072e+000 99 74 44
4.374485e+000 6.824793e-001 -8.545016e+000 35 21 19
4.547933e+000 9.303103e-001 -8.520916e+000 56 39 32
2.054379e-001 -1.585621e+000 -7.926772e+000 156 127 100
7.899670e-001 -1.074909e+000 -7.531577e+000 175 129 79
9.353145e-001 -9.866774e-001 -7.515396e+000 130 86 37
1.410153e+000 1.678245e-001 -7.119428e+000 156 106 57
1.545173e+000 2.725965e-001 -7.032918e+000 114 66 27
1.740033e+000 4.523564e-001 -7.025599e+000 67 40 12
4.735989e+000 6.544769e-001 -8.141504e+000 63 49 39
4.806912e+000 5.772150e-001 -8.136485e+000 33 23 19
4.820605e+000 4.674563e-001 -8.010307e+000 55 41 35
4.788919e+000 3.132970e-001 -7.981838e+000 50 36 35
3.476345e+000 3.242963e+000 -1.163616e+001 31 17 16
3.497090e+000 3.132668e+000 -1.153006e+001 34 20 19
2.523829e-002 1.885716e+000 -1.038708e+001 27 17 8
1.294861e-001 1.895067e+000 -1.043455e+001 64 54 44
-7.927555e-001 1.377042e+000 -1.030852e+001 113 69 27
-6.400692e-002 1.804321e+000 -1.017025e+001 107 84 53
3.120946e+000 2.786932e+000 -1.126858e+001 29 18 12
3.202033e+000 2.820898e+000 -1.090233e+001 63 46 36
-7.850960e-001 9.587717e-001 -1.017358e+001 79 55 25
-2.265071e+000 4.033587e-001 -9.677372e+000 27 21 21
-6.618600e-001 1.071502e+000 -1.006365e+001 73 42 15
1.983185e-001 1.191560e+000 -1.028230e+001 115 113 118
-2.517892e+000 2.784480e-001 -9.238880e+000 116 76 44
-2.911626e+000 3.190321e-002 -9.145296e+000 43 22 7
-2.812559e-001 7.979727e-001 -9.970645e+000 114 86 49
3.464269e+000 2.419080e+000 -1.062550e+001 69 52 42
3.464269e+000 2.419080e+000 -1.062550e+001 69 52 42
-2.040673e+000 4.387419e-001 -8.905967e+000 103 67 43
-1.393127e+000 1.975604e-001 -9.734902e+000 71 52 36
-1.071078e+000 4.448737e-001 -9.632459e+000 52 40 23
-8.933722e-001 4.318722e-001 -9.358584e+000 122 103 72
-7.462737e-001 4.801463e-001 -9.372931e+000 105 92 62
-6.706545e-001 4.970895e-001 -9.386514e+000 22 19 10
5.719847e-001 1.998727e+000 -8.644822e+000 62 34 9
5.803026e-001 2.155118e+000 -8.480382e+000 128 91 47
-2.665962e+000 1.983426e-002 -8.636910e+000 147 108 59
-1.590053e+000 3.657698e-001 -8.889980e+000 85 59 36
-1.590053e+000 3.657698e-001 -8.889980e+000 85 59 36
-1.081801e+000 9.253784e-003 -9.560057e+000 57 48 41
-8.700569e-001 3.795393e-001 -9.305770e+000 26 19 14
-7.770563e-001 3.605962e-001 -9.250597e+000 26 18 17
-7.987440e-001 4.166346e-001 -9.299421e+000 128 108 78
-7.987440e-001 4.166346e-001 -9.299421e+000 128 108 78
-7.270420e-001 4.448735e-001 -9.302299e+000 19 18 9
-6.306210e-001 4.138064e-001 -9.261584e+000 21 12 13
-5.775703e-001 4.840847e-001 -9.326214e+000 24 17 6
-5.574776e-001 4.462515e-001 -9.259846e+000 111 99 63
3.740108e+000 2.126400e+000 -1.013527e+001 65 48 40
-2.413423e+000 9.909321e-002 -8.433635e+000 103 59 20
-8.250141e-001 2.806122e-001 -9.195258e+000 22 18 11
-7.546427e-001 3.181709e-001 -9.188421e+000 120 103 76
-7.322879e-001 2.615509e-001 -9.140020e+000 25 22 13
-6.601661e-001 2.895567e-001 -9.143143e+000 117 101 68
-5.347935e-001 3.938512e-001 -9.207524e+000 24 17 13
-4.826610e-001 4.648173e-001 -9.272698e+000 19 16 11
-4.826610e-001 4.648173e-001 -9.272698e+000 19 16 11
-4.627334e-001 4.272355e-001 -9.206051e+000 118 103 69
-5.140512e-001 3.489069e-001 -9.147440e+000 119 106 66
-4.423870e-001 3.835084e-001 -9.145019e+000 25 21 15
-4.068647e-001 4.808654e-001 -9.287541e+000 109 96 63
-3.885080e-001 4.467001e-001 -9.218897e+000 26 16 16
-3.885080e-001 4.467001e-001 -9.218897e+000 26 16 16
-3.691657e-001 4.060313e-001 -9.155890e+000 115 102 73
-3.128932e-001 4.706036e-001 -9.227373e+000 113 98 61
1.937449e-001 5.859684e-001 -9.362833e+000 106 96 71
4.220295e-001 6.348855e-001 -9.427822e+000 18 13 10
-6.393778e-001 2.460477e-001 -9.081854e+000 26 20 13
-4.926522e-001 3.020278e-001 -9.089142e+000 25 21 19
-3.994506e-001 2.858562e-001 -9.033552e+000 24 20 13
-3.485159e-001 3.636413e-001 -9.092745e+000 28 18 17
-3.283395e-001 3.202586e-001 -9.032063e+000 124 112 70
-2.742483e-001 3.857123e-001 -9.103695e+000 121 106 72
-2.227549e-001 4.550516e-001 -9.167758e+000 106 89 63
4.174582e+000 2.166550e+000 -9.982131e+000 28 19 10
-2.123577e+000 -4.961559e-002 -8.244721e+000 91 55 18
-1.827813e-001 3.771820e-001 -9.038351e+000 123 108 75
-3.270953e-002 4.121722e-001 -9.060767e+000 94 80 54
2.966736e-001 4.225717e-001 -9.165831e+000 102 94 74
2.966736e-001 4.225717e-001 -9.165831e+000 102 94 74
8.778424e-001 1.670044e+000 -8.281993e+000 38 23 13
-2.354635e+000 -3.096695e-001 -8.150674e+000 122 78 31
-2.315210e+000 -3.185006e-001 -8.092311e+000 158 122 74
8.289159e-002 3.479374e-001 -8.947674e+000 18 13 8
1.648300e+000 1.713500e+000 -8.373710e+000 68 40 24
-2.192190e+000 -5.442959e-001 -8.009991e+000 155 121 73
-2.192190e+000 -5.442959e-001 -8.009991e+000 155 121 73
2.452019e-001 1.357952e-001 -8.716047e+000 89 75 48
4.388485e+000 1.747385e+000 -9.494932e+000 80 57 44
4.468524e+000 1.623616e+000 -9.314041e+000 43 28 23
-2.064596e+000 -8.766646e-001 -7.853890e+000 129 91 54
4.452460e+000 1.674776e+000 -9.163080e+000 80 59 48
4.502631e+000 1.596654e+000 -9.110502e+000 71 52 38
1.015618e+000 5.932886e-002 -8.451350e+000 47 38 31
7.376848e-001 -4.632581e-001 -8.529415e+000 83 74 59
1.234785e+000 1.760305e-001 -8.313146e+000 71 63 42
1.510449e+000 9.716960e-001 -7.735612e+000 28 14 11
1.957827e+000 9.596810e-001 -8.117151e+000 12 7 12
9.531022e-001 -9.919927e-001 -8.721225e+000 116 120 123
4.107809e+000 6.972854e-001 -9.154805e+000 58 41 30
9.168590e-001 -1.087287e+000 -8.566658e+000 53 46 38
-2.378859e-001 -1.837612e+000 -8.358608e+000 124 131 134
9.426787e-001 -1.066812e+000 -8.462281e+000 118 123 127
1.241114e+000 3.969026e-001 -7.608729e+000 113 69 30
6.182040e-002 -1.355710e+000 -8.019309e+000 43 31 19
6.840544e-001 -8.052385e-001 -7.981437e+000 62 32 16
1.362806e+000 6.399761e-001 -7.325643e+000 151 106 50
6.223538e-001 -1.048784e+000 -7.716787e+000 86 41 19
4.164686e+000 4.301093e-001 -8.432862e+000 27 17 16
4.193954e+000 3.118451e-001 -8.350123e+000 22 12 11
4.526119e+000 4.979189e-001 -8.388800e+000 38 27 23
4.802532e+000 5.816709e-001 -8.292655e+000 25 15 10
4.855483e+000 2.607423e-001 -7.823363e+000 56 42 41
2.866475e+000 3.010123e+000 -1.162455e+001 33 19 16
6.045134e-002 1.768866e+000 -1.026547e+001 66 51 32
2.498861e+000 2.229997e+000 -1.168962e+001 21 11 10
3.437481e+000 2.670893e+000 -1.085306e+001 46 30 21
6.214649e-001 2.351285e+000 -8.842449e+000 168 126 76
1.365516e+000 2.498577e+000 -9.145271e+000 63 49 28
2.947927e+000 1.863736e+000 -1.109373e+001 57 46 29
6.294491e-001 2.428276e+000 -8.502667e+000 164 122 76
9.672569e-001 2.479327e+000 -8.774499e+000 129 88 44
-2.882588e+000 -7.857392e-002 -8.912054e+000 122 79 35
-1.709722e+000 5.160394e-001 -9.195807e+000 46 23 15
-1.291493e+000 2.180460e-002 -9.902877e+000 115 115 117
-1.774934e-002 6.948052e-001 -1.002495e+001 22 17 13
5.519708e-001 2.180077e+000 -8.619192e+000 137 100 56
3.979633e+000 2.464827e+000 -1.050927e+001 27 18 11
-2.806268e+000 1.144692e-004 -8.749475e+000 144 101 50
-2.629719e+000 1.311708e-001 -8.741382e+000 149 107 59
-1.954138e+000 4.974621e-001 -8.799546e+000 33 13 2
6.194322e-001 2.001833e+000 -8.576122e+000 147 104 63
8.390141e-001 2.265892e+000 -8.483513e+000 52 22 11
9.710898e-001 2.410258e+000 -8.449598e+000 159 126 73
3.740716e+000 2.271579e+000 -1.026372e+001 28 17 14
3.740716e+000 2.271579e+000 -1.026372e+001 28 17 14
-2.588761e+000 -4.294428e-002 -8.508328e+000 96 53 13
3.363900e+000 1.502336e+000 -1.040855e+001 72 57 39
-1.043804e+000 2.697348e-002 -9.083185e+000 78 58 37
3.851647e+000 1.525503e+000 -9.862678e+000 25 14 12
2.141799e+000 1.776234e+000 -8.380003e+000 32 21 19
4.465665e+000 1.877601e+000 -9.727986e+000 33 20 20
4.465665e+000 1.877601e+000 -9.727986e+000 33 20 20
4.409678e+000 1.925686e+000 -9.528123e+000 70 54 42
4.427800e+000 1.734825e+000 -9.419856e+000 32 18 15
-1.964581e+000 -6.893503e-001 -7.933981e+000 136 101 61
-1.964581e+000 -6.893503e-001 -7.933981e+000 136 101 61
4.336217e-001 -9.560733e-001 -8.683620e+000 19 14 11
1.140798e+000 -3.626176e-002 -8.277278e+000 80 65 42
1.422406e+000 8.886180e-001 -7.608045e+000 124 89 55
2.106928e+000 9.834899e-001 -7.955344e+000 93 62 31
1.241641e+000 3.920532e-001 -7.714799e+000 165 133 86
7.561016e-001 -7.687713e-001 -7.871874e+000 71 40 20
5.011847e-001 -1.240938e+000 -7.742491e+000 117 68 27
7.653528e-001 -9.190795e-001 -7.602224e+000 130 87 43
4.621445e+000 3.783126e-001 -8.057931e+000 26 16 15
1.813328e+000 1.708475e-001 -6.906952e+000 116 74 31
1.813328e+000 1.708475e-001 -6.906952e+000 116 74 31
2.043711e+000 3.672810e-001 -6.953440e+000 157 120 67
5.086246e+000 3.019915e-001 -7.780905e+000 28 17 15
2.993329e+000 3.233089e+000 -1.169036e+001 53 36 28
-6.615779e-001 1.190977e+000 -1.010456e+001 113 79 41
-2.505152e+000 2.128558e-001 -9.799110e+000 26 21 18
-2.373192e+000 2.265433e-001 -9.733445e+000 110 84 57
2.684283e+000 1.971668e+000 -1.121142e+001 23 13 11
-2.173681e+000 4.291487e-001 -9.367296e+000 41 23 13
-4.463396e-001 9.961015e-001 -9.885796e+000 139 102 55
3.606711e+000 2.596461e+000 -1.066369e+001 112 87 58
-2.665083e+000 1.817839e-001 -9.005123e+000 132 93 49
-2.665083e+000 1.817839e-001 -9.005123e+000 132 93 49
2.574404e-001 8.923766e-001 -1.030431e+001 110 108 111
9.816096e-001 2.499935e+000 -8.639277e+000 155 125 71
1.087274e+000 2.504114e+000 -8.859079e+000 154 123 71
2.860384e+000 1.783146e+000 -1.104163e+001 26 20 15
1.122349e+000 1.551367e+000 -8.298188e+000 56 33 16
-2.698012e-001 2.525250e-002 -8.726194e+000 19 15 20
1.457359e+000 1.645919e+000 -8.295283e+000 83 50 21
4.018442e-002 3.972200e-002 -8.682938e+000 89 74 42
1.798840e+000 9.052577e-001 -8.092275e+000 70 45 23
-4.521361e-001 -1.371851e+000 -8.447835e+000 161 147 121
-4.521361e-001 -1.371851e+000 -8.447835e+000 161 147 121
5.991516e-001 -1.123748e+000 -8.765054e+000 127 127 125
5.991516e-001 -1.123748e+000 -8.765054e+000 127 127 125
-3.093901e-001 -1.593942e+000 -8.372977e+000 162 151 128
8.625953e-001 -1.130865e+000 -8.569836e+000 32 25 17
1.309340e+000 5.620413e-001 -7.351798e+000 75 30 11
2.506477e+000 2.259555e+000 -1.220136e+001 26 16 14
3.483634e+000 3.006402e+000 -1.127568e+001 31 20 16
-2.652282e+000 1.660886e-001 -9.809538e+000 137 115 79
-1.993128e+000 4.991230e-001 -9.398665e+000 30 16 15
9.004206e-002 1.114225e+000 -1.010905e+001 75 62 50
3.189402e+000 1.648380e+000 -1.077562e+001 74 57 40
-2.624510e+000 3.935089e-003 -8.625220e+000 149 108 60
5.407965e-001 1.259847e+000 -9.196284e+000 54 45 30
-1.810693e+000 3.095263e-001 -8.553751e+000 52 23 5
4.032944e+000 2.042900e+000 -9.796197e+000 73 51 37
4.032944e+000 2.042900e+000 -9.796197e+000 73 51 37
3.713655e+000 1.098808e+000 -1.009262e+001 45 30 11
-1.070659e+000 -1.057124e+000 -8.243925e+000 131 97 52
1.243433e+000 -7.765631e-001 -8.350641e+000 20 16 16
4.141347e+000 2.764205e-001 -8.150252e+000 19 13 13
4.743625e+000 2.480007e-001 -7.864635e+000 31 20 19
6.400600e-001 2.412919e+000 -8.954246e+000 175 139 81
8.627996e-001 2.503851e+000 -9.171289e+000 150 112 62
3.266569e+000 2.214070e+000 -1.069005e+001 26 16 14
3.033772e+000 1.627945e+000 -1.082905e+001 21 12 10
9.115459e-001 1.926747e+000 -8.311064e+000 42 27 20
-1.378898e+000 -2.471108e-001 -8.085834e+000 168 137 83
-2.379677e+000 -8.813051e-001 -7.989462e+000 165 129 77
9.341180e-001 -1.080841e+000 -8.715882e+000 116 120 120
4.606878e+000 4.744125e-001 -8.237914e+000 27 17 16
5.945907e-001 1.620167e+000 -8.556845e+000 36 27 20
3.275120e+000 1.333799e+000 -1.031762e+001 20 12 11
-4.694691e-001 -9.728867e-001 -8.463211e+000 154 132 93
1.347029e+000 6.654438e-001 -8.113578e+000 39 30 26
1.095544e+000 -1.155542e+000 -8.576753e+000 119 123 126
-2.920408e+000 3.930100e-002 -9.186307e+000 90 64 36
6.731520e-001 1.802697e+000 -8.595035e+000 138 106 59
-2.321549e+000 -6.704570e-001 -8.003269e+000 153 119 71
-9.042094e-001 -1.463787e+000 -8.399057e+000 18 13 17
4.227355e+000 2.612285e-001 -8.614440e+000 34 24 23
-1.765143e-001 1.463037e+000 -1.002624e+001 136 105 56
-3.261967e-001 9.953990e-001 -9.914949e+000 118 89 47
7.615469e-001 2.199087e+000 -8.390822e+000 76 46 34
4.297458e+000 8.024063e-001 -9.889400e+000 81 63 41
3.415800e+000 2.238538e+000 -1.051623e+001 35 24 22
3.415800e+000 2.238538e+000 -1.051623e+001 35 24 22
-1.371525e+000 1.797288e-001 -8.541976e+000 129 102 58
-8.166019e-001 -2.173262e-001 -8.733104e+000 67 58 37
2.009573e+000 1.700253e+000 -8.650453e+000 16 12 13
-1.179844e+000 1.551997e-001 -9.289602e+000 26 17 17
9.193459e-001 1.003962e+000 -8.164059e+000 15 13 15
4.229977e+000 2.604610e+000 -1.045291e+001 155 134 115
4.253442e+000 2.582211e+000 -1.042867e+001 59 38 17
-4.844491e+000 3.953922e+000 -2.019714e+001 50 45 39
8.146971e-001 1.651486e+000 -8.365830e+000 159 133 99
-2.998007e+000 2.835719e+000 -1.912188e+001 17 16 21
-7.239821e-001 1.207610e+000 -1.009100e+001 132 101 71
-3.862923e-001 1.099022e+000 -9.823208e+000 150 125 92
-2.354079e-001 8.699618e-001 -9.908184e+000 61 44 24
2.700297e-002 8.342192e-001 -9.956612e+000 73 60 56
4.135586e-001 3.340432e-001 -8.906943e+000 64 56 53
-4.532783e-001 1.697706e-001 -8.918291e+000 136 130 114
-6.078963e-001 -1.669939e-001 -8.713828e+000 107 102 87
-2.212009e+000 -3.146908e-001 -8.128067e+000 121 82 51
-1.847590e+000 -6.309734e-001 -8.002951e+000 140 108 79
-2.223780e+000 -1.071680e+000 -8.011183e+000 129 95 76
-1.794188e+000 -1.396934e+000 -8.102759e+000 25 15 16
-1.794188e+000 -1.396934e+000 -8.102759e+000 25 15 16
3.294777e+000 2.800020e+000 -1.092592e+001 99 86 69
3.294777e+000 2.800020e+000 -1.092592e+001 99 86 69
-3.395628e+000 4.149528e+000 -2.091400e+001 55 57 64
1.036383e+000 1.565888e+000 -8.182470e+000 94 81 72
-4.524458e-001 1.731358e+000 -1.010134e+001 104 66 29
1.017021e+000 1.519245e+000 -8.284853e+000 76 62 55
1.005845e+000 1.461075e+000 -8.371056e+000 31 17 14
1.235741e+000 1.402537e+000 -8.207346e+000 72 44 30
1.461078e+000 3.690800e-001 -7.109061e+000 141 98 53
-2.065700e-001 2.080275e-001 -8.830804e+000 135 130 108
-2.297668e+000 -5.159739e-002 -8.241801e+000 163 129 84
1.715247e+000 -6.358240e-002 -6.893554e+000 182 143 104
-1.666542e+000 -1.954943e-001 -8.101717e+000 157 133 109
1.581138e+000 -1.477918e-001 -7.082245e+000 122 69 36
-1.767136e+000 -4.840324e-001 -8.003305e+000 123 96 67
-2.385551e+000 -7.318790e-001 -8.030823e+000 192 164 126
-1.921050e+000 -8.236896e-001 -7.976261e+000 119 83 51
-1.909930e+000 -8.802298e-001 -7.938715e+000 122 86 54
-1.727710e+000 -1.130643e+000 -8.005041e+000 106 70 54
-1.484395e+000 -1.117461e+000 -8.161760e+000 35 15 8
-1.304308e+000 -1.439949e+000 -8.217852e+000 69 53 54
9.430794e-001 -1.858836e+000 -8.021441e+000 154 113 83
3.601327e+000 3.173096e+000 -1.137045e+001 73 58 51
3.601327e+000 3.173096e+000 -1.137045e+001 73 58 51
3.267253e+000 2.943405e+000 -1.104340e+001 112 94 84
1.084181e+000 2.041246e+000 -8.296315e+000 67 48 18
6.227257e-001 1.852232e+000 -8.597644e+000 60 34 12
1.594979e+000 1.803714e+000 -8.291190e+000 147 127 95
1.655848e+000 1.465308e+000 -8.289507e+000 65 38 19
1.523046e+000 8.881463e-001 -7.525668e+000 83 49 36
1.255429e+000 7.599369e-001 -7.636306e+000 20 22 24
-9.332959e-001 3.590171e-001 -9.263505e+000 165 162 132
-9.332959e-001 3.590171e-001 -9.263505e+000 165 162 132
-7.284723e-001 4.545329e-001 -9.259092e+000 28 24 13
1.607461e+000 2.906548e-001 -7.055945e+000 103 68 37
-8.897846e-001 2.558678e-001 -9.171769e+000 152 148 122
1.563508e+000 -1.025397e-001 -7.043106e+000 115 65 40
-2.633124e+000 -3.642157e-001 -8.276653e+000 128 92 60
-1.759499e+000 -4.068195e-001 -8.103336e+000 71 44 25
-1.445171e+000 -4.362574e-001 -8.153897e+000 136 113 81
2.145224e+000 -2.760553e-001 -7.139984e+000 53 30 18
-1.581769e+000 -4.712196e-001 -8.020953e+000 109 97 80
-1.073291e+000 -8.555667e-001 -8.265850e+000 81 52 31
-2.417155e+000 -1.041962e+000 -8.075793e+000 118 77 45
-1.836419e+000 -1.023767e+000 -7.963192e+000 114 80 61
-2.517810e+000 -1.187178e+000 -8.123828e+000 107 67 35
-2.457334e+000 -1.142603e+000 -8.085911e+000 101 66 36
-2.457334e+000 -1.142603e+000 -8.085911e+000 101 66 36
-1.281827e+000 -1.208076e+000 -8.145550e+000 36 19 22
-1.502516e-001 -1.174478e+000 -8.368636e+000 122 118 105
2.987605e-001 -1.457359e+000 -7.882335e+000 41 21 15
-2.610156e+000 -1.793353e+000 -8.359808e+000 64 54 53
9.323929e-001 -1.680631e+000 -7.856628e+000 171 131 95
-4.320702e+000 4.313823e+000 -2.028936e+001 148 149 153
-4.193491e+000 3.272219e+000 -2.042743e+001 199 207 220
-6.972513e-001 1.437327e+000 -9.997949e+000 139 97 59
4.702677e-001 1.194800e+000 -9.592302e+000 26 21 18
-7.103148e-001 1.027798e+000 -1.000139e+001 163 127 95
1.504900e+000 4.247640e-001 -7.133174e+000 123 84 55
4.007098e-001 3.737413e-001 -8.883454e+000 123 122 111
-8.253817e-001 1.552854e-001 -9.078024e+000 109 101 90
-1.850690e+000 5.957628e-002 -8.286726e+000 54 22 13
-2.182626e+000 -1.357639e-002 -8.212935e+000 170 142 105
-3.810630e-001 -3.283828e-001 -8.590914e+000 26 21 25
1.593565e+000 -1.971362e-001 -7.126080e+000 170 126 87
-2.563213e+000 -5.028126e-001 -8.172266e+000 132 91 53
-1.827835e+000 -6.713497e-001 -7.967236e+000 87 49 30
-1.599555e+000 -7.032767e-001 -8.031109e+000 80 46 19
-5.551907e-001 -7.341205e-001 -8.515298e+000 29 25 13
-8.807837e-001 -9.636696e-001 -8.503390e+000 23 11 21
-1.815734e+000 -9.700704e-001 -7.936373e+000 79 46 30
-1.203252e+000 -9.417987e-001 -8.130615e+000 80 50 35
-6.574091e-001 -1.045676e+000 -8.515521e+000 24 20 19
-5.716590e-001 -1.068273e+000 -8.449839e+000 24 22 22
-3.572003e-002 -9.834152e-001 -8.455438e+000 127 114 85
-2.417422e+000 -1.091202e+000 -8.099148e+000 161 126 88
-1.643040e+000 -1.109575e+000 -8.014732e+000 73 40 34
