ply
format ascii 1.0
element face 0
property list uchar int vertex_indices
element vertex 882
property float x
property float y
property float z
property uchar diffuse_red
property uchar diffuse_green
property uchar diffuse_blue
end_header
4.354342e+000 -1.324106e-001 -1.526789e+001 148 107 64
4.224220e+000 -3.074165e-001 -1.538613e+001 162 123 81
2.385274e+000 -8.003457e-001 -1.531111e+001 69 48 30
2.879285e+000 -6.416648e-001 -1.531341e+001 93 70 52
4.656116e+000 -2.881936e+000 -1.603420e+001 219 183 125
2.380777e+000 -8.551556e-001 -1.542736e+001 93 71 47
3.580232e+000 -6.192315e-001 -1.558910e+001 119 85 55
3.580232e+000 -6.192315e-001 -1.558910e+001 119 85 55
2.359024e+000 -9.964392e-001 -1.555434e+001 69 50 33
4.607586e+000 -3.372532e+000 -1.663794e+001 219 181 120
1.785768e+000 -1.561003e+000 -1.608064e+001 173 109 97
3.717492e+000 -1.606780e+000 -1.690324e+001 143 107 73
3.637063e+000 -1.936260e+000 -1.724608e+001 135 101 66
3.872903e-001 -1.457656e+000 -1.729382e+001 136 81 69
2.776693e+000 -2.534907e+000 -1.768903e+001 104 73 52
2.927397e+000 -2.524175e+000 -1.792325e+001 73 48 25
3.204902e+000 -1.584484e+000 -1.889711e+001 117 93 67
1.487631e+000 -1.583259e+000 -1.863210e+001 142 120 96
1.616124e+000 -1.783812e+000 -1.639228e+001 125 49 49
1.602112e+000 -2.150255e+000 -1.701872e+001 115 45 33
-1.050068e+000 -2.517098e+000 -1.656801e+001 152 91 86
3.827597e+000 -6.592152e-001 -1.580049e+001 92 60 33
1.942064e+000 -1.790076e+000 -1.645269e+001 102 64 47
1.344403e+000 -1.954834e+000 -1.686941e+001 114 54 48
1.344403e+000 -1.954834e+000 -1.686941e+001 114 54 48
2.311311e+000 -2.636693e+000 -1.750549e+001 26 17 10
2.286850e+000 -2.585335e+000 -1.760987e+001 69 58 40
3.830648e+000 -1.364368e+000 -1.659300e+001 74 40 18
4.529477e+000 -3.277405e+000 -1.708724e+001 131 99 50
4.430147e+000 -2.740927e+000 -1.728411e+001 124 92 42
2.310513e+000 -2.838610e+000 -1.727736e+001 109 90 66
3.175144e+000 -2.301622e+000 -1.750575e+001 59 34 12
1.414009e+000 -2.251057e+000 -1.765669e+001 149 105 80
1.524180e+000 -2.398471e+000 -1.762761e+001 126 90 52
1.813845e+000 -2.649994e+000 -1.758304e+001 137 99 63
3.055933e+000 -2.381022e+000 -1.831775e+001 47 30 10
1.976188e+000 -2.641361e+000 -1.812332e+001 83 72 52
2.652008e+000 -2.282978e+000 -1.835977e+001 61 43 21
1.670713e+000 -2.046777e+000 -1.849888e+001 62 48 31
4.801154e+000 -2.530581e+000 -1.578744e+001 193 157 98
9.605631e-001 -1.341783e+000 -1.591687e+001 132 66 56
3.350779e+000 -1.464653e+000 -1.651128e+001 68 41 20
2.116252e+000 -1.747794e+000 -1.635028e+001 159 135 107
1.981648e+000 -1.891701e+000 -1.640003e+001 58 49 27
3.257470e+000 -1.786416e+000 -1.699632e+001 105 76 44
4.527585e+000 -3.344187e+000 -1.713203e+001 132 101 47
4.527585e+000 -3.344187e+000 -1.713203e+001 132 101 47
2.900048e+000 -2.149609e+000 -1.724296e+001 81 51 25
3.304004e+000 -2.464657e+000 -1.806480e+001 90 65 42
3.424832e+000 -2.152468e+000 -1.857515e+001 61 40 18
2.593176e+000 -6.654613e-001 -1.496853e+001 35 25 13
2.239725e+000 -9.115264e-001 -1.543206e+001 186 152 115
2.442967e+000 -8.389327e-001 -1.551042e+001 55 40 24
2.403355e+000 -1.391275e+000 -1.600154e+001 41 29 13
3.277875e+000 -1.136262e+000 -1.611374e+001 123 90 59
2.389456e+000 -1.483397e+000 -1.614273e+001 42 25 15
3.789889e+000 -1.243379e+000 -1.637500e+001 95 62 30
1.158683e+000 -1.354666e+000 -1.632817e+001 117 57 49
3.463581e+000 -1.662138e+000 -1.688249e+001 105 77 50
3.542483e+000 -1.919567e+000 -1.724171e+001 60 34 11
1.507652e+000 -2.187152e+000 -1.695849e+001 186 130 114
1.488286e+000 -2.202572e+000 -1.711281e+001 135 81 64
3.034627e+000 -2.213265e+000 -1.736930e+001 107 80 51
3.410646e+000 -2.175298e+000 -1.744853e+001 95 64 33
1.585002e+000 -2.015531e+000 -1.832827e+001 150 129 98
3.962517e+000 -9.982517e-001 -1.617157e+001 87 58 28
3.725807e+000 -1.889654e+000 -1.726870e+001 81 48 18
3.515358e+000 -2.040861e+000 -1.736108e+001 114 80 52
1.925341e+000 -2.589801e+000 -1.736435e+001 215 181 144
1.688092e+000 -2.096003e-001 -1.541322e+001 38 31 26
1.343085e+000 -1.477959e+000 -1.609387e+001 152 89 78
1.343085e+000 -1.477959e+000 -1.609387e+001 152 89 78
1.268085e+000 -2.023790e+000 -1.651502e+001 167 114 96
3.600440e+000 -1.188599e+000 -1.627861e+001 127 91 57
3.930706e+000 -1.840973e+000 -1.922359e+001 27 22 18
4.646190e+000 -2.463856e+000 -1.585516e+001 205 177 127
4.670508e+000 -2.347354e+000 -1.584003e+001 197 169 121
4.676282e+000 -8.740491e-001 -1.538819e+001 182 155 102
4.708194e+000 -8.025905e-001 -1.540622e+001 200 172 120
4.661998e+000 -9.579493e-001 -1.543574e+001 201 173 123
2.771794e+000 -8.165035e-001 -1.518990e+001 71 55 39
4.622557e+000 -7.500068e-001 -1.555998e+001 153 123 73
4.588797e+000 -2.624806e+000 -1.619243e+001 189 161 115
4.660590e+000 -2.621954e+000 -1.625487e+001 141 110 64
2.420919e+000 -6.872383e-001 -1.523145e+001 68 54 40
2.500781e+000 -5.635593e-001 -1.526685e+001 62 49 33
2.075621e+000 -8.051984e-001 -1.544652e+001 178 147 116
2.307064e+000 -9.283779e-001 -1.548527e+001 128 95 67
2.739587e+000 -7.187975e-001 -1.542485e+001 43 31 15
4.561670e+000 -4.758223e-001 -1.577398e+001 163 131 77
4.546498e+000 -1.586525e+000 -1.610842e+001 193 163 113
4.553414e+000 -1.523507e+000 -1.613696e+001 145 114 67
4.534742e+000 -3.212498e+000 -1.655890e+001 139 109 62
2.541814e+000 -8.102627e-001 -1.563111e+001 67 55 42
2.663701e+000 -9.269131e-001 -1.568742e+001 60 45 26
2.635040e+000 -1.029477e+000 -1.573390e+001 72 57 36
3.618029e+000 -8.049492e-001 -1.584955e+001 96 65 36
4.012097e+000 -8.610514e-001 -1.604997e+001 123 94 64
4.562428e+000 -4.793268e-001 -1.605780e+001 198 166 125
1.999086e+000 -8.138473e-001 -1.565265e+001 126 98 76
2.375022e+000 -1.213520e+000 -1.582450e+001 47 34 20
2.375022e+000 -1.213520e+000 -1.582450e+001 47 34 20
2.613948e+000 -1.170439e+000 -1.586123e+001 78 63 42
4.027532e+000 -9.764492e-001 -1.614446e+001 123 93 64
4.496186e+000 -1.384745e+000 -1.637518e+001 170 137 86
4.496186e+000 -1.384745e+000 -1.637518e+001 170 137 86
1.737674e+000 -1.263008e+000 -1.596484e+001 115 32 34
1.780543e+000 -1.254470e+000 -1.597995e+001 127 47 48
3.311002e+000 -1.292803e+000 -1.630402e+001 76 52 26
4.448788e+000 -3.307886e+000 -1.700000e+001 141 110 62
4.448788e+000 -3.307886e+000 -1.700000e+001 141 110 62
4.478338e+000 -3.430007e+000 -1.701870e+001 168 137 91
1.285975e+000 -1.296123e+000 -1.591453e+001 129 69 59
1.388550e+000 -1.409912e+000 -1.605295e+001 145 89 74
2.320889e+000 -1.647927e+000 -1.634184e+001 47 34 20
3.754861e+000 -1.448861e+000 -1.660289e+001 108 81 54
4.399034e+000 -1.254083e+000 -1.671784e+001 111 78 35
4.423861e+000 -2.866625e+000 -1.703621e+001 184 154 102
4.415141e+000 -2.958030e+000 -1.708440e+001 179 148 101
4.415141e+000 -2.958030e+000 -1.708440e+001 179 148 101
1.543916e+000 -1.800541e+000 -1.630668e+001 148 100 78
1.814060e+000 -1.584030e+000 -1.629339e+001 155 85 86
1.834012e+000 -1.742139e+000 -1.636479e+001 195 155 132
2.247966e+000 -1.720479e+000 -1.648626e+001 57 38 23
2.352211e+000 -1.714397e+000 -1.643025e+001 35 23 7
2.354901e+000 -1.814697e+000 -1.648273e+001 70 61 37
2.788653e+000 -1.434350e+000 -1.645474e+001 123 96 71
3.251867e+000 -1.553586e+000 -1.658158e+001 92 67 41
3.384797e+000 -1.570380e+000 -1.668200e+001 68 41 20
2.061526e+000 -1.845597e+000 -1.647345e+001 112 77 55
2.027993e+000 -1.882175e+000 -1.657097e+001 120 86 59
2.185223e+000 -1.799575e+000 -1.649864e+001 40 28 13
2.120417e+000 -1.935464e+000 -1.662143e+001 129 100 72
2.199383e+000 -1.893366e+000 -1.665583e+001 57 40 24
2.199383e+000 -1.893366e+000 -1.665583e+001 57 40 24
2.451372e+000 -1.799383e+000 -1.664270e+001 86 69 42
2.609683e+000 -1.858313e+000 -1.672275e+001 132 111 84
3.047934e+000 -1.720633e+000 -1.679649e+001 77 53 29
3.062583e+000 -1.769453e+000 -1.683134e+001 78 52 29
3.684741e+000 -1.569784e+000 -1.696289e+001 120 87 54
4.314784e+000 -1.552673e+000 -1.709181e+001 97 64 31
4.314784e+000 -1.552673e+000 -1.709181e+001 97 64 31
4.390010e+000 -2.853843e+000 -1.724987e+001 135 107 59
7.593110e-001 -7.826037e-001 -1.616664e+001 136 60 60
2.046982e+000 -1.997893e+000 -1.670431e+001 240 213 182
2.405162e+000 -1.956369e+000 -1.677693e+001 82 66 41
2.394197e+000 -1.913015e+000 -1.682760e+001 195 176 135
2.415629e+000 -1.924520e+000 -1.680280e+001 79 63 38
2.455124e+000 -1.941389e+000 -1.684142e+001 77 61 38
3.412165e+000 -1.731705e+000 -1.695256e+001 90 61 35
3.491781e+000 -1.847356e+000 -1.710206e+001 106 75 44
4.355332e+000 -1.494960e+000 -1.713372e+001 115 83 44
4.298584e-001 -1.559695e+000 -1.639970e+001 69 47 36
1.231485e+000 -1.991204e+000 -1.662359e+001 137 89 75
1.231485e+000 -1.991204e+000 -1.662359e+001 137 89 75
1.267103e+000 -2.005042e+000 -1.670318e+001 106 60 49
1.458881e+000 -2.084903e+000 -1.672907e+001 151 97 85
1.647233e+000 -2.036784e+000 -1.669253e+001 173 108 106
2.190660e+000 -2.100361e+000 -1.688278e+001 58 45 31
2.246079e+000 -2.020025e+000 -1.683055e+001 51 35 20
3.394149e+000 -1.970268e+000 -1.722054e+001 122 91 63
4.272028e+000 -1.735708e+000 -1.731863e+001 108 76 36
-8.401364e-001 -2.200345e+000 -1.624090e+001 113 77 62
1.379042e+000 -1.951461e+000 -1.677929e+001 129 81 68
1.594616e+000 -2.081017e+000 -1.689636e+001 178 121 110
2.040034e+000 -2.341842e+000 -1.704213e+001 111 79 46
2.179475e+000 -2.167980e+000 -1.706370e+001 57 42 28
3.355535e+000 -2.105853e+000 -1.734810e+001 96 66 38
3.900681e+000 -2.074561e+000 -1.742742e+001 115 79 45
4.034586e+000 -2.158534e+000 -1.754520e+001 165 130 89
4.034586e+000 -2.158534e+000 -1.754520e+001 165 130 89
4.353053e+000 -2.825855e+000 -1.767336e+001 133 105 57
4.346991e+000 -3.350879e+000 -1.767337e+001 134 106 59
4.310939e+000 -3.406516e+000 -1.771359e+001 142 114 66
4.310939e+000 -3.406516e+000 -1.771359e+001 142 114 66
1.515306e+000 -2.202927e+000 -1.702408e+001 171 112 99
1.825487e+000 -2.309908e+000 -1.705377e+001 204 168 132
1.864769e+000 -2.363927e+000 -1.712684e+001 153 110 75
2.026288e+000 -2.535721e+000 -1.722663e+001 136 111 79
2.296867e+000 -2.815769e+000 -1.727367e+001 69 51 37
2.334700e+000 -2.805350e+000 -1.722328e+001 66 53 37
2.302452e+000 -2.863835e+000 -1.725598e+001 101 88 69
2.909407e+000 -2.224215e+000 -1.730021e+001 94 64 38
3.023075e+000 -2.283445e+000 -1.742966e+001 85 55 31
3.000951e+000 -2.401970e+000 -1.744776e+001 86 55 29
3.276819e+000 -2.237903e+000 -1.745874e+001 95 63 36
3.648257e+000 -2.181656e+000 -1.753381e+001 68 37 8
3.793934e+000 -2.124328e+000 -1.754489e+001 92 61 32
1.586902e+000 -2.323240e+000 -1.722432e+001 127 79 50
2.034086e+000 -2.538847e+000 -1.729878e+001 104 73 47
2.250175e+000 -2.845237e+000 -1.739104e+001 66 54 40
2.301641e+000 -2.867068e+000 -1.737523e+001 40 30 18
3.055439e+000 -2.324119e+000 -1.747464e+001 89 59 30
3.653426e+000 -2.221638e+000 -1.764943e+001 140 107 74
3.810151e+000 -2.216472e+000 -1.766982e+001 147 125 101
3.989762e+000 -2.210109e+000 -1.771328e+001 161 127 89
4.264595e+000 -3.210756e+000 -1.786003e+001 137 106 59
4.260702e+000 -3.367058e+000 -1.789320e+001 140 109 62
4.251624e+000 -3.417722e+000 -1.790154e+001 142 111 64
4.251624e+000 -3.417722e+000 -1.790154e+001 142 111 64
-1.429838e+000 -2.372841e+000 -1.650084e+001 213 165 160
1.119726e+000 -2.196403e+000 -1.711920e+001 194 137 128
1.602936e+000 -2.574520e+000 -1.734061e+001 194 166 128
3.586918e+000 -2.469230e+000 -1.787966e+001 63 36 14
3.772846e+000 -2.422998e+000 -1.781489e+001 90 55 27
1.598625e+000 -2.475274e+000 -1.739013e+001 160 124 76
2.057187e+000 -2.668808e+000 -1.751036e+001 243 227 185
2.051178e+000 -2.689708e+000 -1.753783e+001 252 247 211
2.130703e+000 -2.781958e+000 -1.759909e+001 46 33 17
2.316810e+000 -2.688494e+000 -1.763352e+001 41 28 19
4.224767e+000 -2.343173e+000 -1.804386e+001 157 121 70
9.152106e-001 -1.657410e+000 -1.740378e+001 160 106 96
1.499473e+000 -2.239902e+000 -1.759549e+001 172 136 100
1.516916e+000 -2.306554e+000 -1.759814e+001 139 105 66
2.107560e+000 -2.732476e+000 -1.771133e+001 53 37 22
9.129419e-001 -1.861524e+000 -1.746367e+001 158 106 95
1.545219e+000 -2.523181e+000 -1.773401e+001 151 121 87
1.788905e+000 -2.568342e+000 -1.769035e+001 124 91 61
1.788551e+000 -2.505100e+000 -1.772922e+001 106 75 50
1.824177e+000 -2.643358e+000 -1.771839e+001 148 119 89
4.158679e+000 -3.143856e+000 -1.837881e+001 141 110 63
1.755515e+000 -2.567061e+000 -1.792423e+001 109 86 67
1.755515e+000 -2.567061e+000 -1.792423e+001 109 86 67
1.996499e+000 -2.762343e+000 -1.795594e+001 76 65 45
2.020309e+000 -2.752964e+000 -1.795602e+001 52 41 23
2.867788e+000 -2.544084e+000 -1.811785e+001 92 71 50
1.007228e+000 -1.884510e+000 -1.783941e+001 141 85 68
9.445467e-001 -1.884987e+000 -1.784398e+001 150 78 74
1.655225e+000 -2.370131e+000 -1.790616e+001 167 147 123
1.655225e+000 -2.370131e+000 -1.790616e+001 167 147 123
2.807042e+000 -2.380610e+000 -1.827547e+001 67 44 26
1.094514e+000 -1.915368e+000 -1.797663e+001 139 79 68
1.459040e+000 -1.944488e+000 -1.802697e+001 52 45 28
1.511523e+000 -2.218527e+000 -1.806967e+001 75 69 43
2.743912e+000 -2.205692e+000 -1.839590e+001 56 35 14
2.986881e+000 -2.135177e+000 -1.851929e+001 81 64 46
6.775273e-001 -1.533000e+000 -1.806022e+001 128 69 63
2.769180e+000 -1.942102e+000 -1.861513e+001 83 66 47
2.769180e+000 -1.942102e+000 -1.861513e+001 83 66 47
2.936267e+000 -1.854576e+000 -1.866425e+001 61 43 25
1.430833e+000 -1.499658e+000 -1.842687e+001 89 61 44
1.713646e+000 -2.052203e+000 -1.845477e+001 87 70 51
2.934606e+000 -1.784586e+000 -1.872793e+001 70 49 30
1.536577e+000 -1.810571e+000 -1.848217e+001 103 81 57
3.975076e+000 -3.417431e+000 -1.902665e+001 182 150 94
1.704352e+000 -1.712756e+000 -1.877558e+001 79 70 55
2.493139e+000 -1.331332e+000 -1.902725e+001 93 72 51
2.488117e+000 -1.244939e+000 -1.905680e+001 71 51 27
1.169060e+000 -9.409935e-001 -1.886328e+001 131 117 91
1.327323e+000 -1.337441e+000 -1.882607e+001 182 160 130
1.736080e+000 -1.411721e+000 -1.897517e+001 87 81 62
2.104367e+000 -1.245888e+000 -1.905081e+001 120 100 80
2.458774e+000 -1.244481e+000 -1.916078e+001 63 42 21
3.928001e+000 -3.182334e+000 -1.922743e+001 237 205 146
3.928001e+000 -3.182334e+000 -1.922743e+001 237 205 146
3.923860e+000 -3.144888e+000 -1.923872e+001 198 162 101
3.942091e+000 -3.096239e+000 -1.928834e+001 204 172 112
3.942091e+000 -3.096239e+000 -1.928834e+001 204 172 112
3.931295e+000 -3.174866e+000 -1.925332e+001 190 159 101
1.282737e+000 -1.209873e+000 -1.893288e+001 210 189 160
1.807958e+000 -1.155767e+000 -1.914614e+001 83 76 60
3.887473e+000 -3.142131e+000 -1.938149e+001 196 164 105
4.722901e+000 -2.396651e+000 -1.543708e+001 223 193 141
4.687876e+000 -2.144573e+000 -1.565919e+001 196 167 119
4.705316e+000 -2.269183e+000 -1.567568e+001 197 169 119
4.669855e+000 -2.509154e+000 -1.576650e+001 192 164 115
2.690874e+000 -7.002498e-001 -1.483209e+001 126 113 91
2.416360e+000 -3.837405e-001 -1.483102e+001 146 111 81
2.550767e+000 -5.487382e-001 -1.495505e+001 93 80 64
4.629255e+000 -2.331520e+000 -1.589640e+001 195 167 117
2.209832e+000 -2.920122e-001 -1.493046e+001 129 99 71
2.469199e+000 -4.981244e-001 -1.500415e+001 124 104 80
2.504594e+000 -5.042168e-001 -1.501664e+001 66 48 33
2.488881e+000 -4.689763e-001 -1.510683e+001 35 26 17
3.991243e+000 -3.021588e-001 -1.528498e+001 144 111 76
3.862333e+000 -4.764123e-001 -1.540110e+001 131 98 67
4.771232e+000 4.167733e-001 -1.522094e+001 163 130 86
4.640902e+000 -2.895064e+000 -1.635210e+001 165 137 90
4.640902e+000 -2.895064e+000 -1.635210e+001 165 137 90
3.867870e+000 -4.485676e-001 -1.542965e+001 136 105 76
3.867870e+000 -4.485676e-001 -1.542965e+001 136 105 76
3.704413e+000 -5.947721e-001 -1.559501e+001 104 74 45
4.550128e+000 -1.792226e+000 -1.609689e+001 159 128 79
2.063571e+000 -7.268684e-001 -1.540391e+001 145 99 66
2.164866e+000 -1.054682e+000 -1.547367e+001 104 87 59
2.444167e+000 -8.130623e-001 -1.539163e+001 58 41 21
3.278427e+000 -7.391949e-001 -1.562578e+001 96 66 38
4.207704e+000 -5.639542e-001 -1.580677e+001 111 84 51
4.568846e+000 -1.847007e+000 -1.629137e+001 143 112 67
2.068750e+000 -1.239693e+000 -1.572638e+001 88 75 48
3.759432e+000 -7.460029e-001 -1.584042e+001 84 53 32
3.553808e+000 -1.185406e+000 -1.619494e+001 132 101 69
1.441831e+000 -1.492216e+000 -1.585847e+001 217 190 161
1.638802e+000 -1.444526e+000 -1.591960e+001 208 162 145
1.979011e+000 -1.405432e+000 -1.600460e+001 174 130 70
2.608965e+000 -1.437769e+000 -1.611038e+001 66 50 33
2.569454e+000 -1.489687e+000 -1.619166e+001 44 31 15
2.957697e+000 -1.367298e+000 -1.626568e+001 125 96 69
9.283019e-001 -1.224089e+000 -1.593956e+001 145 74 72
2.418026e+000 -1.548802e+000 -1.629649e+001 72 63 46
2.929597e+000 -1.481117e+000 -1.637675e+001 76 51 27
3.123180e+000 -1.334168e+000 -1.632756e+001 95 65 39
4.146872e+000 -1.251031e+000 -1.654613e+001 100 67 36
4.412401e+000 -1.317839e+000 -1.675261e+001 157 127 77
4.432175e+000 -3.413882e+000 -1.708883e+001 146 115 68
8.239962e-001 -7.849104e-001 -1.589498e+001 95 45 36
2.522013e+000 -1.730605e+000 -1.646874e+001 48 36 14
1.527285e+000 -1.796507e+000 -1.633874e+001 208 155 139
1.514870e+000 -1.888428e+000 -1.638751e+001 135 72 65
2.085216e+000 -1.849562e+000 -1.649043e+001 186 158 134
3.804677e+000 -1.701908e+000 -1.696911e+001 90 59 30
1.556936e+000 -1.996108e+000 -1.664911e+001 112 42 44
2.250424e+000 -1.875754e+000 -1.674189e+001 63 51 37
3.296803e+000 -1.769231e+000 -1.695196e+001 110 80 53
8.702775e-001 -9.555324e-001 -1.643777e+001 184 109 108
8.861946e-001 -9.906379e-001 -1.647471e+001 132 54 52
8.861946e-001 -9.906379e-001 -1.647471e+001 132 54 52
1.207467e+000 -1.731273e+000 -1.658447e+001 164 108 96
1.982665e+000 -2.007149e+000 -1.682543e+001 135 91 62
2.319281e+000 -2.669288e+000 -1.699920e+001 89 76 59
4.299138e+000 -1.696725e+000 -1.735531e+001 105 71 34
-8.156550e-001 -2.258440e+000 -1.627486e+001 141 106 86
-8.195717e-001 -2.251101e+000 -1.627291e+001 141 106 86
2.830296e-001 -1.637831e+000 -1.646540e+001 78 50 37
1.927089e+000 -2.309830e+000 -1.705217e+001 179 141 102
2.343978e+000 -2.713775e+000 -1.717616e+001 96 80 62
2.423173e+000 -2.740912e+000 -1.718397e+001 170 143 114
3.219641e+000 -2.108633e+000 -1.730447e+001 125 94 66
3.352797e+000 -1.994041e+000 -1.726433e+001 122 91 65
-1.288484e+000 -2.212149e+000 -1.628142e+001 169 95 101
-1.074433e+000 -2.373047e+000 -1.634443e+001 172 114 113
1.857814e+000 -2.308263e+000 -1.704693e+001 152 114 77
3.445543e+000 -2.309056e+000 -1.755638e+001 139 106 73
3.761410e+000 -2.185196e+000 -1.758276e+001 132 99 68
1.448836e+000 -2.157323e+000 -1.717835e+001 138 87 66
1.938330e+000 -2.582191e+000 -1.731250e+001 244 230 198
2.123502e+000 -2.442429e+000 -1.729471e+001 48 33 23
2.031381e+000 -2.573904e+000 -1.734311e+001 43 32 20
2.317019e+000 -2.874447e+000 -1.735317e+001 79 67 51
2.344753e+000 -2.771070e+000 -1.745266e+001 67 60 41
3.658756e+000 -2.284542e+000 -1.763002e+001 101 69 35
3.822598e+000 -2.277209e+000 -1.769727e+001 87 57 29
3.822598e+000 -2.277209e+000 -1.769727e+001 87 57 29
3.791465e+000 -2.339355e+000 -1.776215e+001 124 94 63
3.750467e+000 -2.416517e+000 -1.775338e+001 124 94 63
3.839647e+000 -2.317678e+000 -1.775027e+001 99 65 38
4.226706e+000 -2.182754e+000 -1.784747e+001 102 68 31
4.285148e+000 -2.771313e+000 -1.790254e+001 137 106 59
1.007630e+000 -2.188217e+000 -1.717973e+001 180 126 115
1.525542e+000 -2.273144e+000 -1.726256e+001 147 102 78
1.619148e+000 -2.551860e+000 -1.737845e+001 143 107 59
3.835248e+000 -2.423275e+000 -1.794285e+001 88 54 28
9.593923e-001 -2.181066e+000 -1.728718e+001 172 123 109
1.945983e+000 -2.674228e+000 -1.755490e+001 127 98 58
2.088848e+000 -2.640059e+000 -1.752637e+001 50 32 22
2.109835e+000 -2.755655e+000 -1.755032e+001 68 50 33
2.058939e+000 -2.643554e+000 -1.757903e+001 255 247 210
3.333360e+000 -2.466480e+000 -1.795112e+001 56 32 8
1.324475e-002 -1.577913e+000 -1.720418e+001 76 53 39
1.324475e-002 -1.577913e+000 -1.720418e+001 76 53 39
3.502054e-001 -1.430268e+000 -1.737549e+001 116 64 58
3.505126e-001 -1.339601e+000 -1.737931e+001 116 64 58
9.495100e-001 -2.158121e+000 -1.747312e+001 175 128 113
2.035884e+000 -2.751239e+000 -1.779323e+001 183 166 122
3.296092e+000 -2.497298e+000 -1.808423e+001 60 35 13
9.959321e-001 -2.059140e+000 -1.769239e+001 192 143 128
9.955905e-001 -2.086215e+000 -1.769576e+001 192 143 128
9.165234e-001 -1.858026e+000 -1.780473e+001 152 73 71
1.499494e+000 -2.112417e+000 -1.788623e+001 42 34 22
1.711554e+000 -2.446628e+000 -1.797361e+001 114 93 72
2.023804e+000 -2.690918e+000 -1.800785e+001 54 46 28
2.051597e+000 -2.668167e+000 -1.802712e+001 97 85 62
2.197832e+000 -2.707141e+000 -1.806550e+001 144 132 106
2.631925e+000 -2.367660e+000 -1.825681e+001 56 35 18
3.067490e+000 -2.261950e+000 -1.841068e+001 70 52 30
9.873834e-001 -1.936369e+000 -1.792121e+001 186 134 113
2.597300e+000 -2.200959e+000 -1.840479e+001 90 73 48
2.924650e+000 -2.140770e+000 -1.849752e+001 81 63 44
3.272943e+000 -2.111903e+000 -1.858894e+001 99 81 57
3.316162e+000 -2.149124e+000 -1.855864e+001 72 50 27
3.311827e+000 -2.161981e+000 -1.855644e+001 72 50 27
1.922874e+000 -2.431129e+000 -1.827173e+001 58 47 29
2.598772e+000 -2.161434e+000 -1.843663e+001 72 50 27
2.757145e+000 -2.054368e+000 -1.852770e+001 87 71 48
2.990252e+000 -2.053811e+000 -1.856758e+001 87 66 46
3.290944e+000 -1.984248e+000 -1.867202e+001 106 88 64
3.644512e+000 -1.864698e+000 -1.882326e+001 65 47 23
1.519090e+000 -1.852606e+000 -1.838581e+001 134 110 86
1.713039e+000 -2.030557e+000 -1.843179e+001 192 166 137
1.700827e+000 -1.879901e+000 -1.845545e+001 50 32 17
2.110043e+000 -2.181736e+000 -1.845613e+001 47 36 16
2.110043e+000 -2.181736e+000 -1.845613e+001 47 36 16
2.529626e+000 -1.891055e+000 -1.859351e+001 67 46 27
3.455121e+000 -1.745073e+000 -1.887707e+001 65 48 30
3.998042e+000 -2.343678e+000 -1.905087e+001 151 120 73
1.318984e+000 -1.336058e+000 -1.851946e+001 70 48 34
2.028140e+000 -1.868867e+000 -1.867296e+001 43 34 17
2.485966e+000 -1.667979e+000 -1.874811e+001 57 39 19
1.228484e+000 -1.148480e+000 -1.864857e+001 46 42 30
1.533154e+000 -1.431337e+000 -1.873522e+001 78 58 39
1.695864e+000 -1.822762e+000 -1.872361e+001 47 38 23
1.474236e+000 -1.391797e+000 -1.880277e+001 131 111 87
1.572341e+000 -1.516207e+000 -1.878215e+001 63 49 36
1.626575e+000 -1.458287e+000 -1.893536e+001 61 52 37
1.717023e+000 -1.642309e+000 -1.883010e+001 56 45 27
2.414946e+000 -1.387889e+000 -1.901968e+001 92 71 51
4.036699e+000 -1.899941e+000 -1.946847e+001 72 64 61
4.040353e+000 -2.130014e+000 -1.947470e+001 81 72 73
1.577738e+000 -1.350991e+000 -1.904778e+001 65 53 38
1.639289e+000 -1.303172e+000 -1.908710e+001 62 50 37
1.696704e+000 -1.506498e+000 -1.898095e+001 86 77 61
1.832809e+000 -1.432951e+000 -1.901638e+001 86 75 53
1.794538e+000 -1.382016e+000 -1.909869e+001 49 40 25
1.819061e+000 -1.247490e+000 -1.913394e+001 49 40 25
1.859690e+000 -1.275563e+000 -1.912132e+001 45 35 22
1.833582e+000 -1.208427e+000 -1.917315e+001 87 80 62
1.585372e+000 -1.223760e+000 -1.912872e+001 61 53 35
3.772192e+000 -8.775878e-001 -1.979579e+001 225 192 143
4.667191e+000 -2.912149e+000 -1.607357e+001 221 189 134
3.150789e+000 -3.123101e-001 -1.502762e+001 103 77 55
2.399209e+000 -5.773974e-001 -1.510114e+001 125 98 69
3.049070e+000 -5.096086e-001 -1.512696e+001 125 103 79
4.336251e+000 -4.338155e-001 -1.542365e+001 174 140 103
3.605064e+000 -4.564160e-001 -1.540195e+001 128 99 68
4.173607e+000 -3.979891e-001 -1.550942e+001 115 84 55
4.551189e+000 -3.367376e-001 -1.560786e+001 107 75 36
4.102305e+000 -5.693243e-001 -1.574858e+001 94 64 36
4.085261e+000 -6.064053e-001 -1.575402e+001 94 64 36
3.971606e+000 -7.290841e-001 -1.585006e+001 88 61 32
3.532000e+000 -8.423869e-001 -1.588043e+001 142 111 80
3.869396e+000 -8.718426e-001 -1.597264e+001 129 102 73
3.986920e+000 -7.808701e-001 -1.594029e+001 92 61 33
3.915251e+000 -8.763675e-001 -1.603849e+001 137 106 78
1.792531e+000 1.267395e-001 -1.539537e+001 217 177 135
3.573496e+000 -1.276646e+000 -1.636168e+001 82 52 25
4.052349e+000 -1.150984e+000 -1.646160e+001 135 104 75
1.466600e+000 -1.522298e+000 -1.607283e+001 128 68 58
1.994775e+000 -1.523368e+000 -1.614571e+001 45 35 23
2.014539e+000 -1.781315e+000 -1.620580e+001 135 124 106
2.066700e+000 -1.738309e+000 -1.619141e+001 71 50 29
2.170132e+000 -1.629384e+000 -1.616732e+001 113 82 51
2.378041e+000 -1.558725e+000 -1.627985e+001 45 35 25
3.006774e+000 -1.141623e+000 -1.629159e+001 94 68 37
3.250522e+000 -1.445324e+000 -1.641088e+001 97 69 45
3.344042e+000 -1.380547e+000 -1.640211e+001 65 39 16
3.344042e+000 -1.380547e+000 -1.640211e+001 65 39 16
3.978063e+000 -1.364309e+000 -1.655878e+001 146 115 86
8.496750e-001 -7.639558e-001 -1.584476e+001 189 142 126
2.068828e+000 -1.794745e+000 -1.633951e+001 107 83 55
2.189260e+000 -1.746821e+000 -1.646777e+001 39 24 19
1.723976e+000 -1.729958e+000 -1.640237e+001 167 89 95
3.619313e+000 -1.640324e+000 -1.683308e+001 135 106 77
4.319131e+000 -1.657607e+000 -1.718357e+001 153 119 67
1.347615e+000 -2.042836e+000 -1.661515e+001 172 117 110
2.078615e+000 -2.105762e+000 -1.690948e+001 122 87 60
2.324130e+000 -1.909508e+000 -1.689157e+001 67 54 32
2.269288e+000 -2.500376e+000 -1.698022e+001 99 84 62
2.394266e+000 -2.612685e+000 -1.694523e+001 146 127 103
2.402755e+000 -2.575409e+000 -1.697995e+001 63 44 26
3.458769e+000 -1.958095e+000 -1.718607e+001 124 93 64
4.285405e+000 -1.753921e+000 -1.741274e+001 102 70 32
-1.041006e+000 -2.313216e+000 -1.628087e+001 172 113 111
-1.058282e+000 -2.173165e+000 -1.622796e+001 143 98 77
-8.917949e-001 -2.354999e+000 -1.634061e+001 141 103 85
1.674394e+000 -2.059524e+000 -1.692012e+001 138 76 61
2.059087e+000 -2.460225e+000 -1.705975e+001 57 45 31
3.493597e+000 -2.011771e+000 -1.732637e+001 98 67 38
2.896003e+000 -2.276278e+000 -1.734758e+001 79 50 26
-1.062753e+000 -2.422291e+000 -1.649548e+001 170 105 110
9.544765e-001 -1.419956e+000 -1.699500e+001 175 105 108
1.859674e+000 -2.400905e+000 -1.719097e+001 158 120 84
-1.190311e+000 -2.497437e+000 -1.676373e+001 123 63 69
-1.197500e+000 -2.470517e+000 -1.676102e+001 123 63 69
-9.837422e-001 -2.455403e+000 -1.683398e+001 76 53 46
1.502338e+000 -2.281670e+000 -1.738174e+001 144 108 77
1.870925e+000 -2.545199e+000 -1.748313e+001 147 110 81
3.334218e+000 -2.613719e+000 -1.785286e+001 125 94 65
9.310088e-001 -2.187115e+000 -1.740785e+001 177 132 114
1.473991e+000 -2.240712e+000 -1.755140e+001 159 121 89
1.550058e+000 -2.414658e+000 -1.761151e+001 171 138 84
1.880420e+000 -2.646358e+000 -1.760519e+001 164 133 104
2.058143e+000 -2.750570e+000 -1.763854e+001 60 40 28
-5.992697e-001 -1.840766e+000 -1.716527e+001 81 53 39
1.596190e-002 -1.503646e+000 -1.731833e+001 87 66 49
2.263809e-001 -1.479887e+000 -1.738017e+001 74 49 42
2.308646e-001 -1.482879e+000 -1.741260e+001 124 85 68
9.097397e-001 -1.481094e+000 -1.747097e+001 129 69 68
9.406760e-001 -1.677755e+000 -1.758660e+001 124 72 65
3.666170e+000 -2.425608e+000 -1.826688e+001 93 69 43
3.793166e+000 -2.390849e+000 -1.834913e+001 67 40 19
1.046689e+000 -2.131409e+000 -1.776485e+001 132 75 64
1.668123e+000 -2.373828e+000 -1.797455e+001 96 74 53
3.112817e+000 -2.402316e+000 -1.828859e+001 47 31 14
9.019325e-001 -1.908240e+000 -1.786903e+001 195 144 125
1.260701e+000 -1.776658e+000 -1.806102e+001 112 70 54
1.919144e+000 -2.579014e+000 -1.813054e+001 67 54 37
1.902850e+000 -2.518135e+000 -1.818980e+001 38 29 11
2.252402e+000 -2.459664e+000 -1.829187e+001 81 66 45
3.199518e+000 -2.241845e+000 -1.847867e+001 64 48 29
1.564065e+000 -1.935259e+000 -1.826908e+001 105 81 57
1.855818e+000 -2.366524e+000 -1.829455e+001 37 27 17
1.855818e+000 -2.366524e+000 -1.829455e+001 37 27 17
2.746716e+000 -2.107552e+000 -1.848395e+001 75 55 33
3.014051e+000 -2.090370e+000 -1.857196e+001 61 44 24
3.117841e+000 -2.043423e+000 -1.859160e+001 56 38 22
3.122544e+000 -2.029311e+000 -1.859425e+001 56 38 22
3.332706e+000 -1.819897e+000 -1.877636e+001 74 56 32
3.407968e+000 -1.938882e+000 -1.868773e+001 71 53 31
3.407968e+000 -1.938882e+000 -1.868773e+001 71 53 31
4.087377e+000 -2.041503e+000 -1.884775e+001 93 73 36
2.880160e+000 -1.606314e+000 -1.881286e+001 57 40 24
3.474200e+000 -1.545288e+000 -1.899163e+001 101 81 56
3.616942e+000 -1.709325e+000 -1.891860e+001 54 37 18
1.730095e+000 -1.957879e+000 -1.860489e+001 47 35 21
2.763645e+000 -1.462307e+000 -1.894179e+001 59 42 24
1.482043e+000 -1.273649e+000 -1.887219e+001 88 66 45
1.682029e+000 -1.617715e+000 -1.880443e+001 62 53 37
2.435038e+000 -1.245862e+000 -1.912927e+001 58 37 18
3.014729e+000 -1.163047e+000 -1.924706e+001 71 51 27
1.684753e+000 -1.451034e+000 -1.895768e+001 55 45 27
1.684753e+000 -1.451034e+000 -1.895768e+001 55 45 27
1.924708e+000 -1.292987e+000 -1.913145e+001 68 54 35
3.418326e+000 -6.249471e-001 -1.963256e+001 98 74 41
3.545898e+000 -2.122791e-001 -1.506755e+001 149 124 97
2.158562e+000 -2.785220e-001 -1.488496e+001 73 68 45
2.395185e+000 -6.186719e-001 -1.502108e+001 117 86 59
3.020149e+000 -6.017874e-001 -1.525601e+001 114 92 69
3.554718e+000 -5.214202e-001 -1.529638e+001 150 123 93
3.928238e+000 -2.929272e-001 -1.523390e+001 114 83 54
4.590264e+000 -3.113381e+000 -1.633956e+001 167 138 90
4.566599e+000 -3.214659e+000 -1.633634e+001 245 215 161
2.665900e+000 -6.400303e-001 -1.520806e+001 60 52 43
2.269774e+000 -9.878871e-001 -1.553198e+001 176 149 121
3.496834e+000 -7.727648e-001 -1.571240e+001 150 117 86
3.004862e+000 -9.436770e-001 -1.575933e+001 84 60 36
3.348253e+000 -1.055183e+000 -1.601816e+001 100 69 41
1.859594e+000 -8.110258e-001 -1.577244e+001 117 60 40
2.186194e+000 -1.440038e+000 -1.597167e+001 195 168 139
2.267503e+000 -1.508203e+000 -1.609131e+001 66 53 34
2.244832e+000 -1.596871e+000 -1.620175e+001 65 55 37
3.138110e+000 -1.486541e+000 -1.649725e+001 81 55 30
4.113256e+000 -1.467223e+000 -1.694019e+001 119 85 50
4.414796e+000 -1.344462e+000 -1.703170e+001 105 73 36
4.414796e+000 -1.344462e+000 -1.703170e+001 105 73 36
1.980640e+000 -1.812036e+000 -1.673168e+001 179 134 115
2.012042e+000 -2.152967e+000 -1.686652e+001 220 196 162
2.136641e+000 -2.055067e+000 -1.685296e+001 78 62 48
2.104068e+000 -2.237325e+000 -1.694469e+001 60 47 30
3.119908e+000 -2.013224e+000 -1.709727e+001 102 71 43
3.358386e+000 -1.873729e+000 -1.710599e+001 79 49 23
-9.324935e-001 -2.257724e+000 -1.624987e+001 147 107 81
-9.101302e-001 -2.204360e+000 -1.626933e+001 110 74 62
-6.633150e-001 -2.164743e+000 -1.630216e+001 97 65 54
1.900632e+000 -2.239078e+000 -1.697064e+001 171 129 104
2.196417e+000 -2.549390e+000 -1.721160e+001 30 21 15
2.853737e+000 -2.239748e+000 -1.731663e+001 68 40 17
3.366253e+000 -2.201336e+000 -1.748081e+001 134 105 73
3.764445e+000 -2.076583e+000 -1.750077e+001 127 94 63
3.728175e+000 -2.150586e+000 -1.749607e+001 127 94 63
-9.995036e-001 -2.501629e+000 -1.653768e+001 129 62 65
-1.027257e+000 -2.371116e+000 -1.652678e+001 129 62 65
3.795974e+000 -2.267852e+000 -1.782391e+001 130 99 68
-1.117367e+000 -2.490792e+000 -1.682488e+001 140 91 89
-1.078678e+000 -2.439661e+000 -1.683512e+001 135 90 91
-1.078678e+000 -2.439661e+000 -1.683512e+001 135 90 91
-1.137946e+000 -2.220674e+000 -1.690445e+001 97 67 59
1.774173e+000 -2.552311e+000 -1.761125e+001 118 74 43
1.830249e+000 -2.618080e+000 -1.761457e+001 143 107 74
1.989920e+000 -2.738824e+000 -1.779448e+001 61 46 35
1.390115e+000 -2.204825e+000 -1.771239e+001 112 66 53
1.686678e+000 -2.386156e+000 -1.779720e+001 76 43 24
2.797020e+000 -2.514124e+000 -1.807581e+001 52 35 19
3.843208e+000 -2.341658e+000 -1.841299e+001 81 55 28
1.146070e+000 -2.064353e+000 -1.783595e+001 138 94 83
2.983041e+000 -2.317396e+000 -1.834237e+001 79 57 34
2.182463e+000 -2.593225e+000 -1.817312e+001 204 188 143
2.876139e+000 -2.173134e+000 -1.847320e+001 69 51 31
3.426408e+000 -2.141745e+000 -1.857665e+001 63 43 19
1.219040e+000 -1.715170e+000 -1.809383e+001 112 69 51
1.599515e+000 -2.022196e+000 -1.820481e+001 98 73 52
1.599515e+000 -2.022196e+000 -1.820481e+001 98 73 52
2.146697e+000 -2.265837e+000 -1.842224e+001 53 42 25
2.146697e+000 -2.265837e+000 -1.842224e+001 53 42 25
3.241515e+000 -1.721724e+000 -1.887005e+001 87 67 43
3.510392e+000 -1.684450e+000 -1.893251e+001 92 74 54
3.576182e+000 -1.579569e+000 -1.901140e+001 69 51 32
3.576182e+000 -1.579569e+000 -1.901140e+001 69 51 32
1.777602e+000 -2.049847e+000 -1.850964e+001 37 27 13
1.948116e+000 -1.786654e+000 -1.869032e+001 95 86 64
2.528618e+000 -1.731382e+000 -1.875961e+001 91 73 53
1.321342e+000 -1.515284e+000 -1.863029e+001 72 63 46
1.294560e+000 -1.288631e+000 -1.872498e+001 63 56 41
1.401408e+000 -1.522307e+000 -1.867058e+001 93 71 47
1.531302e+000 -1.560353e+000 -1.882158e+001 70 59 41
1.670279e+000 -1.426379e+000 -1.893694e+001 60 48 32
1.913653e+000 -1.644080e+000 -1.889545e+001 28 21 14
3.126160e+000 -1.261175e+000 -1.924291e+001 67 44 24
1.796919e+000 -1.430929e+000 -1.904348e+001 98 91 72
1.878028e+000 -1.467119e+000 -1.901719e+001 189 174 142
4.069616e+000 -2.071286e+000 -1.953562e+001 124 115 116
2.335584e+000 -1.804480e-001 -1.473340e+001 147 113 85
2.414907e+000 -4.111039e-001 -1.475397e+001 135 102 71
4.714824e+000 -2.887540e+000 -1.614131e+001 238 207 153
2.191789e+000 1.987481e-002 -1.471457e+001 123 119 86
2.337851e+000 -6.080772e-001 -1.505779e+001 220 190 163
3.693287e+000 -3.477297e-001 -1.525309e+001 100 67 39
3.855803e+000 -3.823031e-001 -1.535343e+001 97 65 37
3.855803e+000 -3.823031e-001 -1.535343e+001 97 65 37
3.131888e+000 -4.569533e-001 -1.527907e+001 73 52 31
4.247117e+000 -3.932514e-001 -1.552141e+001 149 116 81
3.216882e+000 -7.505758e-001 -1.563815e+001 83 55 31
1.985077e+000 -1.190465e+000 -1.569548e+001 90 78 56
2.245189e+000 -1.096511e+000 -1.565128e+001 186 165 138
3.137390e+000 -1.032908e+000 -1.595177e+001 132 102 73
3.901638e+000 -1.225571e+000 -1.641790e+001 131 100 69
1.961958e+000 -1.840769e+000 -1.629725e+001 121 115 88
2.950732e+000 -1.641667e+000 -1.660254e+001 113 87 64
3.832417e+000 -1.575024e+000 -1.679348e+001 115 84 59
1.469347e+000 -1.929434e+000 -1.640035e+001 138 80 68
3.552971e+000 -1.737179e+000 -1.694400e+001 135 102 71
1.497474e+000 -2.071095e+000 -1.668099e+001 159 100 92
2.065542e+000 -2.088198e+000 -1.680702e+001 125 89 55
1.849176e+000 -2.179299e+000 -1.696774e+001 135 77 57
1.954177e+000 -2.216646e+000 -1.694877e+001 148 103 72
1.426677e+000 -2.134118e+000 -1.698166e+001 190 135 123
2.280024e+000 -2.718822e+000 -1.719645e+001 149 127 96
2.220640e+000 -2.771229e+000 -1.727567e+001 79 63 47
3.025424e+000 -2.219946e+000 -1.735166e+001 128 98 72
1.245292e+000 -1.766234e+000 -1.699726e+001 157 102 95
1.670458e+000 -2.372094e+000 -1.721210e+001 210 181 146
1.512789e+000 -2.257621e+000 -1.731902e+001 169 130 99
-1.019262e+000 -2.505655e+000 -1.677991e+001 128 88 86
-9.863431e-001 -2.434369e+000 -1.675589e+001 76 51 49
2.303533e+000 -2.612679e+000 -1.763064e+001 73 55 29
1.595761e+000 -2.399997e+000 -1.754088e+001 129 87 40
1.335436e+000 -2.126931e+000 -1.768341e+001 135 104 79
1.335436e+000 -2.126931e+000 -1.768341e+001 135 104 79
1.456580e+000 -2.290886e+000 -1.759661e+001 172 137 104
2.805672e+000 -2.560555e+000 -1.802682e+001 89 67 46
3.044133e+000 -2.415296e+000 -1.822117e+001 59 40 25
9.442248e-001 -1.899374e+000 -1.782086e+001 140 65 63
1.042112e+000 -1.914352e+000 -1.786207e+001 192 142 117
1.097192e+000 -1.980125e+000 -1.786791e+001 120 58 47
1.655651e+000 -2.378325e+000 -1.802182e+001 92 67 45
3.525603e+000 -2.317107e+000 -1.842356e+001 58 38 14
2.621732e+000 -2.261866e+000 -1.835767e+001 69 51 31
1.205460e+000 -1.392404e+000 -1.816450e+001 143 105 85
2.355101e+000 -2.069496e+000 -1.850091e+001 120 99 77
2.648311e+000 -1.477348e+000 -1.888410e+001 59 42 24
1.944141e+000 -1.446589e+000 -1.902251e+001 76 65 43
1.646596e+000 -1.569954e+000 -1.899962e+001 86 74 53
3.967013e+000 -2.656878e+000 -1.943146e+001 212 179 125
3.985609e+000 -3.960791e-001 -1.540295e+001 150 117 82
3.978867e+000 -4.189471e-001 -1.540766e+001 150 117 82
3.491252e+000 -6.072173e-001 -1.543678e+001 104 74 48
3.258156e+000 -6.755647e-001 -1.553171e+001 132 105 80
2.665711e+000 -1.185270e+000 -1.582969e+001 76 61 42
2.608536e+000 -1.064969e+000 -1.592972e+001 94 73 44
2.161819e+000 -1.637900e+000 -1.622304e+001 159 131 106
2.035208e+000 -1.804025e+000 -1.626029e+001 61 53 36
1.906144e+000 -1.725543e+000 -1.646770e+001 101 53 41
2.051597e+000 -1.938515e+000 -1.661325e+001 230 203 176
2.051597e+000 -1.938515e+000 -1.661325e+001 230 203 176
7.741510e-001 -1.157440e+000 -1.642609e+001 136 66 61
1.113721e+000 -1.427294e+000 -1.650657e+001 155 90 89
2.981748e+000 -1.998419e+000 -1.712686e+001 79 49 25
2.003148e+000 -2.286954e+000 -1.696729e+001 217 193 159
1.009736e+000 -1.321412e+000 -1.681856e+001 175 103 106
2.245765e+000 -2.870071e+000 -1.729434e+001 143 120 87
1.589552e+000 -2.349508e+000 -1.719568e+001 147 101 77
-2.197866e-001 -1.636317e+000 -1.695343e+001 137 107 88
2.571301e+000 -2.600496e+000 -1.785996e+001 104 82 59
1.269279e+000 -2.103270e+000 -1.769047e+001 114 57 46
1.449208e+000 -2.083250e+000 -1.780872e+001 67 50 34
1.697747e+000 -2.434690e+000 -1.787894e+001 83 56 35
1.479703e+000 -2.073099e+000 -1.798845e+001 50 45 30
2.008450e+000 -2.716284e+000 -1.803659e+001 96 88 67
1.983872e+000 -2.654688e+000 -1.811527e+001 81 71 50
2.820050e+000 -2.243076e+000 -1.840514e+001 102 83 59
2.807521e+000 -2.260685e+000 -1.839839e+001 102 83 59
1.937209e+000 -2.531804e+000 -1.823067e+001 81 69 52
3.340858e+000 -1.984552e+000 -1.870862e+001 100 82 60
1.984219e+000 -1.896042e+000 -1.862624e+001 94 80 64
2.684055e+000 -1.665637e+000 -1.884096e+001 100 82 62
1.925240e+000 -1.806986e+000 -1.874068e+001 89 78 56
1.262960e+000 -1.234258e+000 -1.884683e+001 102 78 54
1.414751e+000 -1.504499e+000 -1.877137e+001 141 121 94
2.663794e+000 -8.293236e-001 -1.498623e+001 142 128 102
3.064106e+000 -2.335163e-001 -1.492635e+001 169 146 115
2.641383e+000 -4.496254e-001 -1.522827e+001 25 21 17
2.640940e+000 -8.382786e-001 -1.553002e+001 107 92 70
3.054097e+000 -8.362733e-001 -1.561719e+001 69 47 25
2.719814e+000 -9.199635e-001 -1.567871e+001 68 51 34
2.114309e+000 -1.742391e+000 -1.610027e+001 191 160 130
2.666084e+000 -1.336711e+000 -1.616448e+001 67 50 31
1.536577e+000 -1.872632e+000 -1.631424e+001 169 122 99
1.758887e+000 -1.631525e+000 -1.631595e+001 174 98 103
1.754104e+000 -1.657459e+000 -1.631862e+001 174 98 103
2.577504e+000 -1.722800e+000 -1.646455e+001 59 45 26
2.555986e+000 -1.764235e+000 -1.660358e+001 64 50 33
2.832780e+000 -1.874248e+000 -1.683800e+001 101 71 45
2.158932e-001 -1.732653e+000 -1.639895e+001 160 124 100
2.376014e+000 -2.644618e+000 -1.701877e+001 67 48 27
2.791160e+000 -2.053276e+000 -1.708769e+001 96 64 39
-7.387451e-001 -2.235632e+000 -1.632359e+001 104 71 57
-1.233278e+000 -2.320348e+000 -1.639240e+001 183 119 120
-1.123011e+000 -2.461193e+000 -1.647437e+001 141 73 80
1.959264e+000 -2.525996e+000 -1.722488e+001 212 186 151
-1.180074e+000 -2.392567e+000 -1.676166e+001 126 64 75
9.361786e-001 -2.002653e+000 -1.730711e+001 172 120 102
1.578990e+000 -2.398269e+000 -1.739888e+001 109 67 31
1.578990e+000 -2.398269e+000 -1.739888e+001 109 67 31
3.741064e+000 -2.390531e+000 -1.816721e+001 76 52 28
3.741064e+000 -2.390531e+000 -1.816721e+001 76 52 28
8.505377e-001 -1.589725e+000 -1.757790e+001 173 103 101
4.166363e+000 -2.490793e+000 -1.830731e+001 146 115 67
9.911247e-001 -2.153630e+000 -1.762757e+001 171 129 107
1.447586e+000 -1.996176e+000 -1.812252e+001 73 58 39
1.901052e+000 -2.484089e+000 -1.809413e+001 96 82 58
2.083125e+000 -2.256855e+000 -1.838300e+001 89 78 58
1.252296e+000 -1.159650e+000 -1.865808e+001 52 43 31
1.583316e+000 -1.675359e+000 -1.881320e+001 87 79 60
3.600108e+000 -2.805229e-001 -1.518590e+001 155 124 95
3.948193e+000 -2.843641e-001 -1.529189e+001 125 94 61
1.842632e+000 -2.169971e-001 -1.536813e+001 200 162 114
3.489352e+000 -9.307349e-001 -1.600431e+001 147 116 85
3.639002e+000 -1.790059e+000 -1.710999e+001 151 118 85
3.573268e+000 -1.933962e+000 -1.710872e+001 151 118 85
2.273524e+000 -2.662400e+000 -1.704654e+001 188 167 133
2.352511e+000 -2.736107e+000 -1.713134e+001 36 26 17
1.262428e+000 -2.236072e+000 -1.716865e+001 179 122 113
1.262428e+000 -2.236072e+000 -1.716865e+001 179 122 113
1.590950e+000 -2.462719e+000 -1.727325e+001 193 164 122
1.944621e+000 -2.656159e+000 -1.765973e+001 74 47 36
1.859456e+000 -2.520293e+000 -1.797571e+001 49 30 23
2.171449e+000 -2.565522e+000 -1.814573e+001 146 132 99
1.540211e+000 -1.552296e+000 -1.875417e+001 79 64 46
1.992907e+000 -1.559249e+000 -1.643128e+001 103 63 46
3.975553e+000 -2.232664e+000 -1.755651e+001 178 143 102
3.913134e+000 -2.188993e+000 -1.769189e+001 83 52 23
1.780043e+000 -2.411612e+000 -1.731146e+001 132 82 50
8.591519e-001 -1.422597e+000 -1.723509e+001 111 53 51
1.759859e+000 -2.546398e+000 -1.756511e+001 123 84 51
2.917110e+000 -2.437480e+000 -1.821845e+001 101 77 53
3.787413e+000 -9.714516e-001 -1.955719e+001 93 69 40
2.290512e+000 -4.071595e-001 -1.479161e+001 158 124 97
1.290305e+000 -2.073774e+000 -1.655387e+001 171 118 107
3.580411e+000 -2.325463e+000 -1.763526e+001 133 100 67
1.173748e+000 -2.151538e+000 -1.765289e+001 124 64 58
1.512860e+000 -1.766380e+000 -1.841113e+001 160 136 108
3.508276e+000 -1.781946e+000 -1.887480e+001 59 44 24
4.104370e+000 -1.715007e+000 -1.965325e+001 114 105 106
3.625613e+000 -1.789038e+000 -1.705889e+001 148 115 83
3.852122e+000 -1.862259e+000 -1.724708e+001 99 68 39
2.125157e+000 -2.581324e+000 -1.713145e+001 57 43 31
2.352836e+000 -2.514621e+000 -1.750400e+001 29 19 17
1.438955e+000 -2.353971e+000 -1.789683e+001 65 57 44
3.100205e+000 -2.046708e+000 -1.857594e+001 61 42 27
3.122799e+000 -8.033945e-001 -1.543433e+001 96 71 47
1.151608e+000 -2.171444e+000 -1.737345e+001 130 60 58
3.149390e+000 -1.700026e+000 -1.891115e+001 110 93 67
2.792645e+000 -1.244962e-001 -1.613315e+001 65 52 37
4.143085e+000 -3.887712e-001 -1.564483e+001 130 100 66
-4.368857e-001 -1.331507e+000 -1.765180e+001 215 207 206
4.623039e+000 -2.246988e+000 -1.644807e+001 149 121 74
9.837792e-001 -1.359927e+000 -1.580931e+001 155 91 81
4.528082e+000 -2.744156e+000 -1.701915e+001 140 109 63
1.509108e+000 -1.779623e+000 -1.621569e+001 146 96 73
4.469517e+000 -2.776270e+000 -1.725143e+001 138 105 62
1.775004e+000 -1.864745e+000 -1.677202e+001 127 52 56
1.988423e+000 -2.263358e+000 -1.699345e+001 175 141 106
1.816973e+000 -2.123462e+000 -1.703130e+001 116 66 41
1.574016e+000 -2.291547e+000 -1.713213e+001 149 104 81
3.293372e+000 -2.384247e+000 -1.765177e+001 108 78 51
2.168540e+000 -2.727427e+000 -1.755382e+001 80 65 45
3.447322e+000 -2.465737e+000 -1.810107e+001 75 49 24
-1.228254e+000 -2.313182e+000 -1.695022e+001 100 72 60
1.563546e+000 -2.368896e+000 -1.786468e+001 102 85 64
1.333130e+000 -2.001923e+000 -1.794299e+001 128 92 77
1.855290e+000 -2.613178e+000 -1.799457e+001 42 25 16
2.232034e+000 -2.687948e+000 -1.810723e+001 108 95 74
2.772591e+000 -2.351322e+000 -1.830706e+001 58 37 17
2.055297e+000 -2.468453e+000 -1.818983e+001 28 20 18
2.232984e+000 -2.512309e+000 -1.825120e+001 107 95 70
3.133852e+000 -2.076832e+000 -1.857387e+001 82 65 45
2.930793e+000 -2.045244e+000 -1.856895e+001 84 66 46
1.861853e+000 -2.093782e+000 -1.852176e+001 96 89 69
1.665821e+000 -1.842065e+000 -1.869214e+001 94 83 65
1.946452e+000 -1.812470e+000 -1.876229e+001 121 110 88
1.965283e+000 -1.846079e+000 -1.877072e+001 49 41 20
3.723323e+000 -9.863650e-001 -1.948688e+001 118 92 65
1.956472e+000 -1.790907e+000 -1.622560e+001 91 78 61
3.869475e+000 -1.443350e+000 -1.673385e+001 119 89 61
2.076310e+000 -1.895912e+000 -1.653654e+001 135 102 77
3.501791e+000 -1.917619e+000 -1.724368e+001 115 86 56
2.341064e+000 -2.660694e+000 -1.709781e+001 76 66 51
2.109555e-001 -1.766870e+000 -1.665013e+001 83 60 44
1.516604e+000 -2.209125e+000 -1.706040e+001 156 96 86
1.835049e+000 -2.383883e+000 -1.714396e+001 187 151 119
2.856689e+000 -2.389912e+000 -1.751091e+001 111 85 58
3.053969e+000 -2.491145e+000 -1.771816e+001 97 66 38
3.889301e+000 -2.380961e+000 -1.793360e+001 124 90 58
3.673913e+000 -2.480014e+000 -1.810498e+001 91 65 38
1.813341e+000 -2.571874e+000 -1.781274e+001 91 65 42
-1.320741e+000 -2.126410e+000 -1.703241e+001 142 119 103
1.939006e+000 -2.653088e+000 -1.806015e+001 47 35 20
1.055905e+000 -1.967463e+000 -1.794516e+001 123 60 54
2.816803e+000 -2.196028e+000 -1.845614e+001 66 48 26
2.934858e+000 -2.273224e+000 -1.843138e+001 89 72 52
3.052097e+000 -2.084366e+000 -1.856999e+001 78 63 44
1.574703e+000 -2.024479e+000 -1.832709e+001 166 144 120
1.178902e+000 -7.308897e-001 -1.848614e+001 91 77 51
3.212701e+000 -1.503453e+000 -1.902938e+001 90 70 45
3.212701e+000 -1.503453e+000 -1.902938e+001 90 70 45
1.979073e+000 -1.723394e+000 -1.885607e+001 53 45 23
3.955930e+000 -1.903728e+000 -1.961032e+001 113 107 104
2.249690e+000 -7.571504e-001 -1.527077e+001 154 119 87
2.215600e+000 -1.451275e+000 -1.593921e+001 117 86 55
2.018447e+000 -1.768580e+000 -1.620289e+001 135 124 106
1.722589e+000 -1.739420e+000 -1.640452e+001 167 89 95
3.680694e+000 -1.814277e+000 -1.718813e+001 119 89 55
3.454061e+000 -1.955229e+000 -1.727054e+001 88 58 30
3.809549e+000 -1.983652e+000 -1.742742e+001 87 57 31
1.667051e+000 -2.439633e+000 -1.725879e+001 158 111 69
2.890954e+000 -2.385466e+000 -1.750075e+001 63 37 14
2.783471e+000 -2.483451e+000 -1.763322e+001 88 60 36
1.449512e+000 -2.121165e+000 -1.790745e+001 38 30 19
1.559146e+000 -2.344594e+000 -1.795257e+001 61 51 30
1.137067e+000 -1.930758e+000 -1.799394e+001 121 67 55
2.631019e+000 -2.204636e+000 -1.838701e+001 67 47 23
3.080209e+000 -1.342809e+000 -1.918341e+001 113 91 67
1.552129e+000 -1.690110e+000 -1.879157e+001 95 86 67
3.087335e+000 -1.139016e+000 -1.933774e+001 87 65 42
1.241109e+000 -1.247921e+000 -1.891961e+001 98 74 47
4.775641e+000 -2.869868e+000 -1.611803e+001 144 116 77
2.259565e+000 -4.532982e-001 -1.507203e+001 186 151 123
3.274118e+000 -7.809759e-001 -1.568228e+001 139 110 81
9.948208e-001 -1.383615e+000 -1.577135e+001 138 73 69
7.895514e-001 -8.756677e-001 -1.615744e+001 177 99 102
1.295313e+000 -2.084144e+000 -1.659907e+001 170 118 106
3.066470e+000 -1.924532e+000 -1.706183e+001 118 88 62
7.873210e-001 -1.356213e+000 -1.658922e+001 149 68 74
-9.399262e-001 -2.344220e+000 -1.635587e+001 143 100 83
-8.024609e-001 -2.405977e+000 -1.644251e+001 135 100 81
-8.024609e-001 -2.405977e+000 -1.644251e+001 135 100 81
1.981157e+000 -2.410614e+000 -1.708088e+001 235 210 183
1.502904e+000 -2.217428e+000 -1.718781e+001 139 91 71
3.726516e+000 -2.342941e+000 -1.777000e+001 136 103 72
2.138232e+000 -2.653424e+000 -1.752501e+001 248 236 198
2.138232e+000 -2.653424e+000 -1.752501e+001 248 236 198
3.422282e+000 -2.367610e+000 -1.795734e+001 121 88 62
3.704024e-001 -1.462395e+000 -1.741368e+001 80 50 39
1.260525e+000 -2.120959e+000 -1.785679e+001 139 103 84
1.378573e+000 -1.975201e+000 -1.794182e+001 84 47 38
2.284420e+000 -2.642628e+000 -1.808788e+001 63 50 33
2.978429e+000 -2.318468e+000 -1.834030e+001 79 57 34
3.110509e+000 -2.336552e+000 -1.838323e+001 67 49 29
2.566984e+000 -2.247418e+000 -1.837577e+001 95 78 52
3.144058e+000 -2.288150e+000 -1.844126e+001 94 74 51
3.328346e+000 -2.119031e+000 -1.859995e+001 99 81 57
1.549012e+000 -1.910873e+000 -1.840741e+001 153 130 106
1.603833e+000 -1.942377e+000 -1.840381e+001 85 63 43
2.492721e+000 -1.858913e+000 -1.864246e+001 89 68 47
2.492518e+000 -1.857300e+000 -1.864121e+001 89 68 47
1.582345e+000 -1.841248e+000 -1.847565e+001 81 56 39
1.763814e+000 -2.117583e+000 -1.849922e+001 37 27 13
2.534057e+000 -1.725813e+000 -1.876273e+001 91 73 53
1.346986e+000 -1.488764e+000 -1.878607e+001 106 83 57
2.504624e+000 -1.279809e+000 -1.912927e+001 103 82 61
4.766770e+000 -2.726855e+000 -1.600089e+001 234 208 150
2.621981e+000 -7.149830e-001 -1.502520e+001 104 93 73
2.217730e+000 -1.727620e+000 -1.634763e+001 56 40 26
9.068633e-001 -1.223914e+000 -1.654914e+001 177 100 99
2.295493e+000 -2.605655e+000 -1.707280e+001 184 163 126
1.789591e+000 -2.481742e+000 -1.720194e+001 210 178 142
1.532199e+000 -2.377656e+000 -1.747112e+001 162 123 70
1.776174e+000 -2.580693e+000 -1.776074e+001 101 70 49
7.913643e-001 -1.573199e+000 -1.775325e+001 127 60 64
1.650015e+000 -2.404898e+000 -1.802152e+001 92 67 45
2.577606e+000 -5.868807e-001 -1.500227e+001 41 34 28
1.633991e+000 -1.697157e+000 -1.619314e+001 125 53 55
1.218164e+000 -1.854441e+000 -1.647520e+001 141 80 74
