ply
format ascii 1.0
element face 0
property list uchar int vertex_indices
element vertex 892
property float x
property float y
property float z
property uchar diffuse_red
property uchar diffuse_green
property uchar diffuse_blue
end_header
2.812800e+000 -5.471183e-001 -1.480697e+001 38 25 14
3.084134e+000 -5.639169e-001 -1.525215e+001 58 37 20
4.119405e+000 -4.632936e-001 -1.557696e+001 76 51 28
2.307915e+000 -7.272204e-001 -1.517831e+001 213 182 153
2.367538e+000 -6.392994e-001 -1.509602e+001 114 83 55
4.161153e+000 -5.785792e-001 -1.579639e+001 94 68 44
1.014120e+000 -8.752732e-001 -1.567163e+001 189 124 112
3.888400e+000 -8.126460e-001 -1.594840e+001 92 67 44
4.162936e+000 -8.045810e-001 -1.615224e+001 57 31 14
2.138971e+000 -9.834491e-001 -1.549496e+001 81 73 50
3.779551e+000 -9.066259e-001 -1.600502e+001 98 73 50
1.966843e+000 -1.081329e+000 -1.579492e+001 36 27 12
4.037366e+000 -9.908007e-001 -1.625621e+001 91 66 44
-1.319776e+000 -1.458558e+000 -1.629310e+001 178 137 110
3.074844e+000 -1.277386e+000 -1.612771e+001 103 75 53
3.686076e+000 -1.224647e+000 -1.638356e+001 70 43 22
1.098886e+000 -1.403673e+000 -1.572675e+001 177 119 107
2.208794e+000 -1.452742e+000 -1.597856e+001 111 77 50
3.547689e+000 -1.473965e+000 -1.668102e+001 61 39 18
2.001502e+000 -1.548554e+000 -1.598108e+001 145 114 90
3.265640e+000 -1.599158e+000 -1.671826e+001 97 71 51
3.464409e+000 -1.474059e+000 -1.660489e+001 73 52 30
1.785414e+000 -1.710002e+000 -1.631100e+001 122 53 56
1.449199e+000 -1.903226e+000 -1.635931e+001 168 115 101
1.768716e+000 -2.070286e+000 -1.694913e+001 163 110 92
1.962424e+000 -1.828600e+000 -1.633147e+001 100 82 63
3.880825e+000 -1.978794e+000 -1.749968e+001 92 68 44
1.914354e+000 -2.091431e+000 -1.700896e+001 138 100 77
1.998141e+000 -2.247327e+000 -1.693447e+001 203 172 144
3.100664e+000 -2.445114e+000 -1.769326e+001 101 79 55
3.371702e+000 -2.276387e+000 -1.761306e+001 79 54 32
1.957709e+000 -2.472266e+000 -1.719802e+001 200 168 140
1.961118e+000 1.633076e+000 -1.593784e+001 91 71 51
2.468602e+000 1.755885e+000 -1.624261e+001 214 198 179
3.501868e+000 1.589036e+000 -1.606376e+001 107 73 38
3.855118e+000 1.745913e+000 -1.635114e+001 135 97 61
1.651185e+000 1.427003e+000 -1.602511e+001 57 49 26
1.867166e+000 1.268944e+000 -1.561972e+001 167 137 108
3.549567e+000 1.467911e+000 -1.596133e+001 102 65 37
3.444568e+000 1.411307e+000 -1.590343e+001 101 67 40
3.432872e+000 1.398505e+000 -1.585944e+001 101 67 40
3.738631e+000 1.519489e+000 -1.605622e+001 125 90 60
1.636308e+000 1.310090e+000 -1.604694e+001 90 80 55
2.015899e+000 9.887584e-001 -1.536304e+001 214 180 144
2.935915e+000 1.101170e+000 -1.563846e+001 81 53 29
3.192488e+000 1.093414e+000 -1.567402e+001 90 59 31
1.999390e+000 8.116587e-001 -1.547157e+001 157 126 98
3.466113e+000 8.995938e-001 -1.552162e+001 99 64 36
3.088000e+000 7.897847e-001 -1.540191e+001 114 80 53
3.034448e+000 7.276826e-001 -1.541065e+001 106 79 50
3.338119e+000 7.181671e-001 -1.537260e+001 130 95 66
3.575630e+000 8.680561e-001 -1.551042e+001 99 63 37
3.637037e+000 7.549095e-001 -1.547169e+001 100 64 34
1.361581e+000 8.472642e-001 -1.663494e+001 191 151 117
2.039340e+000 5.534264e-001 -1.515628e+001 82 70 42
2.108114e+000 5.790424e-001 -1.507517e+001 139 105 72
2.229266e+000 5.344914e-001 -1.493514e+001 136 98 61
3.341021e+000 5.807718e-001 -1.523681e+001 95 61 33
1.146769e+000 6.396265e-001 -1.669676e+001 201 159 109
3.748668e+000 5.283391e-001 -1.526882e+001 110 69 37
3.739474e+000 4.469842e-001 -1.518062e+001 146 108 71
2.775303e+000 1.279386e-001 -1.469774e+001 128 110 80
2.289714e+000 -2.001417e-002 -1.464918e+001 198 163 122
2.325946e+000 -2.435573e-001 -1.474301e+001 112 82 57
2.443124e+000 -2.800835e-001 -1.466523e+001 107 76 47
2.801597e+000 -3.319111e-001 -1.482870e+001 36 23 14
2.277554e+000 -4.730234e-001 -1.491264e+001 126 90 62
2.445262e+000 -3.951708e-001 -1.480179e+001 33 20 12
2.716141e+000 -5.177550e-001 -1.477902e+001 34 23 17
2.719749e+000 -5.186358e-001 -1.479080e+001 34 23 17
9.929021e-001 -7.798990e-001 -1.575993e+001 168 102 87
4.146552e+000 -5.445459e-001 -1.567341e+001 64 42 19
2.028099e+000 -9.992132e-001 -1.548733e+001 81 73 52
2.028099e+000 -9.992132e-001 -1.548733e+001 81 73 52
4.085891e+000 -9.549182e-001 -1.618014e+001 96 72 48
1.589461e+000 -1.130398e+000 -1.585189e+001 149 75 76
2.676802e+000 -1.043080e+000 -1.574848e+001 39 24 11
3.913317e+000 -9.875719e-001 -1.618428e+001 68 43 21
4.197973e+000 -1.100136e+000 -1.645530e+001 89 59 33
-1.172623e+000 -1.457196e+000 -1.616460e+001 140 104 80
1.222783e+000 -1.393873e+000 -1.574466e+001 187 135 117
2.058846e+000 -1.455224e+000 -1.585098e+001 130 95 67
1.872563e+000 -1.641668e+000 -1.627609e+001 70 53 41
2.145971e+000 -1.572725e+000 -1.609544e+001 164 134 108
2.881490e+000 -1.573114e+000 -1.646504e+001 68 42 25
2.580384e+000 -1.657853e+000 -1.645434e+001 47 33 19
2.640203e+000 -1.812731e+000 -1.678017e+001 121 96 76
1.838248e+000 -2.007063e+000 -1.686078e+001 174 128 104
1.964146e+000 -2.087025e+000 -1.688229e+001 134 94 69
1.965574e+000 -2.229911e+000 -1.709583e+001 138 99 73
3.023943e+000 -2.078085e+000 -1.723458e+001 101 75 56
2.606629e+000 -2.303119e+000 -1.729879e+001 98 72 53
3.191074e+000 -2.293031e+000 -1.756816e+001 74 49 27
1.877529e+000 1.516580e+000 -1.574362e+001 242 209 176
2.712342e+000 1.675796e+000 -1.612196e+001 125 90 60
3.856349e+000 1.721396e+000 -1.615876e+001 134 95 59
4.034106e+000 1.659402e+000 -1.617035e+001 199 157 117
4.061989e+000 1.571646e+000 -1.611855e+001 168 129 94
4.284415e+000 1.558749e+000 -1.626744e+001 66 40 25
3.499013e+000 1.356654e+000 -1.587485e+001 132 97 70
1.613823e+000 1.062063e+000 -1.597961e+001 128 112 78
3.481107e+000 1.178794e+000 -1.576079e+001 139 107 78
3.752286e+000 1.164498e+000 -1.577989e+001 135 100 70
2.940146e+000 8.105688e-001 -1.540380e+001 79 51 29
2.331679e+000 5.230963e-001 -1.503119e+001 77 61 38
4.547953e+000 6.639330e-001 -1.559178e+001 110 75 38
1.591594e+000 3.905078e-001 -1.580856e+001 192 148 111
3.611522e+000 3.971935e-001 -1.512408e+001 95 60 28
2.159370e+000 1.653155e-001 -1.506428e+001 118 82 56
2.150924e+000 1.613328e-001 -1.502551e+001 118 82 56
1.902211e+000 4.069584e-002 -1.536867e+001 168 122 79
1.222691e+000 -2.895932e-002 -1.571560e+001 184 98 93
4.537854e+000 1.007956e-001 -1.524245e+001 131 93 57
2.574624e+000 -1.851321e-001 -1.474435e+001 134 112 76
2.495235e+000 -3.397587e-001 -1.477650e+001 52 38 24
1.463545e+000 -5.086781e-001 -1.562946e+001 132 56 58
2.000235e+000 -4.344357e-001 -1.522592e+001 178 132 48
2.708159e+000 -4.638114e-001 -1.488960e+001 62 48 31
2.994644e+000 -4.210874e-001 -1.500779e+001 83 61 41
3.387234e+000 -3.432261e-001 -1.512064e+001 71 44 23
3.039861e+000 -5.135071e-001 -1.512523e+001 105 85 63
2.004568e+000 -7.249624e-001 -1.537750e+001 93 62 42
1.490635e+000 -8.734178e-001 -1.576252e+001 151 88 81
2.611463e+000 -9.745281e-001 -1.575194e+001 79 68 47
1.682257e+000 -1.101819e+000 -1.584072e+001 152 104 82
1.752268e+000 -1.154540e+000 -1.601514e+001 105 45 36
1.373170e+000 -1.287714e+000 -1.585211e+001 100 26 29
1.669768e+000 -1.515553e+000 -1.603022e+001 107 43 37
3.139104e+000 -1.395210e+000 -1.636426e+001 69 45 27
-3.749647e-001 -1.723123e+000 -1.612880e+001 85 50 37
1.551616e+000 -1.842679e+000 -1.630705e+001 171 124 109
2.090290e+000 -1.677028e+000 -1.625040e+001 85 58 37
2.128828e+000 -1.751225e+000 -1.629820e+001 118 95 72
1.749019e+000 -2.034153e+000 -1.704177e+001 109 42 40
2.615583e+000 -1.912427e+000 -1.687362e+001 126 100 79
3.550764e+000 -1.948055e+000 -1.728682e+001 76 51 28
3.335691e+000 -2.408981e+000 -1.777613e+001 88 57 38
3.672347e+000 -2.363775e+000 -1.785231e+001 93 63 39
3.972983e+000 -3.247723e+000 -1.886608e+001 178 150 103
4.018373e+000 -3.429884e+000 -1.867072e+001 175 148 105
1.947027e+000 1.365812e+000 -1.557518e+001 196 163 130
1.623998e+000 1.389808e+000 -1.617655e+001 114 103 75
2.129202e+000 1.046056e+000 -1.542551e+001 43 29 20
3.550785e+000 9.445971e-001 -1.558992e+001 132 98 70
1.736233e+000 7.393581e-001 -1.575040e+001 75 67 44
1.268271e+000 8.514932e-001 -1.673581e+001 157 109 69
2.389482e+000 5.527843e-001 -1.503865e+001 203 179 146
1.257296e+000 6.601279e-001 -1.660389e+001 47 28 23
3.034035e+000 5.215059e-001 -1.510866e+001 95 63 40
4.274238e+000 5.956379e-001 -1.539979e+001 112 74 38
1.650877e+000 1.684788e-001 -1.560607e+001 200 155 113
2.836197e+000 1.719372e-001 -1.475451e+001 45 32 16
2.884565e+000 -3.098166e-003 -1.474954e+001 67 49 25
3.840765e+000 1.652295e-001 -1.504797e+001 87 53 26
3.840765e+000 1.652295e-001 -1.504797e+001 87 53 26
1.315754e+000 -1.266188e-002 -1.566062e+001 209 141 128
2.184260e+000 -3.666070e-001 -1.496583e+001 134 91 61
3.060217e+000 -4.061876e-001 -1.500610e+001 118 92 67
4.406966e+000 -3.275107e-001 -1.544387e+001 121 90 62
4.428593e+000 -3.254125e-001 -1.549919e+001 121 90 62
1.866900e+000 -6.190748e-001 -1.540064e+001 196 158 121
3.098953e+000 -5.651694e-001 -1.524777e+001 60 39 20
4.367662e+000 -4.221091e-001 -1.552550e+001 118 88 60
2.564893e+000 -7.452021e-001 -1.541816e+001 20 12 12
3.749078e+000 -6.487741e-001 -1.567599e+001 103 77 50
2.071974e+000 -8.998821e-001 -1.559507e+001 116 85 60
2.045576e+000 -1.078760e+000 -1.559438e+001 77 70 47
-1.007498e+000 -1.441605e+000 -1.612853e+001 135 94 66
3.262823e+000 -1.231085e+000 -1.622006e+001 106 78 57
3.643500e+000 -1.158723e+000 -1.633942e+001 107 77 51
-1.144126e+000 -1.639305e+000 -1.616228e+001 129 91 70
3.766110e+000 -1.370218e+000 -1.652305e+001 83 60 38
3.809348e+000 -1.554978e+000 -1.695748e+001 74 49 27
2.158742e+000 -1.989900e+000 -1.675673e+001 43 32 20
2.894384e+000 -1.902096e+000 -1.689134e+001 104 76 54
1.739760e+000 -2.117380e+000 -1.700410e+001 160 114 92
2.135740e+000 -2.098183e+000 -1.689233e+001 46 36 25
2.959097e+000 -2.426289e+000 -1.760444e+001 88 63 41
3.629648e+000 -2.440946e+000 -1.782313e+001 187 156 110
3.971424e+000 -2.507584e+000 -1.823383e+001 160 131 92
2.289994e+000 -2.600717e+000 -1.712492e+001 102 90 74
2.397032e+000 1.543607e+000 -1.575139e+001 75 61 42
2.087319e+000 1.222078e+000 -1.553284e+001 50 36 22
3.357993e+000 9.980210e-001 -1.561685e+001 147 112 79
3.353141e+000 9.943195e-001 -1.559815e+001 147 112 79
3.774303e+000 1.033112e+000 -1.569207e+001 92 58 31
1.482358e+000 6.354680e-001 -1.606397e+001 101 83 50
1.482358e+000 6.354680e-001 -1.606397e+001 101 83 50
2.697378e+000 6.084209e-001 -1.504626e+001 82 64 40
4.533005e+000 5.437566e-001 -1.523508e+001 164 121 67
2.384162e+000 2.827783e-001 -1.476717e+001 54 32 18
3.191450e+000 3.561363e-001 -1.500788e+001 127 95 65
3.946309e+000 1.814543e-001 -1.512275e+001 124 88 58
2.455862e+000 -2.285526e-001 -1.464486e+001 39 23 14
2.607435e+000 -2.884568e-001 -1.478466e+001 63 48 25
2.963836e+000 -3.426143e-001 -1.500425e+001 104 79 58
3.466352e+000 -5.542559e-001 -1.521598e+001 80 55 33
4.309146e+000 -5.210593e-001 -1.583432e+001 72 44 22
1.316683e+000 -9.964422e-001 -1.570037e+001 167 97 91
4.476075e+000 -8.251918e-001 -1.626394e+001 91 62 30
2.704709e+000 -1.047355e+000 -1.582849e+001 60 44 29
4.411978e+000 -9.720049e-001 -1.632453e+001 89 60 27
4.141294e+000 -1.192078e+000 -1.648411e+001 74 48 25
2.508045e+000 1.250377e+000 -1.560039e+001 77 57 42
2.356651e+000 9.497696e-001 -1.531607e+001 57 43 29
2.465232e+000 6.960047e-001 -1.518310e+001 64 48 31
1.574653e+000 7.167182e-001 -1.613258e+001 77 65 39
3.123341e+000 6.605480e-001 -1.529916e+001 130 99 70
3.245363e+000 5.568642e-001 -1.519670e+001 127 92 64
3.074594e+000 4.265742e-001 -1.501676e+001 79 48 27
3.827620e+000 4.454700e-002 -1.506137e+001 70 39 18
2.674609e+000 -2.066202e-001 -1.474645e+001 22 14 7
2.695031e+000 -2.025366e-001 -1.485819e+001 22 14 7
2.890702e+000 -2.157548e-001 -1.491313e+001 59 41 27
4.366720e+000 -6.255310e-001 -1.590144e+001 115 87 57
2.008013e+000 -1.175993e+000 -1.581237e+001 43 34 21
1.468888e+000 -1.423062e+000 -1.579242e+001 122 54 55
3.693012e+000 -1.638260e+000 -1.689252e+001 111 85 58
4.227147e+000 -2.178461e+000 -1.779914e+001 108 78 43
1.425540e+000 8.805838e-001 -1.649781e+001 186 148 112
3.503127e+000 5.047107e-001 -1.521305e+001 143 107 71
2.868922e+000 -1.001220e-001 -1.474410e+001 52 33 16
4.138598e+000 -1.706032e-001 -1.519456e+001 90 58 33
3.505654e+000 -4.270522e-001 -1.521099e+001 112 82 55
3.891445e+000 -5.633394e-001 -1.556738e+001 88 65 41
4.128373e+000 -8.687938e-001 -1.609373e+001 69 44 24
3.188321e+000 -2.374090e+000 -1.772783e+001 89 64 42
1.860596e+000 9.912059e-001 -1.567702e+001 56 45 25
4.502450e+000 8.625224e-001 -1.568712e+001 24 18 18
3.711261e+000 3.229830e-001 -1.508253e+001 131 95 59
3.578239e+000 -1.274545e-001 -1.502882e+001 120 85 57
3.578239e+000 -1.274545e-001 -1.502882e+001 120 85 57
3.199797e+000 -4.262024e-001 -1.515780e+001 64 41 23
3.851475e+000 7.333876e-001 -1.547773e+001 152 109 74
1.765047e+000 4.737674e-001 -1.576428e+001 187 144 99
3.278573e+000 -4.781254e-001 -1.538258e+001 62 40 22
2.087271e+000 -1.436587e+000 -1.588953e+001 131 97 67
-3.447391e-001 -1.868814e+000 -1.659952e+001 63 42 37
3.036569e+000 -2.293896e+000 -1.767455e+001 74 49 29
4.028922e+000 -3.012264e+000 -1.823085e+001 162 136 91
2.267489e+000 1.411307e+000 -1.584604e+001 69 56 38
2.623940e+000 -3.511837e-001 -1.453936e+001 50 38 18
-2.829421e-001 -1.786831e+000 -1.492693e+001 85 54 41
2.519302e+000 1.742266e+000 -1.620657e+001 172 146 116
2.418000e+000 1.485994e+000 -1.575587e+001 65 51 32
3.347006e+000 1.476526e+000 -1.596655e+001 103 68 38
3.580392e+000 1.388585e+000 -1.592489e+001 96 64 38
4.285386e+000 1.629741e+000 -1.628149e+001 146 102 67
2.540180e+000 1.130952e+000 -1.551978e+001 81 68 48
3.070658e+000 1.222725e+000 -1.573065e+001 109 77 56
1.654002e+000 1.110183e+000 -1.597054e+001 197 161 127
3.846843e+000 1.214482e+000 -1.584995e+001 117 82 54
3.836999e+000 1.210156e+000 -1.581879e+001 117 82 54
2.424508e+000 9.384346e-001 -1.542630e+001 37 23 12
2.545062e+000 9.196259e-001 -1.534077e+001 136 114 81
2.514344e+000 8.695869e-001 -1.530825e+001 75 53 30
3.444783e+000 8.917026e-001 -1.551616e+001 97 63 35
2.411556e+000 7.263168e-001 -1.519492e+001 63 46 31
1.525548e+000 6.156664e-001 -1.600276e+001 93 73 39
1.552823e+000 6.089179e-001 -1.598532e+001 171 137 91
2.432471e+000 5.246024e-001 -1.500451e+001 64 47 26
2.826579e+000 6.537759e-001 -1.522933e+001 159 129 101
3.773157e+000 7.512445e-001 -1.547611e+001 124 85 49
2.908027e+000 3.859165e-001 -1.497925e+001 170 139 110
2.356221e+000 2.644602e-001 -1.480841e+001 169 129 94
2.515139e+000 2.677187e-001 -1.478725e+001 151 129 101
2.496593e+000 2.520778e-001 -1.479407e+001 70 55 29
2.685343e+000 3.212291e-001 -1.485698e+001 247 232 181
3.525505e+000 3.285904e-001 -1.504546e+001 123 92 61
2.132684e+000 1.442766e-001 -1.503905e+001 128 93 65
2.723525e+000 9.891070e-002 -1.477579e+001 146 129 102
2.723525e+000 9.891070e-002 -1.477579e+001 146 129 102
2.111790e+000 -1.135776e-002 -1.493328e+001 102 95 67
2.534698e+000 -6.424994e-002 -1.469528e+001 58 39 23
2.341503e+000 -2.523026e-001 -1.469601e+001 124 93 64
3.698418e+000 -1.826079e-001 -1.507801e+001 62 38 13
8.806969e-001 -7.047530e-001 -1.577778e+001 163 113 85
3.516450e+000 -5.080065e-001 -1.535979e+001 101 77 51
3.185215e+000 -7.987025e-001 -1.566802e+001 51 28 11
3.697201e+000 -7.338453e-001 -1.579712e+001 70 46 22
3.889314e+000 -7.746851e-001 -1.595637e+001 54 32 11
1.789718e+000 -9.773647e-001 -1.596784e+001 94 40 28
3.944409e+000 -9.133326e-001 -1.609635e+001 71 50 26
3.128232e+000 -1.147409e+000 -1.614961e+001 61 36 14
3.128232e+000 -1.147409e+000 -1.614961e+001 61 36 14
2.201603e+000 -1.286865e+000 -1.573483e+001 151 124 97
2.390161e+000 -1.183189e+000 -1.585303e+001 41 28 14
2.437213e+000 -1.200919e+000 -1.589607e+001 37 24 12
3.590119e+000 -1.210561e+000 -1.632843e+001 97 72 49
-1.137667e+000 -1.664059e+000 -1.616762e+001 115 77 55
-5.473041e-002 -1.565021e+000 -1.650204e+001 162 125 98
3.634437e+000 -1.320370e+000 -1.646720e+001 60 34 12
1.920627e+000 -1.682269e+000 -1.633316e+001 46 33 20
2.316558e+000 -1.609459e+000 -1.627983e+001 49 37 20
3.139325e+000 -1.489196e+000 -1.652888e+001 67 45 24
1.844272e+000 -1.861012e+000 -1.660923e+001 110 40 39
2.467100e+000 -1.746279e+000 -1.659838e+001 71 56 36
1.070478e+000 -2.070134e+000 -1.720032e+001 133 72 66
1.487465e+000 -1.904992e+000 -1.638734e+001 169 109 98
1.999088e+000 -2.129093e+000 -1.689197e+001 215 180 152
1.999088e+000 -2.129093e+000 -1.689197e+001 215 180 152
3.293444e+000 -2.154329e+000 -1.736710e+001 81 54 35
3.277301e+000 1.655435e+000 -1.609475e+001 100 64 30
3.019603e+000 1.169776e+000 -1.568344e+001 84 54 31
3.197132e+000 1.253975e+000 -1.575852e+001 85 56 35
1.883450e+000 1.000748e+000 -1.556135e+001 75 58 33
4.198256e+000 1.240415e+000 -1.589569e+001 115 85 58
2.674954e+000 8.104202e-001 -1.529864e+001 81 60 39
3.191866e+000 9.276797e-001 -1.551833e+001 98 67 39
3.350897e+000 7.551968e-001 -1.539447e+001 101 67 39
4.162065e+000 3.328755e-001 -1.517789e+001 101 64 32
4.162065e+000 3.328755e-001 -1.517789e+001 101 64 32
4.140393e+000 1.842564e-001 -1.514652e+001 88 53 26
2.381843e+000 -7.562783e-002 -1.465333e+001 113 76 49
3.250995e+000 -8.748586e-002 -1.493846e+001 70 39 18
1.123193e+000 -2.930218e-001 -1.557820e+001 170 94 86
2.137918e+000 -3.104399e-001 -1.495403e+001 148 119 88
2.190301e+000 -5.473569e-001 -1.510376e+001 151 112 80
3.081242e+000 -5.332387e-001 -1.515371e+001 61 40 23
4.122866e+000 -5.559485e-001 -1.575072e+001 72 46 23
3.990941e+000 -7.141787e-001 -1.589089e+001 92 70 47
2.087709e+000 -9.587610e-001 -1.557891e+001 40 31 14
1.823944e+000 -1.138809e+000 -1.595409e+001 115 60 46
1.960739e+000 -1.151637e+000 -1.590476e+001 53 41 25
1.948096e+000 -1.355471e+000 -1.595823e+001 119 81 45
1.994784e+000 -1.353665e+000 -1.570920e+001 162 129 94
3.455855e+000 -1.969775e+000 -1.729269e+001 76 49 28
1.858050e+000 -2.234550e+000 -1.696797e+001 143 99 72
2.516516e+000 -2.185847e+000 -1.719773e+001 65 46 29
1.840564e+000 -2.327077e+000 -1.697358e+001 152 113 82
2.263545e+000 1.732360e+000 -1.607318e+001 162 141 116
2.990916e+000 1.486992e+000 -1.585899e+001 121 86 59
4.212728e+000 1.668528e+000 -1.627081e+001 119 77 42
4.212728e+000 1.668528e+000 -1.627081e+001 119 77 42
2.508739e+000 1.314387e+000 -1.563016e+001 74 59 40
3.879706e+000 1.334001e+000 -1.591319e+001 97 63 36
3.028721e+000 1.136812e+000 -1.566517e+001 113 83 55
3.031007e+000 1.136751e+000 -1.566496e+001 113 83 55
3.206414e+000 1.148719e+000 -1.571946e+001 91 62 34
2.211077e+000 4.713345e-001 -1.488125e+001 216 180 145
1.372696e+000 5.128570e-001 -1.628714e+001 194 157 121
3.133641e+000 4.631042e-001 -1.509535e+001 78 48 24
3.471598e+000 4.758815e-001 -1.517332e+001 140 104 70
3.468216e+000 4.750045e-001 -1.516862e+001 140 104 70
1.908844e+000 -5.820119e-001 -1.532607e+001 157 115 73
3.337453e+000 -4.640372e-001 -1.527893e+001 70 48 25
3.883500e+000 -5.588336e-001 -1.555194e+001 87 65 41
3.967930e+000 -5.588454e-001 -1.569002e+001 65 42 20
3.967930e+000 -5.588454e-001 -1.569002e+001 65 42 20
3.987419e+000 -9.520347e-001 -1.618294e+001 67 45 22
4.055104e+000 -9.560464e-001 -1.622128e+001 64 42 19
3.942694e+000 -1.066969e+000 -1.629206e+001 63 36 17
3.743434e+000 -1.218067e+000 -1.635185e+001 78 51 29
3.743326e+000 -1.217926e+000 -1.635196e+001 78 51 29
-7.702736e-001 -1.535003e+000 -1.616479e+001 156 115 90
1.573727e+000 -1.491644e+000 -1.594715e+001 145 66 69
3.371558e+000 -1.309410e+000 -1.632854e+001 70 45 26
3.549879e+000 -1.474776e+000 -1.669253e+001 61 39 18
3.614431e+000 -1.517990e+000 -1.677900e+001 96 72 48
-1.072592e+000 -1.882200e+000 -1.615471e+001 126 83 58
3.506847e+000 -1.775542e+000 -1.706746e+001 73 49 25
1.957497e+000 1.712323e+000 -1.601898e+001 218 201 183
2.328926e+000 7.114306e-001 -1.511080e+001 40 27 18
3.871236e+000 8.542226e-001 -1.556281e+001 114 79 41
3.510858e+000 7.066139e-001 -1.539396e+001 103 67 39
2.354616e+000 1.415161e-001 -1.468169e+001 135 99 63
4.010703e+000 2.397607e-001 -1.513294e+001 97 61 29
3.277794e+000 6.511148e-002 -1.491623e+001 108 74 47
1.765938e+000 -2.197580e-001 -1.531153e+001 191 154 115
4.139271e+000 -1.147295e-001 -1.519187e+001 81 51 27
3.956627e+000 -4.386157e-001 -1.544641e+001 112 82 58
3.633161e+000 -6.640387e-001 -1.565589e+001 104 77 52
1.509989e-001 -1.080364e+000 -1.609742e+001 201 160 122
3.913314e+000 -9.875786e-001 -1.618458e+001 68 43 21
2.106501e+000 -1.272860e+000 -1.567128e+001 56 49 32
3.625483e+000 -1.206563e+000 -1.636152e+001 101 74 49
-1.128740e+000 -1.676758e+000 -1.603173e+001 157 113 84
3.799277e+000 -1.965795e+000 -1.738376e+001 69 44 22
2.756098e+000 -2.237328e+000 -1.731160e+001 72 45 28
1.662698e+000 -2.368623e+000 -1.725151e+001 174 135 106
3.568783e+000 1.710343e+000 -1.622398e+001 168 126 88
3.819737e+000 1.260665e+000 -1.592707e+001 86 55 26
3.237513e+000 3.095665e-001 -1.500160e+001 93 59 31
1.971714e+000 -3.312718e-001 -1.517124e+001 126 82 22
3.843996e+000 -1.834126e-001 -1.513717e+001 109 77 53
3.219834e+000 -1.121911e+000 -1.607130e+001 80 52 30
2.457982e+000 -1.506374e+000 -1.627202e+001 23 14 11
1.551514e+000 -1.841310e+000 -1.629513e+001 171 124 109
1.969751e+000 1.265351e+000 -1.552739e+001 199 166 131
1.267366e+000 5.144423e-001 -1.643402e+001 195 155 119
2.551156e+000 -1.753672e+000 -1.656975e+001 51 39 22
2.415709e+000 1.131641e+000 -1.547767e+001 106 83 58
2.892589e+000 1.063608e+000 -1.565008e+001 88 57 35
1.853379e+000 4.141393e-001 -1.538119e+001 198 159 116
2.840250e+000 1.736656e-001 -1.476288e+001 44 30 13
1.703491e+000 -2.440919e-001 -1.551100e+001 151 72 67
2.675553e+000 -1.319169e+000 -1.615774e+001 44 28 12
4.031425e+000 1.697086e+000 -1.618687e+001 183 140 101
2.280865e+000 1.190570e+000 -1.548463e+001 61 49 32
1.292134e+000 -1.198294e+000 -1.575135e+001 149 77 80
3.503735e+000 -7.164875e-001 -1.568249e+001 96 69 44
2.023377e+000 -1.169352e+000 -1.567578e+001 55 41 27
4.024475e+000 9.199739e-003 -1.509400e+001 111 75 43
2.077250e+000 -5.409738e-001 -1.495461e+001 177 138 98
3.550926e+000 1.416791e+000 -1.591428e+001 100 65 35
3.526153e+000 3.273831e-001 -1.504455e+001 123 92 61
1.987791e+000 1.680277e-001 -1.528363e+001 125 86 55
1.995222e+000 -9.613149e-002 -1.512257e+001 145 108 74
2.179893e+000 -1.230415e-001 -1.467099e+001 93 84 53
3.499029e+000 -2.106989e-002 -1.497146e+001 109 76 46
2.356946e+000 -3.548230e-001 -1.471174e+001 150 115 87
8.393621e-001 -6.788940e-001 -1.582749e+001 172 123 93
3.474987e+000 -5.048250e-001 -1.531751e+001 64 38 15
1.615970e+000 -7.405987e-001 -1.596099e+001 143 73 76
1.504070e+000 -7.501676e-001 -1.595242e+001 150 90 79
2.467060e+000 -7.148097e-001 -1.532475e+001 44 31 22
3.880402e+000 -5.996568e-001 -1.566215e+001 85 60 36
2.240989e+000 -8.703777e-001 -1.537175e+001 121 89 64
2.746699e+000 -7.651769e-001 -1.488141e+001 61 49 36
3.577994e+000 -8.317304e-001 -1.584529e+001 55 30 8
3.826127e+000 -8.978369e-001 -1.603211e+001 97 72 49
3.865952e+000 -8.838224e-001 -1.603190e+001 65 40 18
2.150877e+000 -1.053281e+000 -1.547519e+001 84 72 47
3.085245e+000 -1.125231e+000 -1.603733e+001 57 35 14
3.095700e+000 -1.126530e+000 -1.608842e+001 57 35 14
3.887798e+000 -1.060039e+000 -1.624986e+001 87 63 39
3.054999e+000 -1.265200e+000 -1.618336e+001 68 43 21
3.278185e+000 -1.294730e+000 -1.626359e+001 93 68 46
3.350673e+000 -1.277768e+000 -1.631501e+001 89 64 42
3.880069e+000 -1.279477e+000 -1.649940e+001 85 57 33
4.074773e+000 -1.154934e+000 -1.642475e+001 68 42 19
4.065058e+000 -1.246055e+000 -1.652249e+001 76 48 26
1.826203e+000 -1.438416e+000 -1.606961e+001 153 94 88
2.237656e+000 -1.405317e+000 -1.593885e+001 117 86 58
3.607030e+000 -1.392605e+000 -1.651392e+001 92 68 44
3.823545e+000 -1.335799e+000 -1.652862e+001 100 76 50
1.424911e+000 -1.680203e+000 -1.625659e+001 132 74 63
1.920834e+000 -1.682719e+000 -1.634061e+001 46 33 20
3.131967e+000 -1.592141e+000 -1.662591e+001 66 44 23
3.173486e+000 -1.531019e+000 -1.653151e+001 67 45 24
1.305596e+000 -1.861821e+000 -1.646665e+001 132 64 57
3.733975e+000 -1.754239e+000 -1.712374e+001 89 63 40
1.969132e+000 -1.893409e+000 -1.642012e+001 56 49 29
2.118534e+000 -2.046544e+000 -1.685147e+001 100 72 50
1.694611e+000 -2.270307e+000 -1.720071e+001 142 97 65
2.085939e+000 -2.076021e+000 -1.681919e+001 117 86 61
2.075402e+000 -2.327087e+000 -1.709223e+001 59 41 21
4.726088e+000 -1.827904e+000 -1.567045e+001 114 85 43
4.198647e+000 1.629976e+000 -1.626442e+001 151 114 85
1.967022e+000 1.207041e+000 -1.550488e+001 161 127 94
2.315864e+000 9.166441e-001 -1.530153e+001 112 97 74
2.541192e+000 1.038033e+000 -1.544178e+001 68 53 34
1.806300e+000 8.969635e-001 -1.565639e+001 82 68 41
2.340663e+000 8.685087e-001 -1.522291e+001 64 48 32
1.776877e+000 3.920443e-001 -1.544229e+001 214 173 129
1.528317e+000 3.499509e-001 -1.593952e+001 201 149 112
2.207421e+000 2.052959e-001 -1.486872e+001 180 145 114
3.421279e+000 -7.196517e-002 -1.500432e+001 83 51 26
3.422418e+000 -7.246109e-002 -1.500142e+001 83 51 26
3.690842e+000 -2.256314e-001 -1.512307e+001 64 41 20
2.224092e+000 -5.420284e-001 -1.520321e+001 112 75 46
2.522057e+000 -7.145089e-001 -1.535108e+001 30 21 12
4.013222e+000 -5.973397e-001 -1.577745e+001 60 38 15
3.378065e+000 -7.140041e-001 -1.567830e+001 68 41 22
3.650304e+000 -7.021443e-001 -1.569615e+001 81 55 30
3.968371e+000 -8.144507e-001 -1.599267e+001 87 65 42
1.875424e+000 -1.006334e+000 -1.583010e+001 71 56 34
2.416403e+000 -1.026169e+000 -1.569165e+001 93 80 61
3.624776e+000 -9.156804e-001 -1.597238e+001 78 54 28
3.218034e+000 -1.422798e+000 -1.646399e+001 87 65 44
4.051003e+000 -1.315844e+000 -1.659559e+001 74 49 27
2.358393e+000 -1.667919e+000 -1.644729e+001 60 43 28
2.980732e+000 -1.498919e+000 -1.645572e+001 81 59 36
3.272872e+000 -1.654195e+000 -1.677959e+001 77 52 30
3.273012e+000 -1.653719e+000 -1.678483e+001 77 52 30
1.498517e+000 -1.737544e+000 -1.621526e+001 128 71 63
1.758464e+000 -1.761541e+000 -1.636971e+001 161 107 95
3.121323e+000 -1.733679e+000 -1.682207e+001 87 63 41
3.541035e+000 -1.835507e+000 -1.714411e+001 105 79 54
1.941036e+000 -1.909281e+000 -1.641410e+001 147 102 81
3.266814e+000 1.597870e+000 -1.601836e+001 155 121 86
2.151350e+000 1.304920e+000 -1.556683e+001 69 54 36
3.203025e+000 1.139742e+000 -1.570321e+001 91 62 34
3.910021e+000 8.417253e-001 -1.557922e+001 146 107 73
1.410651e+000 7.316146e-001 -1.638913e+001 175 132 97
2.402009e+000 6.125298e-001 -1.507163e+001 122 99 66
2.708692e+000 4.901517e-001 -1.494157e+001 67 48 31
2.745523e+000 3.771809e-001 -1.490664e+001 132 113 80
3.522755e+000 4.627871e-001 -1.515674e+001 117 78 45
4.371513e+000 2.436263e-001 -1.519201e+001 113 74 41
1.358238e+000 2.253940e-002 -1.560281e+001 209 140 125
1.170762e+000 -6.496345e-002 -1.568489e+001 210 132 124
1.782808e+000 -1.031576e-001 -1.541745e+001 137 77 49
1.917989e+000 -5.307506e-002 -1.529591e+001 132 86 52
1.764266e+000 -2.180022e-001 -1.535641e+001 192 155 115
3.903221e+000 -4.586694e-001 -1.542625e+001 75 51 27
4.144600e+000 -5.806423e-001 -1.575368e+001 94 68 44
2.147390e+000 -8.208976e-001 -1.554915e+001 104 71 52
4.153823e+000 -7.768625e-001 -1.602381e+001 96 72 46
1.184477e+000 -1.084580e+000 -1.565277e+001 133 62 58
3.927383e+000 -9.537238e-001 -1.613285e+001 95 71 48
-8.519029e-001 -1.318107e+000 -1.644390e+001 196 154 121
1.899436e+000 -1.083464e+000 -1.584841e+001 58 47 25
4.028258e+000 -1.214828e+000 -1.646637e+001 100 72 48
3.791250e+000 -1.410312e+000 -1.665759e+001 66 41 20
1.435372e+000 -1.861544e+000 -1.640796e+001 146 85 74
1.435372e+000 -1.861544e+000 -1.640796e+001 146 85 74
1.787570e+000 -1.819519e+000 -1.653795e+001 128 64 61
3.420785e+000 -1.919091e+000 -1.719987e+001 99 73 51
3.445890e+000 -2.278881e+000 -1.761613e+001 84 58 33
3.254774e+000 1.236355e+000 -1.574512e+001 92 60 33
3.407632e+000 6.838547e-001 -1.529876e+001 91 57 31
3.711174e+000 6.551189e-001 -1.537666e+001 116 80 47
4.160090e+000 1.109350e-001 -1.514397e+001 80 47 19
3.737593e+000 -4.078753e-002 -1.503446e+001 77 47 23
1.053789e+000 -2.740323e-001 -1.565914e+001 202 124 114
2.625642e+000 -1.951355e-001 -1.475883e+001 42 25 15
3.382778e+000 -4.753731e-001 -1.525756e+001 94 68 45
3.407198e+000 -6.148554e-001 -1.550279e+001 68 44 23
3.097271e+000 -1.002279e+000 -1.590219e+001 63 42 23
4.193209e+000 -1.005936e+000 -1.629312e+001 84 54 28
2.547885e+000 -1.324043e+000 -1.604093e+001 68 55 33
3.508704e+000 -1.205961e+000 -1.631594e+001 108 81 56
4.163181e+000 -1.212125e+000 -1.653357e+001 76 52 25
3.208870e+000 -1.799021e+000 -1.696616e+001 100 73 53
3.086454e+000 -1.926830e+000 -1.711966e+001 98 72 49
1.688674e+000 -2.227446e+000 -1.714572e+001 134 83 62
2.207295e+000 1.193613e+000 -1.552829e+001 64 49 30
1.956012e+000 9.567793e-001 -1.555816e+001 105 79 56
3.304289e+000 7.505644e-001 -1.538397e+001 128 94 67
2.299375e+000 2.212449e-001 -1.474861e+001 200 166 128
9.947464e-001 1.154190e-001 -1.618077e+001 203 124 119
4.079739e+000 -6.089391e-001 -1.578350e+001 66 41 19
3.408002e+000 -7.745501e-001 -1.570404e+001 74 47 26
2.579229e+000 -1.088321e+000 -1.578595e+001 91 80 62
1.736620e+000 -1.340906e+000 -1.596581e+001 100 39 38
3.818538e+000 1.134129e+000 -1.575314e+001 121 90 57
2.123732e+000 2.561915e-001 -1.507415e+001 41 28 16
1.784441e+000 8.558101e-002 -1.540824e+001 189 146 103
4.399636e+000 2.160669e-001 -1.515545e+001 153 116 74
4.271436e+000 -2.501930e-001 -1.534807e+001 109 78 49
3.402045e+000 -1.097106e+000 -1.614435e+001 111 83 59
3.921469e+000 1.040875e+000 -1.567510e+001 131 90 60
3.281496e+000 -8.183507e-001 -1.568786e+001 102 74 52
9.678194e-001 -1.039202e+000 -1.571785e+001 135 86 75
2.379078e+000 -1.061648e+000 -1.584518e+001 57 41 26
3.025813e+000 -1.813767e+000 -1.689477e+001 73 51 30
1.438642e+000 -5.728978e-002 -1.554447e+001 178 89 88
3.234603e+000 -1.843311e+000 -1.707422e+001 95 69 45
1.392727e+000 1.957856e-001 -1.576584e+001 187 102 95
2.676172e+000 1.479597e-001 -1.498643e+001 53 42 28
8.451880e-001 -2.462987e-001 -1.590332e+001 158 99 67
1.067358e+000 -1.085016e+000 -1.565628e+001 186 128 108
2.854739e+000 -2.449915e+000 -1.783669e+001 94 69 49
9.312460e-001 -4.557322e-001 -1.567456e+001 205 160 129
7.588994e-001 -9.837663e-001 -1.599273e+001 115 52 45
3.148103e+000 1.350206e+000 -1.601414e+001 117 84 59
3.274812e+000 1.565152e+000 -1.601583e+001 99 65 35
2.167650e+000 5.573653e-001 -1.496593e+001 178 142 106
3.092643e+000 7.084465e-001 -1.531786e+001 123 92 63
1.888494e+000 1.260531e-001 -1.533724e+001 192 150 104
1.676715e+000 -1.054907e-002 -1.545491e+001 201 150 108
2.104764e+000 -2.357782e-001 -1.499825e+001 78 67 41
3.791281e+000 -8.120847e-003 -1.503782e+001 84 52 29
3.942527e+000 -2.993000e-001 -1.524711e+001 73 45 20
4.046680e+000 -5.994574e-001 -1.576091e+001 45 18 0
3.741756e+000 -9.103833e-001 -1.603365e+001 64 37 15
3.805459e+000 -8.727066e-001 -1.600921e+001 64 37 16
4.002011e+000 -8.868823e-001 -1.607448e+001 71 45 22
-1.221595e+000 -1.532108e+000 -1.621819e+001 133 98 76
1.136263e+000 -1.337070e+000 -1.574998e+001 166 106 96
3.536685e+000 -1.183124e+000 -1.624203e+001 64 39 16
3.557507e+000 -1.260645e+000 -1.633705e+001 90 65 43
-1.143841e+000 -1.666700e+000 -1.619475e+001 109 71 52
-8.687650e-001 -2.024587e+000 -1.615324e+001 121 80 58
1.090772e+000 -2.161135e+000 -1.718655e+001 170 111 102
-1.230312e+000 -2.307763e+000 -1.626014e+001 188 118 118
1.819218e+000 -2.247937e+000 -1.705474e+001 171 128 101
3.704359e+000 1.519820e+000 -1.602434e+001 129 94 62
3.705251e+000 1.520367e+000 -1.602652e+001 129 94 62
3.362975e+000 1.240279e+000 -1.578743e+001 99 65 38
3.780657e+000 9.269779e-001 -1.561831e+001 115 76 46
3.321684e+000 6.730218e-001 -1.531067e+001 97 63 38
4.018566e+000 8.026547e-001 -1.555184e+001 132 96 60
3.528707e+000 5.814248e-001 -1.527931e+001 128 91 58
2.785041e+000 1.989030e-001 -1.478460e+001 132 116 90
1.194848e+000 -1.992222e-001 -1.557802e+001 165 73 74
3.720635e+000 -4.041156e-001 -1.531416e+001 96 69 43
1.024011e+000 -1.112435e+000 -1.565174e+001 196 138 119
2.258648e+000 -1.042786e+000 -1.555889e+001 171 143 116
3.820796e+000 -9.847453e-001 -1.614457e+001 70 44 21
4.080761e+000 -1.001830e+000 -1.627459e+001 60 34 12
-1.222521e+000 -1.569586e+000 -1.620803e+001 112 76 54
-1.235694e+000 -1.570424e+000 -1.624461e+001 112 76 54
3.824488e+000 -1.259947e+000 -1.644413e+001 107 81 54
1.880007e+000 -1.614913e+000 -1.628567e+001 73 52 34
3.823729e+000 -1.999651e+000 -1.743045e+001 68 43 21
3.631102e+000 1.047427e+000 -1.567565e+001 127 93 65
3.611458e+000 6.723924e-001 -1.536123e+001 125 89 57
3.966695e+000 7.067688e-001 -1.546143e+001 147 109 71
2.424807e+000 4.541282e-001 -1.490267e+001 76 60 44
3.854142e+000 1.485327e-001 -1.507581e+001 87 53 25
3.993273e+000 -4.866275e-001 -1.553932e+001 59 33 8
4.058307e+000 -4.712958e-001 -1.554643e+001 109 82 53
3.496426e+000 -1.149057e+000 -1.619168e+001 102 76 53
3.954084e+000 -1.146100e+000 -1.631357e+001 79 53 29
3.947914e+000 -1.034561e+000 -1.622228e+001 98 74 50
3.956572e+000 -1.034936e+000 -1.623775e+001 98 74 50
2.810238e+000 -1.294048e+000 -1.611059e+001 114 88 64
-1.483701e+000 -2.140097e+000 -1.644740e+001 206 141 134
3.794205e+000 1.242937e+000 -1.583590e+001 87 53 29
3.743257e+000 1.090846e+000 -1.573054e+001 97 65 37
2.420328e+000 5.127694e-001 -1.501767e+001 73 56 38
3.962828e+000 3.223442e-001 -1.514451e+001 112 73 40
4.038562e+000 1.602409e-001 -1.511970e+001 89 54 26
7.493066e-001 -5.151094e-001 -1.587621e+001 145 92 61
3.307737e+000 -6.188047e-001 -1.545909e+001 61 38 18
-1.505595e+000 -1.971914e+000 -1.650637e+001 255 255 253
3.021084e+000 1.577423e+000 -1.597111e+001 152 119 81
3.547754e+000 7.554221e-001 -1.541870e+001 129 96 65
2.296264e+000 2.141076e-001 -1.471303e+001 204 169 131
3.481704e+000 -2.262652e-001 -1.506213e+001 76 44 21
2.924176e+000 -1.461694e+000 -1.638875e+001 65 41 20
2.867933e+000 1.381100e+000 -1.583030e+001 129 95 68
1.560391e+000 -8.292404e-001 -1.586450e+001 116 48 45
1.802536e+000 -1.423673e+000 -1.612859e+001 168 106 99
4.028351e+000 -2.088646e+000 -1.759279e+001 139 106 75
4.629173e+000 3.461609e-001 -1.517222e+001 163 122 66
4.009716e+000 -4.116540e-001 -1.544407e+001 108 78 50
3.640249e+000 -1.798593e+000 -1.712020e+001 116 87 61
4.454641e+000 2.707914e-001 -1.522701e+001 151 109 69
2.639016e+000 -2.153783e+000 -1.725401e+001 132 104 80
1.709947e+000 1.407703e+000 -1.586197e+001 165 141 107
2.270341e+000 1.465687e+000 -1.579397e+001 39 27 13
2.606012e+000 7.386359e-001 -1.518099e+001 169 147 110
2.054879e+000 -1.058773e-001 -1.503446e+001 136 117 91
3.799957e+000 -7.600800e-002 -1.508638e+001 75 43 18
1.514280e+000 -7.285379e-001 -1.591217e+001 115 55 47
1.373552e+000 -8.922477e-001 -1.576706e+001 170 110 99
3.568424e+000 -1.072719e+000 -1.614379e+001 75 47 23
2.213506e+000 -2.629070e+000 -1.717724e+001 67 55 39
2.217653e+000 -2.635790e+000 -1.720723e+001 67 55 39
3.784748e+000 6.636528e-001 -1.535178e+001 160 119 81
1.219684e+000 -9.959198e-002 -1.560600e+001 203 123 114
3.746865e+000 -7.713979e-001 -1.585038e+001 76 50 27
-1.240438e+000 -1.747764e+000 -1.620763e+001 160 116 87
3.555457e+000 -1.260532e+000 -1.633866e+001 91 67 42
3.248031e+000 -1.910794e+000 -1.712812e+001 105 79 56
3.424113e+000 -1.920654e+000 -1.723721e+001 99 73 50
1.969574e+000 -2.333913e+000 -1.703235e+001 148 113 81
3.285487e+000 1.020729e+000 -1.563095e+001 109 74 42
3.237906e+000 3.918952e-001 -1.504438e+001 126 91 63
9.351183e-001 -8.660620e-001 -1.573007e+001 160 94 82
3.958766e+000 -9.923100e-001 -1.617604e+001 70 44 21
4.030338e+000 -9.517243e-001 -1.616200e+001 67 41 20
3.672666e+000 -1.470397e+000 -1.667412e+001 99 73 48
2.564248e+000 8.619092e-001 -1.533287e+001 143 120 76
3.575063e+000 5.892614e-001 -1.529696e+001 102 66 35
3.467731e+000 4.288959e-001 -1.511523e+001 113 74 44
4.022505e+000 -6.397111e-001 -1.579016e+001 97 72 48
3.577391e+000 3.342469e-001 -1.505287e+001 136 100 66
1.095574e+000 -1.117966e+000 -1.562378e+001 186 129 111
3.843872e+000 -2.699615e-001 -1.521872e+001 111 79 56
1.523758e+000 -1.022255e+000 -1.584116e+001 129 58 54
4.075398e+000 1.106174e+000 -1.579715e+001 107 71 41
3.122656e+000 1.326069e+000 -1.582633e+001 85 54 29
3.703138e+000 1.249509e+000 -1.584135e+001 93 60 29
1.957082e+000 9.843628e-001 -1.554236e+001 123 96 72
1.124830e+000 5.873707e-001 -1.678850e+001 124 80 46
4.123709e+000 3.954517e-001 -1.520970e+001 96 60 29
1.793154e+000 -4.531363e-001 -1.551303e+001 156 114 89
4.601771e+000 -8.852193e-001 -1.586007e+001 101 73 34
3.128408e+000 -1.169953e+000 -1.610321e+001 89 65 42
4.540447e+000 -2.813991e+000 -1.687639e+001 143 114 68
3.272161e+000 9.806523e-001 -1.559077e+001 100 67 36
3.494299e+000 3.626995e-001 -1.508556e+001 124 90 59
3.511494e+000 3.425749e-001 -1.507189e+001 79 47 22
3.548748e+000 3.366346e-001 -1.505440e+001 136 101 71
4.699014e+000 -3.371910e-002 -1.507987e+001 168 131 79
1.212189e+000 -1.358031e+000 -1.574337e+001 153 77 75
3.813590e+000 -1.531210e+000 -1.683691e+001 65 43 20
3.616152e+000 5.886356e-001 -1.528802e+001 148 112 76
3.668246e+000 6.490074e-001 -1.535765e+001 134 98 66
3.443752e+000 4.126673e-001 -1.511761e+001 106 71 41
3.958216e+000 3.289558e-001 -1.515549e+001 105 69 37
-5.692248e-001 -1.415809e+000 -1.632023e+001 145 100 65
3.864975e+000 -8.116747e-002 -1.507743e+001 116 85 57
-6.214677e-001 -1.498452e+000 -1.627101e+001 147 101 63
3.949675e+000 1.645838e+000 -1.619409e+001 104 69 36
1.937809e+000 1.359528e+000 -1.568371e+001 165 132 99
3.351547e+000 1.447192e+000 -1.593047e+001 140 105 75
3.796308e+000 1.537522e+000 -1.609874e+001 89 55 27
2.974865e+000 1.181813e+000 -1.568237e+001 111 80 54
3.410263e+000 1.298977e+000 -1.584876e+001 98 63 36
2.296782e+000 1.022772e+000 -1.537221e+001 65 49 33
3.798154e+000 1.050390e+000 -1.571614e+001 86 52 24
3.728786e+000 8.304634e-001 -1.552960e+001 137 96 64
3.176222e+000 5.831125e-001 -1.520411e+001 110 73 45
3.750776e+000 6.272598e-001 -1.535844e+001 137 99 63
4.240941e+000 5.758646e-001 -1.535190e+001 93 54 23
3.905607e+000 4.279910e-001 -1.519562e+001 108 70 34
2.292080e+000 2.307671e-002 -1.467683e+001 182 149 110
4.068372e+000 2.666753e-001 -1.513544e+001 104 65 33
3.817287e+000 9.975966e-003 -1.505734e+001 94 64 40
1.993168e+000 -3.017259e-001 -1.517260e+001 184 140 79
1.076028e+000 -1.348967e+000 -1.574216e+001 148 81 74
3.890315e+000 1.751743e+000 -1.629533e+001 108 68 32
2.194512e+000 1.379572e+000 -1.564162e+001 53 43 26
3.654462e+000 1.478513e+000 -1.600129e+001 124 89 59
4.126147e+000 1.503135e+000 -1.605575e+001 129 94 66
4.352028e+000 1.630310e+000 -1.620405e+001 94 70 46
2.044267e+000 1.083248e+000 -1.542714e+001 144 108 75
3.169448e+000 1.265037e+000 -1.578371e+001 107 77 53
1.651364e+000 1.073270e+000 -1.594410e+001 116 81 49
3.808434e+000 1.196464e+000 -1.582459e+001 96 62 34
2.211145e+000 6.923953e-001 -1.509839e+001 150 114 80
4.052369e+000 8.323216e-001 -1.559641e+001 107 71 39
2.024160e+000 5.673690e-001 -1.518457e+001 87 77 48
2.873672e+000 5.902811e-001 -1.519729e+001 142 111 83
3.315104e+000 6.451874e-001 -1.529300e+001 118 83 55
3.741151e+000 7.281648e-001 -1.543075e+001 146 107 68
3.910061e+000 -2.928832e-001 -1.524145e+001 63 37 14
1.657018e+000 -1.385253e+000 -1.589278e+001 195 140 131
2.960080e+000 -1.436162e+000 -1.635329e+001 97 72 52
1.316542e+000 -1.853630e+000 -1.642751e+001 136 70 62
3.592546e+000 1.515166e+000 -1.606421e+001 101 66 36
3.600376e+000 1.368234e+000 -1.590026e+001 144 109 77
3.418881e+000 6.923916e-001 -1.537369e+001 88 54 27
3.418881e+000 6.923916e-001 -1.537369e+001 88 54 27
3.738625e+000 4.884336e-001 -1.524800e+001 111 72 39
4.139537e+000 -1.192652e-001 -1.519049e+001 85 52 27
1.442282e+000 -8.782619e-001 -1.577692e+001 156 94 83
3.284082e+000 1.360809e+000 -1.586188e+001 89 57 32
3.592910e+000 7.119624e-001 -1.539189e+001 103 68 40
1.521259e+000 3.419599e-001 -1.593003e+001 206 156 119
3.264230e+000 5.926242e-002 -1.491439e+001 112 78 51
3.981499e+000 -3.848463e-002 -1.513400e+001 103 69 41
3.241008e+000 -8.262018e-001 -1.570316e+001 103 77 52
3.414592e+000 -1.078401e+000 -1.609427e+001 111 84 59
-8.552200e-001 -1.573024e+000 -1.605506e+001 149 108 86
1.810486e+000 -1.533411e+000 -1.620206e+001 131 67 67
3.952352e+000 1.512967e+000 -1.610835e+001 127 89 58
3.077431e+000 1.173056e+000 -1.570457e+001 86 56 30
1.795427e+000 7.704659e-002 -1.539595e+001 194 150 105
2.637161e+000 -4.086307e-001 -1.479880e+001 35 22 14
3.719390e+000 -4.752671e-001 -1.539581e+001 118 88 62
-2.248973e-002 -1.182171e+000 -1.638564e+001 127 92 65
4.178399e+000 -1.004297e+000 -1.626482e+001 82 56 28
1.385341e+000 6.451566e-001 -1.641506e+001 176 138 101
2.395999e+000 5.486366e-001 -1.502971e+001 226 208 168
3.305243e+000 7.481325e-001 -1.537064e+001 127 94 63
4.044886e+000 5.408715e-001 -1.532101e+001 108 69 36
4.044886e+000 5.408715e-001 -1.532101e+001 108 69 36
9.643586e-001 3.399635e-002 -1.599214e+001 173 97 74
4.305766e+000 -2.017328e-001 -1.529955e+001 79 47 22
3.159085e+000 -3.329142e-001 -1.503071e+001 73 48 25
1.472675e+000 -1.216842e+000 -1.579936e+001 148 76 79
-6.181140e-001 -1.515823e+000 -1.620096e+001 142 96 61
1.731130e+000 -1.415314e+000 -1.609241e+001 102 43 41
2.736459e+000 1.685316e+000 -1.621403e+001 121 87 59
3.519009e+000 1.265111e+000 -1.580097e+001 107 72 42
3.942696e+000 1.058692e+000 -1.573642e+001 132 92 62
4.226029e+000 3.918845e-001 -1.522040e+001 129 91 54
2.332551e+000 7.301976e-002 -1.465686e+001 218 188 152
3.482814e+000 1.219007e-001 -1.496395e+001 124 90 55
3.241638e+000 5.564857e-001 -1.518925e+001 126 92 57
9.895240e-001 -8.438237e-001 -1.569582e+001 197 135 120
-5.983446e-001 -1.475488e+000 -1.629288e+001 155 107 69
3.345378e+000 2.206696e-001 -1.499166e+001 121 86 54
3.644693e+000 1.135128e-001 -1.498774e+001 128 90 54
4.493612e+000 9.333069e-001 -1.566064e+001 25 17 14
4.554941e+000 -1.080396e-001 -1.587774e+001 115 80 48
3.371344e+000 1.700591e+000 -1.619105e+001 122 83 50
2.954193e+000 1.596625e+000 -1.603080e+001 130 94 62
3.328081e+000 1.266671e+000 -1.582452e+001 84 50 23
2.125109e+000 9.675197e-001 -1.533154e+001 128 97 63
4.066253e+000 1.111961e+000 -1.581887e+001 93 59 31
3.118179e+000 4.853704e-001 -1.511414e+001 105 73 47
3.764792e+000 6.168028e-001 -1.532804e+001 109 69 34
3.764792e+000 6.168028e-001 -1.532804e+001 109 69 34
1.888681e+000 3.349852e-001 -1.523961e+001 169 140 98
4.237170e+000 5.414121e-001 -1.535158e+001 133 93 58
3.537424e+000 3.129264e-001 -1.503097e+001 101 66 38
4.157640e+000 3.575321e-001 -1.521614e+001 104 67 33
4.157640e+000 3.575321e-001 -1.521614e+001 104 67 33
3.027717e+000 9.114731e-002 -1.484745e+001 163 128 100
2.340508e+000 -2.276189e-001 -1.468689e+001 164 130 101
1.826381e+000 -1.373776e+000 -1.603372e+001 165 100 94
4.782955e+000 -9.981960e-001 -1.502219e+001 115 84 41
3.322915e+000 1.716690e+000 -1.621223e+001 157 122 84
2.964151e+000 1.147562e+000 -1.567473e+001 83 51 26
3.198094e+000 1.135604e+000 -1.569536e+001 92 58 31
3.318786e+000 1.041652e+000 -1.564048e+001 109 74 44
3.731571e+000 9.009180e-001 -1.555659e+001 133 98 64
3.859224e+000 1.952023e-001 -1.511525e+001 91 56 26
2.107498e+000 -2.382681e-001 -1.499463e+001 74 61 40
1.109680e+000 -1.020485e+000 -1.563537e+001 143 75 59
1.835513e+000 -1.677894e+000 -1.632833e+001 121 67 67
1.908641e+000 1.418597e+000 -1.575505e+001 142 107 77
4.270977e+000 1.585522e+000 -1.628039e+001 81 49 24
3.265316e+000 1.242500e+000 -1.578780e+001 92 63 33
3.219219e+000 4.768780e-001 -1.511255e+001 97 64 35
2.619099e+000 -2.207995e-001 -1.473415e+001 41 27 16
4.131341e+000 -6.843162e-002 -1.513520e+001 94 62 30
1.696797e+000 -9.280510e-001 -1.590312e+001 131 68 61
1.060144e+000 -1.162388e+000 -1.561254e+001 174 109 97
1.868033e+000 -1.636328e+000 -1.627133e+001 73 54 39
1.622903e+000 -2.261838e+000 -1.712490e+001 172 125 105
2.339190e+000 7.191518e-001 -1.516753e+001 43 32 22
3.630756e+000 5.845686e-001 -1.533779e+001 150 111 78
-1.042635e+000 -1.629219e+000 -1.612514e+001 104 65 50
2.178938e+000 3.346282e-001 -1.498354e+001 175 142 110
7.673946e-001 -6.580856e-001 -1.586023e+001 166 116 89
3.570969e+000 -9.525671e-001 -1.598882e+001 68 42 19
-6.326540e-001 -1.539540e+000 -1.623408e+001 132 89 52
3.674772e+000 1.041616e+000 -1.568202e+001 129 94 65
1.602787e+000 -4.607571e-001 -1.566996e+001 140 70 68
4.237413e+000 -3.810959e-001 -1.550213e+001 115 86 54
4.146465e+000 -1.030281e+000 -1.627725e+001 91 62 36
1.323360e+000 -1.364321e+000 -1.581237e+001 134 69 60
3.934294e+000 1.055445e+000 -1.572298e+001 132 96 64
3.164672e+000 -9.540212e-002 -1.490069e+001 58 35 23
3.641501e+000 -1.793638e+000 -1.711419e+001 117 87 61
3.746565e+000 5.333849e-001 -1.526876e+001 105 69 33
2.229583e+000 3.933126e-001 -1.489911e+001 187 149 111
2.124343e+000 1.295831e+000 -1.559811e+001 215 195 157
4.301611e+000 1.627422e+000 -1.622404e+001 82 53 27
2.182896e+000 9.655784e-001 -1.537643e+001 125 105 84
2.486533e+000 9.752945e-001 -1.541138e+001 88 67 38
1.916881e+000 9.460657e-001 -1.555530e+001 91 68 44
3.763562e+000 6.355808e-001 -1.534188e+001 120 81 42
4.717301e+000 5.288848e-001 -1.479464e+001 155 117 62
2.169773e+000 3.116435e-001 -1.503717e+001 141 112 81
2.225616e+000 3.220470e-001 -1.482081e+001 179 145 107
2.284480e+000 3.264726e-001 -1.476113e+001 179 145 107
2.716145e+000 2.063273e-001 -1.481242e+001 98 78 53
2.793210e+000 3.445960e-002 -1.476119e+001 57 40 23
2.109776e+000 -1.848550e-002 -1.494480e+001 105 96 67
2.139464e+000 -3.977221e-002 -1.478226e+001 104 96 68
4.388194e+000 8.544873e-002 -1.519589e+001 95 60 30
2.833619e+000 -1.180727e-001 -1.473372e+001 60 43 23
4.705168e+000 -2.609788e-002 -1.510892e+001 176 138 90
1.957600e+000 -2.278808e-001 -1.520451e+001 148 101 48
2.020646e+000 -2.226297e-001 -1.513643e+001 138 102 67
2.367208e+000 -2.757896e-001 -1.469248e+001 161 128 97
2.617371e+000 -2.762939e-001 -1.473236e+001 118 103 82
9.891628e-001 -3.428574e-001 -1.570295e+001 203 149 120
1.755219e+000 -3.497979e-001 -1.547037e+001 117 61 48
2.677756e+000 -4.270897e-001 -1.484363e+001 65 52 35
3.893238e+000 -3.280225e-001 -1.528014e+001 74 52 27
1.807668e+000 -4.196402e-001 -1.546954e+001 163 124 90
3.511046e+000 -5.140389e-001 -1.534792e+001 96 70 47
3.532687e+000 -5.260842e-001 -1.537141e+001 69 45 21
2.273123e+000 -7.581153e-001 -1.522885e+001 157 126 97
2.422813e+000 -6.584340e-001 -1.523596e+001 44 31 14
2.455028e+000 -7.433611e-001 -1.536101e+001 48 35 18
3.714778e+000 -5.794665e-001 -1.558067e+001 66 41 17
9.746357e-001 -8.814180e-001 -1.570247e+001 167 94 85
2.036829e+000 -7.725754e-001 -1.545117e+001 98 67 46
3.746997e+000 -7.331586e-001 -1.579012e+001 92 66 45
2.280607e+000 -1.183464e+000 -1.569506e+001 107 83 59
2.452867e+000 -1.302508e+000 -1.580420e+001 22 13 13
2.609297e+000 -1.332670e+000 -1.598305e+001 94 78 59
2.631635e+000 -1.346077e+000 -1.601950e+001 57 39 21
3.804524e+000 -1.308844e+000 -1.649719e+001 79 52 27
-6.602550e-001 -1.531092e+000 -1.621599e+001 152 106 69
2.890159e+000 -1.503558e+000 -1.639044e+001 73 46 25
2.999188e+000 -1.453992e+000 -1.639077e+001 72 51 30
3.145046e+000 -1.365989e+000 -1.629454e+001 100 75 52
3.163798e+000 -1.505060e+000 -1.651301e+001 85 63 42
3.400113e+000 -1.411958e+000 -1.646581e+001 96 74 51
3.399068e+000 -1.413136e+000 -1.645068e+001 96 74 51
3.474223e+000 -1.430821e+000 -1.655590e+001 99 74 52
3.757058e+000 -1.347435e+000 -1.654080e+001 65 40 18
2.278340e+000 -1.604180e+000 -1.632895e+001 45 31 15
2.323417e+000 -1.582528e+000 -1.625497e+001 61 45 27
3.294967e+000 -1.531225e+000 -1.659578e+001 96 72 49
-5.911645e-001 -1.885051e+000 -1.618728e+001 92 56 41
1.436573e+000 -1.788374e+000 -1.636921e+001 145 87 76
1.580073e+000 -1.759416e+000 -1.619480e+001 132 77 70
1.444467e+000 -1.871428e+000 -1.637012e+001 145 83 72
2.129336e+000 -1.865245e+000 -1.653380e+001 140 111 85
2.153257e+000 -1.883437e+000 -1.660530e+001 50 30 14
2.242069e+000 -1.890559e+000 -1.668476e+001 70 55 36
3.334983e+000 -1.834161e+000 -1.701569e+001 104 77 56
3.333483e+000 -1.833873e+000 -1.701707e+001 104 77 56
3.574999e+000 -1.854993e+000 -1.717936e+001 88 62 37
3.574999e+000 -1.854993e+000 -1.717936e+001 88 62 37
1.533688e+000 -2.133377e+000 -1.691456e+001 140 77 72
1.710343e+000 -2.302539e+000 -1.720655e+001 188 148 113
1.986066e+000 -2.219685e+000 -1.695051e+001 146 112 84
2.161787e+000 -2.239886e+000 -1.712209e+001 35 25 23
