ply
format ascii 1.0
element face 0
property list uchar int vertex_indices
element vertex 892
property float x
property float y
property float z
property uchar diffuse_red
property uchar diffuse_green
property uchar diffuse_blue
end_header
3.092777e+000 -2.237577e+000 -1.726450e+001 101 75 56
2.622955e+000 -2.489806e+000 -1.733437e+001 98 72 53
3.279135e+000 -2.480977e+000 -1.763895e+001 74 49 27
1.816672e+000 1.812851e+000 -1.560142e+001 242 209 176
2.754509e+000 1.988127e+000 -1.602982e+001 125 90 60
4.040627e+000 2.036534e+000 -1.607460e+001 134 95 59
4.240341e+000 1.966405e+000 -1.608801e+001 199 157 117
4.271648e+000 1.867917e+000 -1.602942e+001 168 129 94
4.521191e+000 1.852192e+000 -1.619737e+001 66 40 25
3.638961e+000 1.628656e+000 -1.575275e+001 132 97 70
1.518464e+000 1.301301e+000 -1.586379e+001 128 112 78
3.618764e+000 1.429257e+000 -1.562363e+001 139 107 78
3.923563e+000 1.412466e+000 -1.564583e+001 135 100 70
3.010770e+000 1.018148e+000 -1.521893e+001 79 51 29
2.327061e+000 6.980368e-001 -1.479689e+001 77 61 38
4.817526e+000 8.486787e-001 -1.543434e+001 110 75 38
1.492407e+000 5.471073e-001 -1.566823e+001 192 148 111
3.765552e+000 5.530907e-001 -1.490448e+001 95 60 28
2.132388e+000 2.959913e-001 -1.483195e+001 118 82 56
2.122999e+000 2.917105e-001 -1.478834e+001 118 82 56
1.842080e+000 1.550918e-001 -1.517293e+001 168 122 79
1.076957e+000 7.678016e-002 -1.556070e+001 184 98 93
4.806014e+000 2.171356e-001 -1.503901e+001 131 93 57
2.599441e+000 -9.757282e-002 -1.447180e+001 134 112 76
2.509719e+000 -2.713993e-001 -1.450703e+001 52 38 24
1.346878e+000 -4.627197e-001 -1.546238e+001 132 56 58
1.951609e+000 -3.787041e-001 -1.501055e+001 178 132 48
2.748517e+000 -4.118818e-001 -1.463428e+001 62 48 31
3.070387e+000 -3.650317e-001 -1.476819e+001 83 61 41
3.511670e+000 -2.788951e-001 -1.489665e+001 71 44 23
3.120668e+000 -4.695723e-001 -1.490003e+001 105 85 63
1.955367e+000 -7.060307e-001 -1.517966e+001 93 62 42
1.376121e+000 -8.734361e-001 -1.561047e+001 151 88 81
2.636040e+000 -9.896668e-001 -1.560136e+001 79 68 47
1.590806e+000 -1.130994e+000 -1.569788e+001 152 104 82
1.668895e+000 -1.191179e+000 -1.589389e+001 105 45 36
1.242859e+000 -1.339317e+000 -1.570900e+001 100 26 29
1.575272e+000 -1.596908e+000 -1.590904e+001 107 43 37
3.226423e+000 -1.466486e+000 -1.628942e+001 69 45 27
-7.240167e-001 -1.825842e+000 -1.601281e+001 85 50 37
1.440912e+000 -1.965555e+000 -1.621845e+001 171 124 109
2.047027e+000 -1.780367e+000 -1.615712e+001 85 58 37
2.090043e+000 -1.864073e+000 -1.621066e+001 118 95 72
1.660296e+000 -2.184345e+000 -1.704398e+001 109 42 40
2.635181e+000 -2.048870e+000 -1.685822e+001 126 100 79
3.685133e+000 -2.092875e+000 -1.732539e+001 76 51 28
3.440809e+000 -2.612530e+000 -1.787270e+001 88 57 38
3.819083e+000 -2.562817e+000 -1.795946e+001 93 63 39
4.151840e+000 -3.561257e+000 -1.909597e+001 178 150 103
4.203062e+000 -3.765325e+000 -1.887588e+001 175 148 105
1.894945e+000 1.643960e+000 -1.541150e+001 196 163 130
1.530102e+000 1.668849e+000 -1.608681e+001 114 103 75
2.099454e+000 1.284695e+000 -1.524214e+001 43 29 20
3.697087e+000 1.166574e+000 -1.543062e+001 132 98 70
1.655993e+000 9.392586e-001 -1.560490e+001 75 67 44
1.127392e+000 1.061842e+000 -1.671184e+001 157 109 69
2.392100e+000 7.312485e-001 -1.480558e+001 203 179 146
1.114981e+000 8.473472e-001 -1.656262e+001 47 28 23
3.116559e+000 6.942721e-001 -1.488601e+001 95 63 40
4.510271e+000 7.734169e-001 -1.521738e+001 112 74 38
1.559120e+000 2.982683e-001 -1.543972e+001 200 155 113
2.894365e+000 3.032802e-001 -1.448559e+001 45 32 16
2.948364e+000 1.063740e-001 -1.447935e+001 67 49 25
4.023008e+000 2.920831e-001 -1.481850e+001 87 53 26
4.023008e+000 2.920831e-001 -1.481850e+001 87 53 26
1.181771e+000 9.513738e-002 -1.549926e+001 209 141 128
2.159436e+000 -3.017108e-001 -1.471894e+001 134 91 61
3.144168e+000 -3.484220e-001 -1.476660e+001 118 92 67
4.657239e+000 -2.650272e-001 -1.526320e+001 121 90 62
4.681404e+000 -2.629655e-001 -1.532555e+001 121 90 62
1.800763e+000 -5.867622e-001 -1.520577e+001 196 158 121
3.186620e+000 -5.283391e-001 -1.503776e+001 60 39 20
4.612572e+000 -3.716594e-001 -1.535445e+001 118 88 60
2.585201e+000 -7.302673e-001 -1.522695e+001 20 12 12
3.916078e+000 -6.257353e-001 -1.552078e+001 103 77 50
2.030120e+000 -9.038013e-001 -1.542370e+001 116 85 60
2.000032e+000 -1.104847e+000 -1.542208e+001 77 70 47
-1.434356e+000 -1.507897e+000 -1.601191e+001 135 94 66
3.366356e+000 -1.281654e+000 -1.612848e+001 106 78 57
3.794135e+000 -1.201708e+000 -1.626413e+001 107 77 51
-1.588446e+000 -1.729945e+000 -1.604853e+001 129 91 70
3.930923e+000 -1.440550e+000 -1.647001e+001 83 60 38
3.977741e+000 -1.650215e+000 -1.695767e+001 74 49 27
2.121792e+000 -2.134389e+000 -1.672512e+001 43 32 20
2.948572e+000 -2.037994e+000 -1.687906e+001 104 76 54
1.649804e+000 -2.277724e+000 -1.700129e+001 160 114 92
2.095290e+000 -2.256624e+000 -1.687699e+001 46 36 25
3.017964e+000 -2.630369e+000 -1.767846e+001 88 63 41
3.771002e+000 -2.649339e+000 -1.792622e+001 187 156 110
4.153719e+000 -2.726739e+000 -1.838845e+001 160 131 92
2.266863e+000 -2.822881e+000 -1.713682e+001 102 90 74
2.400801e+000 1.841996e+000 -1.561171e+001 75 61 42
2.052471e+000 1.482218e+000 -1.536358e+001 50 36 22
3.480354e+000 1.226954e+000 -1.546054e+001 147 112 79
3.474959e+000 1.222899e+000 -1.543952e+001 147 112 79
3.948264e+000 1.265093e+000 -1.554650e+001 92 58 31
1.369444e+000 8.215928e-001 -1.595623e+001 101 83 50
1.369444e+000 8.215928e-001 -1.595623e+001 101 83 50
2.738411e+000 7.930647e-001 -1.481528e+001 82 64 40
4.801601e+000 7.152290e-001 -1.503271e+001 164 121 67
2.386292e+000 4.289001e-001 -1.449904e+001 54 32 18
3.293482e+000 5.084264e-001 -1.477238e+001 127 95 65
4.141484e+000 3.097450e-001 -1.490301e+001 124 88 58
2.466092e+000 -1.456769e-001 -1.435937e+001 39 23 14
2.635977e+000 -2.140101e-001 -1.451676e+001 63 48 25
3.035943e+000 -2.767088e-001 -1.476450e+001 104 79 58
3.599855e+000 -5.167804e-001 -1.500318e+001 80 55 33
4.545565e+000 -4.841428e-001 -1.570106e+001 72 44 22
1.180446e+000 -1.011071e+000 -1.553955e+001 167 97 91
4.731096e+000 -8.283402e-001 -1.618310e+001 91 62 30
2.740481e+000 -1.072094e+000 -1.568737e+001 60 44 29
4.658578e+000 -9.935153e-001 -1.625054e+001 89 60 27
4.353257e+000 -1.240995e+000 -1.642818e+001 74 48 25
2.525378e+000 1.512745e+000 -1.544083e+001 77 57 42
2.355295e+000 1.176422e+000 -1.511930e+001 57 43 29
2.477183e+000 8.914509e-001 -1.496890e+001 64 48 31
1.473199e+000 9.124114e-001 -1.603399e+001 77 65 39
3.216722e+000 8.495319e-001 -1.510114e+001 130 99 70
3.353993e+000 7.331392e-001 -1.498580e+001 127 92 64
3.162223e+000 5.878568e-001 -1.478234e+001 79 48 27
4.007910e+000 1.563598e-001 -1.483302e+001 70 39 18
2.711820e+000 -1.219744e-001 -1.447438e+001 22 14 7
2.734453e+000 -1.179306e-001 -1.460009e+001 22 14 7
2.954282e+000 -1.334911e-001 -1.466240e+001 59 41 27
4.609855e+000 -6.020322e-001 -1.577629e+001 115 87 57
1.956947e+000 -1.215018e+000 -1.566661e+001 43 34 21
1.350321e+000 -1.491439e+000 -1.564152e+001 122 54 55
3.846901e+000 -1.743260e+000 -1.688375e+001 111 85 58
4.443304e+000 -2.355604e+000 -1.790220e+001 108 78 43
1.304921e+000 1.095286e+000 -1.644488e+001 186 148 112
3.643650e+000 6.738277e-001 -1.500470e+001 143 107 71
2.930566e+000 -2.662897e-003 -1.447276e+001 52 33 16
4.356676e+000 -8.687064e-002 -1.498280e+001 90 58 33
3.644352e+000 -3.738239e-001 -1.499824e+001 112 82 55
4.076702e+000 -5.295325e-001 -1.539954e+001 88 65 41
4.340704e+000 -8.758143e-001 -1.599065e+001 69 44 24
3.275367e+000 -2.572746e+000 -1.781802e+001 89 64 42
1.796606e+000 1.222477e+000 -1.552395e+001 56 45 25
4.766519e+000 1.071622e+000 -1.554231e+001 24 18 18
3.877655e+000 4.696066e-001 -1.485771e+001 131 95 59
3.727211e+000 -3.631460e-002 -1.479490e+001 120 85 57
3.727211e+000 -3.631460e-002 -1.479490e+001 120 85 57
3.300596e+000 -3.719238e-001 -1.493746e+001 64 41 23
4.035022e+000 9.289221e-001 -1.530439e+001 152 109 74
1.687734e+000 6.405189e-001 -1.561933e+001 187 144 99
3.388368e+000 -4.314833e-001 -1.519025e+001 62 40 22
2.045231e+000 -1.508510e+000 -1.575247e+001 131 97 67
-6.915686e-001 -1.991675e+000 -1.654136e+001 63 42 37
3.105128e+000 -2.482016e+000 -1.775798e+001 74 49 29
4.217259e+000 -3.294170e+000 -1.838338e+001 162 136 91
2.254569e+000 1.693094e+000 -1.571713e+001 69 56 38
2.655117e+000 -2.834897e-001 -1.424063e+001 50 38 18
-6.176804e-001 -1.892589e+000 -1.466162e+001 85 54 41
2.537394e+000 2.062925e+000 -1.612478e+001 172 146 116
2.424234e+000 1.777157e+000 -1.561656e+001 65 51 32
3.468055e+000 1.763352e+000 -1.585598e+001 103 68 38
3.730374e+000 1.664133e+000 -1.580940e+001 96 64 38
4.522326e+000 1.931888e+000 -1.621334e+001 146 102 67
2.561476e+000 1.378781e+000 -1.534978e+001 81 68 48
3.157482e+000 1.479741e+000 -1.558875e+001 109 77 56
1.563774e+000 1.355360e+000 -1.585396e+001 197 161 127
4.029735e+000 1.468097e+000 -1.572502e+001 117 82 54
4.018788e+000 1.463421e+000 -1.569004e+001 117 82 54
2.431243e+000 1.163010e+000 -1.524339e+001 37 23 12
2.566998e+000 1.141981e+000 -1.514747e+001 136 114 81
2.532441e+000 1.085941e+000 -1.511060e+001 75 53 30
3.577999e+000 1.107683e+000 -1.534710e+001 97 63 35
2.416867e+000 9.256057e-001 -1.498219e+001 63 46 31
1.418127e+000 7.995115e-001 -1.588743e+001 93 73 39
1.448809e+000 7.919402e-001 -1.586784e+001 171 137 91
2.440476e+000 6.996213e-001 -1.476719e+001 64 47 26
2.883243e+000 8.429236e-001 -1.502172e+001 159 129 101
3.947005e+000 9.491867e-001 -1.530241e+001 124 85 49
2.974961e+000 5.426998e-001 -1.473953e+001 170 139 110
2.354711e+000 4.081796e-001 -1.454525e+001 169 129 94
2.533475e+000 4.115734e-001 -1.452192e+001 151 129 101
2.512566e+000 3.939980e-001 -1.452947e+001 70 55 29
2.724773e+000 4.710314e-001 -1.460106e+001 247 232 181
3.668920e+000 4.765126e-001 -1.481551e+001 123 92 61
2.102407e+000 2.725108e-001 -1.480341e+001 128 93 65
2.767437e+000 2.213303e-001 -1.450886e+001 146 129 102
2.767437e+000 2.213303e-001 -1.450886e+001 146 129 102
2.078862e+000 9.804189e-002 -1.468370e+001 102 95 67
2.554972e+000 3.866468e-002 -1.441705e+001 58 39 23
2.337293e+000 -1.723464e-001 -1.441646e+001 124 93 64
3.862049e+000 -9.882999e-002 -1.485025e+001 62 38 13
6.907641e-001 -6.824608e-001 -1.562652e+001 163 113 85
3.655842e+000 -4.655307e-001 -1.516523e+001 101 77 51
3.281786e+000 -7.929579e-001 -1.550951e+001 51 28 11
3.857171e+000 -7.217920e-001 -1.565644e+001 70 46 22
4.072567e+000 -7.688518e-001 -1.583586e+001 54 32 11
1.711538e+000 -9.918778e-001 -1.584157e+001 94 40 28
4.133748e+000 -9.254677e-001 -1.599279e+001 71 50 26
3.215443e+000 -1.186962e+000 -1.604922e+001 61 36 14
3.215443e+000 -1.186962e+000 -1.604922e+001 61 36 14
2.174565e+000 -1.339788e+000 -1.557954e+001 151 124 97
2.386451e+000 -1.224179e+000 -1.571343e+001 41 28 14
2.439182e+000 -1.244407e+000 -1.576188e+001 37 24 12
3.734020e+000 -1.259805e+000 -1.625132e+001 97 72 49
-1.581355e+000 -1.757859e+000 -1.605477e+001 115 77 55
-3.646597e-001 -1.650477e+000 -1.643404e+001 162 125 98
3.783179e+000 -1.383965e+000 -1.640706e+001 60 34 12
1.856039e+000 -1.786210e+000 -1.624961e+001 46 33 20
2.301469e+000 -1.705063e+000 -1.619116e+001 49 37 20
3.225974e+000 -1.572862e+000 -1.647414e+001 67 45 24
1.769001e+000 -1.988128e+000 -1.655890e+001 110 40 39
2.469456e+000 -1.860581e+000 -1.654911e+001 71 56 36
8.970543e-001 -2.223879e+000 -1.722009e+001 133 72 66
1.368411e+000 -2.035821e+000 -1.630840e+001 169 109 98
1.941604e+000 -2.291042e+000 -1.687603e+001 215 180 152
1.941604e+000 -2.291042e+000 -1.687603e+001 215 180 152
3.395144e+000 -2.324472e+000 -1.741391e+001 81 54 35
3.389704e+000 1.964050e+000 -1.600073e+001 100 64 30
3.100100e+000 1.420546e+000 -1.553527e+001 84 54 31
3.299664e+000 1.514449e+000 -1.562058e+001 85 56 35
1.822663e+000 1.233696e+000 -1.539402e+001 75 58 33
4.424748e+000 1.496235e+000 -1.577769e+001 115 85 58
2.712915e+000 1.019084e+000 -1.509995e+001 81 60 39
3.293724e+000 1.148721e+000 -1.534903e+001 98 67 39
3.472513e+000 9.549989e-001 -1.520947e+001 101 67 39
4.384248e+000 4.792485e-001 -1.496633e+001 101 64 32
4.384248e+000 4.792485e-001 -1.496633e+001 101 64 32
4.359646e+000 3.123384e-001 -1.493035e+001 88 53 26
2.383139e+000 2.638618e-002 -1.436901e+001 113 76 49
3.359627e+000 9.790360e-003 -1.469252e+001 70 39 18
9.648676e-001 -2.192469e-001 -1.540476e+001 170 94 86
2.107493e+000 -2.383947e-001 -1.470579e+001 148 119 88
2.165402e+000 -5.055674e-001 -1.487321e+001 151 112 80
3.167067e+000 -4.919798e-001 -1.493209e+001 61 40 23
4.336330e+000 -5.225693e-001 -1.560639e+001 72 46 23
4.187167e+000 -7.007738e-001 -1.576278e+001 92 70 47
2.047726e+000 -9.699667e-001 -1.540536e+001 40 31 14
1.749684e+000 -1.173395e+000 -1.582552e+001 115 60 46
1.903586e+000 -1.187924e+000 -1.577042e+001 53 41 25
1.888749e+000 -1.417282e+000 -1.582962e+001 119 81 45
1.941962e+000 -1.414294e+000 -1.554982e+001 162 129 94
3.578331e+000 -2.117053e+000 -1.733137e+001 76 49 28
1.782604e+000 -2.409570e+000 -1.696057e+001 143 99 72
2.522218e+000 -2.357330e+000 -1.722094e+001 65 46 29
1.762720e+000 -2.513564e+000 -1.696644e+001 152 113 82
2.250222e+000 2.053021e+000 -1.597408e+001 162 141 116
3.068073e+000 1.776476e+000 -1.573418e+001 121 86 59
4.440827e+000 1.975764e+000 -1.620150e+001 119 77 42
4.440827e+000 1.975764e+000 -1.620150e+001 119 77 42
2.526223e+000 1.584584e+000 -1.547464e+001 74 59 40
4.066799e+000 1.602124e+000 -1.579688e+001 97 63 36
3.110336e+000 1.383546e+000 -1.551470e+001 113 83 55
3.112936e+000 1.383537e+000 -1.551463e+001 113 83 55
3.309984e+000 1.396270e+000 -1.557631e+001 91 62 34
2.191774e+000 6.408006e-001 -1.462771e+001 216 180 145
1.245255e+000 6.829709e-001 -1.620618e+001 194 157 121
3.228465e+000 6.284400e-001 -1.487108e+001 78 48 24
3.608248e+000 6.416644e-001 -1.495978e+001 140 104 70
3.604457e+000 6.407078e-001 -1.495448e+001 140 104 70
1.848220e+000 -5.448617e-001 -1.512220e+001 157 115 73
3.454928e+000 -4.153200e-001 -1.507396e+001 70 48 25
4.067828e+000 -5.243794e-001 -1.538218e+001 87 65 41
4.162317e+000 -5.251987e-001 -1.553767e+001 65 42 20
4.162317e+000 -5.251987e-001 -1.553767e+001 65 42 20
4.181720e+000 -9.694557e-001 -1.609005e+001 67 45 22
4.257728e+000 -9.742983e-001 -1.613347e+001 64 42 19
4.130871e+000 -1.099049e+000 -1.621221e+001 63 36 17
3.906294e+000 -1.268719e+000 -1.627804e+001 78 51 29
3.906171e+000 -1.268564e+000 -1.627815e+001 78 51 29
-1.168088e+000 -1.613638e+000 -1.605321e+001 156 115 90
1.467583e+000 -1.569462e+000 -1.581557e+001 145 66 69
3.488077e+000 -1.370422e+000 -1.625036e+001 70 45 26
3.687056e+000 -1.558315e+000 -1.665941e+001 61 39 18
3.759257e+000 -1.607416e+000 -1.675661e+001 96 72 48
-1.508690e+000 -2.003167e+000 -1.603942e+001 126 83 58
3.636772e+000 -1.897885e+000 -1.707919e+001 73 49 25
1.906246e+000 2.031464e+000 -1.591221e+001 218 201 183
2.324172e+000 9.094464e-001 -1.488730e+001 40 27 18
4.057252e+000 1.064345e+000 -1.540069e+001 114 79 41
3.652246e+000 8.999950e-001 -1.520909e+001 103 67 39
2.352989e+000 2.705122e-001 -1.440215e+001 135 99 63
4.213967e+000 3.751019e-001 -1.491486e+001 97 61 29
3.390161e+000 1.814029e-001 -1.466819e+001 108 74 47
1.688424e+000 -1.371768e-001 -1.510706e+001 191 154 115
4.357440e+000 -2.407634e-002 -1.497969e+001 81 51 27
4.150617e+000 -3.889183e-001 -1.526409e+001 112 82 58
3.785774e+000 -6.425389e-001 -1.549776e+001 104 77 52
-1.312353e-001 -1.104407e+000 -1.598192e+001 201 160 122
4.098362e+000 -1.009259e+000 -1.609164e+001 68 43 21
2.067860e+000 -1.323546e+000 -1.550787e+001 56 49 32
3.773701e+000 -1.255544e+000 -1.628872e+001 101 74 49
-1.570891e+000 -1.771516e+000 -1.590160e+001 157 113 84
3.964137e+000 -2.113804e+000 -1.743498e+001 69 44 22
2.791140e+000 -2.416255e+000 -1.735007e+001 72 45 28
1.561896e+000 -2.560995e+000 -1.727808e+001 174 135 106
3.717121e+000 2.024481e+000 -1.614707e+001 168 126 88
3.999127e+000 1.519723e+000 -1.581186e+001 86 55 26
3.345185e+000 4.559845e-001 -1.476524e+001 93 59 31
1.919930e+000 -2.624045e-001 -1.494942e+001 126 82 22
4.025514e+000 -1.003413e-001 -1.491707e+001 109 77 53
3.318712e+000 -1.158167e+000 -1.596153e+001 80 52 30
2.460720e+000 -1.589473e+000 -1.618325e+001 23 14 11
1.440833e+000 -1.963966e+000 -1.620505e+001 171 124 109
1.920402e+000 1.531181e+000 -1.535737e+001 199 166 131
1.126440e+000 6.843219e-001 -1.637099e+001 195 155 119
2.564015e+000 -1.868964e+000 -1.651713e+001 51 39 22
2.421650e+000 1.380035e+000 -1.530205e+001 106 83 58
2.957149e+000 1.301625e+000 -1.549690e+001 88 57 35
1.788004e+000 5.750258e-001 -1.518859e+001 198 159 116
2.898902e+000 3.051770e-001 -1.449502e+001 44 30 13
1.617597e+000 -1.652784e-001 -1.533111e+001 151 72 67
2.706089e+000 -1.379033e+000 -1.605624e+001 44 28 12
4.237346e+000 2.008700e+000 -1.610677e+001 183 140 101
2.270154e+000 1.446576e+000 -1.530979e+001 61 49 32
1.152232e+000 -1.238159e+000 -1.559595e+001 149 77 80
3.640040e+000 -7.013251e-001 -1.552705e+001 96 69 44
1.974628e+000 -1.207001e+000 -1.551315e+001 55 41 27
4.229084e+000 1.160143e-001 -1.487017e+001 111 75 43
2.038737e+000 -4.974689e-001 -1.470520e+001 177 138 98
3.697386e+000 1.696046e+000 -1.579781e+001 100 65 35
3.669637e+000 4.751515e-001 -1.481445e+001 123 92 61
1.938842e+000 2.984398e-001 -1.507810e+001 125 86 55
1.947048e+000 2.139033e-003 -1.489581e+001 145 108 74
2.155933e+000 -2.652102e-002 -1.438838e+001 93 84 53
3.638556e+000 8.373671e-002 -1.473056e+001 109 76 46
2.354369e+000 -2.877320e-001 -1.443370e+001 150 115 87
6.442244e-001 -6.535083e-001 -1.568238e+001 172 123 93
3.609332e+000 -4.616790e-001 -1.511743e+001 64 38 15
1.516779e+000 -7.252688e-001 -1.583446e+001 143 73 76
1.390981e+000 -7.357287e-001 -1.582445e+001 150 90 79
2.475546e+000 -6.954595e-001 -1.512177e+001 44 31 22
4.063876e+000 -5.707558e-001 -1.550578e+001 85 60 36
2.220865e+000 -8.700497e-001 -1.517327e+001 121 89 64
2.791181e+000 -7.507950e-001 -1.462385e+001 61 49 36
3.722766e+000 -8.317781e-001 -1.570976e+001 55 30 8
4.001001e+000 -9.074912e-001 -1.592025e+001 97 72 49
4.045806e+000 -8.918279e-001 -1.592017e+001 65 40 18
2.118823e+000 -1.075932e+000 -1.528851e+001 84 72 47
3.167504e+000 -1.161439e+000 -1.592294e+001 57 35 14
3.179095e+000 -1.163145e+000 -1.598038e+001 57 35 14
4.069271e+000 -1.090936e+000 -1.616449e+001 87 63 39
3.132733e+000 -1.319358e+000 -1.608641e+001 68 43 21
3.383353e+000 -1.353433e+000 -1.617719e+001 93 68 46
3.464717e+000 -1.334744e+000 -1.623522e+001 89 64 42
4.059300e+000 -1.338692e+000 -1.644404e+001 85 57 33
4.278708e+000 -1.198811e+000 -1.636124e+001 68 42 19
4.267313e+000 -1.301641e+000 -1.647089e+001 76 48 26
1.751197e+000 -1.510730e+000 -1.595421e+001 153 94 88
2.214231e+000 -1.473922e+000 -1.580853e+001 117 86 58
3.752026e+000 -1.465292e+000 -1.645903e+001 92 68 44
3.995519e+000 -1.402000e+000 -1.647644e+001 100 76 50
1.298984e+000 -1.782400e+000 -1.616211e+001 132 74 63
1.856248e+000 -1.786750e+000 -1.625800e+001 46 33 20
3.217173e+000 -1.688982e+000 -1.658274e+001 66 44 23
3.264278e+000 -1.619963e+000 -1.647700e+001 67 45 24
1.163850e+000 -1.987177e+000 -1.639709e+001 132 64 57
3.891981e+000 -1.874708e+000 -1.714322e+001 89 63 40
1.909826e+000 -2.024066e+000 -1.634674e+001 56 49 29
2.076181e+000 -2.198360e+000 -1.683122e+001 100 72 50
1.598131e+000 -2.450366e+000 -1.722169e+001 142 97 65
2.039567e+000 -2.231286e+000 -1.679472e+001 117 86 61
2.026357e+000 -2.514649e+000 -1.710068e+001 59 41 21
5.011903e+000 -1.953702e+000 -1.551250e+001 114 85 43
4.424953e+000 1.932520e+000 -1.619419e+001 151 114 85
1.917268e+000 1.465713e+000 -1.533172e+001 161 127 94
2.309401e+000 1.139333e+000 -1.510267e+001 112 97 74
2.562624e+000 1.274657e+000 -1.526161e+001 68 53 34
1.735413e+000 1.116731e+000 -1.550012e+001 82 68 41
2.337403e+000 1.085516e+000 -1.501411e+001 64 48 32
1.701771e+000 5.500767e-001 -1.525693e+001 214 173 129
1.420822e+000 5.010584e-001 -1.581507e+001 201 149 112
2.187076e+000 3.417152e-001 -1.461232e+001 180 145 114
3.550826e+000 2.647030e-002 -1.476675e+001 83 51 26
3.552204e+000 2.600483e-002 -1.476381e+001 83 51 26
3.853288e+000 -1.473954e-001 -1.490069e+001 64 41 20
2.203117e+000 -5.000947e-001 -1.498515e+001 112 75 46
2.537305e+000 -6.953644e-001 -1.515154e+001 30 21 12
4.212845e+000 -5.689671e-001 -1.563581e+001 60 38 15
3.498769e+000 -6.982227e-001 -1.552196e+001 68 41 22
3.804824e+000 -6.855949e-001 -1.554284e+001 81 55 30
4.161180e+000 -8.139541e-001 -1.587654e+001 87 65 42
1.808222e+000 -1.024048e+000 -1.568692e+001 71 56 34
2.416790e+000 -1.047009e+000 -1.553279e+001 93 80 61
3.774770e+000 -9.268238e-001 -1.585242e+001 78 54 28
3.314797e+000 -1.498113e+000 -1.640163e+001 87 65 44
4.251085e+000 -1.380390e+000 -1.655252e+001 74 49 27
2.347872e+000 -1.771591e+000 -1.637926e+001 60 43 28
3.047875e+000 -1.583100e+000 -1.639133e+001 81 59 36
3.375014e+000 -1.759717e+000 -1.675587e+001 77 52 30
3.375091e+000 -1.759204e+000 -1.676144e+001 77 52 30
1.381713e+000 -1.846863e+000 -1.611563e+001 128 71 63
1.673450e+000 -1.875103e+000 -1.628990e+001 161 107 95
3.204263e+000 -1.848890e+000 -1.680247e+001 87 63 41
3.674853e+000 -1.965700e+000 -1.716522e+001 105 79 54
1.878224e+000 -2.041815e+000 -1.633976e+001 147 102 81
3.378040e+000 1.899762e+000 -1.591472e+001 155 121 86
2.124563e+000 1.575058e+000 -1.540238e+001 69 54 36
3.306204e+000 1.386279e+000 -1.555797e+001 91 62 34
4.100774e+000 1.050130e+000 -1.541919e+001 146 107 73
1.288182e+000 9.283807e-001 -1.632212e+001 175 132 97
2.406226e+000 7.982435e-001 -1.484296e+001 122 99 66
2.751164e+000 6.605280e-001 -1.469702e+001 67 48 31
2.792420e+000 5.335781e-001 -1.465733e+001 132 113 80
3.665786e+000 6.269065e-001 -1.494126e+001 117 78 45
4.619465e+000 3.783411e-001 -1.498237e+001 113 74 41
1.229796e+000 1.348726e-001 -1.543448e+001 209 140 125
1.018602e+000 3.656510e-002 -1.552588e+001 210 132 124
1.707363e+000 -6.592701e-003 -1.522674e+001 137 77 49
1.859813e+000 4.994936e-002 -1.509069e+001 132 86 52
1.686424e+000 -1.353981e-001 -1.515752e+001 192 155 115
4.090600e+000 -4.112510e-001 -1.524123e+001 75 51 27
4.360667e+000 -5.503942e-001 -1.560955e+001 94 68 44
2.115225e+000 -8.149757e-001 -1.537268e+001 104 71 52
4.369719e+000 -7.722092e-001 -1.591241e+001 96 72 46
1.031740e+000 -1.109636e+000 -1.548520e+001 133 62 58
4.114356e+000 -9.710296e-001 -1.603345e+001 95 71 48
-1.259979e+000 -1.370805e+000 -1.636748e+001 196 154 121
1.834987e+000 -1.110897e+000 -1.570723e+001 58 47 25
4.226135e+000 -1.266214e+000 -1.640761e+001 100 72 48
3.958678e+000 -1.486245e+000 -1.662114e+001 66 41 20
1.309901e+000 -1.986926e+000 -1.633151e+001 146 85 74
1.309901e+000 -1.986926e+000 -1.633151e+001 146 85 74
1.705557e+000 -1.941055e+000 -1.647882e+001 128 64 61
3.539358e+000 -2.059643e+000 -1.722741e+001 99 73 51
3.565402e+000 -2.465818e+000 -1.769342e+001 84 58 33
3.364485e+000 1.494594e+000 -1.560572e+001 92 60 33
3.536422e+000 8.750822e-001 -1.510163e+001 91 57 31
3.877411e+000 8.417232e-001 -1.519003e+001 116 80 47
4.381590e+000 2.298489e-001 -1.492708e+001 80 47 19
3.906556e+000 6.072957e-002 -1.480201e+001 77 47 23
8.866813e-001 -1.980979e-001 -1.549562e+001 202 124 114
2.656735e+000 -1.090072e-001 -1.448815e+001 42 25 15
3.505920e+000 -4.280771e-001 -1.504995e+001 94 68 45
3.532298e+000 -5.860350e-001 -1.532511e+001 68 44 23
3.181723e+000 -1.022650e+000 -1.577160e+001 63 42 23
4.412610e+000 -1.031009e+000 -1.621426e+001 84 54 28
2.562896e+000 -1.383713e+000 -1.592453e+001 68 55 33
3.642533e+000 -1.254388e+000 -1.623701e+001 108 81 56
4.377620e+000 -1.263780e+000 -1.648357e+001 76 52 25
3.302161e+000 -1.923143e+000 -1.696478e+001 100 73 53
3.163710e+000 -2.067183e+000 -1.713596e+001 98 72 49
1.591720e+000 -2.401916e+000 -1.715982e+001 134 83 62
2.187317e+000 1.449956e+000 -1.535867e+001 64 49 30
1.904155e+000 1.184098e+000 -1.539040e+001 105 79 56
3.420130e+000 9.499536e-001 -1.519752e+001 128 94 67
2.290859e+000 3.599807e-001 -1.447758e+001 200 166 128
8.197788e-001 2.375266e-001 -1.608363e+001 203 124 119
4.287585e+000 -5.821891e-001 -1.564276e+001 66 41 19
3.532203e+000 -7.664833e-001 -1.555066e+001 74 47 26
2.599434e+000 -1.117674e+000 -1.563901e+001 91 80 62
1.651012e+000 -1.400449e+000 -1.583762e+001 100 39 38
3.998094e+000 1.378374e+000 -1.561608e+001 121 90 57
2.092501e+000 3.982108e-001 -1.484338e+001 41 28 16
1.709670e+000 2.056626e-001 -1.521735e+001 189 146 103
4.651135e+000 3.474528e-001 -1.494121e+001 153 116 74
4.505264e+000 -1.773789e-001 -1.515517e+001 109 78 49
3.523408e+000 -1.131021e+000 -1.604428e+001 111 83 59
4.113810e+000 1.273575e+000 -1.552797e+001 131 90 60
3.389916e+000 -8.153731e-001 -1.553190e+001 102 74 52
7.880828e-001 -1.058396e+000 -1.555800e+001 135 86 75
2.374293e+000 -1.087475e+000 -1.570511e+001 57 41 26
3.096512e+000 -1.939013e+000 -1.688368e+001 73 51 30
1.320169e+000 4.519926e-002 -1.536875e+001 178 89 88
3.330638e+000 -1.973484e+000 -1.708610e+001 95 69 45
1.268517e+000 3.288339e-001 -1.561867e+001 187 102 95
2.713669e+000 2.756333e-001 -1.474580e+001 53 42 28
6.515716e-001 -1.675308e-001 -1.576959e+001 158 99 67
9.000464e-001 -1.109868e+000 -1.548886e+001 186 128 108
2.899866e+000 -2.657574e+000 -1.793871e+001 94 69 49
7.484509e-001 -4.021619e-001 -1.551172e+001 205 160 129
5.526197e-001 -9.967810e-001 -1.586654e+001 115 52 45
3.244006e+000 1.621593e+000 -1.590843e+001 117 84 59
3.386945e+000 1.862929e+000 -1.591162e+001 99 65 35
2.142896e+000 7.372480e-001 -1.472321e+001 178 142 106
3.182260e+000 9.033726e-001 -1.512230e+001 123 92 63
1.826945e+000 2.512342e-001 -1.513792e+001 192 150 104
1.588192e+000 9.761058e-002 -1.526902e+001 201 150 108
2.070250e+000 -1.545699e-001 -1.475571e+001 78 67 41
3.967002e+000 9.733014e-002 -1.480616e+001 84 52 29
4.135733e+000 -2.313545e-001 -1.504066e+001 73 45 20
4.250501e+000 -5.713527e-001 -1.561728e+001 45 18 0
3.906111e+000 -9.214063e-001 -1.592168e+001 64 37 15
3.977896e+000 -8.790897e-001 -1.589454e+001 64 37 16
4.198632e+000 -8.957674e-001 -1.596845e+001 71 45 22
-1.675480e+000 -1.609524e+000 -1.611181e+001 133 98 76
9.766781e-001 -1.393811e+000 -1.559328e+001 166 106 96
3.674287e+000 -1.228461e+000 -1.615414e+001 64 39 16
3.697222e+000 -1.316070e+000 -1.626069e+001 90 65 43
-1.588346e+000 -1.760904e+000 -1.608510e+001 109 71 52
-1.279900e+000 -2.163692e+000 -1.603770e+001 121 80 58
9.197027e-001 -2.326135e+000 -1.720422e+001 170 111 102
-1.687145e+000 -2.481576e+000 -1.615551e+001 188 118 118
1.738676e+000 -2.424885e+000 -1.705792e+001 171 128 101
3.869777e+000 1.810975e+000 -1.592240e+001 129 94 62
3.870747e+000 1.811539e+000 -1.592471e+001 129 94 62
3.486034e+000 1.498570e+000 -1.565368e+001 99 65 38
3.955408e+000 1.146099e+000 -1.546315e+001 115 76 46
3.439726e+000 8.630456e-001 -1.511471e+001 97 63 38
4.222810e+000 1.006072e+000 -1.538853e+001 132 96 60
3.672382e+000 7.597213e-001 -1.507963e+001 128 91 58
2.836811e+000 3.335825e-001 -1.451939e+001 132 116 90
1.045649e+000 -1.139597e-001 -1.540513e+001 165 73 74
3.885787e+000 -3.489900e-001 -1.511490e+001 96 69 43
8.512726e-001 -1.140576e+000 -1.548345e+001 196 138 119
2.239777e+000 -1.064747e+000 -1.538298e+001 171 143 116
3.994466e+000 -1.005666e+000 -1.604634e+001 70 44 21
4.286268e+000 -1.026053e+000 -1.619316e+001 60 34 12
-1.676548e+000 -1.651604e+000 -1.610014e+001 112 76 54
-1.691485e+000 -1.652675e+000 -1.614131e+001 112 76 54
3.997032e+000 -1.316367e+000 -1.638186e+001 107 81 54
1.810667e+000 -1.710194e+000 -1.619641e+001 73 52 34
3.991359e+000 -2.152074e+000 -1.748718e+001 68 43 21
3.787365e+000 1.281605e+000 -1.552773e+001 127 93 65
3.765378e+000 8.614331e-001 -1.517240e+001 125 89 57
4.164556e+000 8.988007e-001 -1.528628e+001 147 109 71
2.431992e+000 6.208602e-001 -1.465230e+001 76 60 44
4.037905e+000 2.731487e-001 -1.484972e+001 87 53 25
4.191377e+000 -4.434101e-001 -1.536834e+001 59 33 8
4.264564e+000 -4.263363e-001 -1.537679e+001 109 82 53
3.629254e+000 -1.189851e+000 -1.609758e+001 102 76 53
4.143399e+000 -1.188116e+000 -1.623595e+001 79 53 29
4.136987e+000 -1.062332e+000 -1.613372e+001 98 74 50
4.146693e+000 -1.062822e+000 -1.615124e+001 98 74 50
2.857712e+000 -1.350903e+000 -1.600374e+001 114 88 64
-1.971973e+000 -2.293274e+000 -1.636592e+001 206 141 134
3.970693e+000 1.500303e+000 -1.570934e+001 87 53 29
3.913392e+000 1.329908e+000 -1.558999e+001 97 65 37
2.426753e+000 6.862823e-001 -1.478189e+001 73 56 38
4.160296e+000 4.680195e-001 -1.492811e+001 112 73 40
4.245170e+000 2.856942e-001 -1.489974e+001 89 54 26
5.432322e-001 -4.693839e-001 -1.573768e+001 145 92 61
3.420614e+000 -5.900433e-001 -1.527567e+001 61 38 18
-1.996328e+000 -2.104426e+000 -1.643285e+001 255 255 253
3.101864e+000 1.877550e+000 -1.586075e+001 152 119 81
3.693774e+000 9.546816e-001 -1.523727e+001 129 96 65
2.287456e+000 3.521341e-001 -1.443757e+001 204 169 131
3.618317e+000 -1.473476e-001 -1.483154e+001 76 44 21
2.984606e+000 -1.540840e+000 -1.631621e+001 65 41 20
2.929621e+000 1.657808e+000 -1.570097e+001 129 95 68
1.454359e+000 -8.243684e-001 -1.572551e+001 116 48 45
1.724465e+000 -1.494352e+000 -1.602046e+001 168 106 99
4.220647e+000 -2.253266e+000 -1.766984e+001 139 106 75
4.909444e+000 4.931144e-001 -1.496137e+001 163 122 66
4.210395e+000 -3.587124e-001 -1.526183e+001 108 78 50
3.786606e+000 -1.924347e+000 -1.713907e+001 116 87 61
4.712860e+000 4.085318e-001 -1.502209e+001 151 109 69
2.659828e+000 -2.321814e+000 -1.728471e+001 132 104 80
1.627681e+000 1.690269e+000 -1.573351e+001 165 141 107
2.258068e+000 1.754499e+000 -1.565893e+001 39 27 13
2.635583e+000 9.390752e-001 -1.496714e+001 169 147 110
2.014355e+000 -8.559117e-003 -1.479688e+001 136 117 91
3.976373e+000 2.074801e-002 -1.486027e+001 75 43 18
1.402617e+000 -7.112596e-001 -1.577939e+001 115 55 47
1.244436e+000 -8.943466e-001 -1.561504e+001 170 110 99
3.710522e+000 -1.103989e+000 -1.604429e+001 75 47 23
2.180660e+000 -2.854773e+000 -1.719524e+001 67 55 39
2.185227e+000 -2.862500e+000 -1.722912e+001 67 55 39
3.960221e+000 8.512456e-001 -1.516223e+001 160 119 81
1.073726e+000 -2.133189e-003 -1.543710e+001 203 123 114
3.912755e+000 -7.643605e-001 -1.571629e+001 76 50 27
-1.697074e+000 -1.851844e+000 -1.609879e+001 160 116 87
3.694912e+000 -1.315945e+000 -1.626249e+001 91 67 42
3.345363e+000 -2.049578e+000 -1.714608e+001 105 79 56
3.542934e+000 -2.061532e+000 -1.726916e+001 99 73 50
1.907554e+000 -2.521800e+000 -1.703286e+001 148 113 81
3.398855e+000 1.252596e+000 -1.547634e+001 109 74 42
3.345688e+000 5.483614e-001 -1.481373e+001 126 91 63
7.517008e-001 -8.637263e-001 -1.557228e+001 160 94 82
4.149455e+000 -1.014638e+000 -1.608207e+001 70 44 21
4.230052e+000 -9.691144e-001 -1.606662e+001 67 41 20
3.825154e+000 -1.553586e+000 -1.663903e+001 99 73 48
2.588462e+000 1.077080e+000 -1.513839e+001 143 120 76
3.724465e+000 7.683440e-001 -1.509966e+001 102 66 35
3.603965e+000 5.891139e-001 -1.489426e+001 113 74 44
4.223116e+000 -6.166876e-001 -1.564989e+001 97 72 48
3.727237e+000 4.827159e-001 -1.482399e+001 136 100 66
9.317938e-001 -1.146841e+000 -1.545224e+001 186 129 111
4.024917e+000 -1.980257e-001 -1.500836e+001 111 79 56
1.412792e+000 -1.041179e+000 -1.569824e+001 129 58 54
4.286624e+000 1.346052e+000 -1.566591e+001 107 71 41
3.215893e+000 1.595366e+000 -1.569697e+001 85 54 29
3.868313e+000 1.507874e+000 -1.571519e+001 93 60 29
1.905441e+000 1.215179e+000 -1.537274e+001 123 96 72
9.653750e-001 7.650142e-001 -1.676938e+001 124 80 46
4.341170e+000 5.495534e-001 -1.500227e+001 96 60 29
1.717913e+000 -4.005206e-001 -1.533271e+001 156 114 89
4.873584e+000 -8.943544e-001 -1.572921e+001 101 73 34
3.215731e+000 -1.212103e+000 -1.599694e+001 89 65 42
4.796970e+000 -3.066874e+000 -1.686326e+001 143 114 68
3.383900e+000 1.207754e+000 -1.543094e+001 100 67 36
3.633788e+000 5.147536e-001 -1.486068e+001 124 90 59
3.653116e+000 4.921472e-001 -1.484525e+001 79 47 22
3.695045e+000 4.854613e-001 -1.482566e+001 136 101 71
4.987422e+000 6.624766e-002 -1.485607e+001 168 131 79
1.062005e+000 -1.417527e+000 -1.558599e+001 153 77 75
3.982928e+000 -1.622974e+000 -1.682215e+001 65 43 20
3.770690e+000 7.675930e-001 -1.508975e+001 148 112 76
3.829185e+000 8.350262e-001 -1.516846e+001 134 98 66
3.576968e+000 5.709074e-001 -1.489678e+001 106 71 41
4.155110e+000 4.754174e-001 -1.494051e+001 105 69 37
-9.422036e-001 -1.480773e+000 -1.622898e+001 145 100 65
4.049566e+000 1.484743e-002 -1.485063e+001 116 85 57
-1.001092e+000 -1.573314e+000 -1.617374e+001 147 101 63
4.145326e+000 1.951245e+000 -1.611441e+001 104 69 36
1.884239e+000 1.636384e+000 -1.553337e+001 165 132 99
3.473204e+000 1.730531e+000 -1.581529e+001 140 105 75
3.972933e+000 1.830263e+000 -1.600619e+001 89 55 27
3.049828e+000 1.434188e+000 -1.553400e+001 111 80 54
3.539123e+000 1.564135e+000 -1.572289e+001 98 63 36
2.287980e+000 1.258379e+000 -1.518257e+001 65 49 33
3.975065e+000 1.284361e+000 -1.557375e+001 86 52 24
3.897144e+000 1.038115e+000 -1.536280e+001 137 96 64
3.276294e+000 7.627785e-001 -1.499407e+001 110 73 45
3.921928e+000 8.103777e-001 -1.516946e+001 137 99 63
4.472947e+000 7.514805e-001 -1.516334e+001 93 54 23
4.096065e+000 5.867109e-001 -1.498594e+001 108 70 34
2.282421e+000 1.375021e-001 -1.439601e+001 182 149 110
4.278884e+000 4.052251e-001 -1.491801e+001 104 65 33
3.996218e+000 1.175295e-001 -1.482830e+001 94 64 40
1.944125e+000 -2.292388e-001 -1.495118e+001 184 140 79
9.089546e-001 -1.407010e+000 -1.558425e+001 148 81 74
4.078507e+000 2.069961e+000 -1.622850e+001 108 68 32
2.173029e+000 1.658530e+000 -1.548687e+001 53 43 26
3.813626e+000 1.764709e+000 -1.589594e+001 124 89 59
4.343831e+000 1.791047e+000 -1.595874e+001 129 94 66
4.597602e+000 1.932796e+000 -1.612670e+001 94 70 46
2.004035e+000 1.326701e+000 -1.524390e+001 144 108 75
3.268490e+000 1.526837e+000 -1.564889e+001 107 77 53
1.560774e+000 1.313970e+000 -1.582396e+001 116 81 49
3.986625e+000 1.448068e+000 -1.569641e+001 96 62 34
2.191727e+000 8.883682e-001 -1.487289e+001 150 114 80
4.260750e+000 1.039144e+000 -1.543888e+001 107 71 39
1.980940e+000 7.478213e-001 -1.496869e+001 87 77 48
2.936143e+000 7.715691e-001 -1.498553e+001 142 111 83
3.432321e+000 8.318467e-001 -1.509469e+001 118 83 55
3.911114e+000 9.235215e-001 -1.525121e+001 146 107 68
4.099249e+000 -2.240401e-001 -1.503423e+001 63 37 14
1.561624e+000 -1.449810e+000 -1.575511e+001 195 140 131
3.025115e+000 -1.512063e+000 -1.627641e+001 97 72 52
1.176272e+000 -1.977845e+000 -1.635325e+001 136 70 62
3.743904e+000 1.805767e+000 -1.596668e+001 101 66 36
3.752875e+000 1.641323e+000 -1.578170e+001 144 109 77
3.548865e+000 8.843101e-001 -1.518594e+001 88 54 27
3.548865e+000 8.843101e-001 -1.518594e+001 88 54 27
3.908291e+000 6.548198e-001 -1.504463e+001 111 72 39
4.357824e+000 -2.913311e-002 -1.497838e+001 85 52 27
1.321708e+000 -8.788362e-001 -1.562652e+001 156 94 83
3.397362e+000 1.633885e+000 -1.573758e+001 89 57 32
3.744527e+000 9.058281e-001 -1.520701e+001 103 68 40
1.412859e+000 4.921364e-001 -1.580437e+001 206 156 119
3.374922e+000 1.748733e-001 -1.466615e+001 112 78 51
4.180501e+000 6.231531e-002 -1.491476e+001 103 69 41
3.344332e+000 -8.241565e-001 -1.554902e+001 103 77 52
3.537694e+000 -1.109800e+000 -1.598811e+001 111 84 59
-1.263397e+000 -1.655713e+000 -1.592948e+001 149 108 86
1.732942e+000 -1.618045e+000 -1.610255e+001 131 67 67
4.148281e+000 1.802247e+000 -1.601733e+001 127 89 58
3.165060e+000 1.424003e+000 -1.555921e+001 86 56 30
1.722022e+000 1.960845e-001 -1.520348e+001 194 150 105
2.669090e+000 -3.492690e-001 -1.453225e+001 35 22 14
3.883959e+000 -4.293490e-001 -1.520642e+001 118 88 62
-3.272738e-001 -1.219700e+000 -1.630510e+001 127 92 65
4.396062e+000 -1.029006e+000 -1.618243e+001 82 56 28
1.259399e+000 8.310899e-001 -1.635066e+001 176 138 101
2.399451e+000 7.266129e-001 -1.479554e+001 226 208 168
3.421234e+000 9.472608e-001 -1.518244e+001 127 94 63
4.252531e+000 7.127346e-001 -1.512786e+001 108 69 36
4.252531e+000 7.127346e-001 -1.512786e+001 108 69 36
7.859012e-001 1.469071e-001 -1.587117e+001 173 97 74
4.544182e+000 -1.227322e-001 -1.510115e+001 79 47 22
3.255428e+000 -2.663718e-001 -1.479489e+001 73 48 25
1.355025e+000 -1.259644e+000 -1.565029e+001 148 76 79
-9.971075e-001 -1.592598e+000 -1.609441e+001 142 96 61
1.644314e+000 -1.484645e+000 -1.597966e+001 102 43 41
2.781349e+000 1.998334e+000 -1.613342e+001 121 87 59
3.661456e+000 1.526032e+000 -1.566932e+001 107 72 42
4.137528e+000 1.293307e+000 -1.559721e+001 132 92 62
4.456170e+000 5.452546e-001 -1.501459e+001 129 91 54
2.328102e+000 1.936580e-001 -1.437389e+001 218 188 152
3.620694e+000 2.445764e-001 -1.472280e+001 124 90 55
3.349830e+000 7.327579e-001 -1.497741e+001 126 92 57
8.129998e-001 -8.387003e-001 -1.553411e+001 197 135 120
-9.750108e-001 -1.547686e+000 -1.619792e+001 155 107 69
3.466302e+000 3.558260e-001 -1.475400e+001 121 86 54
3.802616e+000 2.346616e-001 -1.474997e+001 128 90 54
4.756875e+000 1.151358e+000 -1.551288e+001 25 17 14
4.822665e+000 -2.055670e-002 -1.575235e+001 115 80 48
3.495249e+000 2.014152e+000 -1.610949e+001 122 83 50
3.026496e+000 1.898987e+000 -1.592762e+001 130 94 62
3.446722e+000 1.528118e+000 -1.569524e+001 84 50 23
2.094940e+000 1.196838e+000 -1.513608e+001 128 97 63
4.276315e+000 1.352486e+000 -1.569035e+001 93 59 31
3.211073e+000 6.534249e-001 -1.489225e+001 105 73 47
3.937757e+000 7.987274e-001 -1.513528e+001 109 69 34
3.937757e+000 7.987274e-001 -1.513528e+001 109 69 34
1.827915e+000 4.865930e-001 -1.502913e+001 169 140 98
4.468634e+000 7.127533e-001 -1.516283e+001 133 93 58
3.682327e+000 4.589373e-001 -1.479917e+001 101 66 38
4.379212e+000 5.068074e-001 -1.500945e+001 104 67 33
4.379212e+000 5.068074e-001 -1.500945e+001 104 67 33
3.109253e+000 2.115765e-001 -1.459030e+001 163 128 100
2.336268e+000 -1.445476e-001 -1.440634e+001 164 130 101
1.751660e+000 -1.437909e+000 -1.591409e+001 165 100 94
5.079719e+000 -1.018131e+000 -1.478720e+001 115 84 41
3.440773e+000 2.032264e+000 -1.613322e+001 157 122 84
3.037723e+000 1.395741e+000 -1.552520e+001 83 51 26
3.300665e+000 1.381660e+000 -1.554903e+001 92 58 31
3.436312e+000 1.276002e+000 -1.548723e+001 109 74 44
3.900354e+000 1.117199e+000 -1.539347e+001 133 98 64
4.043618e+000 3.254388e-001 -1.489436e+001 91 56 26
2.073340e+000 -1.573608e-001 -1.475169e+001 74 61 40
9.478472e-001 -1.037345e+000 -1.546578e+001 143 75 59
1.760382e+000 -1.781071e+000 -1.624394e+001 121 67 67
1.851357e+000 1.702531e+000 -1.561375e+001 142 107 77
4.506148e+000 1.882279e+000 -1.621212e+001 81 49 24
3.376210e+000 1.501258e+000 -1.565364e+001 92 63 33
3.324674e+000 6.436500e-001 -1.489074e+001 97 64 35
2.649407e+000 -1.377343e-001 -1.446033e+001 41 27 16
4.348900e+000 2.828962e-002 -1.491642e+001 94 62 30
1.607373e+000 -9.359599e-001 -1.576892e+001 131 68 61
8.918922e-001 -1.196662e+000 -1.543933e+001 174 109 97
1.797200e+000 -1.734177e+000 -1.618015e+001 73 54 39
1.517775e+000 -2.440312e+000 -1.713600e+001 172 125 105
2.335561e+000 9.178408e-001 -1.495113e+001 43 32 22
3.786949e+000 7.627509e-001 -1.514570e+001 150 111 78
-1.474348e+000 -1.718749e+000 -1.600746e+001 104 65 50
2.155024e+000 4.866907e-001 -1.474202e+001 175 142 110
5.632425e-001 -6.301111e-001 -1.571921e+001 166 116 89
3.714116e+000 -9.682371e-001 -1.587057e+001 68 42 19
-1.013594e+000 -1.619381e+000 -1.613153e+001 132 89 52
3.836432e+000 1.274943e+000 -1.553498e+001 129 94 65
1.503416e+000 -4.093576e-001 -1.550860e+001 140 70 68
4.466256e+000 -3.251413e-001 -1.532790e+001 115 86 54
4.360008e+000 -1.058194e+000 -1.619615e+001 91 62 36
1.186800e+000 -1.425166e+000 -1.566389e+001 134 69 60
4.128124e+000 1.289698e+000 -1.558189e+001 132 96 64
3.262655e+000 1.259183e-003 -1.464974e+001 58 35 23
3.787927e+000 -1.918723e+000 -1.713198e+001 117 87 61
3.917254e+000 7.052484e-001 -1.506818e+001 105 69 33
2.212355e+000 5.529451e-001 -1.464749e+001 187 149 111
2.094118e+000 1.564844e+000 -1.543768e+001 215 195 157
4.540932e+000 1.929771e+000 -1.614953e+001 82 53 27
2.159815e+000 1.194371e+000 -1.518692e+001 125 105 84
2.501132e+000 1.204437e+000 -1.522714e+001 88 67 38
1.860166e+000 1.172215e+000 -1.538720e+001 91 68 44
3.936382e+000 8.198067e-001 -1.515101e+001 120 81 42
5.010206e+000 7.001333e-001 -1.453806e+001 155 117 62
2.144507e+000 4.606295e-001 -1.480220e+001 141 112 81
2.207946e+000 4.731748e-001 -1.455906e+001 179 145 107
2.274318e+000 4.782842e-001 -1.449212e+001 179 145 107
2.759264e+000 3.419536e-001 -1.455047e+001 98 78 53
2.845672e+000 1.487471e-001 -1.449228e+001 57 40 23
2.076542e+000 8.998069e-002 -1.469661e+001 105 96 67
2.110343e+000 6.670294e-002 -1.451379e+001 104 96 68
4.637820e+000 2.004225e-001 -1.498602e+001 95 60 30
2.890838e+000 -2.273814e-002 -1.446079e+001 60 43 23
4.994231e+000 7.466408e-002 -1.488870e+001 176 138 90
1.904207e+000 -1.462671e-001 -1.498728e+001 148 101 48
1.975299e+000 -1.402058e-001 -1.491093e+001 138 102 67
2.366138e+000 -1.988116e-001 -1.441237e+001 161 128 97
2.647308e+000 -2.001530e-001 -1.445788e+001 118 103 82
8.137525e-001 -2.755157e-001 -1.554440e+001 203 149 120
1.675624e+000 -2.840561e-001 -1.528510e+001 117 61 48
2.714528e+000 -3.703441e-001 -1.458250e+001 65 52 35
4.080039e+000 -2.637740e-001 -1.507712e+001 74 52 27
1.734431e+000 -3.626986e-001 -1.528400e+001 163 124 90
3.649711e+000 -4.723171e-001 -1.515142e+001 96 70 47
3.673987e+000 -4.859631e-001 -1.517808e+001 69 45 21
2.257667e+000 -7.432785e-001 -1.501318e+001 157 126 97
2.426184e+000 -6.315816e-001 -1.502204e+001 44 31 14
2.461843e+000 -7.276923e-001 -1.516238e+001 48 35 18
3.877956e+000 -5.473198e-001 -1.541372e+001 66 41 17
7.961597e-001 -8.809542e-001 -1.554140e+001 167 94 85
1.991312e+000 -7.599588e-001 -1.526242e+001 98 67 46
3.913169e+000 -7.211134e-001 -1.564862e+001 92 66 45
2.263741e+000 -1.223550e+000 -1.553555e+001 107 83 59
2.456820e+000 -1.358264e+000 -1.565824e+001 22 13 13
2.632095e+000 -1.393307e+000 -1.585964e+001 94 78 59
2.657070e+000 -1.408589e+000 -1.590062e+001 57 39 21
3.974302e+000 -1.371555e+000 -1.644119e+001 79 52 27
-1.044609e+000 -1.609699e+000 -1.611123e+001 152 106 69
2.946242e+000 -1.587824e+000 -1.631769e+001 73 46 25
3.068927e+000 -1.532359e+000 -1.631858e+001 72 51 30
3.233403e+000 -1.433354e+000 -1.621122e+001 100 75 52
3.253508e+000 -1.590675e+000 -1.645631e+001 85 63 42
3.519550e+000 -1.486358e+000 -1.640441e+001 96 74 51
3.518396e+000 -1.487618e+000 -1.638728e+001 96 74 51
3.602516e+000 -1.508125e+000 -1.650569e+001 99 74 52
3.920721e+000 -1.414978e+000 -1.648991e+001 65 40 18
2.258372e+000 -1.699248e+000 -1.624634e+001 45 31 15
2.309316e+000 -1.674698e+000 -1.616345e+001 61 45 27
3.400658e+000 -1.620748e+000 -1.654963e+001 96 72 49
-9.677144e-001 -2.007653e+000 -1.607758e+001 92 56 41
1.311510e+000 -1.904512e+000 -1.628843e+001 145 87 76
1.473393e+000 -1.871561e+000 -1.609286e+001 132 77 70
1.320195e+000 -1.997905e+000 -1.628905e+001 145 83 72
2.089666e+000 -1.993255e+000 -1.647514e+001 140 111 85
2.116307e+000 -2.014061e+000 -1.655541e+001 50 30 14
2.215899e+000 -2.022608e+000 -1.664495e+001 70 55 36
3.443667e+000 -1.963167e+000 -1.702046e+001 104 77 56
3.441951e+000 -1.962844e+000 -1.702188e+001 104 77 56
3.712887e+000 -1.987832e+000 -1.720488e+001 88 62 37
3.712887e+000 -1.987832e+000 -1.720488e+001 88 62 37
1.418367e+000 -2.294861e+000 -1.690010e+001 140 77 72
1.615723e+000 -2.486656e+000 -1.722826e+001 188 148 113
1.926588e+000 -2.393111e+000 -1.694166e+001 146 112 84
2.123581e+000 -2.416945e+000 -1.713493e+001 35 25 23
3.102744e+000 -2.486424e+000 -1.752097e+001 74 47 27
3.423427e+000 -2.349694e+000 -1.748840e+001 81 57 31
3.594581e+000 -2.369686e+000 -1.758905e+001 89 61 37
4.943985e+000 -2.214666e+000 -1.593601e+001 119 90 50
2.314928e+000 -2.615337e+000 -1.708959e+001 41 29 21
2.859468e+000 -2.561055e+000 -1.752693e+001 77 49 28
2.859468e+000 -2.561055e+000 -1.752693e+001 77 49 28
4.573737e+000 -2.687140e+000 -1.776509e+001 174 147 102
5.132887e+000 -2.336036e+000 -1.516774e+001 157 128 89
4.941982e+000 -2.881665e+000 -1.606716e+001 141 112 68
2.467830e+000 1.526854e+000 -1.542952e+001 72 55 37
3.709590e+000 1.645347e+000 -1.576038e+001 110 75 43
2.419955e+000 1.329362e+000 -1.533066e+001 65 44 22
2.046900e+000 1.085011e+000 -1.505163e+001 128 89 53
3.346016e+000 1.221669e+000 -1.540714e+001 142 105 75
3.823681e+000 9.269187e-001 -1.529265e+001 142 106 70
2.664682e+000 7.277680e-001 -1.482038e+001 65 45 42
2.315676e+000 4.037278e-001 -1.445465e+001 126 88 49
3.568656e+000 6.669773e-001 -1.497950e+001 117 82 44
3.750714e+000 4.271048e-001 -1.480073e+001 107 73 39
2.109419e+000 -1.303917e-001 -1.463737e+001 84 70 44
2.347181e+000 -1.545016e-001 -1.437632e+001 171 140 109
2.403332e+000 -1.786209e-001 -1.432169e+001 121 87 61
2.649140e+000 -1.345902e-001 -1.446214e+001 43 29 18
1.918539e+000 -1.807205e-001 -1.496964e+001 200 160 95
2.601103e+000 -2.046744e-001 -1.450283e+001 122 105 85
2.601103e+000 -2.046744e-001 -1.450283e+001 122 105 85
2.831883e+000 -2.311398e-001 -1.454574e+001 42 28 18
2.008483e+000 -3.242407e-001 -1.484159e+001 166 119 42
2.388894e+000 -3.366975e-001 -1.453309e+001 112 76 51
3.441844e+000 -3.101789e-001 -1.492382e+001 58 35 17
4.570005e+000 -1.357647e-001 -1.511749e+001 61 34 13
4.573361e+000 -1.346342e-001 -1.512357e+001 61 34 13
3.962842e+000 -3.520813e-001 -1.514473e+001 94 69 43
4.224308e+000 -3.895056e-001 -1.530681e+001 86 60 35
2.162287e+000 -5.530823e-001 -1.490339e+001 153 117 84
2.461019e+000 -5.557425e-001 -1.487199e+001 38 28 20
2.851489e+000 -6.256921e-001 -1.448135e+001 87 73 54
3.606490e+000 -4.641893e-001 -1.510937e+001 70 47 23
4.085257e+000 -4.487417e-001 -1.538421e+001 51 26 6
2.014037e+000 -7.495906e-001 -1.525388e+001 135 100 70
3.768764e+000 -6.006592e-001 -1.543927e+001 66 39 18
2.030099e+000 -8.051732e-001 -1.526764e+001 148 116 92
4.185018e+000 -7.028159e-001 -1.574846e+001 95 73 50
2.438290e+000 -9.410321e-001 -1.541060e+001 38 26 13
2.474583e+000 -9.835764e-001 -1.544137e+001 53 38 19
3.503330e+000 -8.690003e-001 -1.566624e+001 63 37 14
1.563489e+000 -1.159962e+000 -1.565031e+001 146 69 71
2.451311e+000 -1.105974e+000 -1.558996e+001 49 34 15
2.487980e+000 -1.094300e+000 -1.561650e+001 122 106 76
3.961808e+000 -9.541391e-001 -1.597539e+001 51 28 10
7.477123e-001 -1.235998e+000 -1.552514e+001 169 91 87
1.733895e+000 -1.209675e+000 -1.591403e+001 138 78 67
2.101460e+000 -1.181736e+000 -1.533100e+001 74 64 37
2.709090e+000 -1.182325e+000 -1.578213e+001 120 106 73
2.627619e+000 -1.243856e+000 -1.576411e+001 62 48 30
3.996851e+000 -1.127364e+000 -1.616077e+001 67 39 15
3.466360e+000 -1.375313e+000 -1.624604e+001 68 46 23
-1.561530e+000 -1.642806e+000 -1.606966e+001 164 120 91
-1.549633e+000 -1.676442e+000 -1.605746e+001 139 97 74
1.341303e+000 -1.630484e+000 -1.574632e+001 133 77 63
2.117033e+000 -1.504336e+000 -1.574390e+001 106 67 41
3.222073e+000 -1.570809e+000 -1.643208e+001 64 42 21
3.250715e+000 -1.541569e+000 -1.638240e+001 96 71 50
3.386339e+000 -1.495595e+000 -1.637462e+001 91 66 44
1.706287e+000 -1.789260e+000 -1.621849e+001 123 61 60
2.377400e+000 -1.655870e+000 -1.614349e+001 38 25 16
3.930488e+000 -1.672839e+000 -1.685989e+001 99 73 51
3.962027e+000 -1.699605e+000 -1.689556e+001 77 50 27
2.063801e+000 -1.893294e+000 -1.630446e+001 152 126 103
2.063801e+000 -1.893294e+000 -1.630446e+001 152 126 103
3.420651e+000 -1.929204e+000 -1.701054e+001 80 53 32
1.991369e+000 -1.953637e+000 -1.626523e+001 65 50 29
2.505440e+000 -2.119588e+000 -1.684346e+001 58 42 26
3.670492e+000 -2.029284e+000 -1.725381e+001 76 50 26
-7.027163e-001 -2.246533e+000 -1.633910e+001 75 53 40
3.388894e+000 -2.229053e+000 -1.735175e+001 102 76 50
3.605683e+000 -2.261649e+000 -1.747808e+001 107 81 58
-1.688328e+000 -2.435304e+000 -1.616083e+001 163 93 95
1.420680e+000 -2.407755e+000 -1.710167e+001 180 129 113
1.941847e+000 -2.432730e+000 -1.694937e+001 227 196 167
2.352207e+000 -2.355493e+000 -1.715792e+001 48 36 24
3.317234e+000 -2.366303e+000 -1.753039e+001 104 77 56
1.825002e+000 1.946390e+000 -1.576582e+001 182 151 120
2.319614e+000 1.989214e+000 -1.580468e+001 64 48 23
4.588769e+000 1.996143e+000 -1.597659e+001 72 49 35
1.935087e+000 1.282826e+000 -1.532473e+001 130 96 62
1.557950e+000 1.314255e+000 -1.581470e+001 141 104 69
3.892982e+000 1.032405e+000 -1.535886e+001 151 112 76
4.044402e+000 6.375777e-001 -1.499633e+001 117 81 45
