ply
format ascii 1.0
element face 0
property list uchar int vertex_indices
element vertex 885
property float x
property float y
property float z
property uchar diffuse_red
property uchar diffuse_green
property uchar diffuse_blue
end_header
1.880898e+000 -2.721431e+000 -1.725088e+001 214 197 167
1.847080e+000 -2.876930e+000 -1.756070e+001 182 152 124
2.019849e+000 -2.930927e+000 -1.771884e+001 50 42 24
2.326851e+000 -2.956675e+000 -1.790338e+001 60 47 30
2.848424e+000 -2.766962e+000 -1.786795e+001 77 52 30
2.848424e+000 -2.766962e+000 -1.786795e+001 77 52 30
2.970598e+000 -2.752368e+000 -1.796388e+001 93 71 48
3.795119e+000 -2.656385e+000 -1.823673e+001 71 51 27
-8.001075e-001 -1.723225e+000 -1.708011e+001 139 113 96
1.473934e+000 -2.613851e+000 -1.786819e+001 144 117 86
2.755536e+000 -2.675919e+000 -1.826392e+001 55 37 23
2.751276e+000 -2.686491e+000 -1.826890e+001 55 37 23
3.899299e+000 -2.568272e+000 -1.854104e+001 52 32 16
3.832525e+000 -2.569410e+000 -1.853501e+001 74 55 38
-1.051256e+000 -1.993337e+000 -1.724322e+001 90 63 54
2.666632e+000 -2.538078e+000 -1.841737e+001 45 29 14
5.656666e-002 -1.553788e+000 -1.739179e+001 67 42 37
1.323329e+000 -2.276355e+000 -1.802729e+001 28 27 15
1.314487e+000 -2.269714e+000 -1.807769e+001 61 58 46
1.324414e+000 -2.228573e+000 -1.811707e+001 36 32 21
1.328155e+000 -2.227769e+000 -1.811702e+001 36 32 21
2.698374e+000 -2.437509e+000 -1.853251e+001 44 28 13
1.523561e+000 -2.375686e+000 -1.831592e+001 103 86 66
2.887396e+000 -2.302849e+000 -1.864109e+001 49 32 16
2.900633e+000 -2.297072e+000 -1.867938e+001 68 55 39
1.161742e+000 -2.062791e+000 -1.823234e+001 94 71 53
1.956609e+000 -2.396656e+000 -1.860208e+001 115 104 84
2.998886e+000 -2.173731e+000 -1.876961e+001 70 54 38
3.132976e+000 -2.220646e+000 -1.877014e+001 67 51 35
3.135782e+000 -2.216096e+000 -1.876877e+001 67 51 35
3.513631e+000 -2.123486e+000 -1.888932e+001 60 41 24
1.040848e+000 -1.792851e+000 -1.823837e+001 129 93 81
1.666219e+000 -2.260541e+000 -1.865746e+001 114 107 83
1.445368e+000 -2.076330e+000 -1.859658e+001 167 150 132
1.639954e+000 -2.187105e+000 -1.872403e+001 110 101 81
2.575670e+000 -1.955489e+000 -1.889183e+001 74 58 42
3.027867e+000 -1.724001e+000 -1.914266e+001 55 39 25
2.875612e-001 -5.516568e-001 -1.813238e+001 134 83 69
1.353485e+000 -1.739701e+000 -1.882707e+001 94 77 60
1.567384e+000 -1.955205e+000 -1.890898e+001 117 109 90
1.971383e+000 -1.955525e+000 -1.897132e+001 48 36 20
3.659695e+000 -1.531496e+000 -1.939714e+001 51 34 18
1.108025e+000 -1.636948e+000 -1.886738e+001 95 89 77
1.313996e+000 -1.594853e+000 -1.895835e+001 90 73 53
1.423564e+000 -1.712479e+000 -1.888061e+001 64 48 35
1.553066e+000 -1.827271e+000 -1.900776e+001 51 44 28
1.597965e+000 -1.849681e+000 -1.903827e+001 50 40 30
1.857686e+000 -1.836841e+000 -1.907109e+001 53 46 28
2.510071e+000 -1.505021e+000 -1.926157e+001 58 43 25
2.660234e+000 -1.459174e+000 -1.929876e+001 57 41 26
2.589267e+000 -1.436387e+000 -1.930752e+001 60 44 28
2.424653e+000 -1.340750e+000 -1.937548e+001 42 26 12
2.412280e+000 -1.374943e+000 -1.938178e+001 42 26 12
3.161257e+000 -1.185705e+000 -1.963536e+001 60 42 24
3.894593e+000 -1.373911e+000 -2.007562e+001 162 133 93
3.957905e+000 -2.174121e+000 -2.043054e+001 94 74 49
4.954156e+000 -3.423382e+000 -1.643370e+001 179 150 108
2.662092e+000 -6.506089e-001 -1.474689e+001 101 91 79
3.990090e+000 -1.435133e+000 -1.656382e+001 76 51 22
1.109635e+000 -2.153792e+000 -1.649746e+001 130 89 78
1.814477e+000 -2.832223e+000 -1.753334e+001 133 98 66
3.091163e+000 -2.655537e+000 -1.771563e+001 85 59 34
1.777488e+000 -2.878754e+000 -1.761630e+001 248 228 204
1.783938e+000 -2.861688e+000 -1.760796e+001 248 228 204
-1.536187e+000 -2.574123e+000 -1.689153e+001 100 77 71
1.145515e+000 -2.273106e+000 -1.744762e+001 104 40 40
1.479041e+000 -2.624353e+000 -1.761937e+001 120 84 34
3.427963e+000 -2.675281e+000 -1.816022e+001 92 72 48
1.652448e+000 -2.720932e+000 -1.790706e+001 75 51 33
2.822170e+000 -2.722083e+000 -1.820117e+001 43 27 12
1.668503e+000 -2.654899e+000 -1.798233e+001 116 99 79
3.042327e+000 -2.655342e+000 -1.831630e+001 84 63 46
3.202700e+000 -2.574875e+000 -1.845471e+001 42 28 17
3.390808e+000 -2.438004e+000 -1.860153e+001 48 31 13
3.389750e+000 -2.440002e+000 -1.860276e+001 48 31 13
3.299341e+000 -2.401667e+000 -1.865878e+001 50 38 23
3.299795e+000 -2.401690e+000 -1.865913e+001 50 38 23
6.226897e-001 -1.818088e+000 -1.788197e+001 192 135 128
1.787826e+000 -2.541442e+000 -1.839870e+001 112 106 83
1.781976e+000 -2.570143e+000 -1.845750e+001 35 26 17
1.860144e+000 -2.597223e+000 -1.842440e+001 47 38 23
2.118006e+000 -2.584049e+000 -1.854551e+001 97 86 64
2.753388e+000 -2.424427e+000 -1.856330e+001 47 31 16
2.752498e+000 -2.427202e+000 -1.856424e+001 47 31 16
2.803396e+000 -2.279698e+000 -1.865146e+001 60 43 27
1.471166e+000 -2.293767e+000 -1.834057e+001 73 56 38
1.760065e+000 -2.510754e+000 -1.851560e+001 35 27 16
1.735777e+000 -2.389876e+000 -1.857274e+001 35 24 20
2.720924e+000 -2.309697e+000 -1.864778e+001 82 65 43
3.563948e+000 -2.086535e+000 -1.894716e+001 43 30 13
3.563476e+000 -2.087246e+000 -1.894795e+001 43 30 13
1.403085e+000 -2.017429e+000 -1.857646e+001 112 91 70
1.675276e+000 -2.276284e+000 -1.870236e+001 32 23 14
1.629495e+000 -2.107036e+000 -1.882193e+001 36 27 18
1.712965e+000 -2.137486e+000 -1.879477e+001 46 39 23
7.487998e-001 -3.943574e-001 -1.822413e+001 152 106 87
1.590071e+000 -1.943509e+000 -1.894571e+001 41 31 19
3.464716e+000 -1.636436e+000 -1.926957e+001 61 44 26
3.464716e+000 -1.636436e+000 -1.926957e+001 61 44 26
1.269506e+000 -1.640807e+000 -1.881950e+001 79 60 43
1.328567e+000 -1.704706e+000 -1.884854e+001 147 133 111
1.328567e+000 -1.704706e+000 -1.884854e+001 147 133 111
1.931053e+000 -1.796676e+000 -1.909668e+001 43 34 17
2.526219e+000 -1.546612e+000 -1.922444e+001 81 64 48
2.527257e+000 -1.546284e+000 -1.922345e+001 81 64 48
3.565288e+000 -1.525202e+000 -1.941087e+001 61 45 27
1.211670e+000 -1.538640e+000 -1.901153e+001 97 77 53
1.213942e+000 -1.525002e+000 -1.900898e+001 97 77 53
2.368683e+000 -1.385590e+000 -1.934761e+001 76 59 43
2.888329e+000 -1.352899e+000 -1.946245e+001 100 82 62
1.379022e+000 -1.426565e+000 -1.917957e+001 68 57 39
1.825751e+000 -1.500800e+000 -1.936846e+001 54 42 27
4.752059e+000 -4.343240e+000 -1.743764e+001 165 136 92
1.015184e+000 -2.055701e+000 -1.666073e+001 159 110 103
1.148846e+000 -2.152927e+000 -1.663781e+001 104 67 55
1.405802e+000 -2.317702e+000 -1.694964e+001 169 119 112
1.192649e+000 -2.411828e+000 -1.721104e+001 158 103 100
1.431655e+000 -2.376466e+000 -1.714824e+001 136 90 74
1.429661e+000 -2.383471e+000 -1.715104e+001 136 90 74
3.599279e+000 -2.582273e+000 -1.784297e+001 82 54 30
-1.506574e+000 -2.647283e+000 -1.680131e+001 137 92 102
2.924426e+000 -2.716498e+000 -1.779771e+001 83 59 35
-1.578134e+000 -2.619311e+000 -1.687672e+001 141 100 109
1.699702e+000 -2.762199e+000 -1.795208e+001 123 105 84
3.037566e+000 -2.688917e+000 -1.825222e+001 53 34 18
4.397222e+000 -2.620194e+000 -1.853379e+001 133 107 62
1.469026e+000 -2.549997e+000 -1.793977e+001 97 78 59
2.806350e+000 -2.690145e+000 -1.824224e+001 75 58 43
-1.386158e+000 -1.924580e+000 -1.719198e+001 106 84 71
1.211621e-001 -1.434870e+000 -1.745413e+001 63 40 35
1.255562e-001 -1.427553e+000 -1.744821e+001 63 40 35
1.244808e+000 -2.130926e+000 -1.805669e+001 72 42 32
1.350750e+000 -2.321034e+000 -1.810664e+001 42 38 27
2.874310e+000 -2.495778e+000 -1.850620e+001 53 36 20
1.077506e+000 -2.081198e+000 -1.814213e+001 121 85 73
2.648654e+000 -2.338590e+000 -1.861736e+001 56 39 23
3.482076e+000 -2.317866e+000 -1.873634e+001 48 31 11
3.480947e+000 -2.317770e+000 -1.873554e+001 48 31 11
3.473384e+000 -2.265829e+000 -1.878553e+001 83 66 48
3.410001e+000 -2.017272e+000 -1.898661e+001 60 43 25
2.541543e+000 -1.902697e+000 -1.890723e+001 49 33 18
3.644922e+000 -1.813313e+000 -1.917576e+001 77 61 44
1.169155e+000 -1.621373e+000 -1.883577e+001 66 59 43
2.288498e+000 -1.400959e+000 -1.932067e+001 56 38 24
3.161415e+000 -1.385691e+000 -1.946795e+001 95 74 55
1.032892e+000 -1.081851e+000 -1.907026e+001 66 58 37
1.696497e+000 -1.564922e+000 -1.930461e+001 102 94 71
3.124608e+000 -1.290798e+000 -1.955382e+001 81 62 45
3.125178e+000 -1.290603e+000 -1.955363e+001 81 62 45
2.106486e+000 -2.888201e+000 -1.749917e+001 43 33 24
-1.414710e+000 -2.629670e+000 -1.679533e+001 90 64 68
-1.411375e+000 -2.651181e+000 -1.680830e+001 90 64 68
1.013562e+000 -2.359538e+000 -1.719745e+001 140 72 71
2.941982e+000 -2.773341e+000 -1.787467e+001 115 91 65
3.139659e+000 -2.697838e+000 -1.785435e+001 114 88 63
1.493115e+000 -2.594747e+000 -1.768046e+001 167 139 102
2.574281e+000 -2.843293e+000 -1.796426e+001 100 84 62
1.421690e+000 -2.578719e+000 -1.772102e+001 111 77 45
1.137581e+000 -2.282549e+000 -1.780407e+001 102 51 47
1.544983e+000 -2.607465e+000 -1.817295e+001 80 62 48
1.639063e+000 -2.596278e+000 -1.813938e+001 148 137 115
3.661215e+000 -2.552863e+000 -1.852973e+001 83 65 43
1.181704e+000 -2.143525e+000 -1.801457e+001 114 86 75
2.741376e+000 -2.535014e+000 -1.843712e+001 81 64 48
1.506608e+000 -2.365980e+000 -1.836707e+001 133 118 97
2.700964e+000 -2.396211e+000 -1.859253e+001 82 66 50
1.846835e+000 -2.470853e+000 -1.852374e+001 55 47 28
2.597370e+000 -2.285347e+000 -1.866004e+001 80 67 48
2.591097e+000 -2.290937e+000 -1.866082e+001 80 67 48
1.378190e+000 -2.016981e+000 -1.842981e+001 99 72 51
2.036138e+000 -2.275381e+000 -1.869910e+001 60 52 35
2.522807e+000 -2.135157e+000 -1.873997e+001 83 66 48
1.371768e+000 -1.962033e+000 -1.860169e+001 173 153 132
1.974353e+000 -2.151913e+000 -1.884165e+001 50 43 33
3.747741e+000 -1.849701e+000 -1.915673e+001 44 30 15
2.602705e+000 -1.792701e+000 -1.904525e+001 53 37 21
3.347645e+000 -1.840710e+000 -1.911141e+001 65 48 28
2.644416e+000 -1.647306e+000 -1.913243e+001 43 30 14
1.785664e+000 -1.816438e+000 -1.909416e+001 84 76 53
3.647918e+000 -1.374495e+000 -1.955488e+001 71 53 31
1.482342e+000 -1.567292e+000 -1.928655e+001 54 46 33
1.737661e+000 -1.369626e+000 -1.948347e+001 58 48 39
3.886305e+000 -5.733685e-001 -1.999146e+001 189 157 116
1.695444e+000 -2.750355e+000 -1.761737e+001 132 95 66
1.986573e+000 -2.892112e+000 -1.766303e+001 98 85 58
1.968712e+000 -2.934129e+000 -1.768295e+001 98 85 58
1.337872e+000 -2.410557e+000 -1.743196e+001 106 54 38
1.762523e+000 -2.836435e+000 -1.775360e+001 189 168 142
1.139893e+000 -2.384231e+000 -1.756565e+001 170 121 107
1.405073e+000 -2.395459e+000 -1.787495e+001 39 32 21
1.403669e+000 -2.507321e+000 -1.813023e+001 88 83 61
1.574868e+000 -2.470086e+000 -1.826695e+001 140 123 105
3.581599e+000 -2.449089e+000 -1.867684e+001 86 68 48
1.774039e+000 -2.560456e+000 -1.835480e+001 86 74 52
1.049910e+000 -1.993584e+000 -1.820969e+001 100 64 50
1.495916e+000 -2.193793e+000 -1.844285e+001 148 133 111
1.673728e+000 -2.447420e+000 -1.852651e+001 113 103 82
1.284555e+000 -2.090321e+000 -1.837450e+001 132 111 86
3.445751e+000 -2.106124e+000 -1.892184e+001 85 68 48
3.687951e+000 -2.026791e+000 -1.898946e+001 79 66 43
3.237146e+000 -1.882877e+000 -1.906352e+001 91 74 54
3.700847e+000 -1.703130e+000 -1.926454e+001 52 36 21
1.285949e+000 -1.727010e+000 -1.872425e+001 76 57 40
1.857400e+000 -1.920620e+000 -1.895817e+001 83 73 52
1.937626e+000 -1.974479e+000 -1.896527e+001 50 41 24
2.705165e+000 -1.762102e+000 -1.908700e+001 84 68 52
1.345783e+000 -1.697539e+000 -1.885385e+001 128 110 92
1.532551e+000 -1.860925e+000 -1.893989e+001 75 67 48
3.646643e+000 -1.521479e+000 -1.941829e+001 62 46 28
1.378369e+000 -1.713017e+000 -1.924098e+001 93 85 67
1.501093e+000 -1.444652e+000 -1.938211e+001 69 60 48
1.886363e+000 -2.847752e+000 -1.773202e+001 64 43 25
1.802858e+000 -2.803266e+000 -1.794027e+001 56 38 24
1.658578e+000 -2.778193e+000 -1.805519e+001 96 78 60
1.068817e+000 -2.213880e+000 -1.789065e+001 118 70 66
3.768442e+000 -2.477564e+000 -1.864761e+001 88 70 49
1.648597e+000 -2.227481e+000 -1.840263e+001 48 30 20
2.465043e+000 -2.038123e+000 -1.876271e+001 61 43 31
1.584138e+000 -2.128518e+000 -1.875018e+001 110 98 81
1.584138e+000 -2.128518e+000 -1.875018e+001 110 98 81
1.461281e+000 -1.798560e+000 -1.883986e+001 64 47 35
1.415404e+000 -1.624514e+000 -1.896876e+001 66 49 38
1.364866e+000 -1.554385e+000 -1.907938e+001 71 53 43
2.265201e+000 -1.416366e+000 -1.928734e+001 60 43 27
1.629758e+000 -2.800083e+000 -1.785974e+001 96 70 47
2.662583e+000 -2.732855e+000 -1.816826e+001 44 28 15
2.513180e+000 -2.691995e+000 -1.822791e+001 93 76 58
3.161013e+000 -2.572464e+000 -1.844650e+001 54 38 25
4.316082e+000 -2.710380e+000 -1.877661e+001 166 137 93
1.709433e+000 -2.551428e+000 -1.823493e+001 42 25 18
3.893949e+000 -2.417064e+000 -1.875636e+001 67 51 28
8.862358e-001 -1.847349e+000 -1.823704e+001 111 62 52
1.552497e+000 -2.142780e+000 -1.855739e+001 74 56 46
2.806887e+000 -1.725034e+000 -1.917776e+001 43 33 21
6.639842e-001 -1.427487e+000 -1.724717e+001 102 48 48
1.026480e+000 -2.261391e+000 -1.771111e+001 120 61 57
6.819229e-001 -1.763428e+000 -1.774843e+001 183 110 118
3.997121e+000 -8.108621e-001 -1.987906e+001 79 59 35
3.628836e+000 -1.921554e+000 -1.909837e+001 63 47 34
3.626201e+000 -1.924411e+000 -1.910147e+001 63 47 34
1.167324e+000 -1.074173e+000 -1.838668e+001 85 49 35
2.914272e+000 -1.456913e+000 -1.936099e+001 89 72 49
3.895304e+000 -1.589098e+000 -1.998451e+001 192 163 123
9.910074e-001 -2.348174e+000 -1.740488e+001 125 61 61
3.151192e+000 -2.229534e+000 -1.877108e+001 50 34 20
3.869754e+000 -2.530633e+000 -1.827063e+001 72 50 27
2.386277e+000 -2.033866e+000 -1.840596e+001 118 103 82
5.109133e+000 -2.191906e+000 -1.593217e+001 173 146 99
4.936210e+000 -2.185346e+000 -1.645999e+001 203 175 125
1.997009e+000 -1.267927e+000 -1.563810e+001 179 134 69
1.809003e+000 -1.820928e+000 -1.625775e+001 118 74 55
4.779363e+000 -1.859201e+000 -1.687045e+001 158 130 80
1.323740e+000 -2.205107e+000 -1.664050e+001 107 53 46
1.442711e+000 -2.370431e+000 -1.706373e+001 203 154 141
1.882652e+000 -2.878774e+000 -1.768514e+001 103 77 50
1.868629e+000 -2.828398e+000 -1.776022e+001 61 37 21
1.980556e+000 -2.980602e+000 -1.789461e+001 162 148 122
2.017273e+000 -2.980896e+000 -1.785167e+001 111 99 77
3.421821e+000 -2.615562e+000 -1.783707e+001 130 101 70
3.990054e+000 -2.598864e+000 -1.812068e+001 97 75 52
4.089667e+000 -2.592708e+000 -1.817078e+001 102 73 43
1.168503e+000 -2.355379e+000 -1.749651e+001 176 118 113
3.634544e+000 -2.587768e+000 -1.839697e+001 69 47 23
-5.777939e-001 -1.561742e+000 -1.724049e+001 121 105 92
1.200060e+000 -2.076472e+000 -1.810331e+001 73 43 32
1.517619e+000 -2.185428e+000 -1.848793e+001 151 134 114
1.990374e+000 -2.226319e+000 -1.873460e+001 37 29 11
4.740558e-001 -1.618863e+000 -1.814230e+001 132 81 70
1.671446e+000 -2.175447e+000 -1.875140e+001 35 25 13
1.777454e+000 -2.174674e+000 -1.875498e+001 97 83 63
2.662518e-001 -4.134705e-001 -1.817117e+001 163 113 92
3.858595e+000 -1.928876e+000 -2.024972e+001 132 97 63
3.931192e+000 -7.012926e-001 -1.996044e+001 100 74 41
3.897499e+000 -1.053609e+000 -1.999539e+001 122 89 53
3.922489e+000 -7.199085e-001 -2.000316e+001 143 109 71
3.895208e+000 -3.865065e-001 -2.004026e+001 197 164 120
3.848263e+000 -1.561198e-001 -2.017363e+001 185 152 107
5.040697e+000 -1.473818e+000 -1.600073e+001 172 146 97
7.921020e-001 -1.261075e+000 -1.562624e+001 141 77 67
1.162556e+000 -1.398028e+000 -1.582890e+001 174 114 106
6.815483e-001 -7.495213e-001 -1.562089e+001 179 134 123
1.745527e+000 -2.858744e+000 -1.778026e+001 199 173 146
4.095031e+000 -2.522891e+000 -1.798930e+001 92 59 30
1.390998e+000 -2.552278e+000 -1.760963e+001 189 157 106
8.142371e-001 -2.336708e+000 -1.760432e+001 129 88 68
8.141055e-001 -2.284107e+000 -1.774837e+001 177 131 115
1.924106e+000 -2.629090e+000 -1.841014e+001 77 64 48
3.516457e+000 -2.436216e+000 -1.864561e+001 55 36 17
3.877059e+000 -2.382656e+000 -1.876329e+001 66 45 21
2.910654e+000 -2.311764e+000 -1.864623e+001 51 34 17
3.110455e+000 -2.308165e+000 -1.869116e+001 62 45 30
-1.728743e+000 -1.874720e+000 -1.713701e+001 157 135 112
8.025992e-001 -2.085539e+000 -1.803423e+001 176 124 111
1.314729e+000 -2.167197e+000 -1.815400e+001 34 27 17
1.564643e+000 -2.363582e+000 -1.839006e+001 71 52 35
2.048888e+000 -2.429024e+000 -1.862568e+001 35 25 8
1.462188e+000 -2.203164e+000 -1.845371e+001 208 193 170
1.980063e+000 -2.280393e+000 -1.873057e+001 38 29 12
1.708740e+000 -2.207255e+000 -1.877583e+001 124 109 90
1.416526e+000 -1.924049e+000 -1.866479e+001 96 72 50
2.582897e+000 -1.833061e+000 -1.900705e+001 82 65 47
2.628149e+000 -1.813227e+000 -1.899628e+001 78 60 45
1.883211e+000 -1.920492e+000 -1.899267e+001 117 107 83
1.793656e-001 -4.014671e-001 -1.801045e+001 152 105 85
1.117384e+000 -1.527274e+000 -1.888285e+001 62 55 40
1.352039e+000 -1.661965e+000 -1.893546e+001 104 85 71
1.746866e+000 -1.636245e+000 -1.902380e+001 23 19 18
1.144548e+000 -1.378815e+000 -1.895922e+001 106 96 72
1.297446e+000 -1.568613e+000 -1.898020e+001 150 133 111
3.084350e+000 -1.333943e+000 -1.950125e+001 52 35 18
1.463457e+000 -1.577288e+000 -1.929270e+001 71 63 50
1.677196e+000 -1.432359e+000 -1.921496e+001 28 23 20
1.687840e+000 -1.512335e+000 -1.937254e+001 44 35 22
1.029242e+000 -9.552381e-001 -1.910624e+001 82 71 48
1.032936e+000 -1.132487e+000 -1.914876e+001 63 56 37
1.578645e+000 -1.128765e+000 -1.946332e+001 28 22 18
3.577955e+000 -5.407808e-001 -1.992549e+001 159 131 97
3.896347e+000 -5.874784e-001 -1.996947e+001 206 171 129
3.887680e+000 -5.583521e-001 -2.003252e+001 180 147 102
3.894201e+000 -2.814565e-001 -2.005381e+001 177 144 99
2.842444e+000 -2.718124e+000 -1.776240e+001 121 95 68
1.760651e+000 -2.870419e+000 -1.773158e+001 206 182 154
1.999641e+000 -2.968494e+000 -1.791496e+001 61 50 30
-1.695349e+000 -2.573321e+000 -1.681013e+001 104 54 55
-1.462057e+000 -2.601826e+000 -1.681716e+001 77 49 45
1.727686e+000 -2.756273e+000 -1.771982e+001 117 87 61
1.775358e+000 -2.823743e+000 -1.781834e+001 105 80 57
1.307814e+000 -2.255182e+000 -1.790634e+001 50 40 27
1.311618e+000 -2.305824e+000 -1.804450e+001 29 25 14
2.205371e+000 -2.581099e+000 -1.842753e+001 84 69 47
-1.667159e+000 -2.077470e+000 -1.717835e+001 112 87 75
-1.148095e+000 -1.975092e+000 -1.724325e+001 86 60 48
1.307730e+000 -2.213976e+000 -1.808717e+001 61 56 41
3.426127e+000 -2.301033e+000 -1.874861e+001 54 35 18
7.659988e-001 -2.026348e+000 -1.792224e+001 140 66 65
7.080315e-001 -2.022249e+000 -1.799883e+001 140 70 62
1.341942e+000 -2.164018e+000 -1.816776e+001 58 51 38
1.720042e+000 -2.415442e+000 -1.854355e+001 96 84 64
1.778361e+000 -2.430318e+000 -1.853457e+001 98 86 68
2.904209e+000 -2.292193e+000 -1.867694e+001 70 53 35
2.825511e+000 -2.280734e+000 -1.869543e+001 72 57 37
2.983812e+000 -2.241023e+000 -1.872322e+001 66 50 35
1.645369e+000 -2.420600e+000 -1.854331e+001 93 80 61
1.710978e+000 -2.359863e+000 -1.863262e+001 39 27 15
1.952069e+000 -2.208365e+000 -1.865829e+001 90 79 59
6.582461e-001 -1.857347e+000 -1.820638e+001 159 119 105
2.843998e+000 -1.923236e+000 -1.895386e+001 73 57 42
1.122749e+000 -1.297999e+000 -1.829597e+001 119 80 63
1.624786e+000 -2.037595e+000 -1.887815e+001 43 33 19
1.624786e+000 -2.037595e+000 -1.887815e+001 43 33 19
1.942382e+000 -2.093685e+000 -1.886773e+001 31 27 18
3.411009e-001 -1.515704e+000 -1.822207e+001 142 103 86
1.593798e+000 -1.989529e+000 -1.888244e+001 57 48 31
1.897496e+000 -1.960870e+000 -1.900769e+001 41 31 19
2.613766e+000 -1.590237e+000 -1.918456e+001 74 57 41
2.664386e+000 -1.598416e+000 -1.919489e+001 78 62 46
1.537327e+000 -1.711716e+000 -1.913700e+001 43 35 19
1.475401e+000 -1.734734e+000 -1.915846e+001 50 41 26
1.700326e+000 -1.702391e+000 -1.918807e+001 42 36 29
2.392802e+000 -1.479000e+000 -1.929171e+001 77 57 40
1.701257e+000 -1.660670e+000 -1.937030e+001 35 28 20
2.182954e+000 -1.005758e+000 -1.961017e+001 94 72 48
2.212518e+000 -9.389992e-001 -1.959598e+001 94 72 48
3.469929e+000 -8.103814e-001 -1.993403e+001 88 61 36
1.616663e+000 -9.305002e-001 -1.955697e+001 79 68 47
3.826294e+000 -5.057192e-001 -2.008829e+001 177 143 98
1.520678e+000 -2.741009e+000 -1.755101e+001 168 142 109
2.802501e+000 -2.792192e+000 -1.799966e+001 77 52 30
2.006719e+000 -2.932084e+000 -1.810430e+001 78 57 40
1.697118e+000 -2.724874e+000 -1.786762e+001 81 57 33
1.991834e+000 -2.881520e+000 -1.816351e+001 87 61 42
7.876496e-001 -2.363601e+000 -1.750659e+001 148 110 91
4.023090e+000 -2.495907e+000 -1.847819e+001 52 30 12
1.431563e+000 -2.555717e+000 -1.807337e+001 49 42 24
2.879875e+000 -2.579078e+000 -1.844586e+001 56 37 20
1.522041e+000 -2.467456e+000 -1.820933e+001 86 69 47
1.509944e+000 -2.393906e+000 -1.824249e+001 70 51 34
3.539211e+000 -2.309731e+000 -1.876968e+001 50 32 10
3.658195e+000 -2.335234e+000 -1.881029e+001 69 48 27
1.753621e+000 -2.529940e+000 -1.852481e+001 31 22 13
1.279765e+000 -1.971971e+000 -1.829134e+001 90 61 31
3.647028e+000 -1.944992e+000 -1.906237e+001 51 35 20
1.919349e+000 -1.825768e+000 -1.910534e+001 46 33 17
2.732328e+000 -1.569548e+000 -1.919074e+001 75 59 43
3.307410e+000 -1.450437e+000 -1.950423e+001 55 33 16
3.307410e+000 -1.450437e+000 -1.950423e+001 55 33 16
1.956653e-001 -4.563099e-001 -1.810961e+001 136 79 64
1.554397e+000 -1.716157e+000 -1.918276e+001 42 28 19
1.554397e+000 -1.716157e+000 -1.918276e+001 42 28 19
2.417769e+000 -1.354542e+000 -1.937939e+001 42 24 10
1.023384e+000 -1.416565e+000 -1.629828e+001 171 112 108
1.800219e+000 -2.859067e+000 -1.767328e+001 123 89 62
2.896634e+000 -2.727775e+000 -1.798864e+001 92 70 49
8.615379e-001 -1.243897e+000 -1.653899e+001 188 114 121
1.578026e+000 -2.510900e+000 -1.798728e+001 95 78 62
7.746878e-001 -2.062692e+000 -1.767961e+001 145 101 86
-1.750951e+000 -2.049375e+000 -1.710523e+001 124 103 84
-1.635214e+000 -1.912336e+000 -1.717420e+001 141 118 102
-1.175531e+000 -1.938056e+000 -1.726319e+001 161 138 114
2.619982e+000 -2.204408e+000 -1.870608e+001 82 64 44
1.044584e+000 -1.779911e+000 -1.823297e+001 124 88 74
1.406134e+000 -2.084991e+000 -1.852768e+001 168 150 127
1.216735e+000 -1.496813e+000 -1.828959e+001 98 60 44
1.511657e+000 -2.061068e+000 -1.857543e+001 68 49 32
4.077278e-001 -1.617898e+000 -1.825541e+001 125 78 70
1.454476e+000 -1.828057e+000 -1.875590e+001 68 48 31
1.481609e+000 -1.758625e+000 -1.911892e+001 113 102 74
1.589987e+000 -1.748564e+000 -1.917209e+001 69 58 40
2.365662e+000 -1.388376e+000 -1.934958e+001 77 57 42
1.440179e+000 -1.480036e+000 -1.934749e+001 69 58 40
1.714320e+000 -1.537810e+000 -1.940205e+001 156 146 120
1.216048e+000 -1.222991e+000 -1.927591e+001 90 68 48
1.347329e+000 -8.320038e-001 -1.923341e+001 102 86 74
1.324961e+000 -2.355920e+000 -1.712209e+001 125 72 58
1.761360e+000 -2.686544e+000 -1.748170e+001 186 151 128
-2.911793e-001 -1.702623e+000 -1.633030e+001 93 66 49
1.203009e+000 -2.314543e+000 -1.776922e+001 120 88 68
2.117800e+000 -2.585387e+000 -1.847703e+001 60 49 31
4.268995e+000 -2.448432e+000 -1.894155e+001 91 71 44
1.357546e+000 -2.375234e+000 -1.822259e+001 84 79 57
-1.717681e+000 -1.949195e+000 -1.715307e+001 158 133 113
-1.716512e+000 -1.944500e+000 -1.715053e+001 158 133 113
-1.389187e+000 -1.865975e+000 -1.715868e+001 101 74 63
8.655262e-001 -2.034480e+000 -1.797799e+001 160 116 95
3.823852e-001 -1.114508e+000 -1.748700e+001 159 109 86
1.049216e+000 -1.653960e+000 -1.827137e+001 137 100 81
1.351633e+000 -1.887152e+000 -1.867689e+001 117 93 69
1.244832e+000 -1.725022e+000 -1.889118e+001 88 70 50
1.015803e+000 -1.293367e+000 -1.895529e+001 126 97 60
1.682361e+000 -1.394107e+000 -1.926645e+001 24 20 17
4.446881e+000 -2.614420e+000 -1.833913e+001 153 123 73
3.582387e+000 -2.451905e+000 -1.867227e+001 89 71 47
-1.548712e+000 -2.068698e+000 -1.722814e+001 101 83 74
2.000991e+000 -2.629710e+000 -1.851831e+001 94 83 60
1.163186e+000 -1.570483e+000 -1.863119e+001 116 91 71
1.274963e+000 -1.572488e+000 -1.899801e+001 137 116 98
2.464568e+000 -1.419603e+000 -1.931458e+001 64 45 30
3.019367e+000 -1.322527e+000 -1.949833e+001 63 46 25
2.558160e+000 -1.306657e+000 -1.937256e+001 89 71 51
1.237504e+000 -2.459738e+000 -1.769519e+001 104 53 32
-9.789698e-002 -1.712022e+000 -1.721003e+001 116 77 67
2.156763e+000 -2.510343e+000 -1.834001e+001 100 92 70
2.959342e+000 -2.483224e+000 -1.854100e+001 59 40 24
1.047534e+000 -2.000893e+000 -1.821620e+001 99 57 43
1.223306e+000 -2.089062e+000 -1.825817e+001 112 91 68
4.231165e-001 -1.335168e+000 -1.771891e+001 102 55 47
3.379011e+000 -1.939863e+000 -1.903929e+001 90 72 49
1.267725e+000 -1.245045e+000 -1.831647e+001 78 42 30
3.474782e+000 -1.732549e+000 -1.919759e+001 92 72 48
1.352713e+000 -1.820411e+000 -1.871842e+001 126 107 86
1.069607e+000 -1.350127e+000 -1.889395e+001 39 38 26
3.028326e+000 -1.350782e+000 -1.940074e+001 101 81 56
1.339963e+000 -1.817359e+000 -1.927564e+001 68 57 39
1.357156e+000 -2.472108e+000 -1.774777e+001 173 143 115
9.567222e-001 -2.094911e+000 -1.794703e+001 74 25 23
1.303277e+000 -1.390273e+000 -1.919925e+001 82 63 45
4.508441e+000 -2.616829e+000 -1.850514e+001 163 135 88
8.821433e-001 -1.862988e+000 -1.824218e+001 110 58 46
1.474960e+000 -1.947676e+000 -1.872383e+001 70 51 36
3.264961e+000 -6.414374e-001 -1.977458e+001 99 73 50
3.161799e+000 -8.730651e-001 -1.965850e+001 86 64 40
2.650918e+000 -2.382199e+000 -1.855958e+001 55 37 22
1.763787e+000 -2.798064e+000 -1.784847e+001 137 118 93
4.231439e+000 -2.480244e+000 -1.809734e+001 148 114 83
1.342162e+000 -2.508561e+000 -1.743213e+001 151 111 86
2.909037e+000 -2.698417e+000 -1.825309e+001 41 22 8
1.746856e+000 -2.836748e+000 -1.818277e+001 45 31 18
-1.898274e+000 -2.333827e+000 -1.692941e+001 120 98 84
1.294608e+000 -2.200050e+000 -1.814701e+001 68 59 50
3.415206e+000 -2.234305e+000 -1.881916e+001 58 37 16
2.718739e+000 -1.623129e+000 -1.917063e+001 46 30 15
2.626776e+000 -1.447471e+000 -1.930088e+001 54 35 18
1.115955e+000 -1.515374e+000 -1.896639e+001 112 106 82
3.855118e+000 -1.758839e+000 -1.991647e+001 76 54 26
1.179046e+000 -1.551253e+000 -1.912902e+001 117 97 73
3.054477e+000 -1.280855e+000 -1.954167e+001 62 44 22
3.055706e+000 -1.278004e+000 -1.954010e+001 62 44 22
3.016555e+000 -1.193912e+000 -1.962300e+001 75 53 32
3.895659e+000 -1.835967e+000 -2.023346e+001 135 103 64
1.385351e+000 -1.189733e+000 -1.953612e+001 88 79 62
3.303255e+000 -8.095698e-001 -1.989634e+001 92 67 40
3.852826e+000 -1.505085e+000 -2.036591e+001 199 164 123
1.909154e+000 -2.766652e+000 -1.747923e+001 210 182 152
2.049322e+000 -2.790693e+000 -1.756699e+001 81 65 48
1.729979e+000 -2.766969e+000 -1.768018e+001 190 158 127
-2.276197e-002 -1.658396e+000 -1.634106e+001 130 107 86
3.597361e+000 -2.675512e+000 -1.824171e+001 98 75 48
-1.937488e+000 -2.227427e+000 -1.685720e+001 90 68 57
1.360917e+000 -2.284976e+000 -1.821296e+001 89 84 62
-1.852933e+000 -1.858365e+000 -1.703964e+001 115 89 75
2.738974e+000 -2.040496e+000 -1.882343e+001 62 49 33
3.164081e+000 -1.834942e+000 -1.904454e+001 55 37 17
3.160366e+000 -1.838689e+000 -1.904649e+001 55 37 17
6.806623e-001 -1.379792e+000 -1.838216e+001 183 152 129
6.806623e-001 -1.379792e+000 -1.838216e+001 183 152 129
1.318795e+000 -1.760894e+000 -1.892037e+001 90 71 54
1.190470e+000 -1.645912e+000 -1.900605e+001 99 80 56
1.171737e+000 -1.382302e+000 -1.905373e+001 95 77 55
3.443991e+000 -8.960109e-001 -1.989094e+001 70 46 22
1.880203e+000 -2.818268e+000 -1.790603e+001 57 41 26
2.052599e+000 -2.926516e+000 -1.799403e+001 83 68 47
1.881928e+000 -2.876913e+000 -1.829246e+001 73 50 34
-1.814842e+000 -1.919330e+000 -1.709933e+001 175 153 130
1.226997e+000 -2.102376e+000 -1.809383e+001 89 61 49
2.983842e+000 -2.240929e+000 -1.872305e+001 66 50 35
3.057092e+000 -2.209165e+000 -1.875133e+001 68 55 39
2.936745e+000 -2.190802e+000 -1.874723e+001 67 50 34
1.351659e+000 -1.672886e+000 -1.840793e+001 121 95 75
1.377452e+000 -1.844417e+000 -1.872924e+001 161 143 121
2.870638e+000 -1.304773e+000 -1.949993e+001 60 39 18
9.701802e-001 -8.388820e-001 -1.903360e+001 148 137 113
1.266035e+000 -1.267493e+000 -1.950646e+001 92 84 63
1.794854e+000 -2.844113e+000 -1.759538e+001 221 199 168
2.310701e+000 -2.908006e+000 -1.781765e+001 32 24 15
-1.583554e+000 -2.659705e+000 -1.676150e+001 138 89 87
2.860284e+000 -2.746368e+000 -1.807505e+001 67 45 24
1.729300e+000 -2.785621e+000 -1.791014e+001 81 58 37
3.628210e+000 -2.572632e+000 -1.826005e+001 76 54 31
3.628210e+000 -2.572632e+000 -1.826005e+001 76 54 31
-1.883916e+000 -2.488047e+000 -1.689346e+001 165 126 122
2.667186e+000 -2.538872e+000 -1.841910e+001 51 34 18
4.340667e+000 -2.582801e+000 -1.884922e+001 140 111 66
1.417439e+000 -2.478828e+000 -1.805811e+001 84 76 56
-1.814813e+000 -2.110693e+000 -1.710504e+001 126 103 89
-1.333775e+000 -2.009787e+000 -1.722744e+001 131 108 88
-1.786979e+000 -1.660433e+000 -1.710017e+001 132 99 83
1.440172e+000 -2.166051e+000 -1.841527e+001 77 57 37
1.105640e+000 -1.746908e+000 -1.824675e+001 95 59 42
1.469409e+000 -2.089085e+000 -1.848645e+001 102 81 60
1.279145e+000 -1.501126e+000 -1.823877e+001 123 92 71
1.279145e+000 -1.501126e+000 -1.823877e+001 123 92 71
3.558785e+000 -1.668500e+000 -1.926705e+001 55 36 19
3.137619e+000 -1.093158e+000 -1.968130e+001 75 53 30
9.731795e-001 -1.041952e+000 -1.911042e+001 148 133 105
1.009820e+000 -1.203334e+000 -1.920096e+001 66 60 38
1.967437e+000 -2.426913e+000 -1.702152e+001 154 118 80
-1.925286e+000 -2.419961e+000 -1.675312e+001 126 77 73
-1.842399e+000 -2.327054e+000 -1.689660e+001 82 63 56
1.290861e+000 -2.280160e+000 -1.769523e+001 84 44 27
1.261072e+000 -2.348148e+000 -1.774842e+001 84 44 27
1.419494e+000 -2.481894e+000 -1.782569e+001 138 111 82
4.240112e+000 -2.540757e+000 -1.859489e+001 111 85 57
-1.692039e+000 -1.802788e+000 -1.714458e+001 108 79 64
1.326409e+000 -2.337733e+000 -1.831112e+001 85 72 53
8.080485e-001 -2.092640e+000 -1.808589e+001 130 80 73
1.034772e+000 -1.805595e+000 -1.824636e+001 124 88 74
3.512277e+000 -1.952650e+000 -1.915800e+001 43 30 22
1.141589e+000 -1.691370e+000 -1.887355e+001 58 55 41
2.287568e+000 -1.402211e+000 -1.932187e+001 55 36 21
1.031862e+000 -6.936532e-001 -1.866457e+001 74 61 42
1.276222e+000 -1.268551e+000 -1.945030e+001 121 112 94
4.708515e+000 -2.821151e+000 -1.787236e+001 165 139 88
1.069412e+000 -1.877061e+000 -1.653968e+001 164 112 101
-1.618643e+000 -2.692847e+000 -1.672805e+001 115 60 65
1.348823e+000 -2.343174e+000 -1.720971e+001 167 118 103
-1.896411e+000 -2.546183e+000 -1.672578e+001 139 91 85
4.114076e+000 -2.540776e+000 -1.819360e+001 91 63 39
-1.851484e+000 -2.466084e+000 -1.681756e+001 106 60 62
-1.851484e+000 -2.466084e+000 -1.681756e+001 106 60 62
7.381354e-001 -1.651227e+000 -1.721980e+001 135 77 73
1.205073e+000 -2.311901e+000 -1.776617e+001 120 88 68
1.547533e+000 -2.594669e+000 -1.816647e+001 71 53 35
2.451891e+000 -2.152936e+000 -1.868765e+001 65 45 30
1.296295e+000 -1.677453e+000 -1.837629e+001 85 52 36
1.036873e+000 -1.061711e+000 -1.906609e+001 64 57 37
1.718503e+000 -1.419672e+000 -1.949989e+001 60 51 34
1.476256e+000 -2.321325e+000 -1.718928e+001 174 143 115
1.397458e+000 -2.552663e+000 -1.760500e+001 168 137 83
2.907490e+000 -2.719405e+000 -1.812623e+001 83 63 39
3.204284e+000 -2.516093e+000 -1.855522e+001 50 31 16
7.566403e-001 -1.747757e+000 -1.737852e+001 160 107 101
-1.062102e+000 -1.880705e+000 -1.725332e+001 158 134 112
1.375185e+000 -1.950798e+000 -1.860124e+001 166 144 121
9.493830e-001 -1.380378e+000 -1.887208e+001 135 112 71
1.630894e+000 -1.374857e+000 -1.949813e+001 96 85 65
1.076051e+000 -1.072354e+000 -1.937549e+001 133 124 103
1.342373e+000 -2.394672e+000 -1.756498e+001 103 49 28
-1.118989e+000 -2.057702e+000 -1.726480e+001 95 68 56
1.198060e+000 -1.442528e+000 -1.822205e+001 98 61 45
2.554445e+000 -1.366316e+000 -1.937986e+001 90 73 53
2.925450e+000 -7.560143e-001 -1.977240e+001 116 93 64
1.652114e+000 -2.767949e+000 -1.782770e+001 103 73 46
1.787488e+000 -2.847191e+000 -1.796383e+001 59 40 26
4.385798e+000 -2.629994e+000 -1.871753e+001 162 135 86
7.230676e-001 -1.863434e+000 -1.721992e+001 173 116 109
1.015469e+000 -1.241800e+000 -1.869129e+001 129 100 66
1.530958e+000 -2.243099e+000 -1.701617e+001 157 112 91
2.454588e+000 -1.733423e+000 -1.901397e+001 60 43 27
3.503892e+000 -2.211979e+000 -1.882590e+001 57 39 19
3.304179e+000 -2.230211e+000 -1.875881e+001 50 33 17
3.936448e+000 -1.103162e+000 -1.973764e+001 58 41 23
3.145887e+000 -2.541548e+000 -1.850277e+001 47 29 19
1.386749e+000 -2.396314e+000 -1.811799e+001 94 90 65
3.675591e+000 -2.398463e+000 -1.870755e+001 72 54 32
2.541071e+000 -1.787239e+000 -1.901745e+001 47 32 20
1.066540e+000 -1.271642e+000 -1.894511e+001 121 95 68
3.579723e+000 -2.069296e+000 -1.894331e+001 44 28 12
3.962434e+000 -1.274999e+000 -1.962996e+001 59 42 24
2.905889e+000 -2.712149e+000 -1.822651e+001 51 34 20
4.264086e+000 -2.228085e+000 -1.902411e+001 71 55 31
2.915307e-001 -6.490590e-001 -1.797663e+001 149 103 80
7.673710e-001 -2.198118e+000 -1.756703e+001 136 94 70
1.220512e+000 -2.467347e+000 -1.730995e+001 169 112 101
3.088742e+000 -2.656825e+000 -1.832289e+001 59 37 16
8.172714e-001 -2.384176e+000 -1.767738e+001 172 127 106
1.555936e+000 -2.105878e+000 -1.871255e+001 96 82 65
1.422941e+000 -1.907301e+000 -1.865185e+001 106 77 59
1.979124e+000 -2.953374e+000 -1.796403e+001 123 115 94
1.408186e+000 -2.401507e+000 -1.800178e+001 49 37 25
4.300862e+000 -2.205526e+000 -1.905512e+001 70 56 36
1.484776e+000 -1.906417e+000 -1.883515e+001 58 41 28
4.647332e-001 -1.549946e+000 -1.825452e+001 167 120 103
6.619815e-001 -1.845838e+000 -1.819477e+001 167 121 108
1.270573e+000 -1.657165e+000 -1.882900e+001 81 60 38
-1.623001e+000 -2.694499e+000 -1.672993e+001 136 79 87
-1.740262e+000 -1.612211e+000 -1.712942e+001 131 91 64
1.276077e+000 -1.386236e+000 -1.915162e+001 71 46 27
-1.425946e+000 -2.626304e+000 -1.679426e+001 85 59 58
3.562253e+000 -2.192231e+000 -1.888106e+001 86 64 43
3.927159e+000 -8.642790e-001 -2.003450e+001 243 209 163
2.521315e+000 -8.578287e-001 -1.964650e+001 125 97 73
2.661093e+000 -2.730962e+000 -1.817177e+001 53 34 19
3.031803e+000 -2.575697e+000 -1.838450e+001 101 76 54
1.568804e+000 -2.496542e+000 -1.825536e+001 132 112 88
3.400438e+000 -2.388507e+000 -1.868565e+001 90 70 46
-4.218964e-001 -1.840345e+000 -1.640459e+001 254 247 239
2.468401e+000 -2.040038e+000 -1.875755e+001 57 39 25
1.371484e+000 -1.711393e+000 -1.900466e+001 64 45 31
2.274459e+000 -1.413093e+000 -1.928359e+001 59 40 23
1.693491e+000 -2.588946e+000 -1.823116e+001 53 33 22
3.190990e+000 -1.772590e+000 -1.914636e+001 98 76 53
2.360529e+000 -1.406058e+000 -1.929557e+001 58 39 25
1.283479e-002 -1.272386e+000 -1.695589e+001 87 60 47
1.064885e+000 -1.275310e+000 -1.893792e+001 110 91 61
4.474538e+000 -3.655048e+000 -1.840351e+001 222 190 139
4.419481e+000 -3.030518e+000 -1.851553e+001 165 135 83
4.381403e+000 -3.104264e+000 -1.863706e+001 232 203 147
4.246024e+000 -3.384463e+000 -1.904739e+001 221 190 136
4.236627e+000 -3.353086e+000 -1.907903e+001 219 190 134
4.380605e+000 -2.788697e+000 -1.858828e+001 150 120 69
4.332333e+000 -2.928940e+000 -1.877289e+001 135 101 56
1.383567e+000 -2.763309e+000 -1.793178e+001 156 120 87
4.190578e+000 -3.131658e+000 -1.921503e+001 174 141 88
1.084596e+000 -1.498702e+000 -1.626056e+001 130 73 62
4.263321e+000 -2.782716e+000 -1.899942e+001 205 175 122
4.313644e+000 -2.552708e+000 -1.880565e+001 102 78 42
4.277073e+000 -2.549808e+000 -1.894320e+001 132 103 60
4.115195e+000 -2.883599e+000 -1.942702e+001 160 129 75
-1.280563e-001 -2.092560e+000 -1.719537e+001 133 81 70
1.325705e+000 -2.251712e+000 -1.815696e+001 63 61 48
1.379670e+000 -2.385538e+000 -1.820721e+001 123 116 93
1.313262e+000 -2.184885e+000 -1.814921e+001 37 33 23
1.313262e+000 -2.184885e+000 -1.814921e+001 37 33 23
-1.894152e+000 -1.833843e+000 -1.697647e+001 113 82 55
-1.442049e+000 -1.968998e+000 -1.721982e+001 127 95 72
1.464674e+000 -2.174119e+000 -1.846605e+001 131 112 87
-5.704696e-001 -1.554626e+000 -1.719822e+001 118 95 77
1.320379e+000 -2.057632e+000 -1.835721e+001 123 96 65
1.323604e+000 -2.035228e+000 -1.842767e+001 103 68 43
2.841883e+000 -2.024867e+000 -1.887300e+001 50 32 18
3.162060e+000 -2.065408e+000 -1.889322e+001 51 33 19
3.161320e+000 -2.066139e+000 -1.889375e+001 51 33 19
3.130103e+000 -2.028114e+000 -1.891926e+001 51 34 18
4.624636e-001 -1.615315e+000 -1.811234e+001 176 123 113
1.228346e+000 -1.455785e+000 -1.826466e+001 89 47 31
2.798160e+000 -1.720470e+000 -1.907639e+001 49 31 17
4.885887e-001 -1.586672e+000 -1.828543e+001 169 120 103
7.387656e-001 -1.393737e+000 -1.838220e+001 147 102 78
1.088674e+000 -1.406493e+000 -1.894899e+001 91 85 64
3.788733e+000 -1.794758e+000 -2.030638e+001 150 117 72
3.837455e+000 -1.518933e+000 -2.022516e+001 130 97 54
3.739138e+000 -1.729896e+000 -2.043678e+001 142 108 65
2.708195e-001 -4.684169e-001 -1.816385e+001 181 133 112
1.001829e+000 -7.095011e-001 -1.863260e+001 179 153 126
1.140210e+000 -1.320851e+000 -1.921575e+001 143 123 96
3.894801e+000 -1.078617e+000 -2.005011e+001 136 101 61
3.777997e+000 -1.549774e+000 -2.037403e+001 150 115 73
1.047035e+000 -1.127721e+000 -1.927947e+001 97 84 55
1.013974e+000 -9.896359e-001 -1.930461e+001 138 134 106
2.802298e+000 -7.331847e-001 -1.974041e+001 131 106 76
2.831754e+000 -7.654654e-001 -1.976031e+001 121 98 67
2.876985e+000 -7.722545e-001 -1.978456e+001 83 59 31
1.347184e+000 -1.025937e+000 -1.953097e+001 62 51 33
3.860091e+000 -7.262369e-001 -2.018693e+001 152 118 71
3.915939e+000 -8.130218e-002 -1.998580e+001 223 190 143
3.810456e+000 -6.249280e-001 -2.034315e+001 215 181 133
3.757337e+000 -1.026734e+000 -2.054041e+001 147 114 69
4.592797e+000 -3.502958e+000 -1.791292e+001 186 159 106
2.051575e+000 -2.886380e+000 -1.756003e+001 66 50 35
1.920685e+000 -2.929072e+000 -1.774977e+001 163 143 118
1.724853e+000 -2.838217e+000 -1.775440e+001 218 194 165
1.325982e+000 -1.359674e+000 -1.548808e+001 164 105 89
3.451734e+000 -2.661744e+000 -1.806238e+001 75 50 25
3.372848e+000 -2.671856e+000 -1.818649e+001 81 55 30
3.372848e+000 -2.671856e+000 -1.818649e+001 81 55 30
1.099313e+000 -2.383159e+000 -1.761903e+001 156 100 87
8.091845e-001 -2.353890e+000 -1.761241e+001 145 101 76
8.183595e-001 -2.340198e+000 -1.770455e+001 178 136 114
1.377062e+000 -2.379980e+000 -1.807578e+001 61 55 38
4.242244e+000 -2.515320e+000 -1.908960e+001 131 99 58
8.410060e-001 -2.243480e+000 -1.788026e+001 181 133 116
9.712260e-001 -2.248578e+000 -1.795184e+001 118 69 52
1.295407e+000 -2.253266e+000 -1.810367e+001 70 67 52
1.347252e+000 -2.370660e+000 -1.818315e+001 94 88 65
2.654617e+000 -2.327209e+000 -1.864160e+001 60 39 19
-1.215275e+000 -1.960381e+000 -1.722966e+001 115 83 60
-1.885164e+000 -1.788020e+000 -1.695974e+001 142 113 82
3.198075e+000 -2.158660e+000 -1.883038e+001 78 61 45
3.198462e+000 -2.158804e+000 -1.882975e+001 78 61 45
3.503245e+000 -2.136699e+000 -1.888464e+001 60 39 20
-1.180020e+000 -1.634802e+000 -1.716064e+001 189 155 127
1.384978e+000 -2.036272e+000 -1.848320e+001 93 66 41
1.299547e+000 -1.972606e+000 -1.842757e+001 143 112 84
1.299547e+000 -1.972606e+000 -1.842757e+001 143 112 84
1.285780e+000 -1.912621e+000 -1.846355e+001 181 156 123
2.656600e+000 -1.925760e+000 -1.888689e+001 47 27 14
4.843710e-001 -1.649363e+000 -1.822018e+001 131 78 68
6.885171e-001 -1.636072e+000 -1.822373e+001 121 68 53
8.200525e-001 -1.490887e+000 -1.835636e+001 144 95 78
2.705626e+000 -1.506581e+000 -1.929245e+001 52 33 18
1.030129e+000 -1.288143e+000 -1.891760e+001 114 91 61
1.052379e+000 -1.130261e+000 -1.906168e+001 71 58 35
1.048753e+000 -1.155131e+000 -1.911855e+001 114 103 81
1.025515e+000 -1.162793e+000 -1.916146e+001 70 62 41
9.993610e-001 -9.820437e-001 -1.905071e+001 154 135 108
1.034402e+000 -1.009595e+000 -1.908664e+001 79 69 42
3.809468e+000 -1.371349e+000 -2.036245e+001 183 147 102
2.386680e+000 -5.935242e-001 -1.957202e+001 144 120 86
4.255058e+000 -3.302495e+000 -1.901025e+001 176 146 92
1.695154e+000 -2.813712e+000 -1.779431e+001 128 97 66
1.430458e+000 -2.480459e+000 -1.741128e+001 145 98 62
7.906416e-001 -1.370012e+000 -1.561129e+001 166 82 76
1.362986e+000 -2.658287e+000 -1.785601e+001 206 185 153
3.004864e+000 -2.686160e+000 -1.822139e+001 73 51 28
3.004864e+000 -2.686160e+000 -1.822139e+001 73 51 28
8.278765e-001 -2.347366e+000 -1.776214e+001 143 92 75
1.544296e+000 -2.480857e+000 -1.814667e+001 94 73 53
3.528639e+000 -2.376817e+000 -1.865775e+001 64 44 27
3.528639e+000 -2.376817e+000 -1.865775e+001 64 44 27
3.884547e+000 -2.374658e+000 -1.875330e+001 66 44 21
-1.074415e-001 -1.839965e+000 -1.710599e+001 131 85 69
1.341831e+000 -2.312521e+000 -1.823654e+001 103 95 72
1.360439e+000 -2.344346e+000 -1.825980e+001 66 60 39
2.977451e+000 -2.301710e+000 -1.868886e+001 70 51 36
2.977451e+000 -2.301710e+000 -1.868886e+001 70 51 36
-1.882876e-001 -1.768124e+000 -1.722603e+001 74 49 36
2.827753e+000 -2.269282e+000 -1.869839e+001 72 53 36
2.840993e+000 -2.257189e+000 -1.868485e+001 72 53 36
2.918148e+000 -2.242306e+000 -1.871378e+001 71 52 37
3.225083e+000 -2.218875e+000 -1.876734e+001 70 53 37
-1.848789e+000 -1.837083e+000 -1.700730e+001 102 69 47
-5.906903e-001 -1.251034e+000 -1.690807e+001 218 213 208
6.381104e-001 -1.991014e+000 -1.806812e+001 193 135 124
1.215164e+000 -2.008104e+000 -1.826478e+001 134 103 74
2.726630e+000 -2.106509e+000 -1.880146e+001 66 48 34
2.748454e+000 -2.085431e+000 -1.877953e+001 66 48 34
2.798452e+000 -2.091109e+000 -1.881884e+001 69 52 36
2.965167e+000 -2.001124e+000 -1.887730e+001 70 51 37
3.059193e+000 -2.014150e+000 -1.890319e+001 68 51 35
3.059193e+000 -2.014150e+000 -1.890319e+001 68 51 35
3.382367e+000 -1.986038e+000 -1.899574e+001 85 67 45
3.516294e+000 -2.032325e+000 -1.896377e+001 57 40 24
6.512723e-001 -1.780981e+000 -1.804387e+001 127 83 68
6.452234e-001 -1.858628e+000 -1.814789e+001 183 136 120
2.850336e+000 -1.911239e+000 -1.895021e+001 70 52 38
3.004197e+000 -1.970337e+000 -1.892789e+001 70 52 38
1.337287e+000 -1.621339e+000 -1.844054e+001 131 102 85
1.227274e+000 -1.418641e+000 -1.831113e+001 149 111 88
2.622049e+000 -1.677906e+000 -1.910911e+001 46 28 14
1.082237e+000 -1.254585e+000 -1.832735e+001 163 124 100
2.664103e+000 -1.461505e+000 -1.929828e+001 48 31 13
1.238376e+000 -1.449410e+000 -1.912404e+001 155 135 108
1.228249e+000 -1.462981e+000 -1.913414e+001 155 135 108
3.185245e+000 -1.230823e+000 -1.959796e+001 60 39 18
3.186350e+000 -1.230885e+000 -1.959689e+001 60 39 18
1.755524e+000 -1.143379e+000 -1.959297e+001 126 115 91
1.748892e+000 -1.148319e+000 -1.964339e+001 84 72 50
2.842656e+000 -8.602328e-001 -1.976941e+001 84 60 33
2.893951e+000 -8.140346e-001 -1.978029e+001 114 91 61
2.893951e+000 -8.140346e-001 -1.978029e+001 114 91 61
2.951588e+000 -6.668372e-001 -1.977041e+001 128 105 72
3.265883e+000 -7.588674e-001 -1.988251e+001 93 69 41
3.486894e+000 -7.973728e-001 -1.992249e+001 73 47 24
2.609370e+000 -6.510651e-001 -1.968159e+001 138 113 82
3.782844e+000 -1.112723e+000 -2.050492e+001 167 136 90
4.385074e+000 -2.906092e+000 -1.863532e+001 177 147 95
2.181510e+000 -2.917693e+000 -1.818859e+001 76 67 50
4.078116e+000 -2.570575e+000 -1.806516e+001 113 84 55
1.013071e+000 -2.371515e+000 -1.717679e+001 156 78 74
3.598138e+000 -2.628117e+000 -1.827176e+001 99 73 46
1.563274e+000 -2.595902e+000 -1.809000e+001 96 76 52
1.563274e+000 -2.595902e+000 -1.809000e+001 96 76 52
3.852538e+000 -2.568875e+000 -1.852068e+001 86 65 44
3.962526e+000 -2.566321e+000 -1.850754e+001 60 38 17
-1.834570e+000 -2.341647e+000 -1.691126e+001 91 64 55
1.289359e+000 -2.448605e+000 -1.781173e+001 125 84 60
-1.929731e+000 -2.153900e+000 -1.688340e+001 120 94 71
1.514419e+000 -2.470358e+000 -1.821606e+001 101 80 55
2.740555e+000 -2.429455e+000 -1.858028e+001 54 33 19
2.740395e+000 -2.429588e+000 -1.857990e+001 54 33 19
2.987989e+000 -2.431955e+000 -1.858844e+001 56 37 20
3.386994e+000 -2.438565e+000 -1.860233e+001 52 33 16
3.540823e+000 -2.306591e+000 -1.876375e+001 54 36 16
2.905010e+000 -2.290007e+000 -1.867588e+001 70 53 37
2.579358e+000 -2.196218e+000 -1.868328e+001 56 35 18
-1.041652e+000 -1.591003e+000 -1.714180e+001 134 97 68
3.410972e+000 -2.011540e+000 -1.897778e+001 56 39 18
2.805859e+000 -1.955896e+000 -1.891257e+001 73 56 41
2.666906e+000 -1.836203e+000 -1.898632e+001 76 57 40
1.102602e+000 -1.364537e+000 -1.831991e+001 130 87 68
2.728668e+000 -1.635603e+000 -1.918237e+001 45 31 19
6.903794e-001 -1.357703e+000 -1.836452e+001 208 172 146
7.140475e-001 -1.195532e+000 -1.825418e+001 134 77 50
3.212155e+000 -1.557740e+000 -1.927317e+001 75 53 30
3.212155e+000 -1.557740e+000 -1.927317e+001 75 53 30
3.999601e+000 -1.242810e+000 -1.960755e+001 54 36 16
2.917915e-001 -5.440623e-001 -1.812235e+001 140 83 65
2.574956e+000 -8.460480e-001 -1.970081e+001 72 52 28
7.603092e-001 -2.201555e+000 -1.743252e+001 154 103 84
1.090784e+000 -2.288485e+000 -1.756793e+001 165 100 94
1.426031e+000 -2.532755e+000 -1.805221e+001 50 42 26
7.547320e-001 -1.899740e+000 -1.733520e+001 161 103 91
2.697254e+000 -2.398791e+000 -1.857346e+001 88 67 48
-1.437552e+000 -1.945800e+000 -1.720839e+001 118 86 64
3.590285e+000 -2.063369e+000 -1.893371e+001 42 27 11
1.037027e+000 -1.806663e+000 -1.825005e+001 133 90 74
3.544877e+000 -1.913106e+000 -1.914474e+001 39 30 25
1.244689e+000 -1.600549e+000 -1.828723e+001 135 99 77
4.148858e-001 -1.612096e+000 -1.825448e+001 135 85 74
4.148858e-001 -1.612096e+000 -1.825448e+001 135 85 74
1.172862e+000 -1.304535e+000 -1.911455e+001 172 151 124
1.030256e+000 -1.153377e+000 -1.918381e+001 69 67 42
1.026968e+000 -1.163793e+000 -1.919234e+001 69 67 42
1.681929e+000 -1.011290e+000 -1.957098e+001 64 55 38
3.533521e+000 -7.909388e-001 -1.995576e+001 141 114 79
1.559334e+000 -8.838396e-001 -1.947991e+001 39 32 25
4.465286e+000 -3.075426e+000 -1.830936e+001 202 175 122
1.935229e+000 -2.814509e+000 -1.770017e+001 27 19 17
2.120186e+000 -2.899613e+000 -1.798683e+001 26 22 18
2.890840e+000 -2.729807e+000 -1.812544e+001 106 80 57
3.507240e+000 -2.656563e+000 -1.825352e+001 108 83 58
3.507240e+000 -2.656563e+000 -1.825352e+001 108 83 58
1.572848e+000 -2.542171e+000 -1.812961e+001 74 56 36
4.271964e+000 -2.446077e+000 -1.893886e+001 86 67 37
3.423183e+000 -2.120203e+000 -1.888078e+001 91 71 48
3.423183e+000 -2.120203e+000 -1.888078e+001 91 71 48
-5.886205e-001 -1.410981e+000 -1.693964e+001 182 148 121
1.277350e+000 -1.964615e+000 -1.828441e+001 96 63 27
1.127717e+000 -1.885716e+000 -1.830840e+001 132 97 77
4.778872e-001 -1.633739e+000 -1.823956e+001 143 85 77
7.273069e-001 -1.534474e+000 -1.835553e+001 170 124 103
7.273069e-001 -1.534474e+000 -1.835553e+001 170 124 103
1.106711e+000 -1.485291e+000 -1.880560e+001 54 46 34
1.111031e+000 -1.477889e+000 -1.879912e+001 54 46 34
1.695285e+000 -2.768993e+000 -1.797965e+001 134 112 89
1.308643e+000 -2.513691e+000 -1.777287e+001 184 154 128
1.313156e+000 -2.512819e+000 -1.777275e+001 184 154 128
3.936419e+000 -2.556981e+000 -1.864651e+001 81 59 35
3.107428e+000 -2.483385e+000 -1.852825e+001 94 70 50
3.233474e+000 -2.486996e+000 -1.853745e+001 62 40 26
7.911155e-001 -2.308482e+000 -1.774259e+001 186 139 120
3.307768e+000 -2.440862e+000 -1.857621e+001 84 67 41
4.251111e+000 -2.519441e+000 -1.902197e+001 172 141 94
-1.384586e+000 -1.869346e+000 -1.714563e+001 98 65 46
4.267841e-001 -1.335020e+000 -1.771095e+001 111 60 49
3.358993e+000 -1.834231e+000 -1.910559e+001 65 45 25
6.578829e-001 -1.620671e+000 -1.828313e+001 132 70 59
1.195816e+000 -1.438994e+000 -1.909982e+001 170 150 125
1.042068e+000 -4.521125e-001 -1.847797e+001 199 170 140
1.664054e+000 -2.610753e+000 -1.806274e+001 146 128 108
3.029412e+000 -2.578681e+000 -1.839061e+001 101 76 54
7.353752e-001 -2.236605e+000 -1.758520e+001 157 110 87
-1.185912e-001 -1.794275e+000 -1.726891e+001 131 91 79
8.763072e-001 -2.048881e+000 -1.786454e+001 105 40 37
8.763072e-001 -2.048881e+000 -1.786454e+001 105 40 37
1.170621e+000 -1.507228e+000 -1.825653e+001 100 59 42
1.227070e+000 -1.881396e+000 -1.899655e+001 129 111 91
2.749427e+000 -8.871801e-001 -1.972027e+001 123 99 71
2.829612e+000 -2.574799e+000 -1.846820e+001 72 51 33
1.631386e+000 -2.426634e+000 -1.835951e+001 49 31 21
-1.124205e+000 -2.039408e+000 -1.724704e+001 90 62 48
7.823071e-001 -1.940675e+000 -1.767334e+001 119 60 52
7.823071e-001 -1.940675e+000 -1.767334e+001 119 60 52
-5.347478e-001 -1.576401e+000 -1.717312e+001 98 75 58
1.020857e+000 -1.241434e+000 -1.869242e+001 139 114 74
