ply
format ascii 1.0
element face 0
property list uchar int vertex_indices
element vertex 891
property float x
property float y
property float z
property uchar diffuse_red
property uchar diffuse_green
property uchar diffuse_blue
end_header
2.418468e+000 1.484997e+000 -1.575648e+001 65 51 32
3.347054e+000 1.475278e+000 -1.596717e+001 103 68 38
3.580317e+000 1.387328e+000 -1.592552e+001 96 64 38
4.285074e+000 1.628146e+000 -1.628206e+001 146 102 67
2.540519e+000 1.130143e+000 -1.552047e+001 81 68 48
3.070774e+000 1.221705e+000 -1.573130e+001 109 77 56
1.654712e+000 1.109504e+000 -1.597094e+001 197 161 127
3.846610e+000 1.213255e+000 -1.585059e+001 117 82 54
3.836769e+000 1.208939e+000 -1.581944e+001 117 82 54
2.424856e+000 9.377598e-001 -1.542697e+001 37 23 12
2.545354e+000 9.189488e-001 -1.534148e+001 136 114 81
2.514642e+000 8.689512e-001 -1.530898e+001 75 53 30
3.444652e+000 8.907860e-001 -1.551686e+001 97 63 35
2.411873e+000 7.257986e-001 -1.519568e+001 63 46 31
1.526192e+000 6.152382e-001 -1.600305e+001 93 73 39
1.553458e+000 6.084958e-001 -1.598567e+001 171 137 91
2.432736e+000 5.242146e-001 -1.500530e+001 64 47 26
2.826684e+000 6.531839e-001 -1.523008e+001 159 129 101
3.772848e+000 7.503239e-001 -1.547681e+001 124 85 49
2.908036e+000 3.854867e-001 -1.498006e+001 170 139 110
2.356469e+000 2.642614e-001 -1.480924e+001 169 129 94
2.515312e+000 2.674843e-001 -1.478810e+001 151 129 101
2.496771e+000 2.518540e-001 -1.479491e+001 70 55 29
2.685448e+000 3.209133e-001 -1.485784e+001 247 232 181
3.525210e+000 3.280220e-001 -1.504626e+001 123 92 61
2.132997e+000 1.441366e-001 -1.503973e+001 128 93 65
2.723557e+000 9.870985e-002 -1.477661e+001 146 129 102
2.723557e+000 9.870985e-002 -1.477661e+001 146 129 102
2.112082e+000 -1.139316e-002 -1.493397e+001 102 95 67
2.534786e+000 -6.430628e-002 -1.469610e+001 58 39 23
2.341638e+000 -2.522207e-001 -1.469678e+001 124 93 64
3.697922e+000 -1.829844e-001 -1.507869e+001 62 38 13
8.813144e-001 -7.043817e-001 -1.577788e+001 163 113 85
3.515947e+000 -5.082585e-001 -1.536023e+001 101 77 51
3.184787e+000 -7.988211e-001 -1.566823e+001 51 28 11
3.696560e+000 -7.341528e-001 -1.579733e+001 70 46 22
3.888577e+000 -7.750635e-001 -1.595651e+001 54 32 11
1.789858e+000 -9.771456e-001 -1.596783e+001 94 40 28
3.943614e+000 -9.137008e-001 -1.609639e+001 71 50 26
3.127735e+000 -1.147490e+000 -1.614953e+001 61 36 14
3.127735e+000 -1.147490e+000 -1.614953e+001 61 36 14
2.201499e+000 -1.286545e+000 -1.573485e+001 151 124 97
2.389993e+000 -1.182993e+000 -1.585304e+001 41 28 14
2.437018e+000 -1.200738e+000 -1.589606e+001 37 24 12
3.589402e+000 -1.210777e+000 -1.632828e+001 97 72 49
-1.136508e+000 -1.662908e+000 -1.616720e+001 115 77 55
-5.401849e-002 -1.564264e+000 -1.650160e+001 162 125 98
3.633675e+000 -1.320589e+000 -1.646697e+001 60 34 12
1.920516e+000 -1.681881e+000 -1.633282e+001 46 33 20
2.316298e+000 -1.609183e+000 -1.627955e+001 49 37 20
3.138732e+000 -1.489241e+000 -1.652856e+001 67 45 24
1.844132e+000 -1.860616e+000 -1.660875e+001 110 40 39
2.466728e+000 -1.746075e+000 -1.659795e+001 71 56 36
1.070554e+000 -2.069644e+000 -1.719953e+001 133 72 66
1.487482e+000 -1.904420e+000 -1.638688e+001 169 109 98
1.998801e+000 -2.128705e+000 -1.689130e+001 215 180 152
1.998801e+000 -2.128705e+000 -1.689130e+001 215 180 152
3.292613e+000 -2.154393e+000 -1.736633e+001 81 54 35
3.277417e+000 1.654094e+000 -1.609533e+001 100 64 30
3.019725e+000 1.168797e+000 -1.568408e+001 84 54 31
3.197194e+000 1.252899e+000 -1.575916e+001 85 56 35
1.884057e+000 1.000152e+000 -1.556196e+001 75 58 33
4.197880e+000 1.239084e+000 -1.589632e+001 115 85 58
2.675161e+000 8.097726e-001 -1.529936e+001 81 60 39
3.191859e+000 9.268075e-001 -1.551901e+001 98 67 39
3.350779e+000 7.543921e-001 -1.539519e+001 101 67 39
4.161478e+000 3.321214e-001 -1.517865e+001 101 64 32
4.161478e+000 3.321214e-001 -1.517865e+001 101 64 32
4.139778e+000 1.835838e-001 -1.514726e+001 88 53 26
2.382009e+000 -7.562943e-002 -1.465421e+001 113 76 49
3.250725e+000 -8.776520e-002 -1.493919e+001 70 39 18
1.123826e+000 -2.928410e-001 -1.557850e+001 170 94 86
2.138125e+000 -3.103448e-001 -1.495466e+001 148 119 88
2.190417e+000 -5.472006e-001 -1.510426e+001 151 112 80
3.080939e+000 -5.333196e-001 -1.515422e+001 61 40 23
4.122078e+000 -5.564271e-001 -1.575099e+001 72 46 23
3.990176e+000 -7.145915e-001 -1.589107e+001 92 70 47
2.087747e+000 -9.585171e-001 -1.557909e+001 40 31 14
1.824032e+000 -1.138524e+000 -1.595405e+001 115 60 46
1.960766e+000 -1.151366e+000 -1.590475e+001 53 41 25
1.948075e+000 -1.355123e+000 -1.595814e+001 119 81 45
1.994758e+000 -1.353258e+000 -1.570921e+001 162 129 94
3.454997e+000 -1.969922e+000 -1.729197e+001 76 49 28
1.857790e+000 -2.234118e+000 -1.696727e+001 143 99 72
2.515988e+000 -2.185653e+000 -1.719695e+001 65 46 29
1.840288e+000 -2.326604e+000 -1.697285e+001 152 113 82
2.264126e+000 1.731225e+000 -1.607369e+001 162 141 116
2.991123e+000 1.485840e+000 -1.585962e+001 121 86 59
4.212449e+000 1.666930e+000 -1.627137e+001 119 77 42
4.212449e+000 1.666930e+000 -1.627137e+001 119 77 42
2.509130e+000 1.313474e+000 -1.563081e+001 74 59 40
3.879487e+000 1.332699e+000 -1.591382e+001 97 63 36
3.028834e+000 1.135856e+000 -1.566582e+001 113 83 55
3.031113e+000 1.135782e+000 -1.566558e+001 113 83 55
3.206449e+000 1.147703e+000 -1.572010e+001 91 62 34
2.211441e+000 4.710540e-001 -1.488207e+001 216 180 145
1.373360e+000 5.124500e-001 -1.628729e+001 194 157 121
3.133560e+000 4.625560e-001 -1.509613e+001 78 48 24
3.471359e+000 4.752273e-001 -1.517408e+001 140 104 70
3.467982e+000 4.743539e-001 -1.516939e+001 140 104 70
1.909070e+000 -5.818285e-001 -1.532646e+001 157 115 73
3.337045e+000 -4.642451e-001 -1.527941e+001 70 48 25
3.882816e+000 -5.592012e-001 -1.555229e+001 87 65 41
3.967209e+000 -5.592693e-001 -1.569031e+001 65 42 20
3.967209e+000 -5.592693e-001 -1.569031e+001 65 42 20
3.986602e+000 -9.524198e-001 -1.618295e+001 67 45 22
4.054250e+000 -9.564562e-001 -1.622126e+001 64 42 19
3.941861e+000 -1.067323e+000 -1.629197e+001 63 36 17
3.742646e+000 -1.218322e+000 -1.635169e+001 78 51 29
3.742538e+000 -1.218181e+000 -1.635180e+001 78 51 29
-7.692237e-001 -1.533990e+000 -1.616443e+001 156 115 90
1.573838e+000 -1.491144e+000 -1.594702e+001 145 66 69
3.370911e+000 -1.309529e+000 -1.632835e+001 70 45 26
3.549114e+000 -1.474974e+000 -1.669217e+001 61 39 18
3.613627e+000 -1.518211e+000 -1.677860e+001 96 72 48
-1.071511e+000 -1.880974e+000 -1.615426e+001 126 83 58
3.506035e+000 -1.775722e+000 -1.706693e+001 73 49 25
1.958214e+000 1.711282e+000 -1.601948e+001 218 201 183
2.329280e+000 7.109546e-001 -1.511157e+001 40 27 18
3.870907e+000 8.532123e-001 -1.556350e+001 114 79 41
3.510656e+000 7.057946e-001 -1.539468e+001 103 67 39
2.354844e+000 1.414089e-001 -1.468257e+001 135 99 63
4.010169e+000 2.390986e-001 -1.513371e+001 97 61 29
3.277559e+000 6.476097e-002 -1.491704e+001 108 74 47
1.766318e+000 -2.197024e-001 -1.531198e+001 191 154 115
4.138599e+000 -1.152688e-001 -1.519256e+001 81 51 27
3.955948e+000 -4.390287e-001 -1.544687e+001 112 82 58
3.632567e+000 -6.643250e-001 -1.565617e+001 104 77 52
1.517987e-001 -1.079741e+000 -1.609726e+001 201 160 122
3.912513e+000 -9.879300e-001 -1.618455e+001 68 43 21
2.106447e+000 -1.272505e+000 -1.567134e+001 56 49 32
3.624752e+000 -1.206798e+000 -1.636136e+001 101 74 49
-1.127585e+000 -1.675573e+000 -1.603142e+001 157 113 84
3.798291e+000 -1.966061e+000 -1.738306e+001 69 44 22
2.755450e+000 -2.237202e+000 -1.731066e+001 72 45 28
1.662466e+000 -2.368171e+000 -1.725063e+001 174 135 106
3.568786e+000 1.708887e+000 -1.622454e+001 168 126 88
3.819528e+000 1.259408e+000 -1.592768e+001 86 55 26
3.237350e+000 3.090882e-001 -1.500241e+001 93 59 31
1.971982e+000 -3.311798e-001 -1.517176e+001 126 82 22
3.843439e+000 -1.838386e-001 -1.513784e+001 109 77 53
3.219310e+000 -1.122005e+000 -1.607128e+001 80 52 30
2.457686e+000 -1.506173e+000 -1.627178e+001 23 14 11
1.551523e+000 -1.840759e+000 -1.629476e+001 171 124 109
1.970384e+000 1.264610e+000 -1.552803e+001 199 166 131
1.268063e+000 5.140280e-001 -1.643411e+001 195 155 119
2.550746e+000 -1.753474e+000 -1.656932e+001 51 39 22
2.416106e+000 1.130866e+000 -1.547835e+001 106 83 58
2.892745e+000 1.062715e+000 -1.565070e+001 88 57 35
1.853869e+000 4.138614e-001 -1.538174e+001 198 159 116
2.840244e+000 1.734030e-001 -1.476373e+001 44 30 13
1.703879e+000 -2.440589e-001 -1.551137e+001 151 72 67
2.675212e+000 -1.319068e+000 -1.615760e+001 44 28 12
4.031229e+000 1.695533e+000 -1.618747e+001 183 140 101
2.281337e+000 1.189798e+000 -1.548530e+001 61 49 32
1.292465e+000 -1.197797e+000 -1.575138e+001 149 77 80
3.503190e+000 -7.167253e-001 -1.568275e+001 96 69 44
2.023386e+000 -1.169025e+000 -1.567586e+001 55 41 27
4.023868e+000 8.649178e-003 -1.509471e+001 111 75 43
2.077428e+000 -5.407544e-001 -1.495517e+001 177 138 98
3.550862e+000 1.415515e+000 -1.591487e+001 100 65 35
3.525861e+000 3.268174e-001 -1.504536e+001 123 92 61
1.988165e+000 1.678570e-001 -1.528421e+001 125 86 55
1.995538e+000 -9.614226e-002 -1.512318e+001 145 108 74
2.180144e+000 -1.229733e-001 -1.467182e+001 93 84 53
3.498667e+000 -2.144641e-002 -1.497223e+001 109 76 46
2.357052e+000 -3.546982e-001 -1.471250e+001 150 115 87
8.399988e-001 -6.785376e-001 -1.582758e+001 172 123 93
3.474513e+000 -5.050559e-001 -1.531800e+001 64 38 15
1.616245e+000 -7.404393e-001 -1.596104e+001 143 73 76
1.504391e+000 -7.499747e-001 -1.595246e+001 150 90 79
2.466996e+000 -7.147012e-001 -1.532513e+001 44 31 22
3.879714e+000 -6.000342e-001 -1.566246e+001 85 60 36
2.240989e+000 -8.701553e-001 -1.537205e+001 121 89 64
2.746510e+000 -7.649958e-001 -1.488200e+001 61 49 36
3.577382e+000 -8.319777e-001 -1.584545e+001 55 30 8
3.825387e+000 -8.981659e-001 -1.603218e+001 97 72 49
3.865198e+000 -8.841670e-001 -1.603198e+001 65 40 18
2.150870e+000 -1.052982e+000 -1.547540e+001 84 72 47
3.084775e+000 -1.125280e+000 -1.603731e+001 57 35 14
3.095224e+000 -1.126596e+000 -1.608837e+001 57 35 14
3.886991e+000 -1.060371e+000 -1.624979e+001 87 63 39
3.054504e+000 -1.265222e+000 -1.618324e+001 68 43 21
3.277579e+000 -1.294814e+000 -1.626344e+001 93 68 46
3.350042e+000 -1.277893e+000 -1.631483e+001 89 64 42
3.879208e+000 -1.279782e+000 -1.649917e+001 85 57 33
4.073860e+000 -1.155319e+000 -1.642460e+001 68 42 19
4.064122e+000 -1.246427e+000 -1.652224e+001 76 48 26
1.826211e+000 -1.438034e+000 -1.606943e+001 153 94 88
2.237498e+000 -1.405010e+000 -1.593876e+001 117 86 58
3.606259e+000 -1.392799e+000 -1.651365e+001 92 68 44
3.822696e+000 -1.336075e+000 -1.652836e+001 100 76 50
1.425018e+000 -1.679675e+000 -1.625625e+001 132 74 63
1.920723e+000 -1.682332e+000 -1.634026e+001 46 33 20
3.131346e+000 -1.592167e+000 -1.662551e+001 66 44 23
3.172864e+000 -1.531054e+000 -1.653117e+001 67 45 24
1.305693e+000 -1.861249e+000 -1.646618e+001 132 64 57
3.733059e+000 -1.754491e+000 -1.712315e+001 89 63 40
1.968945e+000 -1.892966e+000 -1.641967e+001 56 49 29
2.118220e+000 -2.046204e+000 -1.685083e+001 100 72 50
1.694396e+000 -2.269883e+000 -1.719985e+001 142 97 65
2.085634e+000 -2.075652e+000 -1.681855e+001 117 86 61
2.075025e+000 -2.326694e+000 -1.709139e+001 59 41 21
4.724720e+000 -1.827939e+000 -1.567041e+001 114 85 43
4.198359e+000 1.628391e+000 -1.626495e+001 151 114 85
1.967643e+000 1.206341e+000 -1.550555e+001 161 127 94
2.316266e+000 9.160371e-001 -1.530227e+001 112 97 74
2.541512e+000 1.037283e+000 -1.544249e+001 68 53 34
1.806908e+000 8.964159e-001 -1.565693e+001 82 68 41
2.341046e+000 8.679353e-001 -1.522368e+001 64 48 32
1.777391e+000 3.917850e-001 -1.544283e+001 214 173 129
1.528896e+000 3.496575e-001 -1.593982e+001 201 149 112
2.207726e+000 2.051517e-001 -1.486952e+001 180 145 114
3.420948e+000 -7.230322e-002 -1.500508e+001 83 51 26
3.422078e+000 -7.280442e-002 -1.500215e+001 83 51 26
3.690339e+000 -2.259960e-001 -1.512372e+001 64 41 20
2.224189e+000 -5.419085e-001 -1.520367e+001 112 75 46
2.521968e+000 -7.144208e-001 -1.535145e+001 30 21 12
4.012475e+000 -5.977805e-001 -1.577771e+001 60 38 15
3.377574e+000 -7.142112e-001 -1.567856e+001 68 41 22
3.649694e+000 -7.024258e-001 -1.569643e+001 81 55 30
3.967593e+000 -8.148354e-001 -1.599280e+001 87 65 42
1.875529e+000 -1.006086e+000 -1.583015e+001 71 56 34
2.416270e+000 -1.026005e+000 -1.569178e+001 93 80 61
3.624120e+000 -9.159361e-001 -1.597246e+001 78 54 28
3.217423e+000 -1.422870e+000 -1.646371e+001 87 65 44
4.050055e+000 -1.316204e+000 -1.659529e+001 74 49 27
2.358092e+000 -1.667674e+000 -1.644692e+001 60 43 28
2.980204e+000 -1.498899e+000 -1.645542e+001 81 59 36
3.272168e+000 -1.654274e+000 -1.677910e+001 77 52 30
3.272313e+000 -1.653800e+000 -1.678437e+001 77 52 30
1.498583e+000 -1.736996e+000 -1.621493e+001 128 71 63
1.758401e+000 -1.761090e+000 -1.636932e+001 161 107 95
3.120668e+000 -1.733701e+000 -1.682157e+001 87 63 41
3.540176e+000 -1.835685e+000 -1.714348e+001 105 79 54
1.940858e+000 -1.908823e+000 -1.641364e+001 147 102 81
3.266920e+000 1.596565e+000 -1.601894e+001 155 121 86
2.151906e+000 1.304115e+000 -1.556750e+001 69 54 36
3.203058e+000 1.138728e+000 -1.570384e+001 91 62 34
3.909670e+000 8.407055e-001 -1.557989e+001 146 107 73
1.411333e+000 7.310784e-001 -1.638929e+001 175 132 97
2.402309e+000 6.120966e-001 -1.507243e+001 122 99 66
2.708824e+000 4.897310e-001 -1.494242e+001 67 48 31
2.745614e+000 3.768140e-001 -1.490749e+001 132 113 80
3.522495e+000 4.621307e-001 -1.515752e+001 117 78 45
4.370818e+000 2.428615e-001 -1.519276e+001 113 74 41
1.358839e+000 2.251457e-002 -1.560319e+001 209 140 125
1.171415e+000 -6.492240e-002 -1.568520e+001 210 132 124
1.783201e+000 -1.031852e-001 -1.541790e+001 137 77 49
1.918340e+000 -5.312912e-002 -1.529644e+001 132 86 52
1.764644e+000 -2.179576e-001 -1.535686e+001 192 155 115
3.902559e+000 -4.590556e-001 -1.542671e+001 75 51 27
4.143799e+000 -5.811166e-001 -1.575396e+001 94 68 44
2.147436e+000 -8.207225e-001 -1.554938e+001 104 71 52
4.152970e+000 -7.773227e-001 -1.602393e+001 96 72 46
1.184882e+000 -1.084082e+000 -1.565284e+001 133 62 58
3.926585e+000 -9.540771e-001 -1.613288e+001 95 71 48
-8.508145e-001 -1.317245e+000 -1.644350e+001 196 154 121
1.899511e+000 -1.083193e+000 -1.584843e+001 58 47 25
4.027353e+000 -1.215188e+000 -1.646618e+001 100 72 48
3.790388e+000 -1.410584e+000 -1.665724e+001 66 41 20
1.435419e+000 -1.860986e+000 -1.640751e+001 146 85 74
1.435419e+000 -1.860986e+000 -1.640751e+001 146 85 74
1.787469e+000 -1.819101e+000 -1.653748e+001 128 64 61
3.419938e+000 -1.919221e+000 -1.719911e+001 99 73 51
3.444958e+000 -2.279004e+000 -1.761523e+001 84 58 33
3.254806e+000 1.235275e+000 -1.574576e+001 92 60 33
3.407474e+000 6.830913e-001 -1.529951e+001 91 57 31
3.710870e+000 6.542770e-001 -1.537738e+001 116 80 47
4.159458e+000 1.102953e-001 -1.514471e+001 80 47 19
3.737114e+000 -4.122806e-002 -1.503520e+001 77 47 23
1.054445e+000 -2.738631e-001 -1.565941e+001 202 124 114
2.625656e+000 -1.951647e-001 -1.475962e+001 42 25 15
3.382351e+000 -4.755813e-001 -1.525806e+001 94 68 45
3.406725e+000 -6.150660e-001 -1.550318e+001 68 44 23
3.096830e+000 -1.002348e+000 -1.590228e+001 63 42 23
4.192284e+000 -1.006379e+000 -1.629306e+001 84 54 28
2.547604e+000 -1.323876e+000 -1.604083e+001 68 55 33
3.508023e+000 -1.206156e+000 -1.631579e+001 108 81 56
4.162218e+000 -1.212538e+000 -1.653336e+001 76 52 25
3.208148e+000 -1.799080e+000 -1.696552e+001 100 73 53
3.085760e+000 -1.926853e+000 -1.711899e+001 98 72 49
1.688473e+000 -2.227023e+000 -1.714491e+001 134 83 62
2.207802e+000 1.192854e+000 -1.552896e+001 64 49 30
1.956574e+000 9.561877e-001 -1.555877e+001 105 79 56
3.304192e+000 7.497742e-001 -1.538468e+001 128 94 67
2.299647e+000 2.210988e-001 -1.474948e+001 200 166 128
9.954772e-001 1.153041e-001 -1.618089e+001 203 124 119
4.078960e+000 -6.093926e-001 -1.578376e+001 66 41 19
3.407485e+000 -7.747425e-001 -1.570429e+001 74 47 26
2.579003e+000 -1.088195e+000 -1.578603e+001 91 80 62
1.736696e+000 -1.340515e+000 -1.596570e+001 100 39 38
3.818290e+000 1.132948e+000 -1.575374e+001 121 90 57
2.124077e+000 2.559956e-001 -1.507486e+001 41 28 16
1.784877e+000 8.546815e-002 -1.540873e+001 189 146 103
4.398922e+000 2.153169e-001 -1.515621e+001 153 116 74
4.270669e+000 -2.507456e-001 -1.534864e+001 109 78 49
3.401440e+000 -1.097274e+000 -1.614430e+001 111 83 59
3.921160e+000 1.039740e+000 -1.567576e+001 131 90 60
3.281024e+000 -8.184833e-001 -1.568811e+001 102 74 52
9.683254e-001 -1.038690e+000 -1.571790e+001 135 86 75
2.378945e+000 -1.061501e+000 -1.584523e+001 57 41 26
3.025174e+000 -1.813753e+000 -1.689420e+001 73 51 30
1.439192e+000 -5.728430e-002 -1.554485e+001 178 89 88
3.233857e+000 -1.843387e+000 -1.707354e+001 95 69 45
1.393341e+000 1.956354e-001 -1.576617e+001 187 102 95
2.676235e+000 1.476996e-001 -1.498719e+001 53 42 28
8.459200e-001 -2.461516e-001 -1.590348e+001 158 99 67
1.067816e+000 -1.084491e+000 -1.565634e+001 186 128 108
2.853990e+000 -2.449901e+000 -1.783565e+001 94 69 49
9.319119e-001 -4.554566e-001 -1.567477e+001 205 160 129
7.594802e-001 -9.833028e-001 -1.599267e+001 115 52 45
3.148203e+000 1.349044e+000 -1.601467e+001 117 84 59
3.274913e+000 1.563872e+000 -1.601643e+001 99 65 35
2.168052e+000 5.570391e-001 -1.496676e+001 178 142 106
3.092636e+000 7.077446e-001 -1.531860e+001 123 92 63
1.888901e+000 1.259130e-001 -1.533778e+001 192 150 104
1.677176e+000 -1.060250e-002 -1.545535e+001 201 150 108
2.105003e+000 -2.357206e-001 -1.499888e+001 78 67 41
3.790783e+000 -8.592534e-003 -1.503856e+001 84 52 29
3.941886e+000 -2.997243e-001 -1.524768e+001 73 45 20
4.045920e+000 -5.999010e-001 -1.576119e+001 45 18 0
3.741050e+000 -9.106864e-001 -1.603371e+001 64 37 15
3.804735e+000 -8.730354e-001 -1.600930e+001 64 37 16
4.001197e+000 -8.872705e-001 -1.607454e+001 71 45 22
-1.220381e+000 -1.531010e+000 -1.621779e+001 133 98 76
1.136620e+000 -1.336475e+000 -1.574994e+001 166 106 96
3.535998e+000 -1.183315e+000 -1.624192e+001 64 39 16
3.556790e+000 -1.260834e+000 -1.633688e+001 90 65 43
-1.142686e+000 -1.665559e+000 -1.619433e+001 109 71 52
-8.677942e-001 -2.023350e+000 -1.615275e+001 121 80 58
1.090819e+000 -2.160613e+000 -1.718574e+001 170 111 102
-1.229302e+000 -2.306369e+000 -1.625954e+001 188 118 118
1.818964e+000 -2.247509e+000 -1.705398e+001 171 128 101
3.704253e+000 1.518446e+000 -1.602492e+001 129 94 62
3.705150e+000 1.518999e+000 -1.602713e+001 129 94 62
3.362957e+000 1.239162e+000 -1.578805e+001 99 65 38
3.780385e+000 9.259445e-001 -1.561899e+001 115 76 46
3.321563e+000 6.722821e-001 -1.531141e+001 97 63 38
4.018159e+000 8.016351e-001 -1.555253e+001 132 96 60
3.528469e+000 5.806844e-001 -1.528005e+001 128 91 58
2.785072e+000 1.986383e-001 -1.478547e+001 132 116 90
1.195472e+000 -1.991010e-001 -1.557834e+001 165 73 74
3.720070e+000 -4.044540e-001 -1.531467e+001 96 69 43
1.024481e+000 -1.111886e+000 -1.565180e+001 196 138 119
2.258588e+000 -1.042541e+000 -1.555907e+001 171 143 116
3.820029e+000 -9.850675e-001 -1.614454e+001 70 44 21
4.079885e+000 -1.002242e+000 -1.627453e+001 60 34 12
-1.221321e+000 -1.568470e+000 -1.620765e+001 112 76 54
-1.234488e+000 -1.569314e+000 -1.624419e+001 112 76 54
3.823658e+000 -1.260232e+000 -1.644393e+001 107 81 54
1.879933e+000 -1.614530e+000 -1.628537e+001 73 52 34
3.822716e+000 -1.999918e+000 -1.742969e+001 68 43 21
3.630925e+000 1.046363e+000 -1.567632e+001 127 93 65
3.611204e+000 6.715721e-001 -1.536196e+001 125 89 57
3.966288e+000 7.058248e-001 -1.546214e+001 147 109 71
2.425067e+000 4.538019e-001 -1.490351e+001 76 60 44
3.853657e+000 1.479642e-001 -1.507658e+001 87 53 25
3.992568e+000 -4.870506e-001 -1.553973e+001 59 33 8
4.057570e+000 -4.717453e-001 -1.554683e+001 109 82 53
3.495767e+000 -1.149239e+000 -1.619160e+001 102 76 53
3.953227e+000 -1.146428e+000 -1.631345e+001 79 53 29
3.947086e+000 -1.034910e+000 -1.622223e+001 98 74 50
3.955741e+000 -1.035292e+000 -1.623769e+001 98 74 50
2.809847e+000 -1.293977e+000 -1.611048e+001 114 88 64
-1.482592e+000 -2.138770e+000 -1.644677e+001 206 141 134
3.794001e+000 1.241711e+000 -1.583654e+001 87 53 29
3.743041e+000 1.089724e+000 -1.573120e+001 97 65 37
2.420598e+000 5.123902e-001 -1.501847e+001 73 56 38
3.962335e+000 3.216516e-001 -1.514529e+001 112 73 40
4.037990e+000 1.596099e-001 -1.512044e+001 89 54 26
7.500160e-001 -5.148151e-001 -1.587631e+001 145 92 61
3.307309e+000 -6.189813e-001 -1.545949e+001 61 38 18
-1.504445e+000 -1.970664e+000 -1.650576e+001 255 255 253
3.021297e+000 1.576201e+000 -1.597171e+001 152 119 81
3.547547e+000 7.545649e-001 -1.541942e+001 129 96 65
2.296536e+000 2.139715e-001 -1.471390e+001 204 169 131
3.481299e+000 -2.265641e-001 -1.506281e+001 76 44 21
2.923680e+000 -1.461655e+000 -1.638847e+001 65 41 20
2.868176e+000 1.380037e+000 -1.583093e+001 129 95 68
1.560676e+000 -8.290030e-001 -1.586456e+001 116 48 45
1.802551e+000 -1.423310e+000 -1.612842e+001 168 106 99
4.027235e+000 -2.088978e+000 -1.759196e+001 139 106 75
4.628390e+000 3.452921e-001 -1.517300e+001 163 122 66
4.009017e+000 -4.120925e-001 -1.544452e+001 108 78 50
3.639342e+000 -1.798800e+000 -1.711952e+001 116 87 61
4.453919e+000 2.699863e-001 -1.522775e+001 151 109 69
2.638443e+000 -2.153649e+000 -1.725322e+001 132 104 80
1.710710e+000 1.406898e+000 -1.586250e+001 165 141 107
2.270870e+000 1.464731e+000 -1.579457e+001 39 27 13
2.606242e+000 7.380668e-001 -1.518176e+001 169 147 110
2.055171e+000 -1.058774e-001 -1.503511e+001 136 117 91
3.799449e+000 -7.646025e-002 -1.508711e+001 75 43 18
1.514606e+000 -7.283450e-001 -1.591225e+001 115 55 47
1.373911e+000 -8.919110e-001 -1.576715e+001 170 110 99
3.567752e+000 -1.072938e+000 -1.614375e+001 75 47 23
2.212992e+000 -2.628618e+000 -1.717632e+001 67 55 39
2.217135e+000 -2.635338e+000 -1.720626e+001 67 55 39
3.784414e+000 6.627973e-001 -1.535252e+001 160 119 81
1.220317e+000 -9.952857e-002 -1.560633e+001 203 123 114
3.746192e+000 -7.717149e-001 -1.585055e+001 76 50 27
-1.239282e+000 -1.746573e+000 -1.620721e+001 160 116 87
3.554741e+000 -1.260720e+000 -1.633849e+001 91 67 42
3.247274e+000 -1.910865e+000 -1.712746e+001 105 79 56
3.423281e+000 -1.920797e+000 -1.723652e+001 99 73 50
1.969240e+000 -2.333478e+000 -1.703156e+001 148 113 81
3.285459e+000 1.019769e+000 -1.563161e+001 109 74 42
3.237762e+000 3.913676e-001 -1.504519e+001 126 91 63
9.356784e-001 -8.656206e-001 -1.573016e+001 160 94 82
3.957945e+000 -9.926686e-001 -1.617602e+001 70 44 21
4.029496e+000 -9.521144e-001 -1.616201e+001 67 41 20
3.671844e+000 -1.470619e+000 -1.667376e+001 99 73 48
2.564519e+000 8.612591e-001 -1.533359e+001 143 120 76
3.574805e+000 5.885022e-001 -1.529770e+001 102 66 35
3.467489e+000 4.282787e-001 -1.511602e+001 113 74 44
4.021742e+000 -6.401395e-001 -1.579041e+001 97 72 48
3.577078e+000 3.336629e-001 -1.505367e+001 136 100 66
1.096011e+000 -1.117424e+000 -1.562385e+001 186 129 111
3.843293e+000 -2.703668e-001 -1.521934e+001 111 79 56
1.524014e+000 -1.021917e+000 -1.584119e+001 129 58 54
4.075042e+000 1.104952e+000 -1.579780e+001 107 71 41
3.122771e+000 1.324970e+000 -1.582696e+001 85 54 29
3.702976e+000 1.248302e+000 -1.584199e+001 93 60 29
1.957658e+000 9.837646e-001 -1.554299e+001 123 96 72
1.125577e+000 5.868867e-001 -1.678850e+001 124 80 46
4.123155e+000 3.946702e-001 -1.521045e+001 96 60 29
1.793451e+000 -4.530312e-001 -1.551335e+001 156 114 89
4.600708e+000 -8.856981e-001 -1.586025e+001 101 73 34
3.127906e+000 -1.170011e+000 -1.610315e+001 89 65 42
4.538941e+000 -2.813929e+000 -1.687559e+001 143 114 68
3.272131e+000 9.797229e-001 -1.559145e+001 100 67 36
3.494025e+000 3.621139e-001 -1.508635e+001 124 90 59
3.511208e+000 3.419979e-001 -1.507267e+001 79 47 22
3.548444e+000 3.360554e-001 -1.505519e+001 136 101 71
4.698099e+000 -3.440856e-002 -1.508060e+001 168 131 79
1.212509e+000 -1.357443e+000 -1.574333e+001 153 77 75
3.812692e+000 -1.531489e+000 -1.683647e+001 65 43 20
3.615876e+000 5.878682e-001 -1.528876e+001 148 112 76
3.667961e+000 6.481849e-001 -1.535838e+001 134 98 66
3.443514e+000 4.120633e-001 -1.511839e+001 106 71 41
3.957721e+000 3.282579e-001 -1.515625e+001 105 69 37
-5.682483e-001 -1.414939e+000 -1.631986e+001 145 100 65
3.864423e+000 -8.163240e-002 -1.507812e+001 116 85 57
-6.205070e-001 -1.497524e+000 -1.627062e+001 147 101 63
3.949498e+000 1.644325e+000 -1.619466e+001 104 69 36
1.938476e+000 1.358732e+000 -1.568435e+001 165 132 99
3.351587e+000 1.445962e+000 -1.593110e+001 140 105 75
3.796173e+000 1.536113e+000 -1.609933e+001 89 55 27
2.975016e+000 1.180844e+000 -1.568303e+001 111 80 54
3.410243e+000 1.297817e+000 -1.584940e+001 98 63 36
2.297217e+000 1.022107e+000 -1.537294e+001 65 49 33
3.797903e+000 1.049276e+000 -1.571680e+001 86 52 24
3.728514e+000 8.295053e-001 -1.553029e+001 137 96 64
3.176147e+000 5.824739e-001 -1.520488e+001 110 73 45
3.750447e+000 6.264274e-001 -1.535916e+001 137 99 63
4.240377e+000 5.749397e-001 -1.535263e+001 93 54 23
3.905159e+000 4.272502e-001 -1.519638e+001 108 70 34
2.292307e+000 2.304301e-002 -1.467768e+001 182 149 110
4.067812e+000 2.659844e-001 -1.513620e+001 104 65 33
3.816779e+000 9.484642e-003 -1.505806e+001 94 64 40
1.993432e+000 -3.016533e-001 -1.517312e+001 184 140 79
1.076409e+000 -1.348350e+000 -1.574212e+001 148 81 74
3.890190e+000 1.750180e+000 -1.629589e+001 108 68 32
2.195068e+000 1.378712e+000 -1.564229e+001 53 43 26
3.654375e+000 1.477183e+000 -1.600191e+001 124 89 59
4.125858e+000 1.501669e+000 -1.605636e+001 129 94 66
4.351676e+000 1.628708e+000 -1.620464e+001 94 70 46
2.044832e+000 1.082606e+000 -1.542785e+001 144 108 75
3.169528e+000 1.263963e+000 -1.578435e+001 107 77 53
1.652074e+000 1.072624e+000 -1.594456e+001 116 81 49
3.808213e+000 1.195259e+000 -1.582523e+001 96 62 34
2.211554e+000 6.919646e-001 -1.509918e+001 150 114 80
4.051953e+000 8.312707e-001 -1.559709e+001 107 71 39
2.024622e+000 5.670249e-001 -1.518528e+001 87 77 48
2.873741e+000 5.897144e-001 -1.519804e+001 142 111 83
3.314978e+000 6.444662e-001 -1.529374e+001 118 83 55
3.740849e+000 7.272722e-001 -1.543147e+001 146 107 68
3.909438e+000 -2.933008e-001 -1.524203e+001 63 37 14
1.657124e+000 -1.384802e+000 -1.589269e+001 195 140 131
2.959579e+000 -1.436134e+000 -1.635304e+001 97 72 52
1.316640e+000 -1.853051e+000 -1.642705e+001 136 70 62
3.592495e+000 1.513822e+000 -1.606480e+001 101 66 36
3.600287e+000 1.366986e+000 -1.590090e+001 144 109 77
3.418717e+000 6.916057e-001 -1.537441e+001 88 54 27
3.418717e+000 6.916057e-001 -1.537441e+001 88 54 27
3.738268e+000 4.876930e-001 -1.524875e+001 111 72 39
4.138852e+000 -1.198067e-001 -1.519113e+001 85 52 27
1.442614e+000 -8.779508e-001 -1.577702e+001 156 94 83
3.284133e+000 1.359648e+000 -1.586252e+001 89 57 32
3.592672e+000 7.111214e-001 -1.539262e+001 103 68 40
1.521847e+000 3.416758e-001 -1.593035e+001 206 156 119
3.263993e+000 5.891654e-002 -1.491518e+001 112 78 51
3.980906e+000 -3.901169e-002 -1.513469e+001 103 69 41
3.240553e+000 -8.263323e-001 -1.570338e+001 103 77 52
3.413995e+000 -1.078569e+000 -1.609428e+001 111 84 59
-8.541315e-001 -1.571945e+000 -1.605473e+001 149 108 86
1.810467e+000 -1.533026e+000 -1.620184e+001 131 67 67
3.952144e+000 1.511530e+000 -1.610894e+001 127 89 58
3.077533e+000 1.172062e+000 -1.570523e+001 86 56 30
1.795862e+000 7.693860e-002 -1.539645e+001 194 150 105
2.637112e+000 -4.085714e-001 -1.479950e+001 35 22 14
3.718809e+000 -4.755932e-001 -1.539626e+001 118 88 62
-2.167891e-002 -1.181546e+000 -1.638535e+001 127 92 65
4.177481e+000 -1.004729e+000 -1.626478e+001 82 56 28
1.386024e+000 6.446655e-001 -1.641523e+001 176 138 101
2.396288e+000 5.482440e-001 -1.503051e+001 226 208 168
3.305144e+000 7.473489e-001 -1.537136e+001 127 94 63
4.044403e+000 5.400164e-001 -1.532175e+001 108 69 36
4.044403e+000 5.400164e-001 -1.532175e+001 108 69 36
9.651073e-001 3.397148e-002 -1.599233e+001 173 97 74
4.304988e+000 -2.023031e-001 -1.530013e+001 79 47 22
3.158801e+000 -3.330771e-001 -1.503134e+001 73 48 25
1.472911e+000 -1.216395e+000 -1.579935e+001 148 76 79
-6.171235e-001 -1.514864e+000 -1.620060e+001 142 96 61
1.731182e+000 -1.414929e+000 -1.609226e+001 102 43 41
2.736824e+000 1.684076e+000 -1.621455e+001 121 87 59
3.518933e+000 1.263949e+000 -1.580163e+001 107 72 42
3.942380e+000 1.057527e+000 -1.573704e+001 132 92 62
4.225428e+000 3.910779e-001 -1.522115e+001 129 91 54
2.332772e+000 7.295645e-002 -1.465773e+001 218 188 152
3.482488e+000 1.214599e-001 -1.496473e+001 124 90 55
3.241526e+000 5.558468e-001 -1.519001e+001 126 92 57
9.900699e-001 -8.433966e-001 -1.569593e+001 197 135 120
-5.973693e-001 -1.474580e+000 -1.629252e+001 155 107 69
3.345140e+000 2.202089e-001 -1.499244e+001 121 86 54
3.644291e+000 1.130311e-001 -1.498851e+001 128 90 54
4.493027e+000 9.320917e-001 -1.566133e+001 25 17 14
4.554088e+000 -1.088549e-001 -1.587811e+001 115 80 48
3.371432e+000 1.699193e+000 -1.619162e+001 122 83 50
2.954445e+000 1.595405e+000 -1.603139e+001 130 94 62
3.328090e+000 1.265549e+000 -1.582516e+001 84 50 23
2.125614e+000 9.669308e-001 -1.533227e+001 128 97 63
4.065898e+000 1.110734e+000 -1.581951e+001 93 59 31
3.118110e+000 4.848119e-001 -1.511493e+001 105 73 47
3.764453e+000 6.159786e-001 -1.532878e+001 109 69 34
3.764453e+000 6.159786e-001 -1.532878e+001 109 69 34
1.889146e+000 3.347710e-001 -1.524024e+001 169 140 98
4.236599e+000 5.405043e-001 -1.535230e+001 133 93 58
3.537120e+000 3.123664e-001 -1.503177e+001 101 66 38
4.157060e+000 3.567592e-001 -1.521688e+001 104 67 33
4.157060e+000 3.567592e-001 -1.521688e+001 104 67 33
3.027602e+000 9.085959e-002 -1.484826e+001 163 128 100
2.340650e+000 -2.275461e-001 -1.468767e+001 164 130 101
1.826404e+000 -1.373415e+000 -1.603360e+001 165 100 94
4.781772e+000 -9.984421e-001 -1.502270e+001 115 84 41
3.323029e+000 1.715293e+000 -1.621279e+001 157 122 84
2.964299e+000 1.146613e+000 -1.567539e+001 83 51 26
3.198133e+000 1.134600e+000 -1.569602e+001 92 58 31
3.318749e+000 1.040673e+000 -1.564115e+001 109 74 44
3.731315e+000 8.999213e-001 -1.555729e+001 133 98 64
3.858742e+000 1.946004e-001 -1.511600e+001 91 56 26
2.107734e+000 -2.382090e-001 -1.499525e+001 74 61 40
1.110134e+000 -1.019991e+000 -1.563546e+001 143 75 59
1.835439e+000 -1.677493e+000 -1.632802e+001 121 67 67
1.909335e+000 1.417768e+000 -1.575567e+001 142 107 77
4.270646e+000 1.583942e+000 -1.628092e+001 81 49 24
3.265348e+000 1.241412e+000 -1.578845e+001 92 63 33
3.219099e+000 4.762992e-001 -1.511333e+001 97 64 35
2.619107e+000 -2.208100e-001 -1.473493e+001 41 27 16
4.130671e+000 -6.898079e-002 -1.513588e+001 94 62 30
1.696995e+000 -9.278140e-001 -1.590316e+001 131 68 61
1.060587e+000 -1.161813e+000 -1.561260e+001 174 109 97
1.867960e+000 -1.635935e+000 -1.627106e+001 73 54 39
1.622720e+000 -2.261402e+000 -1.712418e+001 172 125 105
2.339542e+000 7.186618e-001 -1.516829e+001 43 32 22
3.630470e+000 5.837895e-001 -1.533851e+001 150 111 78
-1.041502e+000 -1.628094e+000 -1.612477e+001 104 65 50
2.179279e+000 3.344011e-001 -1.498430e+001 175 142 110
7.680693e-001 -6.577273e-001 -1.586030e+001 166 116 89
3.570337e+000 -9.527999e-001 -1.598890e+001 68 42 19
-6.316688e-001 -1.538576e+000 -1.623370e+001 132 89 52
3.674574e+000 1.040543e+000 -1.568269e+001 129 94 65
1.603159e+000 -4.606411e-001 -1.567021e+001 140 70 68
4.236625e+000 -3.816180e-001 -1.550258e+001 115 86 54
4.145570e+000 -1.030700e+000 -1.627722e+001 91 62 36
1.323619e+000 -1.363778e+000 -1.581232e+001 134 69 60
3.933982e+000 1.054295e+000 -1.572364e+001 132 96 64
3.164446e+000 -9.564698e-002 -1.490144e+001 58 35 23
3.640636e+000 -1.793863e+000 -1.711367e+001 117 87 61
3.746215e+000 5.326170e-001 -1.526951e+001 105 69 33
2.229919e+000 3.930641e-001 -1.489993e+001 187 149 111
2.124900e+000 1.295017e+000 -1.559874e+001 215 195 157
4.301258e+000 1.625789e+000 -1.622452e+001 82 53 27
2.183363e+000 9.649569e-001 -1.537711e+001 125 105 84
2.486860e+000 9.745859e-001 -1.541207e+001 88 67 38
1.917453e+000 9.454809e-001 -1.555587e+001 91 68 44
3.763228e+000 6.347394e-001 -1.534260e+001 120 81 42
4.716518e+000 5.279886e-001 -1.479562e+001 155 117 62
2.170111e+000 3.114171e-001 -1.503791e+001 141 112 81
2.225943e+000 3.218535e-001 -1.482167e+001 179 145 107
2.284784e+000 3.262765e-001 -1.476202e+001 179 145 107
2.716212e+000 2.060717e-001 -1.481328e+001 98 78 53
2.793202e+000 3.428054e-002 -1.476205e+001 57 40 23
2.110069e+000 -1.851806e-002 -1.494551e+001 105 96 67
2.139748e+000 -3.976153e-002 -1.478306e+001 104 96 68
4.387457e+000 8.475427e-002 -1.519662e+001 95 60 30
2.833556e+000 -1.181814e-001 -1.473456e+001 60 43 23
4.704261e+000 -2.679855e-002 -1.510965e+001 176 138 90
1.957897e+000 -2.278411e-001 -1.520504e+001 148 101 48
2.020919e+000 -2.225920e-001 -1.513699e+001 138 102 67
2.367332e+000 -2.756992e-001 -1.469327e+001 161 128 97
2.617375e+000 -2.762706e-001 -1.473317e+001 118 103 82
9.898256e-001 -3.426537e-001 -1.570317e+001 203 149 120
1.755561e+000 -3.497210e-001 -1.547073e+001 117 61 48
2.677690e+000 -4.270379e-001 -1.484434e+001 65 52 35
3.892627e+000 -3.284174e-001 -1.528074e+001 74 52 27
1.807970e+000 -4.195442e-001 -1.546989e+001 163 124 90
3.510564e+000 -5.142701e-001 -1.534844e+001 96 70 47
3.532180e+000 -5.263321e-001 -1.537187e+001 69 45 21
2.273145e+000 -7.579146e-001 -1.522925e+001 157 126 97
2.422789e+000 -6.583177e-001 -1.523639e+001 44 31 14
2.454963e+000 -7.432466e-001 -1.536136e+001 48 35 18
3.714170e+000 -5.797907e-001 -1.558102e+001 66 41 17
9.751780e-001 -8.809736e-001 -1.570256e+001 167 94 85
2.036943e+000 -7.723701e-001 -1.545144e+001 98 67 46
3.746335e+000 -7.334758e-001 -1.579034e+001 92 66 45
2.280498e+000 -1.183198e+000 -1.569512e+001 107 83 59
2.452644e+000 -1.302261e+000 -1.580419e+001 22 13 13
2.608989e+000 -1.332497e+000 -1.598296e+001 94 78 59
2.631313e+000 -1.345914e+000 -1.601939e+001 57 39 21
3.803683e+000 -1.309116e+000 -1.649694e+001 79 52 27
-6.592471e-001 -1.530124e+000 -1.621560e+001 152 106 69
2.889670e+000 -1.503495e+000 -1.639016e+001 73 46 25
2.998664e+000 -1.453977e+000 -1.639050e+001 72 51 30
3.144483e+000 -1.366020e+000 -1.629434e+001 100 75 52
3.163186e+000 -1.505099e+000 -1.651268e+001 85 63 42
3.399420e+000 -1.412080e+000 -1.646553e+001 96 74 51
3.398380e+000 -1.413253e+000 -1.645042e+001 96 74 51
3.473497e+000 -1.430978e+000 -1.655560e+001 99 74 52
3.756233e+000 -1.347692e+000 -1.654054e+001 65 40 18
2.278095e+000 -1.603909e+000 -1.632863e+001 45 31 15
2.323162e+000 -1.582256e+000 -1.625469e+001 61 45 27
3.294291e+000 -1.531308e+000 -1.659542e+001 96 72 49
-5.902599e-001 -1.883943e+000 -1.618681e+001 92 56 41
1.436644e+000 -1.787836e+000 -1.636879e+001 145 87 76
1.580103e+000 -1.758872e+000 -1.619446e+001 132 77 70
1.444513e+000 -1.870856e+000 -1.636967e+001 145 83 72
2.129081e+000 -1.864887e+000 -1.653331e+001 140 111 85
2.152983e+000 -1.883099e+000 -1.660479e+001 50 30 14
2.241751e+000 -1.890263e+000 -1.668422e+001 70 55 36
3.334205e+000 -1.834250e+000 -1.701507e+001 104 77 56
3.332711e+000 -1.833963e+000 -1.701647e+001 104 77 56
3.574121e+000 -1.855182e+000 -1.717871e+001 88 62 37
3.574121e+000 -1.855182e+000 -1.717871e+001 88 62 37
1.533592e+000 -2.132883e+000 -1.691384e+001 140 77 72
1.710114e+000 -2.302108e+000 -1.720566e+001 188 148 113
1.985761e+000 -2.219271e+000 -1.694975e+001 146 112 84
2.161394e+000 -2.239559e+000 -1.712127e+001 35 25 23
3.033118e+000 -2.298590e+000 -1.746283e+001 74 47 27
3.317891e+000 -2.176569e+000 -1.743218e+001 81 57 31
3.470473e+000 -2.193773e+000 -1.752192e+001 89 61 37
4.665882e+000 -2.058759e+000 -1.604814e+001 119 90 50
2.331763e+000 -2.415792e+000 -1.708123e+001 41 29 21
2.816917e+000 -2.365337e+000 -1.746893e+001 77 49 28
2.816917e+000 -2.365337e+000 -1.746893e+001 77 49 28
4.342186e+000 -2.473970e+000 -1.767729e+001 174 147 102
4.832072e+000 -2.168716e+000 -1.536506e+001 157 128 89
4.665506e+000 -2.651374e+000 -1.616674e+001 141 112 68
2.457175e+000 1.261812e+000 -1.559079e+001 72 55 37
3.561680e+000 1.370270e+000 -1.588162e+001 110 75 43
2.414721e+000 1.085855e+000 -1.550378e+001 65 44 22
2.082865e+000 8.671065e-001 -1.525754e+001 128 89 53
3.238337e+000 9.918720e-001 -1.557009e+001 142 105 75
3.663202e+000 7.302512e-001 -1.546835e+001 142 106 70
2.632117e+000 5.497657e-001 -1.505196e+001 65 45 42
2.321586e+000 2.599467e-001 -1.472889e+001 126 88 49
3.436173e+000 4.977221e-001 -1.519158e+001 117 82 44
3.597990e+000 2.841956e-001 -1.503316e+001 107 73 39
2.139524e+000 -2.145539e-001 -1.489355e+001 84 70 44
2.350328e+000 -2.364611e-001 -1.466114e+001 171 140 109
2.400156e+000 -2.579892e-001 -1.461255e+001 121 87 61
2.618898e+000 -2.179920e-001 -1.473667e+001 43 29 18
1.970664e+000 -2.585280e-001 -1.518936e+001 200 160 95
2.576405e+000 -2.802338e-001 -1.477317e+001 122 105 85
2.576405e+000 -2.802338e-001 -1.477317e+001 122 105 85
2.781696e+000 -3.032296e-001 -1.481095e+001 42 28 18
2.050567e+000 -3.863653e-001 -1.507592e+001 166 119 42
2.388055e+000 -3.978345e-001 -1.480096e+001 112 76 51
3.324876e+000 -3.713334e-001 -1.514578e+001 58 35 17
4.328018e+000 -2.137802e-001 -1.531475e+001 61 34 13
4.331036e+000 -2.127383e-001 -1.532020e+001 61 34 13
3.788663e+000 -4.069644e-001 -1.534110e+001 94 69 43
4.021579e+000 -4.392745e-001 -1.548474e+001 86 60 35
2.187802e+000 -5.893462e-001 -1.513126e+001 153 117 84
2.453291e+000 -5.913300e-001 -1.510270e+001 38 28 20
2.799614e+000 -6.541221e-001 -1.475503e+001 87 73 54
3.471978e+000 -5.073067e-001 -1.531089e+001 70 47 23
3.898243e+000 -4.919097e-001 -1.555403e+001 51 26 6
2.057110e+000 -7.631433e-001 -1.544377e+001 135 100 70
3.617290e+000 -6.272454e-001 -1.560430e+001 66 39 18
2.071510e+000 -8.124864e-001 -1.545615e+001 148 116 92
3.988236e+000 -7.164516e-001 -1.587840e+001 95 73 50
2.434939e+000 -9.321433e-001 -1.558278e+001 38 26 13
2.467339e+000 -9.698117e-001 -1.561016e+001 53 38 19
3.382254e+000 -8.655596e-001 -1.580741e+001 63 37 14
1.658091e+000 -1.127439e+000 -1.579855e+001 146 69 71
2.447185e+000 -1.078191e+000 -1.574270e+001 49 34 15
2.479827e+000 -1.067668e+000 -1.576618e+001 122 106 76
3.790728e+000 -9.395426e-001 -1.608137e+001 51 28 10
9.326677e-001 -1.196766e+000 -1.568932e+001 169 91 87
1.810248e+000 -1.170524e+000 -1.603281e+001 138 78 67
2.135702e+000 -1.146936e+000 -1.551351e+001 74 64 37
2.676924e+000 -1.145041e+000 -1.591321e+001 120 106 73
2.604552e+000 -1.199935e+000 -1.589758e+001 62 48 30
3.822656e+000 -1.092866e+000 -1.624681e+001 67 39 15
3.351581e+000 -1.313924e+000 -1.632451e+001 68 46 23
-1.118993e+000 -1.560546e+000 -1.618001e+001 164 120 91
-1.108313e+000 -1.590476e+000 -1.616909e+001 139 97 74
1.461529e+000 -1.545823e+000 -1.588588e+001 133 77 63
2.150990e+000 -1.432411e+000 -1.588157e+001 106 67 41
3.135148e+000 -1.487563e+000 -1.649114e+001 64 42 21
3.160429e+000 -1.461670e+000 -1.644673e+001 96 71 50
3.280907e+000 -1.420614e+000 -1.643930e+001 91 66 44
1.787321e+000 -1.684954e+000 -1.630510e+001 123 61 60
2.383619e+000 -1.565466e+000 -1.623673e+001 38 25 16
3.766224e+000 -1.575800e+000 -1.687028e+001 99 73 51
3.794426e+000 -1.599438e+000 -1.690210e+001 77 50 27
2.105543e+000 -1.776576e+000 -1.638135e+001 152 126 103
2.105543e+000 -1.776576e+000 -1.638135e+001 152 126 103
3.313694e+000 -1.804120e+000 -1.700634e+001 80 53 32
2.041152e+000 -1.830466e+000 -1.634680e+001 65 50 29
2.499800e+000 -1.975410e+000 -1.686028e+001 58 42 26
3.536610e+000 -1.891962e+000 -1.722247e+001 76 50 26
-3.536166e-001 -2.095106e+000 -1.641913e+001 75 53 40
3.286693e+000 -2.069755e+000 -1.731048e+001 102 76 50
3.479853e+000 -2.098005e+000 -1.742262e+001 107 81 58
-1.230189e+000 -2.265152e+000 -1.626370e+001 163 93 95
1.536273e+000 -2.232651e+000 -1.709328e+001 180 129 113
1.999409e+000 -2.254449e+000 -1.695669e+001 227 196 167
2.364642e+000 -2.184473e+000 -1.714101e+001 48 36 24
3.223691e+000 -2.191394e+000 -1.747037e+001 104 77 56
1.885741e+000 1.634877e+000 -1.588954e+001 182 151 120
2.325456e+000 1.673783e+000 -1.592263e+001 64 48 23
4.343258e+000 1.684219e+000 -1.607035e+001 72 49 35
1.983739e+000 1.043701e+000 -1.549976e+001 130 96 62
1.649461e+000 1.072745e+000 -1.593602e+001 141 104 69
3.724791e+000 8.243519e-001 -1.552664e+001 151 112 76
3.859183e+000 4.724092e-001 -1.520555e+001 117 81 45
3.859183e+000 4.724092e-001 -1.520555e+001 117 81 45
4.154687e+000 4.627900e-001 -1.524411e+001 115 76 46
2.629576e+000 1.549943e-001 -1.478877e+001 73 60 38
1.821604e+000 1.264215e-001 -1.539274e+001 176 133 89
3.441749e+000 -4.579459e-002 -1.499332e+001 81 48 26
2.395540e+000 -1.845280e-001 -1.465598e+001 129 95 68
2.187606e+000 -2.423873e-001 -1.480967e+001 107 91 66
2.334087e+000 -2.848134e-001 -1.470413e+001 158 125 90
2.819278e+000 -2.898815e-001 -1.481999e+001 139 118 86
2.429117e+000 -4.348860e-001 -1.482985e+001 110 79 47
2.676411e+000 -3.656878e-001 -1.480167e+001 65 52 34
3.501583e+000 -3.575027e-001 -1.516763e+001 85 57 33
4.344253e+000 -3.541119e-001 -1.551458e+001 79 49 25
2.198524e+000 -6.594786e-001 -1.529782e+001 105 70 48
2.307885e+000 -7.222083e-001 -1.518901e+001 196 167 137
2.482782e+000 -6.674075e-001 -1.522697e+001 47 33 20
4.022927e+000 -5.718861e-001 -1.573066e+001 97 70 49
8.685295e-001 -8.319323e-001 -1.577077e+001 169 103 92
2.492957e+000 -7.938002e-001 -1.537990e+001 35 26 11
3.883855e+000 -8.178528e-001 -1.594192e+001 95 69 47
3.888538e+000 -8.156055e-001 -1.595441e+001 95 69 47
4.146842e+000 -8.055027e-001 -1.608489e+001 59 36 15
3.841138e+000 -9.595576e-001 -1.609865e+001 92 67 45
4.013974e+000 -9.887001e-001 -1.619572e+001 86 65 42
4.051364e+000 -9.282779e-001 -1.614359e+001 60 38 15
1.915583e+000 -1.202637e+000 -1.587016e+001 119 79 58
2.131397e+000 -1.227269e+000 -1.561828e+001 55 44 22
4.017111e+000 -1.060179e+000 -1.628208e+001 62 37 15
2.969282e+000 -1.433828e+000 -1.638266e+001 101 77 54
3.068421e+000 -1.466720e+000 -1.642919e+001 96 71 50
3.542388e+000 -1.475666e+000 -1.665072e+001 62 37 17
2.332575e-002 -1.673810e+000 -1.643934e+001 103 74 52
3.260322e+000 -1.628665e+000 -1.686335e+001 105 80 58
3.269298e+000 -1.697081e+000 -1.683822e+001 103 79 53
3.278952e+000 -1.697803e+000 -1.686116e+001 103 79 53
2.244284e+000 -1.946269e+000 -1.683808e+001 48 34 23
1.584266e+000 -2.126067e+000 -1.691922e+001 169 112 101
1.924940e+000 -2.072616e+000 -1.697170e+001 148 109 88
-1.211923e+000 -2.224093e+000 -1.624113e+001 182 119 110
-1.201757e+000 -2.330551e+000 -1.625814e+001 163 84 90
1.577961e+000 -2.254416e+000 -1.709988e+001 148 78 74
3.699541e+000 -2.163799e+000 -1.756792e+001 109 81 56
1.878229e+000 -2.339687e+000 -1.712916e+001 141 103 70
3.202331e+000 -2.372907e+000 -1.765089e+001 105 81 57
3.551354e+000 1.470655e+000 -1.595689e+001 111 75 43
2.954608e+000 1.046379e+000 -1.556671e+001 115 84 55
3.465930e+000 1.176560e+000 -1.574941e+001 153 117 88
3.748171e+000 1.161984e+000 -1.576595e+001 142 109 78
3.463318e+000 9.014462e-001 -1.551821e+001 102 66 36
3.463710e+000 9.027589e-001 -1.552145e+001 102 66 36
3.592971e+000 8.797245e-001 -1.553779e+001 103 68 36
2.659708e+000 5.110322e-001 -1.502115e+001 70 51 34
4.540016e+000 7.701755e-001 -1.561558e+001 171 130 78
2.172863e+000 2.350001e-001 -1.497195e+001 159 128 99
3.842663e+000 2.875893e-001 -1.511389e+001 100 64 32
2.595728e+000 -7.236519e-002 -1.465220e+001 53 37 21
2.842418e+000 -2.707757e-001 -1.477510e+001 48 32 15
2.425752e+000 -3.603188e-001 -1.473481e+001 118 86 58
2.821615e+000 -4.267443e-001 -1.492405e+001 40 25 18
1.893839e+000 -5.136291e-001 -1.538072e+001 191 149 100
2.769748e+000 -6.344903e-001 -1.471897e+001 55 41 28
4.152745e+000 -5.426531e-001 -1.571201e+001 62 38 14
7.649285e-001 -7.334654e-001 -1.581107e+001 217 158 140
2.407447e+000 -6.966817e-001 -1.517222e+001 48 40 27
2.282605e+000 -9.604067e-001 -1.545434e+001 139 109 81
1.328879e+000 -1.195310e+000 -1.565265e+001 164 90 89
1.319999e+000 -1.255604e+000 -1.556461e+001 158 86 87
2.710704e+000 -1.142176e+000 -1.583005e+001 63 46 26
-1.465877e-001 -1.444992e+000 -1.646072e+001 184 140 113
2.684274e+000 -1.378709e+000 -1.614243e+001 65 49 28
-1.187827e+000 -1.694200e+000 -1.619613e+001 164 120 90
-5.045411e-001 -1.634858e+000 -1.621048e+001 197 160 132
2.087651e+000 -1.552896e+000 -1.601968e+001 107 76 48
3.260416e+000 -1.595295e+000 -1.669283e+001 101 76 54
3.499830e+000 -1.771563e+000 -1.701360e+001 80 53 30
1.964593e+000 -2.095487e+000 -1.693800e+001 136 96 71
-1.178262e+000 -2.229350e+000 -1.629248e+001 122 68 61
1.605170e+000 -2.332791e+000 -1.721422e+001 159 117 92
1.841978e+000 -2.292773e+000 -1.702683e+001 188 149 118
3.173615e+000 -2.279308e+000 -1.748016e+001 78 51 30
4.302287e+000 1.576057e+000 -1.628834e+001 76 52 27
4.037458e+000 1.490502e+000 -1.610569e+001 115 76 43
3.231358e+000 1.035826e+000 -1.561329e+001 133 99 67
3.952939e+000 1.238495e+000 -1.586289e+001 123 89 56
3.677728e+000 1.035747e+000 -1.566115e+001 142 107 79
3.487654e+000 3.181229e-001 -1.504732e+001 83 49 24
3.463160e+000 2.618182e-001 -1.503064e+001 131 95 59
4.380802e+000 1.772751e-001 -1.521120e+001 99 63 31
2.340247e+000 -3.653495e-001 -1.479603e+001 108 78 52
3.405210e+000 -3.336065e-001 -1.512592e+001 69 44 23
4.391489e+000 -3.151046e-001 -1.539687e+001 116 86 58
1.775253e+000 -4.128254e-001 -1.550069e+001 84 44 32
2.051231e+000 -4.583865e-001 -1.507992e+001 161 110 36
2.766272e+000 -5.516210e-001 -1.479269e+001 76 62 35
2.282733e+000 -5.849107e-001 -1.500450e+001 118 84 56
2.323190e+000 -6.300421e-001 -1.505158e+001 170 139 111
3.768828e+000 -4.696956e-001 -1.540074e+001 104 74 48
2.272752e+000 -6.663119e-001 -1.517935e+001 120 85 58
2.713750e+000 -7.938679e-001 -1.488863e+001 32 22 14
3.421891e+000 -7.150851e-001 -1.559508e+001 103 79 55
9.423929e-001 -1.139389e+000 -1.564790e+001 206 147 133
1.533750e+000 -1.109813e+000 -1.583367e+001 130 58 56
1.533750e+000 -1.109813e+000 -1.583367e+001 130 58 56
1.735580e+000 -1.339633e+000 -1.600207e+001 111 43 44
3.144758e+000 -1.396299e+000 -1.634923e+001 62 39 16
2.082230e+000 -1.672852e+000 -1.616471e+001 90 63 41
2.250679e+000 -1.533584e+000 -1.607268e+001 79 67 50
2.120639e+000 -1.767677e+000 -1.643699e+001 134 109 87
2.144830e+000 -1.987000e+000 -1.673244e+001 60 51 36
4.045788e+000 -1.945715e+000 -1.745570e+001 133 102 71
1.587686e+000 -2.195977e+000 -1.700637e+001 133 60 58
1.587800e+000 -2.196721e+000 -1.701864e+001 133 60 58
1.740415e+000 -2.303200e+000 -1.716376e+001 188 148 118
2.757240e+000 -2.348381e+000 -1.743751e+001 73 48 27
2.629914e+000 -2.568938e+000 -1.776617e+001 119 97 73
3.321096e+000 8.354367e-001 -1.543762e+001 117 82 50
2.927671e+000 5.277426e-001 -1.504930e+001 191 158 125
1.673620e+000 3.068247e-002 -1.547505e+001 206 157 112
1.519611e+000 -1.514221e-001 -1.550341e+001 156 75 69
2.068366e+000 -2.402274e-001 -1.506314e+001 182 158 124
2.446616e+000 -3.936810e-001 -1.479385e+001 38 25 16
3.150729e+000 -3.281910e-001 -1.503083e+001 69 47 24
4.260944e+000 -3.870950e-001 -1.557132e+001 104 77 50
1.703948e+000 -9.040569e-001 -1.586340e+001 123 66 55
3.794672e+000 -1.348757e+000 -1.657743e+001 64 39 15
2.227706e+000 -1.626888e+000 -1.611644e+001 72 57 41
2.902904e+000 -1.572751e+000 -1.652496e+001 67 41 24
-1.190647e+000 -2.193922e+000 -1.627195e+001 126 78 66
3.125138e+000 6.507383e-001 -1.526487e+001 152 116 81
4.094397e+000 6.964273e-001 -1.545164e+001 161 122 83
1.473616e+000 6.574296e-001 -1.617418e+001 101 85 49
3.005244e+000 -6.021045e-001 -1.523274e+001 104 82 59
3.513972e+000 -5.578818e-001 -1.543545e+001 69 47 26
2.745798e+000 -7.190476e-001 -1.490908e+001 71 59 43
3.773853e+000 -6.332182e-001 -1.568475e+001 102 78 50
3.627542e+000 -1.147239e+000 -1.623914e+001 106 79 52
3.239182e+000 -1.233531e+000 -1.619475e+001 113 87 61
2.870682e+000 -1.906553e+000 -1.672245e+001 112 82 58
3.854370e+000 -2.364377e+000 -1.794909e+001 100 72 45
2.453913e+000 1.471359e+000 -1.580603e+001 90 75 54
2.242845e+000 3.997599e-001 -1.481952e+001 220 186 148
3.574015e+000 6.529414e-001 -1.532545e+001 125 89 55
2.600006e+000 2.943702e-001 -1.486559e+001 74 61 40
3.346349e+000 -4.483566e-002 -1.496762e+001 106 75 46
1.095054e+000 -4.563651e-001 -1.565346e+001 177 109 100
3.752086e+000 -1.029143e+000 -1.618363e+001 103 76 49
1.743915e+000 -1.727205e+000 -1.638583e+001 165 110 101
3.699181e+000 -1.644614e+000 -1.690895e+001 115 88 61
-4.383630e-001 -1.992784e+000 -1.630071e+001 112 75 57
1.486817e+000 -1.989168e+000 -1.652542e+001 130 57 62
4.301195e+000 -2.250643e+000 -1.815798e+001 107 79 41
3.830378e+000 4.745478e-002 -1.506667e+001 69 43 18
1.939934e+000 -3.289508e-001 -1.524544e+001 148 99 33
