ply
format ascii 1.0
element face 0
property list uchar int vertex_indices
element vertex 878
property float x
property float y
property float z
property uchar diffuse_red
property uchar diffuse_green
property uchar diffuse_blue
end_header
3.483426e+000 -1.862254e+000 -1.729172e+001 96 66 42
2.723352e+000 -2.224240e+000 -1.737904e+001 86 58 44
1.838172e+000 -2.290770e+000 -1.717937e+001 216 185 164
3.939836e+000 -5.438175e-001 -1.578751e+001 154 120 92
2.250353e+000 -1.542860e+000 -1.625475e+001 51 40 33
2.883718e+000 -1.671484e+000 -1.677008e+001 125 97 75
3.015052e+000 -1.753369e+000 -1.694028e+001 88 61 40
3.006328e+000 -1.758488e+000 -1.693355e+001 88 61 40
-4.603654e-001 -1.891674e+000 -1.619345e+001 133 91 66
2.045069e+000 -2.032668e+000 -1.688272e+001 228 200 181
6.697592e-001 -1.275755e+000 -1.644683e+001 79 45 42
3.433731e+000 -1.469559e+000 -1.674536e+001 123 96 73
3.501811e-001 -1.575063e+000 -1.644183e+001 181 149 128
1.662397e+000 -2.063573e+000 -1.701204e+001 143 66 70
3.760376e+000 -7.115435e-001 -1.592041e+001 103 75 51
3.559927e+000 -7.431845e-001 -1.584423e+001 133 104 80
3.385878e+000 -7.889169e-001 -1.585322e+001 123 91 66
3.815236e+000 -8.052221e-001 -1.606067e+001 95 65 41
3.770630e+000 -9.639971e-001 -1.622214e+001 116 86 60
3.353072e+000 -1.146755e+000 -1.627222e+001 92 62 38
3.769452e+000 -1.124242e+000 -1.638948e+001 137 108 82
4.268127e+000 -1.126524e+000 -1.666048e+001 86 57 25
3.259311e+000 -1.385274e+000 -1.651874e+001 116 91 68
4.075963e+000 -1.790472e+000 -1.743094e+001 158 129 94
3.130901e+000 -2.359227e-001 -1.513435e+001 155 121 94
3.785591e+000 -2.658411e-001 -1.528832e+001 163 127 93
4.038319e+000 -5.742434e-001 -1.582425e+001 108 78 52
3.842293e+000 -6.931674e-001 -1.593591e+001 99 71 50
3.274372e+000 -1.024380e+000 -1.607244e+001 107 78 48
1.968496e+000 -1.060510e+000 -1.586793e+001 114 102 75
3.162525e+000 -1.593776e+000 -1.681217e+001 102 78 55
3.162525e+000 -1.593776e+000 -1.681217e+001 102 78 55
3.423334e+000 -1.604328e+000 -1.695017e+001 85 56 38
3.428150e+000 -1.604233e+000 -1.696044e+001 85 56 38
-7.064587e-001 -2.075763e+000 -1.629838e+001 129 87 63
1.893447e+000 -2.268568e+000 -1.719017e+001 177 142 122
3.483592e+000 -6.328809e-001 -1.567638e+001 135 104 78
4.030599e+000 -7.259815e-001 -1.604744e+001 151 119 89
3.277897e+000 -1.504689e+000 -1.673446e+001 112 87 67
3.982665e+000 -1.693077e+000 -1.717590e+001 147 117 83
3.426501e+000 -2.063605e+000 -1.747818e+001 131 103 79
3.883570e+000 -1.235068e-001 -1.526300e+001 194 155 119
3.613357e+000 -4.294777e-001 -1.542497e+001 145 112 85
3.825835e+000 -1.009582e+000 -1.627520e+001 140 114 87
3.244696e+000 -1.488240e+000 -1.668277e+001 74 51 35
2.029954e+000 -1.818837e+000 -1.667287e+001 176 138 119
3.129177e+000 -1.829279e+000 -1.715135e+001 132 104 82
3.987964e+000 -1.823474e+000 -1.742825e+001 144 115 83
3.981944e+000 -1.831720e+000 -1.740867e+001 144 115 83
3.633481e+000 -2.088212e-001 -1.520288e+001 180 145 117
4.143031e+000 -1.932590e+000 -1.750108e+001 159 128 81
3.435985e+000 -2.023246e+000 -1.747087e+001 132 104 81
3.309567e+000 -1.521305e+000 -1.679262e+001 90 64 44
2.503406e+000 -1.207319e-001 -1.488488e+001 129 111 87
4.552086e+000 1.427168e-001 -1.520229e+001 232 203 145
2.281186e+000 -2.074822e-001 -1.500846e+001 133 100 72
2.562056e+000 -2.950493e-001 -1.495919e+001 82 63 44
3.380263e+000 -7.431317e-002 -1.517487e+001 142 106 74
2.439912e+000 -3.998259e-001 -1.500429e+001 153 121 87
2.336371e+000 -5.616743e-001 -1.507636e+001 216 185 153
2.755944e+000 -8.801082e-001 -1.523106e+001 99 77 55
2.314486e+000 -7.097195e-001 -1.528700e+001 233 203 174
3.716461e+000 -5.254616e-001 -1.562033e+001 106 74 44
4.690401e+000 -1.906110e+000 -1.530343e+001 222 187 130
2.290432e+000 -9.226097e-001 -1.555613e+001 173 142 113
3.870866e+000 -6.588622e-001 -1.590354e+001 96 66 42
4.647819e+000 -1.916125e+000 -1.538072e+001 154 122 75
2.247044e+000 -9.397626e-001 -1.564681e+001 117 88 58
3.764913e+000 -7.088533e-001 -1.595103e+001 88 60 36
4.692586e+000 -2.097714e+000 -1.551023e+001 135 101 61
1.975024e+000 -6.767123e-001 -1.578973e+001 154 119 99
1.705516e+000 -8.431123e-001 -1.590145e+001 170 114 100
2.276267e+000 -1.159441e+000 -1.585877e+001 129 98 70
2.609359e+000 -1.036699e+000 -1.587802e+001 71 55 34
8.740948e-001 -8.001138e-001 -1.599040e+001 157 101 86
1.375473e+000 -1.230140e+000 -1.583436e+001 189 110 115
1.714239e+000 -1.070047e+000 -1.591256e+001 166 82 88
1.838054e+000 -1.014363e+000 -1.596922e+001 154 94 82
3.433564e+000 -1.099747e+000 -1.622935e+001 103 73 45
1.426582e+000 -1.280465e+000 -1.590464e+001 135 56 51
1.811848e+000 -1.255503e+000 -1.603419e+001 160 73 81
1.345898e+000 -1.316389e+000 -1.605295e+001 122 59 54
1.407337e+000 -1.355505e+000 -1.594493e+001 203 155 133
1.381404e+000 -1.388906e+000 -1.606357e+001 148 91 80
1.832806e+000 -1.320661e+000 -1.608543e+001 199 121 125
2.696071e+000 -1.352068e+000 -1.628433e+001 156 129 108
2.915437e+000 -1.300043e+000 -1.629654e+001 86 57 33
1.871533e+000 -1.437024e+000 -1.621083e+001 161 92 92
2.551885e+000 -1.431610e+000 -1.629668e+001 58 40 19
3.177928e+000 -1.405683e+000 -1.651258e+001 106 78 56
3.527155e+000 -1.302918e+000 -1.653718e+001 85 57 33
4.266105e+000 -1.212645e+000 -1.669525e+001 140 108 60
1.847752e+000 -1.570367e+000 -1.631982e+001 183 115 116
3.251863e+000 -1.463300e+000 -1.664386e+001 68 42 24
3.401850e+000 -1.420922e+000 -1.664597e+001 77 50 29
3.397767e+000 -1.431527e+000 -1.663709e+001 77 50 29
1.584533e+000 -1.695253e+000 -1.629434e+001 187 138 117
2.353152e+000 -1.633180e+000 -1.647200e+001 42 28 20
3.667443e+000 -1.451640e+000 -1.682256e+001 103 76 49
-6.122370e-001 -1.502003e+000 -1.614428e+001 148 114 87
1.519306e+000 -1.816273e+000 -1.641405e+001 207 147 136
2.197196e+000 -1.710505e+000 -1.654665e+001 39 25 15
-1.561130e-001 -1.618533e+000 -1.637172e+001 89 57 36
2.231675e+000 -1.730540e+000 -1.661941e+001 39 25 19
2.661075e+000 -1.748912e+000 -1.681325e+001 132 104 83
3.077472e+000 -1.664026e+000 -1.684911e+001 103 77 54
3.441885e+000 -1.596558e+000 -1.692300e+001 112 82 58
3.719705e+000 -1.569138e+000 -1.699996e+001 95 64 35
-7.944392e-001 -1.948060e+000 -1.620412e+001 150 107 79
2.389632e+000 -1.820968e+000 -1.685276e+001 94 81 65
1.693185e+000 -1.972184e+000 -1.670319e+001 170 100 101
2.254032e+000 -1.888726e+000 -1.682948e+001 158 143 124
3.471635e+000 -1.779339e+000 -1.714398e+001 102 72 44
3.653392e+000 -1.738843e+000 -1.725319e+001 90 58 31
-5.277305e-001 -2.138234e+000 -1.628970e+001 124 86 65
1.713848e+000 -1.934479e+000 -1.685473e+001 115 60 57
2.543663e+000 -1.981087e+000 -1.709012e+001 160 136 112
2.958341e+000 -1.950325e+000 -1.721263e+001 98 68 44
3.041266e+000 -1.959699e+000 -1.724957e+001 77 51 26
3.249004e+000 -2.022907e+000 -1.738294e+001 114 84 60
3.429552e+000 -1.998530e+000 -1.742071e+001 100 66 38
3.429798e+000 -1.998000e+000 -1.742126e+001 100 66 38
3.776859e+000 -1.954239e+000 -1.752276e+001 89 58 30
1.265495e+000 -1.955805e+000 -1.713332e+001 154 84 82
1.298743e+000 -2.009766e+000 -1.713081e+001 152 62 72
1.512984e+000 -2.035004e+000 -1.719065e+001 194 149 121
1.892658e+000 -2.194277e+000 -1.704496e+001 168 129 98
2.904556e+000 -2.095725e+000 -1.731927e+001 86 59 38
2.960406e+000 -2.104174e+000 -1.736299e+001 78 49 27
3.492909e+000 -2.042905e+000 -1.746572e+001 117 86 56
3.566287e+000 -2.000968e+000 -1.748531e+001 111 81 54
1.821934e+000 -2.243686e+000 -1.718053e+001 225 187 151
1.866438e+000 -2.241462e+000 -1.712959e+001 183 149 116
1.923429e+000 -2.249082e+000 -1.715075e+001 182 142 108
3.669324e+000 -2.112193e+000 -1.760758e+001 89 67 45
1.827717e+000 -2.314599e+000 -1.735132e+001 147 105 81
3.550937e+000 -2.222788e+000 -1.773866e+001 113 82 56
2.297772e+000 -2.664765e+000 -1.724632e+001 58 44 33
2.467203e+000 -2.605908e-001 -1.486260e+001 79 58 37
2.352465e+000 -2.658041e-001 -1.489484e+001 192 159 128
2.335002e+000 -4.931229e-001 -1.501354e+001 172 142 111
2.348580e+000 -4.981574e-001 -1.505152e+001 231 203 174
4.210261e+000 -1.729801e-001 -1.541431e+001 118 80 43
3.780753e+000 -3.592830e-001 -1.540873e+001 115 82 51
4.635336e+000 -1.298863e+000 -1.522022e+001 161 125 77
3.814564e+000 -4.202244e-001 -1.552824e+001 112 77 47
2.270162e+000 -5.587159e-001 -1.532351e+001 170 132 100
3.893132e+000 -4.974232e-001 -1.568509e+001 95 64 36
2.098602e+000 -7.759486e-001 -1.557496e+001 184 149 120
2.796881e+000 -7.373952e-001 -1.567139e+001 127 104 86
3.696396e+000 -6.743247e-001 -1.585622e+001 84 54 30
3.843306e+000 -6.646366e-001 -1.591407e+001 116 86 60
1.970631e+000 -6.562876e-001 -1.566232e+001 139 98 78
2.276944e+000 -9.536871e-001 -1.563729e+001 195 166 134
3.570991e+000 -7.514239e-001 -1.587906e+001 87 58 28
3.570991e+000 -7.514239e-001 -1.587906e+001 87 58 28
3.761919e+000 -8.509804e-001 -1.610376e+001 95 63 38
1.373770e+000 -7.655879e-001 -1.584624e+001 159 90 78
2.090097e+000 -1.194526e+000 -1.582379e+001 71 62 45
9.560856e-001 -9.461578e-001 -1.590302e+001 185 131 117
2.005761e+000 -1.304666e+000 -1.589056e+001 160 122 65
2.089559e+000 -1.300799e+000 -1.590418e+001 172 137 100
2.776257e+000 -1.216335e+000 -1.598006e+001 136 109 82
3.869959e+000 -1.060921e+000 -1.635305e+001 128 96 71
1.298216e+000 -1.327223e+000 -1.584299e+001 201 145 130
1.175535e+000 -1.317249e+000 -1.599419e+001 154 97 88
1.418745e+000 -1.431427e+000 -1.594898e+001 202 155 135
1.581490e+000 -1.487616e+000 -1.600230e+001 182 126 114
2.174042e+000 -1.493992e+000 -1.612221e+001 248 223 204
3.059345e+000 -1.308781e+000 -1.634691e+001 106 72 47
3.273893e+000 -1.229846e+000 -1.634125e+001 116 86 62
1.449941e+000 -1.458836e+000 -1.611000e+001 142 90 76
1.533761e+000 -1.504658e+000 -1.602630e+001 194 152 133
1.484521e+000 -1.464333e+000 -1.611755e+001 148 95 82
1.484625e+000 -1.465375e+000 -1.611703e+001 148 95 82
2.187247e+000 -1.526911e+000 -1.618035e+001 139 105 73
2.146024e+000 -1.531170e+000 -1.620119e+001 140 105 78
3.343525e+000 -1.368247e+000 -1.653192e+001 87 57 33
1.985686e+000 -1.567477e+000 -1.634448e+001 82 73 55
3.404592e+000 -1.411359e+000 -1.661938e+001 99 73 49
3.747996e+000 -1.358505e+000 -1.669409e+001 103 76 49
3.751133e+000 -1.349920e+000 -1.669894e+001 103 76 49
1.641352e+000 -1.711450e+000 -1.628328e+001 152 96 87
2.032169e+000 -1.743248e+000 -1.627204e+001 94 81 62
3.396268e+000 -1.516947e+000 -1.679350e+001 77 51 29
3.588684e+000 -1.436420e+000 -1.689106e+001 130 100 71
1.480547e+000 -1.662205e+000 -1.641689e+001 145 65 68
1.552438e+000 -1.704683e+000 -1.636787e+001 214 168 139
1.552438e+000 -1.704683e+000 -1.636787e+001 214 168 139
1.488441e+000 -1.727779e+000 -1.642139e+001 195 136 122
1.552264e+000 -1.732275e+000 -1.638768e+001 156 99 82
1.581648e+000 -1.753659e+000 -1.638629e+001 213 167 143
1.581648e+000 -1.753659e+000 -1.638629e+001 213 167 143
1.803861e+000 -1.655496e+000 -1.649919e+001 139 67 72
1.854410e+000 -1.690924e+000 -1.651074e+001 161 113 102
2.242325e+000 -1.699766e+000 -1.651414e+001 45 28 18
2.242325e+000 -1.699766e+000 -1.651414e+001 45 28 18
3.024236e+000 -1.616827e+000 -1.671802e+001 72 45 25
3.214966e+000 -1.545006e+000 -1.678067e+001 81 53 29
3.400358e+000 -1.539542e+000 -1.686698e+001 75 47 25
3.701439e+000 -1.483093e+000 -1.690364e+001 93 62 36
3.704765e+000 -1.554191e+000 -1.695842e+001 118 87 58
-2.562090e-001 -1.699255e+000 -1.625194e+001 73 42 24
-2.731262e-001 -1.712451e+000 -1.627421e+001 105 71 51
-2.843420e-001 -1.766604e+000 -1.627210e+001 85 52 37
1.949983e+000 -1.695748e+000 -1.658415e+001 137 88 81
1.949643e+000 -1.703521e+000 -1.657822e+001 137 88 81
3.226323e+000 -1.672376e+000 -1.692151e+001 78 48 24
3.274158e+000 -1.741260e+000 -1.683568e+001 115 85 61
1.345349e+000 -1.932056e+000 -1.655570e+001 184 138 123
2.101673e+000 -1.869454e+000 -1.665675e+001 136 104 76
2.934865e+000 -1.789701e+000 -1.694938e+001 88 58 32
3.287395e+000 -1.796131e+000 -1.699787e+001 83 53 29
1.368626e+000 -1.965541e+000 -1.663219e+001 168 120 110
1.437522e+000 -1.995329e+000 -1.665926e+001 144 85 81
1.593648e+000 -1.981234e+000 -1.674140e+001 159 93 95
2.005635e+000 -1.958705e+000 -1.682052e+001 149 108 82
3.587978e+000 -1.803243e+000 -1.727878e+001 98 67 39
3.690172e+000 -1.717676e+000 -1.723313e+001 87 56 28
-2.604636e-002 -1.793188e+000 -1.666325e+001 52 29 21
1.012216e+000 -1.508742e+000 -1.708974e+001 186 106 112
3.324076e+000 -1.853303e+000 -1.722807e+001 80 52 28
-9.456646e-001 -2.199908e+000 -1.630484e+001 146 65 76
-7.785591e-001 -2.280900e+000 -1.635718e+001 161 94 96
1.735462e+000 -2.026818e+000 -1.710516e+001 104 47 29
2.035804e+000 -2.128883e+000 -1.692564e+001 229 201 172
2.034597e+000 -2.136392e+000 -1.691895e+001 229 201 172
2.084111e+000 -2.113048e+000 -1.696635e+001 145 110 78
3.008365e+000 -1.961382e+000 -1.725853e+001 73 45 23
3.072248e+000 -2.013077e+000 -1.728677e+001 111 83 59
3.092703e+000 -2.015839e+000 -1.731770e+001 89 61 36
3.182299e+000 -1.982679e+000 -1.732479e+001 88 60 36
3.408783e+000 -1.952695e+000 -1.736863e+001 99 68 39
3.461062e+000 -1.981143e+000 -1.736858e+001 120 88 62
3.524527e+000 -1.971554e+000 -1.743260e+001 116 83 52
-8.376857e-001 -2.319243e+000 -1.648161e+001 129 54 66
1.413688e+000 -1.968343e+000 -1.710733e+001 158 93 89
1.482393e+000 -2.006211e+000 -1.716137e+001 182 136 113
1.628903e+000 -2.175706e+000 -1.709257e+001 194 152 135
1.628903e+000 -2.175706e+000 -1.709257e+001 194 152 135
1.759778e+000 -2.042371e+000 -1.710982e+001 212 170 141
1.790746e+000 -2.089118e+000 -1.716870e+001 204 160 108
2.854329e+000 -2.089700e+000 -1.727725e+001 75 48 29
3.139601e+000 -2.122894e+000 -1.743627e+001 105 78 53
3.376660e+000 -2.069159e+000 -1.745792e+001 89 59 33
3.398737e+000 -2.084458e+000 -1.749946e+001 97 63 36
3.751805e+000 -2.103431e+000 -1.756178e+001 101 73 49
1.614046e+000 -2.149051e+000 -1.720484e+001 185 141 116
1.560341e+000 -2.157384e+000 -1.728755e+001 176 131 110
1.758611e+000 -2.182435e+000 -1.716259e+001 209 171 137
2.014871e+000 -2.315145e+000 -1.710983e+001 170 139 110
3.662633e+000 -2.178268e+000 -1.767879e+001 94 63 37
-7.057043e-001 -2.369223e+000 -1.666634e+001 116 71 68
1.960942e+000 -2.449677e+000 -1.727273e+001 250 228 202
2.003791e+000 -2.460118e+000 -1.727078e+001 139 107 80
2.049860e+000 -2.375618e+000 -1.727818e+001 121 91 66
2.297226e+000 -2.544721e+000 -1.716407e+001 145 132 113
3.239579e+000 -2.284437e+000 -1.761022e+001 68 41 18
3.667293e+000 -2.196686e+000 -1.773141e+001 97 66 38
1.978415e+000 -2.476135e+000 -1.734113e+001 124 91 66
1.959082e+000 -2.465156e+000 -1.738455e+001 176 149 120
3.077768e+000 -2.330497e+000 -1.761543e+001 109 79 53
1.795718e+000 -2.440125e+000 -1.759778e+001 145 111 83
1.906496e+000 -2.490884e+000 -1.747491e+001 250 224 200
1.906496e+000 -2.490884e+000 -1.747491e+001 250 224 200
2.140710e+000 -2.564958e+000 -1.752520e+001 65 52 35
2.396728e+000 -3.311328e-001 -1.486421e+001 199 165 137
2.308656e+000 -2.899767e-001 -1.505294e+001 159 124 104
2.020063e+000 -9.637824e-002 -1.528698e+001 183 153 117
2.035849e+000 -2.978030e-001 -1.530380e+001 204 160 93
2.269903e+000 -5.164448e-001 -1.523801e+001 183 145 113
2.603756e+000 -8.583568e-001 -1.514064e+001 110 95 72
3.692943e+000 -4.359397e-001 -1.549449e+001 107 71 45
2.316730e+000 -7.074604e-001 -1.533903e+001 253 223 195
3.797501e+000 -4.541897e-001 -1.558500e+001 98 67 38
1.965526e+000 -3.588789e-001 -1.549862e+001 179 126 52
4.393820e+000 -4.066152e-001 -1.591015e+001 86 54 25
4.659685e+000 -1.903009e+000 -1.534106e+001 163 128 80
1.714742e+000 -2.759261e-001 -1.563018e+001 179 85 86
2.255345e+000 -8.858624e-001 -1.555507e+001 219 191 165
2.878428e+000 -7.986693e-001 -1.564019e+001 123 96 75
3.746819e+000 -6.523131e-001 -1.584407e+001 85 55 31
3.879476e+000 -6.074895e-001 -1.584730e+001 90 60 34
1.725596e+000 -4.361670e-001 -1.580054e+001 134 53 50
3.526175e+000 -7.819861e-001 -1.591135e+001 117 87 59
3.726694e+000 -7.302961e-001 -1.592469e+001 106 78 52
3.984452e+000 -7.348935e-001 -1.604752e+001 91 60 29
3.985335e+000 -7.344847e-001 -1.604728e+001 91 60 29
2.496415e+000 -9.282060e-001 -1.580069e+001 81 64 44
3.630551e+000 -8.519980e-001 -1.605519e+001 89 57 29
3.786744e+000 -7.923457e-001 -1.604227e+001 130 96 71
4.088839e+000 -8.322792e-001 -1.619899e+001 118 82 45
3.264330e+000 -9.765584e-001 -1.606703e+001 126 92 65
3.492076e+000 -9.492554e-001 -1.609133e+001 102 68 40
1.399979e+000 -1.133393e+000 -1.583934e+001 196 116 120
1.809141e+000 -1.058364e+000 -1.592741e+001 188 132 117
2.047665e+000 -1.216250e+000 -1.585695e+001 80 68 48
2.204687e+000 -1.283221e+000 -1.591096e+001 219 192 169
1.204064e+000 -1.377322e+000 -1.585915e+001 130 60 58
1.346082e+000 -1.302564e+000 -1.584070e+001 189 129 121
1.445744e+000 -1.385262e+000 -1.586592e+001 206 158 141
2.012733e+000 -1.365032e+000 -1.589716e+001 203 170 124
3.290417e+000 -1.132041e+000 -1.623369e+001 98 69 38
3.278429e+000 -1.152711e+000 -1.626221e+001 134 103 74
3.766772e+000 -1.090137e+000 -1.634595e+001 124 92 61
3.818101e+000 -1.131713e+000 -1.641762e+001 131 98 65
1.244279e+000 -1.317695e+000 -1.602390e+001 129 58 61
1.460968e+000 -1.468637e+000 -1.600849e+001 143 67 69
1.542015e+000 -1.444045e+000 -1.597057e+001 148 80 79
1.671208e+000 -1.444221e+000 -1.607473e+001 127 64 53
3.742456e+000 -1.185612e+000 -1.644306e+001 105 72 44
3.744258e+000 -1.183171e+000 -1.644384e+001 105 72 44
1.385920e+000 -1.383613e+000 -1.611434e+001 141 77 73
1.385946e+000 -1.391133e+000 -1.611084e+001 141 77 73
1.701266e+000 -1.520246e+000 -1.617120e+001 160 106 100
3.217397e+000 -1.364647e+000 -1.647848e+001 114 88 65
3.519794e+000 -1.373467e+000 -1.657917e+001 86 56 28
1.497626e+000 -1.445908e+000 -1.620665e+001 127 60 57
3.114629e+000 -1.443483e+000 -1.654329e+001 100 74 51
1.805965e+000 -1.677830e+000 -1.638225e+001 178 124 114
1.867921e+000 -1.601092e+000 -1.635246e+001 147 86 88
1.884585e+000 -1.632590e+000 -1.636588e+001 52 44 27
1.956382e+000 -1.697990e+000 -1.636619e+001 66 58 40
3.428090e+000 -1.486668e+000 -1.678922e+001 113 81 57
5.991692e-002 -1.302379e+000 -1.642188e+001 196 190 176
3.417899e+000 -1.537504e+000 -1.684299e+001 101 74 47
3.436371e+000 -1.508944e+000 -1.682459e+001 74 48 23
-4.412669e-001 -1.698151e+000 -1.621810e+001 120 84 60
1.478927e+000 -1.867028e+000 -1.637485e+001 156 94 87
1.897846e+000 -1.739599e+000 -1.657687e+001 189 141 129
1.999218e+000 -1.776587e+000 -1.666815e+001 155 113 96
2.069147e+000 -1.847235e+000 -1.664741e+001 247 226 205
2.170639e+000 -1.774879e+000 -1.666019e+001 42 24 13
3.215353e+000 -1.649551e+000 -1.687865e+001 69 41 17
3.453718e+000 -1.623008e+000 -1.702571e+001 84 52 28
1.808516e+000 -1.879498e+000 -1.672733e+001 180 122 110
2.059356e+000 -1.912937e+000 -1.672367e+001 229 201 180
2.902715e+000 -1.822672e+000 -1.698390e+001 89 60 32
2.058090e+000 -1.940892e+000 -1.676743e+001 243 217 194
3.165215e+000 -1.853536e+000 -1.715171e+001 78 51 29
3.440740e+000 -1.842499e+000 -1.719678e+001 78 50 26
-4.135604e-001 -2.159434e+000 -1.638731e+001 113 78 59
3.043597e+000 -1.889539e+000 -1.715223e+001 85 57 35
3.711094e+000 -1.833472e+000 -1.737783e+001 76 49 27
3.711094e+000 -1.833472e+000 -1.737783e+001 76 49 27
-7.709594e-001 -2.208740e+000 -1.640324e+001 128 68 61
1.747921e+000 -2.027271e+000 -1.702176e+001 133 82 65
1.803918e+000 -1.977102e+000 -1.702961e+001 127 71 54
1.832813e+000 -2.005646e+000 -1.704226e+001 189 148 126
2.098636e+000 -2.154291e+000 -1.697809e+001 134 99 66
2.632889e+000 -1.990297e+000 -1.714628e+001 149 119 95
3.230838e+000 -2.016439e+000 -1.737212e+001 118 88 61
3.665444e+000 -1.957727e+000 -1.748243e+001 116 85 56
3.704071e+000 -1.967708e+000 -1.751312e+001 82 52 25
-7.666261e-001 -2.326731e+000 -1.643584e+001 150 89 88
-7.666261e-001 -2.326731e+000 -1.643584e+001 150 89 88
-6.809585e-001 -2.304106e+000 -1.655514e+001 97 53 41
7.771332e-001 -1.295742e+000 -1.766979e+001 125 67 65
1.444500e+000 -2.018917e+000 -1.716206e+001 138 72 63
1.591621e+000 -2.120823e+000 -1.708649e+001 203 156 140
1.826655e+000 -2.136758e+000 -1.708462e+001 151 110 78
2.611755e+000 -2.104400e+000 -1.720647e+001 146 118 96
3.148890e+000 -2.076669e+000 -1.737972e+001 124 94 68
3.336062e+000 -2.032445e+000 -1.743075e+001 102 71 43
3.587521e+000 -2.010288e+000 -1.749908e+001 82 52 24
3.658803e+000 -2.077857e+000 -1.757061e+001 86 56 32
3.736055e+000 -2.064068e+000 -1.761519e+001 80 52 28
-5.903046e-001 -2.290239e+000 -1.669639e+001 78 46 31
1.107525e+000 -2.083886e+000 -1.717705e+001 176 127 113
1.384590e+000 -2.135843e+000 -1.722467e+001 175 120 115
1.427789e+000 -2.125961e+000 -1.726671e+001 159 106 97
1.576292e+000 -2.146412e+000 -1.725134e+001 145 97 79
3.175629e+000 -2.278660e+000 -1.761391e+001 73 48 23
1.827477e+000 -2.449115e+000 -1.759499e+001 122 88 62
1.939807e+000 -2.479798e+000 -1.751687e+001 150 123 96
1.965816e+000 -2.514681e+000 -1.752344e+001 124 95 71
2.313550e+000 -2.546193e+000 -1.757538e+001 47 41 29
1.921765e+000 -2.483300e+000 -1.768209e+001 124 98 80
2.335012e+000 -2.218367e-001 -1.488674e+001 140 107 76
2.299392e+000 -3.130977e-001 -1.496518e+001 159 125 100
3.896539e+000 1.860308e-002 -1.530598e+001 143 103 67
2.345081e+000 -3.906985e-001 -1.495369e+001 136 103 78
2.290130e+000 -4.307568e-001 -1.510839e+001 161 128 100
3.355448e+000 -4.469378e-001 -1.535654e+001 114 80 53
3.457061e+000 -5.636376e-001 -1.558244e+001 90 58 33
3.875272e+000 -4.929912e-001 -1.564712e+001 94 62 36
4.013870e+000 -4.310597e-001 -1.572716e+001 88 54 27
4.678277e+000 -1.777338e+000 -1.521333e+001 158 126 79
2.269023e+000 -7.410809e-001 -1.542181e+001 137 100 71
2.232977e+000 -8.676477e-001 -1.551554e+001 147 113 85
4.660913e+000 -1.988957e+000 -1.537008e+001 220 184 130
2.333611e+000 -1.073578e+000 -1.574052e+001 79 56 37
2.333611e+000 -1.073578e+000 -1.574052e+001 79 56 37
3.901050e+000 -7.881838e-001 -1.608637e+001 87 56 35
1.292247e+000 -1.025116e+000 -1.574972e+001 155 77 73
1.483926e+000 -7.469282e-001 -1.585688e+001 140 59 55
1.969739e+000 -1.003189e+000 -1.586092e+001 106 95 67
2.248395e+000 -1.090984e+000 -1.578160e+001 199 173 149
3.031960e+000 -9.803879e-001 -1.599723e+001 83 53 28
3.320725e+000 -9.270413e-001 -1.609100e+001 88 54 30
3.930271e+000 -9.198634e-001 -1.623197e+001 89 57 32
3.983899e+000 -9.142254e-001 -1.627506e+001 142 107 80
1.060940e+000 -1.115656e+000 -1.574618e+001 206 146 135
1.401167e+000 -1.123398e+000 -1.582184e+001 191 112 117
1.653414e+000 -1.088954e+000 -1.591192e+001 185 100 106
3.887523e+000 -1.048188e+000 -1.631999e+001 86 56 32
1.187563e+000 -1.342036e+000 -1.584014e+001 203 144 136
1.256449e+000 -1.361183e+000 -1.587646e+001 145 86 75
1.714333e+000 -1.316883e+000 -1.597656e+001 192 137 127
1.098359e+000 -1.303367e+000 -1.597675e+001 158 101 90
1.891192e+000 -1.400304e+000 -1.613632e+001 138 68 56
2.030949e+000 -1.460669e+000 -1.600906e+001 166 133 105
4.124270e+000 -1.228618e+000 -1.654541e+001 149 113 71
1.611265e+000 -1.727503e+000 -1.633163e+001 189 144 121
3.354931e+000 -1.488452e+000 -1.674380e+001 104 76 54
-4.047868e-001 -1.458939e+000 -1.628150e+001 151 109 69
1.810924e+000 -1.687204e+000 -1.652493e+001 126 51 61
3.954740e+000 -1.474957e+000 -1.699501e+001 121 85 51
-8.100789e-001 -1.769993e+000 -1.618349e+001 129 88 62
3.380087e+000 -1.637793e+000 -1.697916e+001 109 78 57
3.495334e+000 -1.635290e+000 -1.705880e+001 135 102 71
1.814966e+000 -1.777560e+000 -1.667420e+001 198 136 128
3.226401e+000 -1.822825e+000 -1.714675e+001 79 53 30
3.604983e+000 -1.822803e+000 -1.721636e+001 98 66 41
3.938706e+000 -1.761326e+000 -1.732372e+001 163 128 90
-1.043854e+000 -2.071033e+000 -1.633804e+001 185 124 119
-8.988472e-001 -2.128238e+000 -1.629937e+001 113 57 47
-5.828777e-001 -2.169713e+000 -1.633433e+001 119 82 64
1.958740e+000 -1.986002e+000 -1.697857e+001 166 125 103
3.281558e+000 -1.879972e+000 -1.724902e+001 112 81 55
3.485427e+000 -1.870562e+000 -1.730677e+001 83 52 26
-7.727185e-001 -2.310559e+000 -1.640157e+001 133 62 66
-7.847725e-001 -2.289274e+000 -1.641945e+001 133 62 66
-7.417394e-001 -2.288590e+000 -1.646984e+001 142 80 84
-7.030266e-001 -2.339406e+000 -1.651151e+001 151 88 93
1.190758e+000 -2.093558e+000 -1.710176e+001 204 150 138
1.689871e+000 -2.118790e+000 -1.706909e+001 193 140 126
1.569702e+000 -2.100250e+000 -1.716749e+001 147 98 82
3.099533e+000 -2.077635e+000 -1.735248e+001 95 67 43
1.348380e+000 -2.093153e+000 -1.729573e+001 118 52 54
3.368161e+000 -2.162225e+000 -1.755519e+001 86 54 30
3.936078e+000 -2.140213e+000 -1.765888e+001 143 109 71
1.457578e+000 -2.106832e+000 -1.741397e+001 167 114 100
1.537073e+000 -2.098993e+000 -1.751417e+001 153 116 89
2.283690e+000 -2.523120e+000 -1.713627e+001 38 29 24
3.101991e+000 -2.300041e+000 -1.759730e+001 67 42 20
3.547298e+000 -2.281078e+000 -1.773663e+001 115 84 56
1.911864e+000 -2.427179e+000 -1.732276e+001 160 125 97
3.354581e+000 -2.289651e+000 -1.773687e+001 94 64 40
3.362792e+000 -2.343968e+000 -1.796719e+001 86 60 35
2.362960e+000 -4.053513e-001 -1.500611e+001 245 217 195
2.353208e+000 -4.610770e-001 -1.497996e+001 245 217 195
3.408848e+000 -2.401214e-001 -1.522233e+001 102 67 35
3.461627e+000 -2.378284e-001 -1.526254e+001 160 124 92
2.263228e+000 -4.645294e-001 -1.519352e+001 184 147 118
3.809399e+000 -3.117802e-001 -1.536959e+001 105 69 42
2.683513e+000 -8.963206e-001 -1.513560e+001 86 69 51
3.828120e+000 -3.800469e-001 -1.546156e+001 102 67 39
4.666440e+000 -1.822672e+000 -1.525875e+001 164 132 83
2.290715e+000 -8.229209e-001 -1.543858e+001 230 206 181
2.367337e+000 -8.171689e-001 -1.556760e+001 102 71 45
2.338939e+000 -9.417784e-001 -1.564649e+001 56 38 21
3.163635e+000 -8.277523e-001 -1.588013e+001 98 68 44
3.553438e+000 -8.030424e-001 -1.594638e+001 79 47 22
2.160927e+000 -1.175357e+000 -1.570295e+001 62 53 27
3.363224e+000 -8.698575e-001 -1.599534e+001 106 74 44
1.936183e+000 -7.783236e-001 -1.588902e+001 148 103 84
1.597836e+000 -1.050376e+000 -1.587463e+001 152 71 77
1.262635e+000 -1.336583e+000 -1.583614e+001 200 142 131
1.870614e+000 -1.294568e+000 -1.597355e+001 175 112 97
2.192612e+000 -1.398821e+000 -1.607549e+001 228 197 177
2.991940e+000 -1.252133e+000 -1.626762e+001 129 98 70
2.991154e+000 -1.375999e+000 -1.642003e+001 78 53 29
3.116733e+000 -1.327551e+000 -1.641022e+001 71 46 26
9.568903e-001 -1.042759e+000 -1.649192e+001 175 96 100
9.572049e-001 -1.041607e+000 -1.649251e+001 175 96 100
3.343086e+000 -1.432243e+000 -1.664512e+001 117 91 68
3.682026e+000 -1.357548e+000 -1.667622e+001 78 50 28
1.480243e+000 -1.621038e+000 -1.632462e+001 167 116 94
1.999102e+000 -1.754318e+000 -1.634680e+001 118 109 80
1.592767e-001 -1.434023e+000 -1.638587e+001 192 158 131
5.791871e-001 -1.406310e+000 -1.644117e+001 127 85 70
1.987695e+000 -1.784436e+000 -1.643965e+001 60 57 42
2.187458e+000 -1.692564e+000 -1.651037e+001 39 23 15
4.717520e-001 -1.628771e+000 -1.657613e+001 127 81 66
2.915200e+000 -1.888578e+000 -1.705703e+001 110 80 54
4.180030e+000 -1.701364e+000 -1.735088e+001 153 119 70
3.140193e+000 -1.870038e+000 -1.717395e+001 84 56 34
3.178448e-001 -1.577831e+000 -1.719201e+001 133 90 82
1.881436e+000 -2.178783e+000 -1.700964e+001 208 178 149
1.987738e+000 -2.176905e+000 -1.706307e+001 148 108 77
1.334709e+000 -2.126064e+000 -1.718039e+001 175 126 117
1.442767e+000 -2.118609e+000 -1.720761e+001 151 87 85
1.652262e+000 -2.191412e+000 -1.719856e+001 134 85 60
1.652227e+000 -2.193290e+000 -1.719551e+001 134 85 60
3.526006e+000 -2.165631e+000 -1.764973e+001 101 71 43
4.127198e+000 -2.062654e+000 -1.773602e+001 153 120 70
1.598534e+000 -2.228720e+000 -1.738097e+001 126 89 60
1.773947e+000 -2.270691e+000 -1.733897e+001 160 119 89
1.937956e+000 -2.372498e+000 -1.729924e+001 147 113 84
3.139314e+000 -2.250700e+000 -1.758017e+001 109 81 55
3.632912e+000 -2.205216e+000 -1.774323e+001 123 93 68
1.626602e+000 -2.296954e+000 -1.744197e+001 124 89 47
2.829348e+000 -2.363358e+000 -1.766216e+001 90 64 39
3.533618e+000 -2.269862e+000 -1.783415e+001 77 51 28
2.464563e+000 -3.446761e-001 -1.497998e+001 52 28 16
2.680101e+000 -6.919096e-001 -1.500630e+001 145 123 97
4.158760e+000 -1.174197e-001 -1.537263e+001 175 132 93
2.337741e+000 -5.253122e-001 -1.506625e+001 205 174 145
2.347732e+000 -5.864255e-001 -1.523375e+001 210 184 154
4.032793e+000 -6.542032e-001 -1.595864e+001 152 117 87
3.498676e+000 -9.194067e-001 -1.605966e+001 108 74 46
1.637157e+000 -9.300624e-001 -1.587661e+001 213 160 146
3.073199e+000 -1.033885e+000 -1.602235e+001 125 94 66
3.209795e+000 -1.025103e+000 -1.607794e+001 131 96 68
3.745874e+000 -9.767161e-001 -1.621079e+001 102 71 43
4.054047e+000 -9.136174e-001 -1.624373e+001 106 70 42
1.531375e+000 -1.134777e+000 -1.586704e+001 184 105 108
1.879125e+000 -1.017080e+000 -1.594037e+001 178 137 119
2.002755e+000 -1.247610e+000 -1.587466e+001 181 153 117
3.086356e+000 -1.058791e+000 -1.607633e+001 129 98 70
3.400876e+000 -1.062312e+000 -1.618075e+001 95 63 38
3.114187e+000 -1.264887e+000 -1.633024e+001 131 100 72
3.575629e+000 -1.222380e+000 -1.644085e+001 146 114 86
3.510438e+000 -1.300567e+000 -1.649931e+001 65 39 18
3.771437e+000 -1.274380e+000 -1.657599e+001 139 106 78
2.075978e+000 -1.595025e+000 -1.623118e+001 67 58 40
2.091406e+000 -1.700820e+000 -1.624743e+001 95 64 44
4.133863e-001 -1.594598e+000 -1.690108e+001 134 87 77
1.645707e+000 -2.001197e+000 -1.691034e+001 193 141 126
2.961867e+000 -1.871268e+000 -1.712884e+001 75 47 25
-4.259050e-002 -1.701833e+000 -1.694886e+001 192 185 169
3.659138e+000 -1.940655e+000 -1.745838e+001 118 85 58
1.886715e+000 -2.233524e+000 -1.709465e+001 142 97 64
3.428804e+000 -2.042266e+000 -1.745001e+001 122 91 62
-4.806863e-001 -2.279169e+000 -1.669618e+001 70 42 28
1.533292e+000 -2.112229e+000 -1.721708e+001 209 166 134
1.531183e+000 -2.107327e+000 -1.721952e+001 209 166 134
1.757927e+000 -2.399411e+000 -1.742269e+001 145 110 78
1.817243e+000 -2.431298e+000 -1.736968e+001 165 130 103
3.747977e+000 -2.315279e+000 -1.803308e+001 107 79 53
3.790103e+000 -2.217925e+000 -1.835179e+001 138 117 91
2.130822e+000 -2.882157e-001 -1.519327e+001 204 174 140
3.551982e+000 -3.193972e-001 -1.532260e+001 158 125 94
4.123641e+000 -2.726185e-001 -1.549935e+001 157 119 82
3.753728e+000 -4.067125e-001 -1.547805e+001 93 60 35
1.630667e+000 -5.017225e-001 -1.574905e+001 171 87 91
1.964937e+000 -1.257722e+000 -1.597993e+001 159 109 60
2.779234e+000 -1.031338e-001 -1.673526e+001 148 125 94
1.443595e+000 -1.422788e+000 -1.590767e+001 188 141 124
1.772270e+000 -1.315043e+000 -1.604260e+001 124 45 51
1.771838e+000 -1.318978e+000 -1.604088e+001 124 45 51
3.766936e+000 -1.282290e+000 -1.657431e+001 138 104 76
1.925798e+000 -1.593556e+000 -1.634774e+001 47 39 25
2.146014e+000 -1.713149e+000 -1.637026e+001 141 115 93
2.120986e+000 -1.799128e+000 -1.651001e+001 137 110 85
-3.827713e-001 -1.644770e+000 -1.624526e+001 171 139 116
2.160506e+000 -1.904092e+000 -1.672528e+001 59 42 32
1.080518e+000 -1.340722e+000 -1.702663e+001 180 104 109
2.063147e+000 -1.922717e+000 -1.676338e+001 205 173 150
2.145733e+000 -1.993700e+000 -1.685850e+001 57 43 35
3.360395e+000 -1.819791e+000 -1.718308e+001 117 87 59
2.128635e+000 -2.111529e+000 -1.693614e+001 59 40 31
-8.884833e-001 -2.243180e+000 -1.638011e+001 137 59 72
2.038046e+000 -2.140040e+000 -1.697013e+001 203 175 147
3.844129e+000 -1.903013e+000 -1.751368e+001 102 68 39
2.015192e+000 -2.271495e+000 -1.707358e+001 215 186 158
-8.560628e-001 -2.343341e+000 -1.650325e+001 133 60 68
1.997370e+000 -2.335744e+000 -1.721214e+001 191 160 134
1.636160e+000 -2.242890e+000 -1.726532e+001 199 166 133
2.072978e+000 -2.440882e+000 -1.725354e+001 48 31 20
2.165235e+000 -2.474666e+000 -1.726101e+001 84 68 54
2.792759e+000 -2.278919e+000 -1.751079e+001 106 78 54
1.875832e+000 -2.480886e+000 -1.766062e+001 152 128 102
3.427649e+000 8.617993e-002 -1.518393e+001 124 86 51
2.752542e+000 -7.478548e-001 -1.506174e+001 50 38 26
4.127716e+000 -5.366850e-001 -1.584667e+001 107 72 44
3.674701e+000 -6.314820e-001 -1.578527e+001 138 107 76
1.949206e+000 -7.852281e-001 -1.587321e+001 145 98 80
2.119784e+000 -1.221695e+000 -1.582989e+001 87 79 56
1.727719e+000 -1.451301e+000 -1.610304e+001 112 46 46
2.002102e+000 -1.523044e+000 -1.622568e+001 58 44 31
1.578574e+000 -1.634306e+000 -1.623311e+001 161 98 91
1.576756e+000 -1.626679e+000 -1.623891e+001 161 98 91
3.734303e+000 -1.396364e+000 -1.677654e+001 110 83 53
1.958682e+000 -1.702731e+000 -1.647591e+001 85 80 60
2.945664e+000 -1.558110e+000 -1.677081e+001 117 86 64
1.029483e+000 -1.287181e+000 -1.673977e+001 148 66 72
2.191543e+000 -1.803263e+000 -1.662483e+001 57 41 32
-2.250389e-001 -1.916539e+000 -1.631525e+001 111 76 54
1.547109e+000 -1.987402e+000 -1.669473e+001 149 89 89
2.462267e+000 -2.046735e+000 -1.705833e+001 59 43 27
2.433693e+000 -2.215198e+000 -1.708398e+001 53 40 24
3.619348e+000 -2.250887e+000 -1.775848e+001 120 90 62
3.378747e+000 -2.337565e+000 -1.781486e+001 111 87 59
3.464505e+000 -4.085646e-001 -1.537807e+001 151 116 87
2.651738e+000 -8.019536e-001 -1.517239e+001 201 175 140
2.070001e+000 -6.735729e-001 -1.548096e+001 152 106 72
1.589914e+000 -6.768561e-001 -1.585477e+001 127 54 47
1.234391e+000 -1.143626e+000 -1.577188e+001 151 66 66
1.076920e+000 -1.557993e+000 -1.704920e+001 190 105 112
6.468875e-001 -1.124522e+000 -1.786577e+001 191 183 167
6.468875e-001 -1.124522e+000 -1.786577e+001 191 183 167
3.136422e+000 -2.306908e+000 -1.776477e+001 125 94 68
3.726018e+000 -2.299476e+000 -1.786562e+001 93 65 41
3.015583e+000 -9.349288e-001 -1.592100e+001 85 57 35
9.562710e-001 -1.128848e+000 -1.657498e+001 180 100 105
2.753050e-001 -1.355312e+000 -1.652184e+001 175 138 111
3.845060e-001 -1.651983e+000 -1.654451e+001 77 52 35
3.837802e-001 -1.645339e+000 -1.654889e+001 77 52 35
1.651086e+000 -1.808772e+000 -1.655838e+001 108 42 44
1.119377e+000 -1.759635e+000 -1.705007e+001 182 99 107
2.148920e+000 -2.311609e+000 -1.722942e+001 37 28 21
4.158361e+000 -6.773188e-002 -1.542929e+001 162 123 84
1.773550e+000 -1.961316e+000 -1.695046e+001 116 45 50
3.450778e+000 -2.589962e+000 -1.827739e+001 41 37 34
3.474121e+000 -1.549705e+000 -1.665525e+001 116 86 62
4.175992e+000 1.682855e+000 -1.575358e+001 214 179 131
4.704058e+000 -1.286492e-002 -1.507745e+001 254 227 171
2.847499e+000 1.293884e-001 -1.496864e+001 101 83 65
4.104729e+000 1.601043e+000 -1.576023e+001 241 208 163
4.189899e+000 1.700896e+000 -1.588299e+001 200 166 119
4.753434e+000 -8.011957e-001 -1.485774e+001 247 217 162
2.568973e+000 -6.649994e-002 -1.499151e+001 74 56 34
2.808821e+000 -1.222670e-001 -1.505637e+001 69 53 37
4.109174e+000 2.189147e-001 -1.537505e+001 118 79 46
4.109174e+000 2.189147e-001 -1.537505e+001 118 79 46
4.465162e+000 2.426824e-001 -1.543814e+001 176 140 89
1.980550e+000 2.987613e-001 -1.531530e+001 136 130 97
2.124196e+000 -2.601952e-002 -1.515244e+001 137 131 107
2.800069e+000 -1.979533e-001 -1.507580e+001 63 45 30
4.245406e+000 7.200386e-002 -1.539246e+001 134 95 58
4.796774e+000 -1.003849e+000 -1.500692e+001 195 162 109
4.819577e+000 -1.028901e+000 -1.498603e+001 202 169 116
4.842604e+000 -1.065851e+000 -1.504831e+001 221 188 137
4.780898e+000 -1.096568e+000 -1.510229e+001 204 173 119
2.826964e+000 -6.417901e-001 -1.524787e+001 64 45 27
3.388768e+000 -2.820251e-001 -1.546940e+001 102 69 44
3.388768e+000 -2.820251e-001 -1.546940e+001 102 69 44
1.837980e+000 -2.162523e-001 -1.544070e+001 231 195 157
2.589059e+000 -6.229560e-001 -1.535658e+001 39 29 22
2.620325e+000 -7.514054e-001 -1.531402e+001 89 79 66
2.774545e+000 -7.975622e-001 -1.528378e+001 91 73 53
3.941153e+000 -5.077112e-001 -1.554240e+001 128 93 65
3.941153e+000 -5.077112e-001 -1.554240e+001 128 93 65
1.800172e+000 -4.002489e-001 -1.556575e+001 170 88 85
2.434540e+000 -6.579291e-001 -1.548481e+001 49 31 19
4.776387e+000 -1.540722e+000 -1.531309e+001 141 110 66
2.074430e+000 -6.647841e-001 -1.557927e+001 173 137 109
4.005175e+000 -2.315524e-001 -1.603473e+001 100 70 45
1.076301e+000 -5.036305e-001 -1.570828e+001 202 143 120
2.246971e+000 -7.895802e-001 -1.568590e+001 126 99 72
3.555017e+000 -7.355832e-001 -1.586723e+001 122 88 61
4.068288e+000 -6.817507e-001 -1.601283e+001 95 62 31
4.777123e+000 -1.807562e+000 -1.539743e+001 136 102 63
2.118595e+000 -8.838397e-001 -1.566456e+001 80 75 50
3.427079e+000 -6.686206e-001 -1.610432e+001 97 66 38
3.831849e+000 -6.091969e-001 -1.608461e+001 110 82 58
2.659598e+000 -9.116503e-001 -1.594833e+001 127 110 89
8.904259e-001 -7.956651e-001 -1.584806e+001 238 189 172
1.411233e+000 -9.485199e-001 -1.581888e+001 200 129 135
1.982208e+000 -1.206154e+000 -1.585784e+001 63 47 27
3.262048e+000 -1.067566e+000 -1.603902e+001 83 53 27
1.289230e+000 -1.337650e+000 -1.580584e+001 178 107 111
1.766294e+000 -1.091274e+000 -1.592881e+001 145 90 73
1.052569e+000 -1.348940e+000 -1.584760e+001 145 78 79
1.099228e+000 -1.316616e+000 -1.588237e+001 130 69 68
1.227620e+000 -1.373455e+000 -1.592005e+001 125 64 61
1.227620e+000 -1.373455e+000 -1.592005e+001 125 64 61
1.993916e+000 -1.170854e+000 -1.624002e+001 154 108 67
3.640927e+000 -1.175718e+000 -1.636830e+001 88 56 32
3.689182e+000 -1.145363e+000 -1.641414e+001 116 85 57
4.648926e+000 -2.301388e+000 -1.574502e+001 125 95 55
1.534287e+000 -1.517385e+000 -1.604970e+001 135 85 76
2.350241e+000 -1.394969e+000 -1.619163e+001 64 48 35
2.427134e+000 -1.349284e+000 -1.625412e+001 38 28 17
2.989704e+000 -1.511281e+000 -1.625087e+001 84 58 35
1.708498e+000 -1.449873e+000 -1.619055e+001 112 53 52
3.286171e+000 -1.387727e+000 -1.654749e+001 71 46 26
3.311345e+000 -1.395220e+000 -1.654826e+001 94 69 49
3.691184e+000 -1.326089e+000 -1.667656e+001 67 42 20
1.967040e+000 -1.497348e+000 -1.638549e+001 36 29 18
1.967040e+000 -1.497348e+000 -1.638549e+001 36 29 18
2.115272e+000 -1.645361e+000 -1.622817e+001 95 73 54
2.459597e+000 -1.583382e+000 -1.654151e+001 87 77 67
4.517691e+000 -2.711250e+000 -1.596097e+001 123 95 54
-7.446563e-001 -1.747757e+000 -1.611334e+001 157 116 94
1.540702e+000 -1.783276e+000 -1.637451e+001 216 164 147
4.499974e+000 -2.706333e+000 -1.601615e+001 211 178 133
4.483506e+000 -2.794604e+000 -1.601955e+001 132 103 63
-8.466385e-001 -1.840851e+000 -1.608098e+001 204 167 140
-8.466385e-001 -1.840851e+000 -1.608098e+001 204 167 140
1.331907e+000 -1.882007e+000 -1.649003e+001 206 151 143
4.366097e+000 -3.108870e+000 -1.625497e+001 195 164 117
2.819658e+000 8.629070e-002 -1.497738e+001 185 166 125
2.819658e+000 8.629070e-002 -1.497738e+001 185 166 125
4.607401e+000 2.684430e-001 -1.526781e+001 226 196 143
2.108335e+000 5.033552e-001 -1.524308e+001 211 191 160
2.476916e+000 -2.016720e-001 -1.489046e+001 69 44 22
2.938272e+000 -9.475228e-002 -1.507086e+001 158 128 105
3.242660e+000 3.376008e-002 -1.517789e+001 118 81 55
3.180779e+000 -7.611658e-002 -1.512790e+001 140 106 79
3.889655e+000 2.006548e-001 -1.532960e+001 144 108 72
3.740893e+000 7.817486e-002 -1.532338e+001 125 88 59
1.934674e+000 6.148991e-001 -1.554271e+001 153 128 103
1.954108e+000 1.904126e-001 -1.533403e+001 187 168 132
1.975563e+000 1.799991e-001 -1.541479e+001 201 167 129
2.084969e+000 -1.898102e-002 -1.519462e+001 73 67 45
2.121511e+000 -4.235971e-002 -1.519044e+001 108 101 78
2.168985e+000 -2.326767e-001 -1.514533e+001 89 74 51
4.253728e+000 -1.099024e-001 -1.552550e+001 112 71 41
4.584643e+000 2.113868e-001 -1.565507e+001 126 90 50
4.804331e+000 -9.963437e-001 -1.509473e+001 171 139 85
1.797914e+000 6.627280e-001 -1.570057e+001 216 191 169
2.307668e+000 -5.167988e-001 -1.525408e+001 148 112 87
1.815882e+000 -1.148100e-001 -1.548911e+001 196 158 113
2.563910e+000 -4.468231e-001 -1.540369e+001 34 25 18
2.497588e+000 -5.557268e-001 -1.539459e+001 55 38 30
4.813372e+000 -1.557560e+000 -1.517188e+001 229 197 140
2.233875e+000 -5.865687e-001 -1.547509e+001 141 104 78
2.520780e+000 -6.390705e-001 -1.551102e+001 44 31 25
2.601072e+000 -5.703874e-001 -1.543182e+001 26 18 13
2.472885e+000 -6.227661e-001 -1.554123e+001 53 39 26
2.508192e+000 -7.477659e-001 -1.556385e+001 49 36 26
2.478187e+000 -7.441465e-001 -1.558464e+001 108 87 68
2.490897e+000 -7.809563e-001 -1.559081e+001 46 34 22
3.767494e+000 -5.243813e-001 -1.591005e+001 127 97 73
4.222781e+000 -3.230798e-001 -1.607445e+001 132 98 70
2.648973e+000 -7.655587e-001 -1.567801e+001 59 42 25
4.808216e+000 -1.719360e+000 -1.557489e+001 164 132 83
1.384333e+000 -8.825481e-001 -1.571872e+001 176 109 100
1.532936e+000 -8.802885e-001 -1.580722e+001 127 62 54
2.014127e+000 -8.052706e-001 -1.585772e+001 150 121 101
2.663699e+000 -9.955474e-001 -1.584816e+001 67 49 27
8.581189e-001 -9.886712e-001 -1.581055e+001 206 154 133
9.318767e-001 -8.886821e-001 -1.584132e+001 179 117 107
1.362737e+000 -9.842951e-001 -1.581875e+001 196 119 123
1.553891e+000 -1.037701e+000 -1.579477e+001 174 97 103
1.774906e+000 -1.013965e+000 -1.592360e+001 142 72 70
2.026117e+000 -1.029337e+000 -1.589309e+001 85 74 54
2.490378e+000 -1.020477e+000 -1.605083e+001 75 60 39
3.214952e+000 -1.052657e+000 -1.615456e+001 87 55 30
4.031698e+000 -9.565044e-001 -1.630005e+001 123 92 63
1.746729e+000 -1.196485e+000 -1.591716e+001 137 55 57
1.905367e+000 -1.139981e+000 -1.606512e+001 180 117 101
2.302231e+000 -1.170459e+000 -1.601949e+001 42 24 10
2.468218e+000 -1.126210e+000 -1.601801e+001 76 63 47
1.097765e+000 -1.390434e+000 -1.578788e+001 196 135 134
1.279475e+000 -1.380621e+000 -1.584721e+001 150 91 85
4.602428e+000 -2.271696e+000 -1.575553e+001 162 130 85
1.691641e+000 -1.384260e+000 -1.603212e+001 202 160 142
1.709191e+000 -1.508601e+000 -1.594189e+001 119 49 51
2.561445e+000 -1.407358e+000 -1.626441e+001 48 34 21
3.558764e+000 -1.491306e+000 -1.673930e+001 89 63 38
-8.193009e-001 -1.705190e+000 -1.611218e+001 109 71 52
-3.978424e-001 -1.646032e+000 -1.614780e+001 110 73 49
1.404982e+000 -1.895515e+000 -1.637256e+001 191 128 121
-8.219036e-001 -1.931312e+000 -1.607384e+001 140 101 72
-9.782716e-001 -1.946798e+000 -1.616564e+001 150 107 75
-1.011450e+000 -2.076112e+000 -1.627284e+001 133 86 69
4.105202e-002 -1.749255e+000 -1.673108e+001 105 70 50
-8.964898e-001 -2.225443e+000 -1.622959e+001 162 87 94
2.566606e-001 -1.754930e+000 -1.699944e+001 70 52 40
4.307671e+000 -3.201383e+000 -1.618559e+001 176 144 96
4.446945e+000 1.011704e+000 -1.565359e+001 124 111 117
4.862744e+000 -6.850643e-001 -1.491749e+001 253 222 168
2.898076e+000 1.829976e-002 -1.503391e+001 62 50 32
2.061146e+000 2.265394e-001 -1.525833e+001 112 100 74
1.940683e+000 2.372341e-001 -1.532279e+001 84 77 48
2.065868e+000 8.615553e-002 -1.527261e+001 188 168 141
2.700141e+000 -8.417940e-001 -1.520290e+001 78 61 46
2.797811e+000 -7.670641e-001 -1.533901e+001 56 39 28
2.437908e+000 -5.578166e-001 -1.544007e+001 40 26 21
2.382394e+000 -6.951306e-001 -1.540060e+001 115 83 53
2.659058e+000 -8.015980e-001 -1.530604e+001 55 46 39
2.510798e+000 -7.102175e-001 -1.552696e+001 45 32 26
2.851784e+000 -5.215079e-001 -1.577487e+001 119 97 83
2.024565e+000 -4.446040e-001 -1.585044e+001 115 80 60
2.333337e+000 -9.368056e-001 -1.565477e+001 45 26 13
2.273805e+000 -9.681480e-001 -1.569693e+001 205 181 155
2.471733e+000 -8.972635e-001 -1.577623e+001 38 24 15
2.708121e+000 -7.956482e-001 -1.586216e+001 59 40 35
2.708121e+000 -7.956482e-001 -1.586216e+001 59 40 35
8.787708e-001 -6.765308e-001 -1.588579e+001 169 121 99
1.448164e+000 -8.546448e-001 -1.582755e+001 206 145 137
2.037086e+000 -9.472974e-001 -1.575705e+001 67 64 45
2.078272e+000 -1.060406e+000 -1.571198e+001 101 95 73
2.674755e+000 -9.808824e-001 -1.592593e+001 64 46 31
3.134730e+000 -9.456228e-001 -1.593635e+001 127 97 70
3.141446e+000 -9.326774e-001 -1.594648e+001 127 97 70
3.462754e+000 -7.254295e-001 -1.612943e+001 117 86 58
3.462754e+000 -7.254295e-001 -1.612943e+001 117 86 58
5.338891e-001 -7.805791e-001 -1.588910e+001 231 203 179
1.240364e+000 -1.068075e+000 -1.570386e+001 212 156 147
1.438720e+000 -1.191313e+000 -1.564003e+001 173 98 100
1.688278e+000 -9.404500e-001 -1.588496e+001 153 71 78
1.941383e+000 -1.004732e+000 -1.594108e+001 73 58 37
2.671378e+000 -1.052109e+000 -1.608292e+001 63 45 27
3.977574e+000 -9.241702e-001 -1.636296e+001 75 47 23
5.209729e-001 -9.705867e-001 -1.594474e+001 231 201 175
2.462282e+000 -1.172074e+000 -1.603444e+001 78 61 44
2.699169e+000 -1.169514e+000 -1.613301e+001 74 52 31
9.570276e-001 -9.641813e-001 -1.613365e+001 154 83 89
1.096286e+000 -1.285981e+000 -1.599049e+001 161 104 95
2.273054e+000 -1.331842e+000 -1.607995e+001 42 26 18
1.494805e+000 -1.494337e+000 -1.596548e+001 189 146 129
1.495897e+000 -1.501225e+000 -1.596007e+001 189 146 129
2.006833e+000 -1.328275e+000 -1.614553e+001 147 103 66
3.358359e+000 -1.242066e+000 -1.642084e+001 132 102 76
2.008836e+000 -1.607238e+000 -1.622344e+001 93 80 64
2.240630e+000 -1.454529e+000 -1.623048e+001 120 88 57
2.236590e+000 -1.512753e+000 -1.629381e+001 36 21 13
2.341911e+000 -1.488657e+000 -1.625818e+001 41 27 14
2.224360e+000 -1.615311e+000 -1.640771e+001 36 19 12
2.539366e+000 -1.532995e+000 -1.638757e+001 55 39 31
-1.931262e-001 -1.590195e+000 -1.618533e+001 195 163 140
1.371206e+000 -1.503864e+000 -1.643082e+001 118 58 57
2.323461e+000 -1.592055e+000 -1.652302e+001 42 29 21
-8.829122e-001 -1.730268e+000 -1.614786e+001 189 152 126
-9.459941e-001 -1.805609e+000 -1.614976e+001 141 100 70
-8.552975e-001 -1.982352e+000 -1.613463e+001 136 92 63
-7.946753e-001 -2.432601e+000 -1.664879e+001 141 85 88
2.391391e+000 -7.984668e-002 -1.486699e+001 220 190 162
2.788424e+000 1.707916e-001 -1.502552e+001 77 62 45
3.158151e+000 2.173614e-001 -1.514906e+001 130 100 70
3.902316e+000 3.940827e-001 -1.538187e+001 166 132 99
2.030680e+000 6.253351e-001 -1.535839e+001 195 171 139
2.083473e+000 3.547914e-001 -1.522551e+001 106 102 72
3.744763e+000 1.856418e-002 -1.530350e+001 124 86 60
4.133574e+000 6.017935e-002 -1.542033e+001 169 129 93
2.412472e+000 -3.497104e-001 -1.510636e+001 143 108 76
2.093391e+000 -2.167805e-001 -1.533668e+001 177 136 93
1.812192e+000 -2.569880e-001 -1.545593e+001 228 190 157
2.014039e+000 -3.197339e-001 -1.535080e+001 168 120 46
2.624866e+000 -6.302902e-001 -1.537507e+001 83 70 61
1.981846e+000 -5.883134e-001 -1.539763e+001 206 171 133
4.006842e+000 -3.468648e-001 -1.582496e+001 80 48 23
4.508898e+000 -2.588686e-001 -1.600149e+001 145 112 64
2.157627e+000 -6.479592e-001 -1.552190e+001 167 131 109
1.094892e+000 -4.367624e-001 -1.571736e+001 197 140 119
1.128931e+000 -6.552675e-001 -1.562827e+001 225 184 164
1.128931e+000 -6.552675e-001 -1.562827e+001 225 184 164
2.097526e+000 -9.025061e-001 -1.561814e+001 162 130 103
3.944879e+000 -6.951155e-001 -1.615643e+001 80 50 26
1.918851e+000 -6.950650e-001 -1.605593e+001 156 106 88
1.918851e+000 -6.950650e-001 -1.605593e+001 156 106 88
1.124773e+000 -9.759380e-001 -1.575886e+001 183 97 104
9.226072e-001 -1.145193e+000 -1.610044e+001 160 86 93
1.890399e+000 -1.405128e+000 -1.613120e+001 131 64 59
3.492599e+000 -1.327571e+000 -1.663859e+001 112 85 60
4.532386e+000 -2.484266e+000 -1.576299e+001 189 157 108
4.524281e+000 -2.560446e+000 -1.572717e+001 137 108 67
1.948069e-001 -1.402331e+000 -1.621534e+001 227 198 174
-3.244841e-001 -1.478542e+000 -1.625016e+001 159 116 79
2.181497e+000 -1.734914e+000 -1.646981e+001 39 22 18
4.459862e+000 -2.973018e+000 -1.619546e+001 135 103 66
-7.200453e-001 -2.376512e+000 -1.643372e+001 120 54 63
-5.295526e-001 -2.413044e+000 -1.661131e+001 102 75 56
2.188631e+000 4.138244e-001 -1.511290e+001 228 208 176
3.151763e+000 -7.592780e-004 -1.514066e+001 85 59 38
3.286797e+000 1.095131e-001 -1.514623e+001 136 100 68
2.038722e+000 -1.111287e-001 -1.520477e+001 176 149 120
2.489122e+000 -3.241068e-001 -1.515529e+001 56 36 23
2.329185e+000 -3.968994e-001 -1.526682e+001 152 117 87
3.730143e+000 -3.404267e-001 -1.561708e+001 140 106 75
1.578423e+000 -2.465917e-001 -1.557864e+001 189 100 104
1.578423e+000 -2.465917e-001 -1.557864e+001 189 100 104
2.620716e+000 -7.581421e-001 -1.562061e+001 85 55 29
1.161255e+000 -1.057831e+000 -1.573752e+001 210 154 142
9.351863e-001 -9.255906e-001 -1.596141e+001 94 50 41
3.427873e+000 -1.220335e+000 -1.637387e+001 133 103 77
4.654897e+000 -2.284561e+000 -1.571462e+001 151 121 81
1.571311e+000 -1.526588e+000 -1.619449e+001 117 53 50
2.514311e+000 -1.450763e+000 -1.629806e+001 75 57 42
1.614958e+000 -1.692982e+000 -1.620049e+001 153 94 90
4.582777e+000 -2.554757e+000 -1.585776e+001 127 98 62
5.974784e-001 -1.534468e+000 -1.653942e+001 130 83 74
1.979326e+000 -1.801374e+000 -1.642231e+001 62 58 41
