ply
format ascii 1.0
element face 0
property list uchar int vertex_indices
element vertex 892
property float x
property float y
property float z
property uchar diffuse_red
property uchar diffuse_green
property uchar diffuse_blue
end_header
3.955258e+000 1.021096e-001 -1.512246e+001 95 60 30
1.662840e+000 -2.451971e-001 -1.553744e+001 138 61 58
3.937511e+000 -1.104321e+000 -1.629821e+001 89 63 40
-5.601343e-001 -1.567699e+000 -1.623811e+001 176 137 111
1.954875e+000 -1.752302e+000 -1.627525e+001 87 79 58
1.067727e+000 -1.039817e+000 -1.565684e+001 202 143 125
1.662461e+000 -1.075206e+000 -1.581011e+001 166 120 97
3.921907e+000 -9.504678e-001 -1.614452e+001 95 71 48
3.202427e+000 3.298858e-003 -1.491120e+001 101 71 43
3.477166e+000 -2.283014e-001 -1.508040e+001 73 45 23
4.066088e+000 -6.098100e-001 -1.577628e+001 66 41 19
3.215954e+000 -8.711495e-001 -1.578122e+001 71 49 29
3.157092e+000 -1.133122e-001 -1.492173e+001 45 31 16
4.151541e+000 -6.561846e-001 -1.588223e+001 107 79 54
3.559981e+000 -9.497119e-001 -1.598235e+001 63 36 15
-6.920596e-001 -1.775194e+000 -1.618488e+001 104 68 50
4.044585e+000 -1.036716e-001 -1.519384e+001 114 81 49
1.565101e+000 -4.876923e-001 -1.566639e+001 140 70 66
3.476876e+000 -9.887777e-001 -1.601168e+001 108 80 52
1.482431e+000 -3.109352e-001 -1.555518e+001 164 94 86
1.970055e+000 -2.592152e-001 -1.520362e+001 185 144 81
-1.061237e+000 -1.607218e+000 -1.614469e+001 140 99 78
4.328430e+000 -1.616707e-001 -1.528789e+001 78 46 21
4.005002e+000 2.356471e-001 -1.515156e+001 97 61 29
3.432819e+000 -1.966585e-001 -1.503563e+001 97 69 47
4.404469e+000 -9.467279e-002 -1.522907e+001 132 96 63
3.818579e+000 -1.088079e+000 -1.625981e+001 74 48 23
2.915369e+000 -2.236227e+000 -1.735823e+001 76 50 34
4.000530e+000 1.157307e-003 -1.514339e+001 97 63 33
2.286082e+000 -5.815596e-001 -1.504200e+001 122 86 60
1.538858e+000 -5.385864e-001 -1.571787e+001 145 74 72
3.873806e+000 -1.330834e+000 -1.655114e+001 103 77 52
3.666306e+000 -1.466423e+000 -1.667428e+001 94 70 46
3.549665e+000 -8.844384e-001 -1.591013e+001 103 77 53
3.129357e+000 -1.075666e+000 -1.597919e+001 103 77 52
2.889454e+000 -1.888422e+000 -1.685560e+001 104 76 54
3.445148e+000 -1.255527e+000 -1.625424e+001 108 80 56
3.867568e+000 -1.863158e+000 -1.732036e+001 73 46 25
1.603528e+000 -1.478253e-001 -1.550684e+001 165 89 83
1.944010e+000 -1.663449e+000 -1.613682e+001 73 62 44
2.412653e+000 1.216324e+000 -1.558912e+001 61 42 24
3.018699e+000 1.267010e+000 -1.576260e+001 119 89 61
1.668464e+000 1.148368e+000 -1.594933e+001 157 122 85
1.669672e+000 1.151277e+000 -1.595839e+001 157 122 85
3.887555e+000 4.687107e-001 -1.523257e+001 145 105 70
4.009523e+000 6.513941e-001 -1.541561e+001 111 71 38
1.934619e+000 2.767083e-001 -1.522394e+001 151 122 89
2.597790e+000 -2.878798e-001 -1.476002e+001 59 43 24
1.773555e+000 -1.552394e-001 -1.537835e+001 216 182 140
9.800541e-001 -8.786018e-001 -1.572181e+001 163 96 87
1.772426e+000 -1.075714e+000 -1.586299e+001 165 115 98
2.467606e+000 -1.145842e+000 -1.585819e+001 109 94 64
-5.446339e-001 -1.407894e+000 -1.631040e+001 142 96 62
1.852934e+000 -1.599053e+000 -1.628508e+001 164 122 109
1.896425e+000 -1.682594e+000 -1.631647e+001 78 67 49
1.364602e+000 -1.851354e+000 -1.641186e+001 173 111 101
1.364816e+000 -1.851465e+000 -1.641216e+001 173 111 101
2.381480e+000 1.366989e+000 -1.570789e+001 73 57 42
2.957709e+000 1.405080e+000 -1.586002e+001 103 69 42
3.066140e+000 1.136287e+000 -1.568649e+001 78 47 24
3.115104e+000 1.125888e+000 -1.567581e+001 132 102 74
3.140504e+000 1.192472e+000 -1.573025e+001 80 50 26
1.917336e+000 9.743937e-001 -1.557850e+001 122 96 69
3.128911e+000 8.639864e-001 -1.547144e+001 81 49 24
3.246310e+000 9.316205e-001 -1.553268e+001 104 70 42
3.246310e+000 9.316205e-001 -1.553268e+001 104 70 42
3.460198e+000 8.127382e-001 -1.547981e+001 92 58 30
3.840509e+000 2.825416e-001 -1.513725e+001 93 57 25
3.216568e+000 -9.961572e-002 -1.493617e+001 89 63 40
1.850092e+000 5.792348e-002 -1.540397e+001 158 113 68
3.744145e+000 -3.603561e-001 -1.526677e+001 90 65 41
4.168347e+000 -3.447675e-001 -1.551500e+001 80 53 26
2.665429e+000 -8.008633e-001 -1.493678e+001 153 137 104
9.195029e-001 -7.594086e-001 -1.578270e+001 205 154 126
2.144061e+000 -1.021406e+000 -1.547066e+001 60 52 29
3.798375e+000 -8.710587e-001 -1.601728e+001 61 36 14
1.110443e+000 -1.065892e+000 -1.564144e+001 142 73 58
2.070570e+000 -1.293196e+000 -1.575962e+001 61 55 33
2.740687e+000 -1.278383e+000 -1.610253e+001 139 115 95
3.366077e+000 -1.252506e+000 -1.627128e+001 78 52 30
-1.308280e+000 -2.098076e+000 -1.633183e+001 132 87 66
2.794658e+000 1.300554e+000 -1.575583e+001 106 72 45
3.258285e+000 1.239984e+000 -1.579444e+001 92 60 33
3.494041e+000 1.342898e+000 -1.586925e+001 132 97 70
3.404820e+000 8.503001e-001 -1.549172e+001 133 100 70
3.402914e+000 8.472356e-001 -1.548276e+001 133 100 70
3.473349e+000 3.745173e-001 -1.509661e+001 125 90 58
3.483997e+000 2.005774e-001 -1.502670e+001 81 48 18
4.209586e+000 2.692765e-001 -1.519000e+001 98 59 30
3.471807e+000 1.352724e-001 -1.498208e+001 128 92 61
4.273400e+000 2.091893e-001 -1.518032e+001 76 42 16
2.058921e+000 -2.594216e-002 -1.503215e+001 45 39 22
3.697439e+000 -3.109168e-001 -1.518352e+001 70 45 23
3.718596e+000 -4.350303e-001 -1.536100e+001 78 49 25
3.377961e+000 -8.622447e-001 -1.582370e+001 66 41 17
3.939740e+000 -7.493028e-001 -1.593146e+001 87 63 40
3.813970e+000 -8.477652e-001 -1.598632e+001 97 72 49
1.334687e+000 -1.081997e+000 -1.569567e+001 160 86 85
1.610756e+000 -1.028320e+000 -1.579396e+001 193 141 127
1.943355e+000 -1.055466e+000 -1.578934e+001 78 68 43
2.450032e+000 -1.040332e+000 -1.573903e+001 45 37 15
4.009866e+000 -1.150140e+000 -1.637924e+001 103 77 52
3.324533e+000 -1.337299e+000 -1.636454e+001 88 64 41
-1.032122e+000 -1.625549e+000 -1.615362e+001 102 64 45
3.065782e+000 -1.647090e+000 -1.671440e+001 58 35 18
-5.248458e-001 -1.780371e+000 -1.615418e+001 155 120 98
1.557452e+000 -1.776591e+000 -1.623298e+001 120 66 58
1.842499e+000 -1.716763e+000 -1.633851e+001 60 52 35
3.463437e+000 -1.662596e+000 -1.689948e+001 90 68 46
3.817501e+000 -1.924912e+000 -1.743969e+001 66 41 22
3.661678e+000 1.118464e+000 -1.573139e+001 95 61 33
3.316835e+000 4.811811e-001 -1.515802e+001 80 50 24
3.454801e+000 2.536169e-001 -1.502990e+001 124 91 60
3.874093e+000 4.207962e-001 -1.521453e+001 102 63 30
3.874093e+000 4.207962e-001 -1.521453e+001 102 63 30
4.271022e+000 2.689699e-001 -1.518756e+001 125 84 52
3.425419e+000 3.738088e-002 -1.498315e+001 81 46 21
3.425117e+000 3.750242e-002 -1.498315e+001 81 46 21
4.203736e+000 1.555658e-001 -1.516724e+001 79 45 21
1.947080e+000 1.349918e-001 -1.531367e+001 173 132 88
1.867745e+000 1.205635e-001 -1.536126e+001 185 147 102
3.904221e+000 -1.816304e-001 -1.515768e+001 81 51 25
3.459748e+000 -4.670548e-001 -1.527372e+001 107 80 53
3.831046e+000 -4.007791e-001 -1.535310e+001 55 30 7
2.670574e+000 -7.467682e-001 -1.488258e+001 61 52 34
9.841639e-001 -8.269442e-001 -1.571297e+001 197 145 124
9.831495e-001 -8.265710e-001 -1.571723e+001 197 145 124
1.468979e+000 -7.986204e-001 -1.583776e+001 114 49 45
1.270574e+000 -8.979918e-001 -1.579363e+001 132 62 55
2.266067e+000 -1.008064e+000 -1.557673e+001 186 160 133
3.902221e+000 -8.832608e-001 -1.604831e+001 100 76 52
1.153515e+000 -1.074456e+000 -1.563985e+001 186 134 114
3.743945e+000 -1.165457e+000 -1.630652e+001 113 83 58
4.071618e+000 -1.052011e+000 -1.630052e+001 100 77 53
-6.466855e-001 -1.607656e+000 -1.618868e+001 101 64 38
3.157393e+000 -1.560281e+000 -1.657899e+001 98 76 53
3.090923e+000 -2.058082e+000 -1.728632e+001 70 47 23
3.513289e+000 1.253090e+000 -1.579349e+001 104 70 43
2.096690e+000 3.078354e-001 -1.506725e+001 122 105 75
4.220802e+000 3.852542e-001 -1.523416e+001 127 91 55
1.924549e+000 3.475774e-001 -1.521527e+001 72 63 38
4.073589e+000 1.138196e-001 -1.512146e+001 122 87 57
4.392796e+000 1.130947e-001 -1.516121e+001 143 106 70
2.137950e+000 -1.699097e-001 -1.488000e+001 111 105 76
2.024535e+000 -1.727547e-001 -1.510101e+001 46 38 19
2.124017e+000 -2.768942e-001 -1.497986e+001 56 49 27
3.831376e+000 -3.573545e-001 -1.531593e+001 103 74 50
3.940468e+000 -5.029515e-001 -1.556698e+001 92 66 43
1.375452e+000 -1.283668e+000 -1.585712e+001 100 26 29
1.937835e+000 -1.560561e+000 -1.617260e+001 44 34 24
-6.875811e-001 -1.546510e+000 -1.621161e+001 164 119 98
2.084583e+000 8.051418e-001 -1.525590e+001 215 184 155
3.119733e+000 2.433268e-001 -1.493836e+001 76 48 27
1.552573e+000 5.482298e-001 -1.600483e+001 197 157 120
2.005818e+000 -1.136900e-002 -1.514757e+001 180 147 113
4.296553e+000 -5.868063e-002 -1.521520e+001 116 81 51
4.241915e+000 -1.510659e-001 -1.523012e+001 109 72 45
2.339267e+000 -4.298425e-001 -1.481626e+001 192 160 129
2.176953e+000 -9.350072e-001 -1.552801e+001 47 35 23
1.589231e+000 -9.699452e-001 -1.579311e+001 195 138 124
3.652009e+000 -8.644508e-001 -1.593240e+001 103 78 50
1.223159e+000 -1.030464e+000 -1.570898e+001 132 64 56
3.368063e+000 -9.967913e-001 -1.596706e+001 67 42 20
2.228414e+000 -1.178678e+000 -1.569198e+001 132 108 82
-3.637033e-001 -1.564613e+000 -1.632636e+001 123 82 62
3.266342e+000 -2.232937e+000 -1.751003e+001 80 53 34
2.069129e+000 1.150081e-001 -1.496771e+001 188 155 120
3.936364e+000 1.768972e-001 -1.513076e+001 124 88 58
2.365593e+000 -1.667511e-001 -1.463713e+001 181 150 119
3.474722e+000 1.815693e-002 -1.499565e+001 77 45 22
3.474759e+000 1.803073e-002 -1.499596e+001 77 45 22
3.634026e+000 -3.185676e-001 -1.518442e+001 109 79 53
1.382968e+000 -7.739852e-001 -1.578502e+001 119 52 49
1.321192e+000 -9.954370e-001 -1.572105e+001 167 97 91
1.936484e+000 -1.262683e+000 -1.584686e+001 154 119 91
2.434432e+000 1.374806e-001 -1.470904e+001 62 44 25
3.340018e+000 -4.921244e-002 -1.497099e+001 104 72 47
3.353295e+000 -1.275976e+000 -1.631912e+001 86 59 38
2.630353e+000 -1.425394e+000 -1.618486e+001 40 25 12
3.339647e+000 2.162118e-001 -1.500682e+001 121 87 53
4.275252e+000 1.700534e-001 -1.516056e+001 98 64 36
1.154853e+000 -1.172583e+000 -1.574894e+001 131 59 57
-5.006316e-001 -1.665407e+000 -1.621157e+001 174 139 113
2.181398e+000 1.218957e+000 -1.558488e+001 66 50 33
2.237184e+000 1.218127e+000 -1.556682e+001 50 32 19
1.724410e+000 1.299562e+000 -1.579783e+001 165 131 94
3.162083e+000 1.252346e+000 -1.577637e+001 104 73 47
3.374374e+000 1.277260e+000 -1.582929e+001 122 91 63
3.597964e+000 1.304903e+000 -1.588312e+001 96 62 35
3.594836e+000 1.100887e+000 -1.572424e+001 99 64 38
4.104904e+000 1.005755e+000 -1.572790e+001 96 60 28
2.331975e+000 1.894650e-001 -1.467297e+001 124 88 51
2.613770e+000 -2.814417e-001 -1.473505e+001 116 99 81
4.206483e+000 -6.356986e-001 -1.588122e+001 77 49 25
1.820158e+000 -9.230979e-001 -1.601574e+001 95 43 30
3.358534e+000 -1.160687e+000 -1.618648e+001 76 49 24
1.107809e+000 -2.061418e+000 -1.719660e+001 170 110 100
2.984894e+000 1.362752e+000 -1.582772e+001 139 106 76
3.329518e+000 1.388961e+000 -1.590308e+001 95 64 37
3.716470e+000 1.366229e+000 -1.591892e+001 118 84 56
3.184736e+000 1.295448e+000 -1.580888e+001 74 45 18
3.392675e+000 1.236336e+000 -1.579465e+001 125 94 66
3.467398e+000 1.222620e+000 -1.579242e+001 97 63 35
3.618291e+000 1.154124e+000 -1.576731e+001 134 99 71
2.034587e+000 8.380718e-001 -1.532180e+001 128 94 62
1.989206e+000 2.394252e-001 -1.526230e+001 124 95 65
2.366394e+000 3.946755e-002 -1.462267e+001 128 94 59
3.546360e+000 2.168567e-001 -1.501478e+001 125 92 59
2.008771e+000 1.784315e-001 -1.522500e+001 147 119 95
2.798588e+000 -3.904322e-001 -1.493756e+001 33 23 13
2.827337e+000 -3.828321e-001 -1.493076e+001 94 78 56
2.854631e+000 -3.707670e-001 -1.494087e+001 47 29 16
4.271561e+000 -5.774384e-001 -1.580296e+001 82 54 30
2.413920e+000 -9.620149e-001 -1.561464e+001 38 27 10
3.042472e+000 -1.427625e+000 -1.638805e+001 57 32 11
-7.950000e-002 -1.588340e+000 -1.648209e+001 151 114 90
-1.248338e+000 -1.778414e+000 -1.623743e+001 138 94 65
3.163516e+000 -1.745422e+000 -1.690195e+001 71 46 27
1.387250e+000 -1.871755e+000 -1.637433e+001 138 75 65
3.033745e+000 -2.202856e+000 -1.740299e+001 98 71 50
2.961395e+000 -2.254222e+000 -1.741536e+001 73 51 30
3.482280e+000 1.503719e+000 -1.600516e+001 142 107 75
2.234979e+000 1.057615e+000 -1.546182e+001 64 45 26
2.966824e+000 1.132914e+000 -1.566805e+001 83 53 29
3.943001e+000 1.235884e+000 -1.589144e+001 115 80 52
3.739122e+000 9.355610e-001 -1.564254e+001 128 93 61
3.205022e+000 6.349730e-001 -1.530353e+001 89 55 27
3.140900e+000 4.153825e-001 -1.508300e+001 117 86 57
4.013353e+000 6.542795e-001 -1.542824e+001 111 71 38
4.092182e+000 5.108840e-001 -1.528847e+001 145 107 71
3.678091e+000 4.294918e-001 -1.517890e+001 99 63 31
3.354611e+000 6.300942e-002 -1.497025e+001 83 52 24
3.955302e+000 -5.901709e-001 -1.573769e+001 85 63 39
1.437700e+000 -7.240730e-001 -1.590769e+001 178 122 109
1.702682e+000 -1.052208e+000 -1.585705e+001 110 49 45
1.818045e+000 -9.606944e-001 -1.596457e+001 151 99 85
1.818120e+000 -9.608206e-001 -1.596179e+001 151 99 85
2.451790e+000 -1.040224e+000 -1.574791e+001 45 37 15
3.545513e+000 -1.223681e+000 -1.632018e+001 63 39 14
2.904213e+000 -1.797945e+000 -1.683633e+001 73 46 27
2.904943e+000 -1.798286e+000 -1.683810e+001 73 46 27
3.514111e+000 -1.706098e+000 -1.699828e+001 64 42 19
3.478660e+000 -1.876248e+000 -1.716414e+001 101 75 50
2.091533e+000 -2.152845e+000 -1.693952e+001 113 81 53
1.980092e+000 -2.371149e+000 -1.707648e+001 201 171 142
3.630540e+000 1.369557e+000 -1.590578e+001 134 98 71
2.901190e+000 1.134551e+000 -1.565429e+001 113 83 59
3.413195e+000 1.179761e+000 -1.577395e+001 93 62 33
3.565485e+000 1.013236e+000 -1.564377e+001 96 62 35
3.719629e+000 9.840944e-001 -1.564885e+001 89 55 28
1.676836e+000 9.959550e-001 -1.596830e+001 185 155 117
2.014442e+000 5.982811e-001 -1.520509e+001 159 132 105
3.271078e+000 5.108182e-001 -1.516709e+001 136 103 72
3.480909e+000 3.114768e-001 -1.505410e+001 70 39 18
3.484471e+000 2.005067e-001 -1.502678e+001 81 48 18
4.174096e+000 -3.808667e-001 -1.551889e+001 81 53 30
7.537388e-001 -5.858568e-001 -1.590979e+001 143 92 63
8.792403e-001 -7.359413e-001 -1.579139e+001 203 156 126
1.008139e+000 -1.164044e+000 -1.564325e+001 165 94 92
2.216978e+000 -1.119332e+000 -1.564949e+001 91 67 41
4.017719e+000 -1.030134e+000 -1.628579e+001 61 37 13
2.420569e+000 -1.391142e+000 -1.601643e+001 80 67 48
3.297909e+000 -1.874547e+000 -1.714330e+001 102 75 51
3.859625e+000 -1.964390e+000 -1.745447e+001 92 68 44
3.667163e+000 1.028502e+000 -1.567140e+001 127 93 65
2.778885e+000 6.797123e-001 -1.523629e+001 143 116 89
3.836013e+000 4.352000e-001 -1.525456e+001 148 108 72
1.309319e+000 7.197083e-001 -1.657106e+001 189 147 112
1.492229e+000 5.013482e-001 -1.603443e+001 110 80 52
4.205396e+000 9.662429e-002 -1.514132e+001 113 76 46
1.564740e+000 5.692002e-002 -1.549948e+001 206 134 120
3.417467e+000 -3.214244e-001 -1.511025e+001 74 46 25
1.997002e+000 -4.355265e-001 -1.523584e+001 178 132 48
1.704320e+000 -9.072680e-001 -1.583529e+001 119 65 56
2.123161e+000 -1.043773e+000 -1.550051e+001 56 49 31
3.180741e+000 -1.175752e+000 -1.614555e+001 74 48 26
2.590321e+000 -1.532946e+000 -1.632801e+001 54 39 21
3.320065e+000 -1.927794e+000 -1.720832e+001 73 46 25
1.997097e+000 1.130637e+000 -1.547343e+001 212 178 143
3.820137e+000 9.061000e-001 -1.560888e+001 149 114 76
4.192181e+000 7.303304e-001 -1.548854e+001 114 78 44
2.124350e+000 2.491515e-001 -1.507656e+001 41 28 16
2.448803e+000 9.883830e-003 -1.460579e+001 58 39 22
4.163750e+000 2.279302e-001 -1.517737e+001 115 78 49
2.205351e+000 -1.825333e-001 -1.473370e+001 59 51 28
1.108153e+000 -1.607312e-001 -1.566855e+001 218 160 140
1.191807e+000 -1.556434e-001 -1.561018e+001 163 72 72
2.067423e+000 -2.510278e-001 -1.504256e+001 172 147 113
3.377220e+000 -2.832463e-001 -1.508475e+001 93 65 43
3.912928e+000 -2.770827e-001 -1.525451e+001 72 46 25
2.276999e+000 -8.241951e-001 -1.531860e+001 170 139 111
3.487813e+000 -1.086784e+000 -1.613154e+001 65 37 16
3.488179e+000 -1.086634e+000 -1.613344e+001 65 37 16
1.035521e-001 -1.627936e+000 -1.637993e+001 177 137 111
3.562080e+000 -1.609075e+000 -1.687157e+001 72 44 22
2.040109e+000 9.714088e-001 -1.536160e+001 178 142 105
2.824093e+000 1.193789e+000 -1.565848e+001 97 66 38
4.503618e+000 8.364559e-001 -1.571271e+001 21 16 13
4.503618e+000 8.364559e-001 -1.571271e+001 21 16 13
2.703186e+000 2.750413e-001 -1.484732e+001 152 129 96
2.822106e+000 3.260961e-001 -1.493574e+001 65 47 27
1.588417e+000 -3.599859e-002 -1.547479e+001 169 84 79
3.281216e+000 -6.770105e-001 -1.555604e+001 98 73 51
4.190718e+000 -7.328953e-001 -1.594337e+001 89 57 32
1.720114e+000 -1.421629e+000 -1.616647e+001 97 43 41
3.582253e+000 -1.307413e+000 -1.640308e+001 62 37 17
3.682473e+000 -1.287434e+000 -1.643723e+001 105 79 52
-3.644962e-001 -1.675371e+000 -1.633856e+001 79 46 31
2.991072e+000 -1.660553e+000 -1.671791e+001 96 72 48
2.883938e+000 -2.303383e+000 -1.743824e+001 106 79 58
2.155063e+000 6.089876e-001 -1.502070e+001 211 178 145
2.515962e+000 -3.367813e-002 -1.453251e+001 116 95 64
3.705679e+000 4.685937e-002 -1.505190e+001 120 88 57
2.384174e+000 -2.916731e-001 -1.469775e+001 181 152 122
2.241591e+000 -5.799607e-001 -1.507669e+001 132 97 68
4.207399e+000 -1.313765e+000 -1.665386e+001 131 100 69
1.474850e+000 -1.424269e+000 -1.583501e+001 122 54 55
2.034532e+000 -1.986620e+000 -1.667296e+001 166 135 107
2.020874e+000 3.827969e-001 -1.520100e+001 84 71 44
3.291672e+000 1.401044e+000 -1.589891e+001 121 87 60
3.435007e+000 1.456825e+000 -1.595609e+001 104 68 42
3.635782e+000 1.559687e+000 -1.607525e+001 109 73 41
3.721387e+000 1.553583e+000 -1.608384e+001 96 61 31
3.906357e+000 1.667884e+000 -1.620976e+001 111 75 43
2.236439e+000 1.242546e+000 -1.556276e+001 105 87 59
3.101552e+000 1.280194e+000 -1.578858e+001 116 84 59
3.214641e+000 1.284728e+000 -1.581363e+001 125 93 69
4.151334e+000 1.272530e+000 -1.588393e+001 113 73 49
2.472910e+000 1.054685e+000 -1.545699e+001 226 211 173
2.472910e+000 1.054685e+000 -1.545699e+001 226 211 173
3.698577e+000 1.211700e+000 -1.581749e+001 115 82 54
3.694596e+000 1.103972e+000 -1.574474e+001 97 63 36
3.694596e+000 1.103972e+000 -1.574474e+001 97 63 36
3.763457e+000 1.192032e+000 -1.580755e+001 125 91 61
2.099637e+000 7.631863e-001 -1.518297e+001 177 139 105
2.140491e+000 7.870779e-001 -1.521667e+001 140 103 67
3.788991e+000 1.010654e+000 -1.570671e+001 116 82 54
2.816505e+000 6.354240e-001 -1.520254e+001 159 129 101
2.960804e+000 7.678333e-001 -1.536555e+001 100 74 47
3.282404e+000 6.711614e-001 -1.532812e+001 86 52 25
4.009726e+000 7.929441e-001 -1.556040e+001 134 98 64
2.650803e+000 4.114346e-001 -1.494683e+001 253 236 170
2.665832e+000 4.368874e-001 -1.497441e+001 67 45 24
3.079215e+000 4.647847e-001 -1.510698e+001 103 71 46
3.266489e+000 6.354923e-001 -1.528274e+001 132 100 72
1.888439e+000 3.778131e-001 -1.528520e+001 193 157 116
2.486577e+000 2.852053e-001 -1.480227e+001 166 148 115
3.265180e+000 3.980686e-001 -1.507993e+001 87 54 29
4.090255e+000 4.298350e-001 -1.525290e+001 103 64 31
1.503994e+000 4.343418e-001 -1.600461e+001 195 152 113
3.492050e+000 2.899757e-001 -1.505584e+001 67 37 13
1.460419e+000 1.187424e-001 -1.569053e+001 210 138 126
1.799098e+000 -1.067415e+000 -1.588779e+001 124 68 57
2.379852e+000 -1.218250e+000 -1.587395e+001 37 23 8
1.430732e+000 -1.674794e+000 -1.626591e+001 132 74 63
1.937620e+000 1.339883e+000 -1.564776e+001 166 134 98
2.118335e+000 1.417871e+000 -1.571324e+001 70 54 32
3.222786e+000 1.592227e+000 -1.604828e+001 100 63 34
3.171011e+000 1.389750e+000 -1.588224e+001 110 77 46
3.270569e+000 1.595548e+000 -1.605237e+001 155 121 86
3.566856e+000 1.589403e+000 -1.608490e+001 145 106 73
3.571089e+000 1.535552e+000 -1.603815e+001 103 66 37
3.643523e+000 1.612931e+000 -1.614165e+001 145 109 73
3.334654e+000 1.334146e+000 -1.585538e+001 124 89 62
3.823720e+000 1.444646e+000 -1.602612e+001 86 54 21
2.089614e+000 9.836287e-001 -1.534230e+001 184 151 113
3.573401e+000 1.134899e+000 -1.574817e+001 104 68 42
2.174924e+000 7.975492e-001 -1.525704e+001 142 105 76
2.614766e+000 7.510293e-001 -1.518255e+001 62 47 26
3.389918e+000 8.956161e-001 -1.553104e+001 104 69 39
3.649830e+000 9.341822e-001 -1.563598e+001 122 87 59
3.651824e+000 9.350357e-001 -1.564042e+001 122 87 59
2.126134e+000 6.405065e-001 -1.509705e+001 186 154 116
2.603639e+000 5.886597e-001 -1.505772e+001 76 64 42
3.346966e+000 7.489944e-001 -1.541329e+001 101 67 39
3.251345e+000 7.312454e-001 -1.538986e+001 99 64 38
3.228521e+000 6.833379e-001 -1.532612e+001 111 80 52
3.474009e+000 7.682877e-001 -1.544303e+001 126 92 64
3.386305e+000 7.077886e-001 -1.536317e+001 118 83 55
3.759300e+000 8.374178e-001 -1.557810e+001 103 67 33
3.668849e+000 6.951841e-001 -1.541616e+001 102 66 32
2.270728e+000 4.244001e-001 -1.484843e+001 148 110 73
3.624884e+000 6.357912e-001 -1.536032e+001 108 69 36
1.586109e+000 5.810801e-001 -1.596351e+001 153 118 78
3.385088e+000 4.633157e-001 -1.515227e+001 97 62 34
3.788724e+000 4.726234e-001 -1.521929e+001 122 81 50
4.254174e+000 4.198401e-001 -1.524704e+001 127 89 53
1.734764e+000 3.307703e-001 -1.547241e+001 211 173 128
2.320384e+000 1.702025e-001 -1.470039e+001 175 140 102
2.784284e+000 1.946193e-001 -1.480287e+001 128 111 85
3.524661e+000 2.788415e-001 -1.502806e+001 118 83 55
1.989483e+000 1.576066e-001 -1.526482e+001 125 86 55
2.035797e+000 -2.697816e-001 -1.512082e+001 141 100 50
4.317737e+000 -1.635414e-001 -1.526842e+001 78 46 21
9.467548e-001 -2.718111e-001 -1.585765e+001 158 100 78
2.009577e+000 -3.823773e-001 -1.519182e+001 180 133 59
1.357888e+000 -8.864548e-001 -1.579228e+001 173 115 101
1.634987e+000 -8.031338e-001 -1.588063e+001 168 110 97
1.634987e+000 -8.031338e-001 -1.588063e+001 168 110 97
1.690728e+000 -7.322352e-001 -1.594683e+001 135 66 69
2.333853e+000 -8.070640e-001 -1.531978e+001 103 72 43
3.960119e+000 -7.308775e-001 -1.591564e+001 52 30 8
2.179709e+000 -9.877035e-001 -1.551999e+001 98 81 56
2.437883e+000 -9.293121e-001 -1.560624e+001 39 25 17
3.950142e+000 -8.229515e-001 -1.601160e+001 88 65 43
4.125013e+000 -9.057629e-001 -1.620137e+001 55 31 9
-9.504540e-001 -1.353147e+000 -1.647798e+001 92 70 60
-9.512779e-001 -1.353611e+000 -1.648494e+001 92 70 60
2.415163e+000 -1.349290e+000 -1.600442e+001 38 25 10
1.987392e+000 -1.430048e+000 -1.582868e+001 178 146 105
3.170283e+000 -1.383638e+000 -1.637698e+001 66 43 22
-1.265666e+000 -1.723325e+000 -1.625330e+001 141 94 64
2.299425e+000 -1.860624e+000 -1.665915e+001 51 35 18
2.070067e+000 -2.026468e+000 -1.676107e+001 126 92 65
3.035255e+000 -2.050733e+000 -1.724009e+001 99 75 51
3.590255e+000 1.453414e+000 -1.597458e+001 131 98 70
3.840471e+000 1.504690e+000 -1.607385e+001 124 91 60
3.843432e+000 1.507064e+000 -1.608227e+001 124 91 60
2.206937e+000 1.144872e+000 -1.551021e+001 65 48 28
3.330014e+000 1.263230e+000 -1.581230e+001 86 54 26
3.734501e+000 1.430605e+000 -1.598819e+001 89 55 27
3.798662e+000 1.388417e+000 -1.596873e+001 124 93 64
3.885553e+000 1.381562e+000 -1.599247e+001 117 84 53
2.478575e+000 1.018696e+000 -1.543498e+001 47 33 20
2.931644e+000 1.091108e+000 -1.564128e+001 81 53 29
3.479622e+000 1.064585e+000 -1.567280e+001 137 104 73
2.369216e+000 7.989802e-001 -1.524553e+001 47 35 19
2.520446e+000 8.755252e-001 -1.532677e+001 69 50 35
2.559711e+000 7.252162e-001 -1.517032e+001 77 60 37
3.174360e+000 8.681588e-001 -1.546886e+001 127 96 67
3.467917e+000 1.006919e+000 -1.564958e+001 97 63 35
2.821456e+000 7.455420e-001 -1.532006e+001 141 111 83
3.070148e+000 7.175474e-001 -1.534041e+001 81 54 25
3.261353e+000 7.829061e-001 -1.540969e+001 98 63 35
3.989156e+000 6.918981e-001 -1.544283e+001 108 67 35
3.989156e+000 6.918981e-001 -1.544283e+001 108 67 35
2.740233e+000 3.705012e-001 -1.490869e+001 132 113 80
3.768310e+000 5.061789e-001 -1.524441e+001 145 107 70
4.112341e+000 4.338003e-001 -1.522801e+001 128 93 61
2.096638e+000 3.685030e-002 -1.493104e+001 67 60 32
2.414202e+000 5.398794e-002 -1.467967e+001 126 93 58
2.419030e+000 -1.691726e-002 -1.469242e+001 117 82 49
1.781075e+000 3.281040e-002 -1.544493e+001 156 107 68
2.099514e+000 -6.089609e-002 -1.498166e+001 94 84 58
2.160653e+000 -1.234909e-001 -1.476463e+001 112 102 74
2.176019e+000 -5.172292e-002 -1.466746e+001 73 65 38
2.183369e+000 -9.566649e-002 -1.464815e+001 141 122 89
4.328352e+000 -3.274272e-004 -1.519699e+001 89 55 27
2.061455e+000 -1.980576e-001 -1.506342e+001 156 137 105
2.773820e+000 -3.318737e-001 -1.489004e+001 51 39 27
1.088108e+000 -4.780000e-001 -1.557788e+001 171 108 93
3.427080e+000 -5.018343e-001 -1.533386e+001 71 44 23
1.909623e+000 -7.014830e-001 -1.530720e+001 186 152 117
4.220782e+000 -6.077442e-001 -1.584765e+001 93 64 40
3.869072e+000 -6.815167e-001 -1.583651e+001 62 43 19
3.976291e+000 -9.509383e-001 -1.617939e+001 67 45 22
3.562293e+000 -1.293364e+000 -1.639471e+001 50 28 6
1.383476e+000 -1.507240e+000 -1.584765e+001 185 144 126
1.861883e+000 -1.454879e+000 -1.613902e+001 92 39 35
1.861883e+000 -1.454879e+000 -1.613902e+001 92 39 35
1.951637e+000 -1.508422e+000 -1.609416e+001 159 116 98
3.462207e+000 -1.472147e+000 -1.662462e+001 73 52 30
2.056067e+000 -2.120095e+000 -1.688630e+001 122 88 62
2.105641e+000 -2.192216e+000 -1.695400e+001 41 31 20
2.014792e+000 1.440390e+000 -1.571294e+001 56 37 24
3.209595e+000 1.383050e+000 -1.585380e+001 135 102 71
3.542790e+000 1.456315e+000 -1.596369e+001 102 65 37
3.592449e+000 1.245950e+000 -1.581626e+001 137 104 71
3.705286e+000 1.300017e+000 -1.587806e+001 88 57 28
2.564923e+000 7.886794e-001 -1.529541e+001 69 56 39
1.730951e+000 9.277926e-001 -1.598832e+001 81 63 39
2.165285e+000 4.634915e-001 -1.496437e+001 137 104 71
4.491332e+000 6.404010e-001 -1.549620e+001 110 75 38
1.873873e+000 4.445696e-001 -1.542993e+001 203 164 120
2.206462e+000 3.529963e-001 -1.489176e+001 136 102 67
3.256851e+000 4.466133e-001 -1.513500e+001 87 55 30
3.252101e+000 4.427839e-001 -1.511540e+001 87 55 30
3.285764e+000 3.784323e-001 -1.509369e+001 89 57 34
2.063719e+000 2.201838e-001 -1.508955e+001 155 125 95
2.063295e+000 2.207826e-001 -1.509446e+001 155 125 95
2.283512e+000 7.719692e-002 -1.469233e+001 132 96 65
2.289354e+000 -2.540461e-002 -1.463451e+001 198 163 122
1.616961e+000 9.372317e-002 -1.555519e+001 187 118 92
2.428832e+000 -1.293703e-001 -1.466742e+001 138 107 76
3.264010e+000 1.294955e-002 -1.492281e+001 81 50 22
1.976116e+000 -2.182558e-001 -1.523779e+001 135 86 41
2.003958e+000 -4.943242e-001 -1.524706e+001 121 78 36
3.461381e+000 -4.670930e-001 -1.528530e+001 107 80 53
4.128943e+000 -3.871877e-001 -1.550509e+001 103 75 49
1.163899e+000 -5.697587e-001 -1.561273e+001 155 93 82
2.541252e+000 -6.181234e-001 -1.520999e+001 30 20 12
3.438468e+000 -5.915788e-001 -1.550751e+001 72 43 25
3.995231e+000 -6.731894e-001 -1.585645e+001 61 42 18
2.215764e+000 -1.117417e+000 -1.562602e+001 91 67 41
2.264879e+000 -1.007330e+000 -1.555556e+001 186 160 133
3.736085e+000 -1.116631e+000 -1.625752e+001 93 63 39
3.736596e+000 -1.116628e+000 -1.625806e+001 93 63 39
2.187627e+000 -1.343893e+000 -1.587122e+001 207 177 151
2.184618e+000 -1.342049e+000 -1.584910e+001 207 177 151
-8.423636e-001 -1.575298e+000 -1.608661e+001 147 107 83
3.200160e+000 -1.369773e+000 -1.635425e+001 65 43 22
1.767992e+000 -1.903500e+000 -1.668623e+001 170 112 99
3.094409e+000 -2.057595e+000 -1.729030e+001 70 47 23
1.845693e+000 -2.287521e+000 -1.706329e+001 186 147 116
2.062900e+000 1.304813e+000 -1.559482e+001 59 38 21
3.378369e+000 1.425201e+000 -1.593042e+001 134 99 70
3.302243e+000 1.201376e+000 -1.578034e+001 120 89 60
3.666231e+000 1.120207e+000 -1.574016e+001 95 61 33
3.982573e+000 1.179009e+000 -1.585814e+001 92 61 33
3.543672e+000 7.488820e-001 -1.543801e+001 128 95 65
1.718547e+000 6.561364e-001 -1.581960e+001 193 160 117
2.996688e+000 6.088825e-001 -1.522005e+001 89 59 34
2.251276e+000 2.325919e-001 -1.474827e+001 141 103 67
2.024034e+000 2.089025e-001 -1.518485e+001 56 45 27
4.203223e+000 1.554586e-001 -1.516196e+001 79 45 21
4.252063e+000 -6.510604e-001 -1.591591e+001 74 44 18
3.745256e+000 -1.272028e+000 -1.642561e+001 109 83 56
3.745819e+000 -1.273801e+000 -1.644113e+001 109 83 56
1.664700e+000 -1.523789e+000 -1.606925e+001 104 38 38
1.919123e+000 -1.456837e+000 -1.616303e+001 161 108 90
1.867657e+000 -1.563891e+000 -1.622783e+001 136 92 81
1.836421e+000 -1.914972e+000 -1.673194e+001 106 45 40
1.855477e+000 -2.087984e+000 -1.702217e+001 108 59 42
3.942975e+000 -2.014281e+000 -1.751477e+001 88 58 33
2.242617e+000 -2.502471e+000 -1.709868e+001 80 66 55
2.177614e+000 1.684054e+000 -1.599096e+001 214 198 180
4.013077e+000 1.323734e+000 -1.595264e+001 89 56 25
2.167345e+000 8.796145e-001 -1.532509e+001 58 37 23
3.913181e+000 8.215678e-001 -1.555229e+001 137 99 63
2.199102e+000 2.662377e-001 -1.496932e+001 173 138 108
2.441396e+000 5.239328e-003 -1.455182e+001 58 39 22
1.107497e+000 -1.609002e-001 -1.567471e+001 218 160 140
2.719808e+000 -4.116917e-001 -1.484480e+001 24 17 11
4.038512e+000 -5.452229e-001 -1.570992e+001 97 73 47
4.330342e+000 -5.925850e-001 -1.585459e+001 124 93 64
1.338607e+000 -8.658296e-001 -1.576826e+001 166 106 95
3.507704e+000 -7.716981e-001 -1.574970e+001 106 79 52
4.022931e+000 -7.353852e-001 -1.590192e+001 90 66 42
1.839843e+000 -1.054510e+000 -1.586018e+001 146 107 89
-8.552608e-001 -1.514773e+000 -1.619242e+001 121 79 55
2.126453e+000 -2.223066e+000 -1.708066e+001 54 45 38
2.675209e+000 -2.271073e+000 -1.731802e+001 139 111 89
4.006166e+000 -2.258352e+000 -1.780315e+001 125 98 66
2.469670e+000 9.524273e-001 -1.540282e+001 145 121 87
3.425992e+000 5.729212e-001 -1.526205e+001 126 91 59
4.261793e+000 4.832582e-001 -1.527786e+001 97 61 29
1.468152e+000 6.392279e-002 -1.562261e+001 208 136 124
2.440634e+000 -6.756231e-002 -1.466546e+001 57 33 21
1.110320e+000 -3.324406e-001 -1.557320e+001 183 103 96
4.296385e+000 -3.724554e-001 -1.548733e+001 91 60 32
4.368791e+000 -4.234680e-001 -1.556101e+001 118 88 60
1.741324e+000 -8.082210e-001 -1.595971e+001 98 40 38
1.673634e+000 -9.749320e-001 -1.585260e+001 94 35 27
3.484038e+000 -9.880240e-001 -1.603910e+001 108 80 52
1.559842e+000 -1.205717e+000 -1.595528e+001 106 41 39
3.050727e+000 -1.336113e+000 -1.626043e+001 101 75 50
-1.001160e+000 -1.538093e+000 -1.614484e+001 161 117 88
1.352506e+000 -1.446559e+000 -1.584105e+001 159 114 94
3.018666e+000 -1.808120e+000 -1.690884e+001 73 51 30
2.535616e+000 1.084769e+000 -1.544555e+001 75 62 46
2.389901e+000 7.746531e-001 -1.515364e+001 71 58 41
2.625783e+000 8.020703e-001 -1.522719e+001 87 70 45
2.498237e+000 5.548914e-001 -1.505368e+001 75 62 40
3.770306e+000 -6.643960e-002 -1.510401e+001 73 42 20
3.832082e+000 -3.008001e-001 -1.527406e+001 103 74 49
3.829319e+000 -3.013061e-001 -1.526958e+001 103 74 49
3.745205e+000 -1.027612e+000 -1.617316e+001 104 74 48
2.093243e+000 -1.280202e+000 -1.576622e+001 72 67 48
2.092528e+000 -1.280100e+000 -1.575592e+001 72 67 48
4.385618e+000 -1.255113e+000 -1.668500e+001 99 68 38
1.740403e+000 -1.718421e+000 -1.640665e+001 173 114 108
1.637853e+000 -1.811901e+000 -1.667133e+001 97 32 36
2.470682e+000 -2.254690e+000 -1.729185e+001 46 31 24
2.037938e+000 1.644816e+000 -1.608575e+001 97 76 57
3.141721e+000 1.250004e+000 -1.577494e+001 106 76 47
3.425275e+000 -2.196378e-001 -1.505783e+001 82 54 32
2.079205e+000 -3.379785e-001 -1.497969e+001 184 155 119
3.503372e+000 -4.285909e-001 -1.523188e+001 112 82 55
8.568480e-001 -7.556033e-001 -1.579499e+001 191 135 112
1.195481e+000 -8.696167e-001 -1.576758e+001 130 62 53
2.803127e+000 -1.465942e+000 -1.637575e+001 127 101 76
2.803127e+000 -1.465942e+000 -1.637575e+001 127 101 76
2.964152e+000 -1.531828e+000 -1.655090e+001 66 43 27
4.074302e+000 -2.031095e+000 -1.761950e+001 131 100 69
-5.478629e-001 -1.907981e+000 -1.626149e+001 93 67 54
3.867529e+000 1.600646e+000 -1.623359e+001 98 65 30
3.841278e+000 7.231320e-001 -1.546760e+001 152 109 74
1.932979e+000 -6.112130e-001 -1.527029e+001 199 161 114
2.132773e+000 -1.145492e-001 -1.505748e+001 56 48 28
4.164126e+000 -2.480359e+000 -1.805157e+001 164 135 91
3.947380e+000 -8.773652e-001 -1.604245e+001 77 51 31
4.057270e+000 7.662088e-001 -1.572294e+001 121 82 47
2.032609e+000 1.580330e+000 -1.584957e+001 73 58 36
2.004822e+000 1.551248e+000 -1.585713e+001 77 51 36
2.507742e+000 1.510035e+000 -1.589309e+001 129 105 80
3.094481e+000 1.639408e+000 -1.606629e+001 106 71 41
3.716599e+000 1.717184e+000 -1.627963e+001 98 59 25
1.908565e+000 1.348207e+000 -1.566019e+001 204 171 138
3.600899e+000 1.524778e+000 -1.604203e+001 137 101 69
1.829643e+000 1.211070e+000 -1.559365e+001 161 134 103
1.841993e+000 1.159877e+000 -1.549130e+001 78 67 35
1.841575e+000 1.165305e+000 -1.551643e+001 78 67 35
1.902857e+000 1.086382e+000 -1.544952e+001 173 140 108
2.065609e+000 1.149019e+000 -1.547651e+001 145 113 80
2.208927e+000 1.059961e+000 -1.543856e+001 69 53 29
2.296662e+000 1.086088e+000 -1.552094e+001 50 40 20
2.694407e+000 1.139433e+000 -1.561431e+001 140 109 81
3.080656e+000 1.243559e+000 -1.577117e+001 88 56 34
1.850296e+000 1.018441e+000 -1.550904e+001 90 75 45
2.454434e+000 1.033652e+000 -1.544726e+001 74 58 28
2.591042e+000 1.055163e+000 -1.550029e+001 70 53 33
3.168063e+000 1.161315e+000 -1.573663e+001 85 55 29
3.743987e+000 1.204148e+000 -1.582834e+001 88 53 25
3.764951e+000 1.193208e+000 -1.581228e+001 125 91 61
1.695646e+000 9.819880e-001 -1.586000e+001 189 159 126
2.059873e+000 8.408211e-001 -1.525555e+001 209 175 139
2.318980e+000 8.731401e-001 -1.527767e+001 120 103 77
2.439156e+000 8.798537e-001 -1.540467e+001 28 15 2
2.542642e+000 9.087311e-001 -1.534252e+001 136 114 81
3.376730e+000 9.243356e-001 -1.557519e+001 125 92 59
3.379029e+000 9.251877e-001 -1.558235e+001 125 92 59
4.360780e+000 9.807765e-001 -1.582868e+001 114 85 65
1.453170e+000 8.505216e-001 -1.644218e+001 198 159 126
1.712843e+000 7.559370e-001 -1.576027e+001 65 59 31
2.095492e+000 6.893321e-001 -1.517958e+001 138 104 69
2.081266e+000 6.592772e-001 -1.522955e+001 132 97 62
2.150827e+000 6.242282e-001 -1.505437e+001 229 196 162
2.249352e+000 7.144077e-001 -1.524824e+001 62 41 22
2.249352e+000 7.144077e-001 -1.524824e+001 62 41 22
2.247312e+000 5.930470e-001 -1.500693e+001 143 113 74
2.560285e+000 7.143587e-001 -1.518679e+001 84 62 40
2.842244e+000 7.073880e-001 -1.535137e+001 137 107 78
3.833608e+000 7.267192e-001 -1.514011e+001 112 73 40
4.320507e+000 9.517616e-001 -1.577511e+001 118 84 57
1.357922e+000 7.716848e-001 -1.654006e+001 145 105 69
2.637689e+000 6.160494e-001 -1.512202e+001 176 150 105
2.711250e+000 5.140770e-001 -1.502802e+001 67 49 29
2.856493e+000 6.642644e-001 -1.530843e+001 139 108 79
3.246228e+000 6.472023e-001 -1.530907e+001 98 64 37
3.337147e+000 6.358500e-001 -1.530213e+001 76 42 17
3.971086e+000 6.535669e-001 -1.541547e+001 150 110 75
4.523013e+000 6.991746e-001 -1.566812e+001 95 62 29
3.279672e+000 4.258240e-001 -1.510596e+001 110 78 53
1.238149e+000 5.303339e-001 -1.658691e+001 206 167 128
1.575970e+000 4.353986e-001 -1.587406e+001 160 116 79
1.576227e+000 4.398508e-001 -1.591710e+001 160 116 79
1.741303e+000 2.980838e-001 -1.547068e+001 185 147 102
2.150049e+000 3.301459e-001 -1.501025e+001 124 95 71
2.221654e+000 3.009437e-001 -1.476563e+001 175 141 106
2.454792e+000 2.457735e-001 -1.480785e+001 65 48 23
2.584475e+000 2.535694e-001 -1.485806e+001 79 64 41
2.741350e+000 2.409506e-001 -1.478682e+001 159 136 108
2.663762e+000 1.017871e-001 -1.486219e+001 54 42 29
1.641589e+000 3.611102e-002 -1.543040e+001 182 119 84
2.022678e+000 7.473754e-002 -1.523838e+001 182 144 111
2.118992e+000 2.667648e-002 -1.482693e+001 105 94 71
2.139482e+000 -4.062763e-002 -1.479089e+001 97 90 62
2.139482e+000 -4.062763e-002 -1.479089e+001 97 90 62
2.504342e+000 -3.518249e-002 -1.471156e+001 75 53 32
2.587544e+000 5.397765e-002 -1.469790e+001 40 27 12
2.053125e+000 -7.567365e-002 -1.506513e+001 139 111 83
2.520416e+000 -5.282009e-002 -1.472376e+001 225 198 144
4.598762e+000 1.094524e-001 -1.532565e+001 76 42 14
4.720221e+000 4.236710e-003 -1.490220e+001 151 112 60
2.086266e+000 -2.068747e-001 -1.501114e+001 85 69 47
2.574739e+000 -2.366196e-001 -1.471931e+001 58 42 27
2.785256e+000 -2.354439e-001 -1.475608e+001 57 38 24
1.999720e+000 -3.309598e-001 -1.509394e+001 177 137 76
2.610659e+000 -2.819894e-001 -1.472663e+001 116 99 81
2.643389e+000 -2.850632e-001 -1.478999e+001 46 31 15
3.250449e+000 -3.384350e-001 -1.500252e+001 75 47 28
2.748239e+000 -4.702132e-001 -1.484521e+001 57 47 33
3.308590e+000 -3.760705e-001 -1.512390e+001 55 31 12
2.547115e+000 -5.309584e-001 -1.488326e+001 78 62 46
2.259098e+000 -7.626698e-001 -1.530356e+001 119 85 60
2.452560e+000 -7.439317e-001 -1.536213e+001 50 34 21
4.014698e+000 -5.771149e-001 -1.574438e+001 93 69 43
2.491861e+000 -8.524021e-001 -1.551854e+001 40 28 16
1.117578e+000 -1.047769e+000 -1.566160e+001 134 67 51
1.142255e+000 -1.038772e+000 -1.564475e+001 198 140 120
2.024742e+000 -9.510176e-001 -1.559212e+001 54 38 23
2.284942e+000 -1.029673e+000 -1.555944e+001 105 77 53
2.440924e+000 -9.590776e-001 -1.560397e+001 113 95 68
3.557915e+000 -9.089560e-001 -1.599327e+001 104 77 52
3.776655e+000 -9.724678e-001 -1.614300e+001 102 80 58
3.858463e+000 -8.834344e-001 -1.603984e+001 65 40 18
2.395905e+000 -1.083331e+000 -1.573497e+001 43 30 13
4.747747e+000 -9.823571e-001 -1.516879e+001 104 78 37
-1.061379e+000 -1.403608e+000 -1.616694e+001 145 106 77
2.460480e+000 -1.207392e+000 -1.592221e+001 102 88 64
2.584757e+000 -1.318493e+000 -1.602099e+001 53 41 20
3.596773e+000 -1.241842e+000 -1.637398e+001 61 36 14
2.030359e+000 -1.366935e+000 -1.579184e+001 131 96 65
2.366226e+000 -1.342810e+000 -1.599831e+001 45 32 15
3.607172e+000 -1.362933e+000 -1.650839e+001 63 38 17
1.509965e+000 -1.662985e+000 -1.611871e+001 163 102 97
2.108958e+000 -1.515515e+000 -1.595163e+001 122 88 61
2.322060e+000 -1.574770e+000 -1.625948e+001 52 40 18
3.287717e+000 -1.521149e+000 -1.656973e+001 89 66 48
1.878226e+000 -1.791196e+000 -1.635870e+001 54 45 28
2.270513e+000 -1.771092e+000 -1.647859e+001 62 47 25
2.295997e+000 -1.674197e+000 -1.637236e+001 63 47 31
2.473351e+000 -1.690667e+000 -1.650474e+001 78 62 44
2.515660e+000 -1.708813e+000 -1.650551e+001 40 24 9
4.720422e+000 -1.454758e+000 -1.542373e+001 108 79 39
4.720422e+000 -1.454758e+000 -1.542373e+001 108 79 39
4.854420e+000 -1.339224e+000 -1.485478e+001 115 83 42
1.382071e+000 -1.909107e+000 -1.638992e+001 185 124 111
3.583732e+000 -1.857382e+000 -1.722973e+001 83 57 32
1.673679e+000 -2.122955e+000 -1.697139e+001 119 68 49
4.834459e+000 -1.624519e+000 -1.479205e+001 126 94 53
4.660303e+000 -2.054277e+000 -1.605661e+001 113 85 45
4.812247e+000 -1.848767e+000 -1.506169e+001 123 94 53
1.726349e+000 1.452078e+000 -1.597106e+001 80 72 44
1.939630e+000 1.465125e+000 -1.567514e+001 144 107 80
2.338349e+000 1.527009e+000 -1.585507e+001 82 66 44
2.940194e+000 1.623395e+000 -1.601640e+001 168 132 98
3.283684e+000 1.653297e+000 -1.614179e+001 100 64 30
3.222457e+000 1.591596e+000 -1.604596e+001 100 63 34
3.618724e+000 1.641805e+000 -1.616421e+001 104 65 32
3.897712e+000 1.647755e+000 -1.623223e+001 125 89 57
4.217313e+000 1.730816e+000 -1.640857e+001 125 86 45
4.603043e+000 1.346228e+000 -1.492714e+001 187 146 88
1.885393e+000 1.366409e+000 -1.575869e+001 145 112 84
1.828383e+000 1.364972e+000 -1.593931e+001 121 92 65
1.953272e+000 1.233940e+000 -1.554896e+001 233 201 168
2.375312e+000 1.316512e+000 -1.563784e+001 78 62 47
3.884770e+000 1.493728e+000 -1.608767e+001 98 64 36
1.941088e+000 1.073493e+000 -1.542937e+001 138 108 70
2.524586e+000 1.233892e+000 -1.558162e+001 66 49 29
2.545947e+000 1.196451e+000 -1.559265e+001 60 43 25
2.474757e+000 1.095120e+000 -1.549964e+001 62 44 22
2.570828e+000 1.096668e+000 -1.549818e+001 63 48 29
3.086698e+000 1.261908e+000 -1.571161e+001 116 84 59
3.024554e+000 1.166057e+000 -1.571322e+001 84 54 31
3.202044e+000 1.255816e+000 -1.581679e+001 85 56 35
1.876690e+000 1.014918e+000 -1.555831e+001 117 97 69
3.457502e+000 1.089626e+000 -1.574051e+001 80 46 19
4.097042e+000 1.217805e+000 -1.593330e+001 116 80 48
4.612864e+000 9.752395e-001 -1.498385e+001 148 111 58
2.287797e+000 8.239244e-001 -1.525109e+001 75 57 37
2.453038e+000 8.164357e-001 -1.532836e+001 28 16 2
3.537153e+000 1.008612e+000 -1.564243e+001 90 55 29
3.803204e+000 9.623053e-001 -1.571673e+001 111 75 41
1.778516e+000 8.004987e-001 -1.563752e+001 92 77 51
2.172205e+000 6.713030e-001 -1.508755e+001 166 131 95
2.125284e+000 6.393241e-001 -1.509001e+001 186 154 116
2.255244e+000 6.351222e-001 -1.508844e+001 55 38 20
2.304180e+000 7.372772e-001 -1.514508e+001 33 28 18
2.425053e+000 5.878386e-001 -1.494917e+001 66 51 32
2.692214e+000 7.683216e-001 -1.532085e+001 79 62 36
2.698163e+000 7.252136e-001 -1.524568e+001 77 57 33
3.474502e+000 7.681738e-001 -1.544395e+001 126 92 64
3.954140e+000 8.512025e-001 -1.559758e+001 136 97 64
1.182213e+000 8.532363e-001 -1.673095e+001 216 203 188
1.470507e+000 7.313852e-001 -1.625585e+001 172 147 112
2.181036e+000 5.232603e-001 -1.494982e+001 189 157 119
3.287439e+000 6.742150e-001 -1.534398e+001 86 52 25
2.339357e+000 4.038089e-001 -1.486886e+001 53 36 22
2.445432e+000 3.700557e-001 -1.483704e+001 80 59 35
2.684623e+000 3.882703e-001 -1.493041e+001 69 52 31
3.200853e+000 5.008813e-001 -1.512439e+001 148 113 81
3.856339e+000 4.713872e-001 -1.523417e+001 114 71 37
3.856339e+000 4.713872e-001 -1.523417e+001 114 71 37
1.443939e+000 4.042269e-001 -1.596609e+001 179 114 87
2.320214e+000 2.508814e-001 -1.473283e+001 115 77 40
3.421396e+000 3.314383e-001 -1.507041e+001 94 63 34
1.613063e+000 1.586758e-001 -1.559890e+001 205 149 116
2.390744e+000 1.053605e-001 -1.467643e+001 143 105 69
2.642003e+000 1.321139e-001 -1.479382e+001 57 46 27
1.947021e+000 1.353031e-002 -1.531873e+001 131 88 53
2.165282e+000 6.282561e-002 -1.489223e+001 139 103 71
2.161392e+000 -1.845498e-002 -1.471048e+001 128 114 87
2.792981e+000 2.503909e-002 -1.476059e+001 63 46 26
9.945032e-001 -4.251652e-002 -1.598214e+001 155 79 66
1.898770e+000 -2.355746e-002 -1.538938e+001 161 117 78
1.973453e+000 -5.407615e-002 -1.520658e+001 153 111 73
2.135108e+000 -1.459976e-001 -1.485503e+001 111 101 75
9.989837e-001 -2.308553e-001 -1.571563e+001 175 98 86
1.715546e+000 -1.515208e-001 -1.546527e+001 175 109 93
1.986514e+000 -1.566028e-001 -1.511232e+001 150 118 84
1.987018e+000 -3.844041e-001 -1.525539e+001 135 94 45
2.303846e+000 -3.717993e-001 -1.486515e+001 117 84 58
2.335481e+000 -2.842001e-001 -1.472213e+001 156 124 95
2.366111e+000 -2.859547e-001 -1.469647e+001 155 124 93
2.353564e+000 -3.858374e-001 -1.487278e+001 126 92 64
2.786986e+000 -2.995666e-001 -1.486321e+001 39 25 19
2.832038e+000 -3.080888e-001 -1.479874e+001 52 36 21
4.256478e+000 -2.047711e-001 -1.530377e+001 64 35 11
1.786479e+000 -4.136250e-001 -1.547872e+001 95 56 40
2.301657e+000 -4.973096e-001 -1.493456e+001 166 131 100
2.443861e+000 -4.235288e-001 -1.491570e+001 107 73 46
2.697446e+000 -4.479327e-001 -1.487026e+001 62 50 34
2.755113e+000 -4.413972e-001 -1.487958e+001 23 14 6
2.682587e+000 -5.291630e-001 -1.478698e+001 67 56 39
2.771713e+000 -5.403709e-001 -1.477745e+001 81 66 45
4.026718e+000 -4.829448e-001 -1.553624e+001 100 75 51
9.234220e-001 -7.253619e-001 -1.578076e+001 163 113 85
8.795641e-001 -8.319238e-001 -1.576009e+001 159 98 83
1.648576e+000 -7.463154e-001 -1.594103e+001 138 70 71
2.788705e+000 -6.808332e-001 -1.479854e+001 79 63 47
3.622280e+000 -6.278777e-001 -1.564072e+001 58 34 11
7.480690e-002 -9.885942e-001 -1.650902e+001 183 135 112
2.318493e+000 -8.328349e-001 -1.531731e+001 115 81 54
2.383018e+000 -8.328187e-001 -1.541569e+001 49 36 18
3.377528e+000 -7.137152e-001 -1.569969e+001 68 41 22
3.739878e+000 -7.456595e-001 -1.586843e+001 93 69 44
3.739878e+000 -7.456595e-001 -1.586843e+001 93 69 44
4.021716e+000 -8.144448e-001 -1.605403e+001 63 38 17
1.059745e+000 -9.852764e-001 -1.571304e+001 195 132 115
2.005141e+000 -1.013367e+000 -1.557984e+001 60 51 32
2.296662e+000 -9.923649e-001 -1.552350e+001 91 66 39
2.448329e+000 -8.963333e-001 -1.560331e+001 74 63 45
3.091500e+000 -9.954770e-001 -1.593294e+001 56 38 18
3.833429e+000 -9.598790e-001 -1.612493e+001 87 63 39
9.368986e-001 -1.197685e+000 -1.570819e+001 165 91 88
2.128758e+000 -1.225963e+000 -1.561434e+001 54 42 20
2.607644e+000 -1.197065e+000 -1.590797e+001 61 46 27
2.660299e+000 -1.177940e+000 -1.589171e+001 37 24 13
2.645767e+000 -1.258560e+000 -1.592357e+001 89 71 50
3.565750e+000 -1.293383e+000 -1.639529e+001 50 28 6
-7.490178e-001 -1.559157e+000 -1.613650e+001 104 64 39
2.377377e+000 -1.384809e+000 -1.607219e+001 80 68 48
2.372967e+000 -1.425199e+000 -1.609021e+001 43 30 13
3.748270e+000 -1.341958e+000 -1.654489e+001 70 46 22
1.471113e+000 -1.526767e+000 -1.582976e+001 115 66 52
1.400435e+000 -1.654659e+000 -1.621918e+001 159 106 92
2.382375e+000 -1.560773e+000 -1.625371e+001 37 27 17
2.310748e+000 -1.639087e+000 -1.633794e+001 47 33 18
3.291252e+000 -1.468833e+000 -1.649097e+001 88 66 47
3.668375e+000 -1.509443e+000 -1.686098e+001 72 47 25
3.668375e+000 -1.509443e+000 -1.686098e+001 72 47 25
-5.251249e-001 -1.819727e+000 -1.619121e+001 97 64 45
1.981946e+000 -1.753204e+000 -1.612878e+001 65 56 39
2.294978e+000 -1.738886e+000 -1.647824e+001 51 38 24
1.890182e+000 -1.993275e+000 -1.682954e+001 115 68 54
2.466135e+000 -1.966229e+000 -1.688029e+001 156 136 112
2.466135e+000 -1.966229e+000 -1.688029e+001 156 136 112
-1.248441e+000 -2.179428e+000 -1.621021e+001 180 110 110
1.588699e+000 -2.100493e+000 -1.679635e+001 167 108 100
1.789224e+000 -2.255913e+000 -1.707783e+001 146 105 77
-1.082454e+000 -2.437102e+000 -1.638136e+001 149 78 84
1.757792e+000 -2.289170e+000 -1.714420e+001 182 141 109
4.761415e+000 -2.303707e+000 -1.548404e+001 169 140 98
1.887425e+000 1.629265e+000 -1.591159e+001 164 132 101
1.694425e+000 1.511998e+000 -1.599105e+001 91 83 54
1.788150e+000 1.335971e+000 -1.587429e+001 169 139 108
1.853959e+000 1.383590e+000 -1.586968e+001 176 145 116
1.919974e+000 1.237526e+000 -1.553497e+001 137 105 73
2.026407e+000 1.285517e+000 -1.559668e+001 143 115 78
2.488987e+000 1.399441e+000 -1.573074e+001 74 58 35
1.767592e+000 1.121031e+000 -1.572090e+001 188 157 123
1.964291e+000 1.103362e+000 -1.545812e+001 247 219 184
2.550626e+000 1.142147e+000 -1.551218e+001 66 50 29
3.193440e+000 1.200555e+000 -1.575452e+001 118 89 59
3.334613e+000 1.332197e+000 -1.585108e+001 124 89 62
3.396563e+000 1.235641e+000 -1.580481e+001 125 94 66
1.985059e+000 1.014912e+000 -1.545029e+001 126 93 61
2.279658e+000 9.692481e-001 -1.534888e+001 123 103 75
2.546047e+000 9.783748e-001 -1.544903e+001 69 56 32
2.086187e+000 8.727025e-001 -1.531399e+001 120 81 50
2.151968e+000 7.261473e-001 -1.510168e+001 128 93 61
2.332601e+000 8.304670e-001 -1.526284e+001 134 114 78
2.226493e+000 7.427135e-001 -1.524766e+001 56 34 21
2.414812e+000 6.618846e-001 -1.512215e+001 56 42 26
2.605040e+000 7.122177e-001 -1.521223e+001 150 126 88
2.666883e+000 6.254185e-001 -1.509540e+001 67 50 30
3.978657e+000 8.536558e-001 -1.558541e+001 111 72 39
1.478361e+000 6.663681e-001 -1.610386e+001 73 65 26
2.212487e+000 4.656579e-001 -1.489698e+001 216 180 145
2.476551e+000 4.821787e-001 -1.495266e+001 62 46 28
3.164811e+000 5.341514e-001 -1.517246e+001 105 70 42
3.298228e+000 5.997575e-001 -1.523601e+001 123 89 61
3.704363e+000 6.466109e-001 -1.538794e+001 115 79 46
3.706322e+000 6.474074e-001 -1.539412e+001 115 79 46
2.334667e+000 3.753206e-001 -1.489907e+001 144 110 69
3.331660e+000 5.167472e-001 -1.522018e+001 79 48 22
3.805860e+000 5.435845e-001 -1.527948e+001 120 81 46
2.368614e+000 2.132028e-001 -1.473351e+001 143 104 68
2.471509e+000 3.126310e-001 -1.478189e+001 77 61 38
2.710414e+000 3.292779e-001 -1.487605e+001 81 63 43
4.451832e+000 4.897409e-001 -1.539465e+001 142 103 62
2.154529e+000 1.059546e-001 -1.499850e+001 175 137 106
2.137091e+000 -2.618531e-003 -1.482484e+001 65 59 34
2.820558e+000 5.249299e-003 -1.474407e+001 138 120 96
2.820558e+000 5.249299e-003 -1.474407e+001 138 120 96
1.166084e+000 -6.650455e-002 -1.571093e+001 210 132 124
2.165719e+000 -1.597094e-001 -1.480752e+001 71 60 38
2.165719e+000 -1.597094e-001 -1.480752e+001 71 60 38
2.531508e+000 -1.515402e-001 -1.471452e+001 38 24 13
2.647143e+000 -8.088154e-002 -1.473693e+001 66 49 32
2.833392e+000 -7.381865e-002 -1.473832e+001 56 37 21
