ply
format ascii 1.0
element face 0
property list uchar int vertex_indices
element vertex 885
property float x
property float y
property float z
property uchar diffuse_red
property uchar diffuse_green
property uchar diffuse_blue
end_header
3.101411e+000 -5.698126e-001 -1.504502e+001 114 92 69
3.700294e+000 -4.811063e-001 -1.509156e+001 150 123 93
4.119179e+000 -2.259053e-001 -1.502309e+001 114 83 54
4.854437e+000 -3.391560e+000 -1.625461e+001 167 138 90
4.827808e+000 -3.505069e+000 -1.625066e+001 245 215 161
2.704546e+000 -6.117912e-001 -1.499051e+001 60 52 43
2.259252e+000 -1.001573e+000 -1.535148e+001 176 149 121
3.634058e+000 -7.641188e-001 -1.555675e+001 150 117 86
3.082495e+000 -9.545635e-001 -1.560782e+001 84 60 36
3.466434e+000 -1.081212e+000 -1.589817e+001 100 69 41
1.799536e+000 -8.036407e-001 -1.562074e+001 117 60 40
2.163635e+000 -1.509546e+000 -1.584263e+001 195 168 139
2.254351e+000 -1.586540e+000 -1.597666e+001 66 53 34
2.228515e+000 -1.686227e+000 -1.610012e+001 65 55 37
3.229149e+000 -1.565658e+000 -1.643334e+001 81 55 30
4.320832e+000 -1.547437e+000 -1.693155e+001 119 85 50
4.658489e+000 -1.411188e+000 -1.703499e+001 105 73 36
4.658489e+000 -1.411188e+000 -1.703499e+001 105 73 36
1.930833e+000 -1.928522e+000 -1.669294e+001 179 134 115
1.964956e+000 -2.311156e+000 -1.684321e+001 220 196 162
2.104891e+000 -2.201585e+000 -1.682851e+001 78 62 48
2.067784e+000 -2.406049e+000 -1.693078e+001 60 47 30
3.206586e+000 -2.157547e+000 -1.710430e+001 102 71 43
3.474062e+000 -2.001808e+000 -1.711489e+001 79 49 23
-1.334746e+000 -2.419906e+000 -1.614615e+001 147 107 81
-1.309431e+000 -2.360814e+000 -1.616823e+001 110 74 62
-1.032802e+000 -2.316938e+000 -1.620558e+001 97 65 54
1.839672e+000 -2.407628e+000 -1.695948e+001 171 129 104
2.170115e+000 -2.756748e+000 -1.722936e+001 30 21 15
2.907379e+000 -2.411521e+000 -1.734911e+001 68 40 17
3.481548e+000 -2.370032e+000 -1.753416e+001 134 105 73
3.927937e+000 -2.231137e+000 -1.755756e+001 127 94 63
3.887239e+000 -2.313915e+000 -1.755205e+001 127 94 63
-1.411400e+000 -2.693844e+000 -1.646789e+001 129 62 65
-1.441776e+000 -2.548379e+000 -1.645608e+001 129 62 65
3.962458e+000 -2.446239e+000 -1.791936e+001 130 99 68
-1.544477e+000 -2.681173e+000 -1.678952e+001 140 91 89
-1.500534e+000 -2.624900e+000 -1.680133e+001 135 90 91
-1.500534e+000 -2.624900e+000 -1.680133e+001 135 90 91
-1.566034e+000 -2.380325e+000 -1.687956e+001 97 67 59
1.695966e+000 -2.759977e+000 -1.767665e+001 118 74 43
1.758674e+000 -2.833860e+000 -1.768032e+001 143 107 74
1.937111e+000 -2.969939e+000 -1.788206e+001 61 46 35
1.266042e+000 -2.369926e+000 -1.779011e+001 112 66 53
1.597923e+000 -2.573957e+000 -1.788535e+001 76 43 24
2.841908e+000 -2.720836e+000 -1.819943e+001 52 35 19
4.013919e+000 -2.530666e+000 -1.857947e+001 81 55 28
9.926006e-001 -2.212250e+000 -1.792848e+001 138 94 83
3.050315e+000 -2.501180e+000 -1.849898e+001 79 57 34
2.152683e+000 -2.807796e+000 -1.830732e+001 204 188 143
2.930529e+000 -2.339526e+000 -1.864574e+001 69 51 31
3.547249e+000 -2.305525e+000 -1.876277e+001 63 43 19
1.074865e+000 -1.821719e+000 -1.821843e+001 112 69 51
1.500371e+000 -2.166667e+000 -1.834292e+001 98 73 52
1.500371e+000 -2.166667e+000 -1.834292e+001 98 73 52
2.112865e+000 -2.441222e+000 -1.858722e+001 53 42 25
2.112865e+000 -2.441222e+000 -1.858722e+001 53 42 25
3.340032e+000 -1.835605e+000 -1.909197e+001 87 67 43
3.641441e+000 -1.794185e+000 -1.916258e+001 92 74 54
3.715168e+000 -1.677058e+000 -1.925128e+001 69 51 32
3.715168e+000 -1.677058e+000 -1.925128e+001 69 51 32
1.699423e+000 -2.198496e+000 -1.868494e+001 37 27 13
1.890847e+000 -1.904407e+000 -1.888827e+001 95 86 64
2.541384e+000 -1.844336e+000 -1.896698e+001 91 73 53
1.189090e+000 -1.598903e+000 -1.882030e+001 72 63 46
1.159500e+000 -1.345328e+000 -1.892676e+001 63 56 41
1.278733e+000 -1.607050e+000 -1.886559e+001 93 71 47
1.423949e+000 -1.650250e+000 -1.903500e+001 70 59 41
1.579861e+000 -1.500667e+000 -1.916480e+001 60 48 32
1.852146e+000 -1.745145e+000 -1.911834e+001 28 21 14
3.211175e+000 -1.319307e+000 -1.951030e+001 67 44 24
1.721528e+000 -1.506511e+000 -1.928435e+001 98 91 72
1.812461e+000 -1.546886e+000 -1.925506e+001 189 174 142
4.266758e+000 -2.229546e+000 -1.983905e+001 124 115 116
2.336528e+000 -9.435640e-002 -1.445959e+001 147 113 85
2.424848e+000 -3.527749e-001 -1.448193e+001 135 102 71
4.994851e+000 -3.137658e+000 -1.603319e+001 238 207 153
2.175923e+000 1.301527e-001 -1.443897e+001 123 119 86
2.337408e+000 -5.744581e-001 -1.482153e+001 220 190 163
3.855899e+000 -2.867966e-001 -1.504393e+001 100 67 39
4.037630e+000 -3.262925e-001 -1.515656e+001 97 65 37
4.037630e+000 -3.262925e-001 -1.515656e+001 97 65 37
3.226800e+000 -4.079293e-001 -1.507155e+001 73 52 31
4.475647e+000 -3.396697e-001 -1.534539e+001 149 116 81
3.320658e+000 -7.383750e-001 -1.547308e+001 83 55 31
1.939390e+000 -1.228826e+000 -1.553358e+001 90 78 56
2.231203e+000 -1.123649e+000 -1.548477e+001 186 165 138
3.230380e+000 -1.055544e+000 -1.582343e+001 132 102 73
4.085267e+000 -1.274539e+000 -1.634661e+001 131 100 69
1.910710e+000 -1.959209e+000 -1.620588e+001 121 115 88
3.018693e+000 -1.739323e+000 -1.655053e+001 113 87 64
4.006310e+000 -1.667290e+000 -1.676636e+001 115 84 59
1.358086e+000 -2.058071e+000 -1.632029e+001 138 80 68
3.692641e+000 -1.848750e+000 -1.693406e+001 135 102 71
1.388701e+000 -2.217611e+000 -1.663449e+001 159 100 92
2.025214e+000 -2.238389e+000 -1.677679e+001 125 89 55
1.782131e+000 -2.340560e+000 -1.695629e+001 135 77 57
1.899798e+000 -2.382525e+000 -1.693512e+001 148 103 72
1.308582e+000 -2.289012e+000 -1.697122e+001 190 135 123
2.263468e+000 -2.947010e+000 -1.721210e+001 149 127 96
2.196627e+000 -3.005829e+000 -1.730068e+001 79 63 47
3.099782e+000 -2.389793e+000 -1.738873e+001 128 98 72
1.106202e+000 -1.876428e+000 -1.698934e+001 157 102 95
1.580844e+000 -2.556859e+000 -1.722938e+001 210 181 146
1.404157e+000 -2.428513e+000 -1.734924e+001 169 130 99
-1.434653e+000 -2.697925e+000 -1.673920e+001 128 88 86
-1.396855e+000 -2.619031e+000 -1.671271e+001 76 51 49
2.289311e+000 -2.828902e+000 -1.769922e+001 73 55 29
1.496433e+000 -2.588646e+000 -1.759778e+001 129 87 40
1.205025e+000 -2.282216e+000 -1.775772e+001 135 104 79
1.205025e+000 -2.282216e+000 -1.775772e+001 135 104 79
1.340572e+000 -2.466088e+000 -1.766026e+001 172 137 104
2.851609e+000 -2.772638e+000 -1.814441e+001 89 67 46
3.118846e+000 -2.610866e+000 -1.836302e+001 59 40 25
7.668431e-001 -2.026496e+000 -1.791158e+001 140 65 63
8.764521e-001 -2.043618e+000 -1.795793e+001 192 142 117
9.379788e-001 -2.117840e+000 -1.796440e+001 120 58 47
1.562783e+000 -2.565381e+000 -1.813716e+001 92 67 45
3.657868e+000 -2.502943e+000 -1.859096e+001 58 38 14
2.645652e+000 -2.437887e+000 -1.851574e+001 69 51 31
1.060374e+000 -1.460410e+000 -1.829827e+001 143 105 85
2.346758e+000 -2.221889e+000 -1.867616e+001 120 99 77
2.675759e+000 -1.560465e+000 -1.910713e+001 59 42 24
1.886592e+000 -1.524068e+000 -1.926118e+001 76 65 43
1.552873e+000 -1.661416e+000 -1.923479e+001 86 74 53
4.151343e+000 -2.885128e+000 -1.972138e+001 212 179 125
4.184635e+000 -3.373024e-001 -1.521111e+001 150 117 82
4.175275e+000 -3.678231e-001 -1.521744e+001 150 117 82
3.628729e+000 -5.776098e-001 -1.524846e+001 104 74 48
3.367282e+000 -6.540257e-001 -1.535415e+001 132 105 80
2.701852e+000 -1.224665e+000 -1.568523e+001 76 61 42
2.637825e+000 -1.090172e+000 -1.579760e+001 94 73 44
2.135307e+000 -1.732318e+000 -1.612374e+001 159 131 106
1.992944e+000 -1.918295e+000 -1.616475e+001 61 53 36
1.848067e+000 -1.830598e+000 -1.639718e+001 101 53 41
2.010288e+000 -2.070175e+000 -1.655999e+001 230 203 176
2.010288e+000 -2.070175e+000 -1.655999e+001 230 203 176
5.810669e-001 -1.191845e+000 -1.635011e+001 136 66 61
9.606223e-001 -1.494988e+000 -1.644011e+001 155 90 89
3.051716e+000 -2.140733e+000 -1.713725e+001 79 49 25
1.954477e+000 -2.461595e+000 -1.695579e+001 217 193 159
8.438017e-001 -1.377096e+000 -1.678984e+001 175 103 106
2.224587e+000 -3.116610e+000 -1.732141e+001 143 120 87
1.490232e+000 -2.531280e+000 -1.721089e+001 147 101 77
-5.352653e-001 -1.727291e+000 -1.693778e+001 137 107 88
2.589093e+000 -2.816498e+000 -1.795684e+001 104 82 59
1.130885e+000 -2.255811e+000 -1.776555e+001 114 57 46
1.332416e+000 -2.234084e+000 -1.789849e+001 67 50 34
1.610072e+000 -2.628527e+000 -1.797691e+001 83 56 35
1.366317e+000 -2.223037e+000 -1.810005e+001 50 45 30
1.957528e+000 -2.945117e+000 -1.815365e+001 96 88 67
1.929968e+000 -2.876165e+000 -1.824195e+001 81 71 50
2.867865e+000 -2.417595e+000 -1.856933e+001 102 83 59
2.853610e+000 -2.437263e+000 -1.856160e+001 102 83 59
1.877734e+000 -2.738478e+000 -1.837153e+001 81 69 52
3.451399e+000 -2.129459e+000 -1.891085e+001 100 82 60
1.931182e+000 -2.026903e+000 -1.881630e+001 94 80 64
2.715547e+000 -1.771276e+000 -1.905853e+001 100 82 62
1.865049e+000 -1.927301e+000 -1.894462e+001 89 78 56
1.123986e+000 -1.284659e+000 -1.906331e+001 102 78 54
1.293550e+000 -1.587333e+000 -1.897860e+001 141 121 94
2.702332e+000 -8.226425e-001 -1.474122e+001 142 128 102
3.152105e+000 -1.561275e-001 -1.467700e+001 169 146 115
2.677430e+000 -3.984629e-001 -1.501370e+001 25 21 17
2.675469e+000 -8.348210e-001 -1.535050e+001 107 92 70
3.138163e+000 -8.339413e-001 -1.544902e+001 69 47 25
2.763344e+000 -9.270737e-001 -1.551700e+001 68 51 34
2.082105e+000 -1.848627e+000 -1.598568e+001 191 160 130
2.701240e+000 -1.395553e+000 -1.605995e+001 67 50 31
1.433763e+000 -1.994305e+000 -1.622407e+001 169 122 99
1.683560e+000 -1.724399e+000 -1.622710e+001 174 98 103
1.678111e+000 -1.753687e+000 -1.623003e+001 174 98 103
2.600542e+000 -1.828951e+000 -1.639493e+001 59 45 26
2.576053e+000 -1.875794e+000 -1.655059e+001 64 50 33
2.885573e+000 -2.000413e+000 -1.681354e+001 101 71 45
-4.623710e-002 -1.834657e+000 -1.631693e+001 160 124 100
2.371629e+000 -2.863395e+000 -1.701325e+001 67 48 27
2.838082e+000 -2.201669e+000 -1.709285e+001 96 64 39
-1.117601e+000 -2.396447e+000 -1.622926e+001 104 71 57
-1.672184e+000 -2.490512e+000 -1.630522e+001 183 119 120
-1.549522e+000 -2.648067e+000 -1.639681e+001 141 73 80
1.904248e+000 -2.730057e+000 -1.724387e+001 212 186 151
-1.613601e+000 -2.572552e+000 -1.671897e+001 126 64 75
7.584751e-001 -2.141466e+000 -1.733543e+001 172 120 102
1.477892e+000 -2.586373e+000 -1.743855e+001 109 67 31
1.477892e+000 -2.586373e+000 -1.743855e+001 109 67 31
3.900161e+000 -2.584313e+000 -1.830382e+001 76 52 28
3.900161e+000 -2.584313e+000 -1.830382e+001 76 52 28
6.631661e-001 -1.679018e+000 -1.763980e+001 173 103 101
4.376393e+000 -2.697975e+000 -1.846139e+001 146 115 67
8.190622e-001 -2.311101e+000 -1.769442e+001 171 129 107
1.330304e+000 -2.135518e+000 -1.825030e+001 73 58 39
1.837540e+000 -2.684701e+000 -1.821846e+001 96 82 58
2.041680e+000 -2.430947e+000 -1.854313e+001 89 78 58
1.112592e+000 -1.200771e+000 -1.885192e+001 52 43 31
1.481986e+000 -1.779114e+000 -1.902552e+001 87 79 60
3.751795e+000 -2.110931e-001 -1.496869e+001 155 124 95
4.141411e+000 -2.165972e-001 -1.508812e+001 125 94 61
1.782824e+000 -1.370109e-001 -1.516969e+001 200 162 114
3.624752e+000 -9.421165e-001 -1.588331e+001 147 116 85
3.788619e+000 -1.908673e+000 -1.712010e+001 151 118 85
3.714743e+000 -2.069786e+000 -1.711819e+001 151 118 85
2.256628e+000 -2.883186e+000 -1.704414e+001 188 167 133
2.344869e+000 -2.966224e+000 -1.713918e+001 36 26 17
1.123825e+000 -2.403404e+000 -1.718025e+001 179 122 113
1.123825e+000 -2.403404e+000 -1.718025e+001 179 122 113
1.491356e+000 -2.658456e+000 -1.729757e+001 193 164 122
1.886740e+000 -2.876936e+000 -1.773108e+001 74 47 36
1.791014e+000 -2.724991e+000 -1.808552e+001 49 30 23
2.140439e+000 -2.776676e+000 -1.827663e+001 146 132 99
1.434075e+000 -1.641132e+000 -1.895948e+001 79 64 46
1.945771e+000 -1.644384e+000 -1.635702e+001 103 63 46
4.164194e+000 -2.406625e+000 -1.762004e+001 178 143 102
4.094009e+000 -2.357953e+000 -1.777175e+001 83 52 23
1.703423e+000 -2.601647e+000 -1.734089e+001 132 82 50
6.739340e-001 -1.491360e+000 -1.725603e+001 111 53 51
1.680013e+000 -2.753220e+000 -1.762490e+001 123 84 51
2.976417e+000 -2.635347e+000 -1.835970e+001 101 77 53
3.951318e+000 -9.987245e-001 -1.986383e+001 93 69 40
2.285397e+000 -3.483037e-001 -1.452390e+001 158 124 97
1.156703e+000 -2.219799e+000 -1.649159e+001 171 118 107
3.721056e+000 -2.510016e+000 -1.770736e+001 133 100 67
1.023754e+000 -2.309307e+000 -1.772315e+001 124 64 58
1.403515e+000 -1.880133e+000 -1.857456e+001 160 136 108
3.638805e+000 -1.903769e+000 -1.909761e+001 59 44 24
4.305867e+000 -1.830884e+000 -1.997139e+001 114 105 106
3.773717e+000 -1.907357e+000 -1.706281e+001 148 115 83
4.027008e+000 -1.990457e+000 -1.727394e+001 99 68 39
2.090296e+000 -2.792200e+000 -1.713928e+001 57 43 31
2.344992e+000 -2.718937e+000 -1.755756e+001 29 19 17
1.320113e+000 -2.537293e+000 -1.799668e+001 65 57 44
3.181691e+000 -2.198627e+000 -1.876152e+001 61 42 27
3.215627e+000 -7.964026e-001 -1.524433e+001 96 71 47
9.993755e-001 -2.331255e+000 -1.740979e+001 130 60 58
3.236793e+000 -1.811094e+000 -1.913792e+001 110 93 67
2.845532e+000 -3.860147e-002 -1.602879e+001 65 52 37
4.358662e+000 -3.354358e-001 -1.548357e+001 130 100 66
-7.787741e-001 -1.387514e+000 -1.772067e+001 215 207 206
4.892201e+000 -2.420130e+000 -1.637874e+001 149 121 74
8.181611e-001 -1.412909e+000 -1.565796e+001 155 91 81
4.783708e+000 -2.979556e+000 -1.701740e+001 140 109 63
1.403423e+000 -1.889771e+000 -1.611386e+001 146 96 73
4.717536e+000 -3.016203e+000 -1.727760e+001 138 105 62
1.700118e+000 -1.987443e+000 -1.673765e+001 127 52 56
1.937961e+000 -2.435244e+000 -1.698516e+001 175 141 106
1.746038e+000 -2.278120e+000 -1.702764e+001 116 66 41
1.473077e+000 -2.466132e+000 -1.713977e+001 149 104 81
3.399214e+000 -2.575356e+000 -1.772522e+001 108 78 51
2.137793e+000 -2.957278e+000 -1.761257e+001 80 65 45
3.570699e+000 -2.668333e+000 -1.822895e+001 75 49 24
-1.667974e+000 -2.482862e+000 -1.693037e+001 100 72 60
1.459814e+000 -2.554284e+000 -1.796082e+001 102 85 64
1.202182e+000 -2.142177e+000 -1.804897e+001 128 92 77
1.786091e+000 -2.829158e+000 -1.810646e+001 42 25 16
2.208121e+000 -2.914222e+000 -1.823330e+001 108 95 74
2.814421e+000 -2.538666e+000 -1.845898e+001 58 37 17
2.010321e+000 -2.667820e+000 -1.832606e+001 28 20 18
2.209320e+000 -2.717576e+000 -1.839510e+001 107 95 70
3.219323e+000 -2.232543e+000 -1.875920e+001 82 65 45
2.991831e+000 -2.196617e+000 -1.875341e+001 84 66 46
1.793730e+000 -2.248003e+000 -1.869860e+001 96 89 69
1.574268e+000 -1.965818e+000 -1.888969e+001 94 83 65
1.888754e+000 -1.933602e+000 -1.896886e+001 121 110 88
1.909770e+000 -1.971313e+000 -1.897828e+001 49 41 20
3.879619e+000 -1.015159e+000 -1.978494e+001 118 92 65
1.904781e+000 -1.903437e+000 -1.612579e+001 91 78 61
4.048251e+000 -1.519356e+000 -1.669992e+001 119 89 61
2.038225e+000 -2.022340e+000 -1.647420e+001 135 102 77
3.634391e+000 -2.051678e+000 -1.726933e+001 115 86 56
2.332186e+000 -2.881800e+000 -1.710178e+001 76 66 51
-5.237125e-002 -1.873567e+000 -1.659830e+001 83 60 44
1.409059e+000 -2.373447e+000 -1.705946e+001 156 96 86
1.765455e+000 -2.570350e+000 -1.715328e+001 187 151 119
2.910012e+000 -2.580393e+000 -1.756653e+001 111 85 58
3.130574e+000 -2.694813e+000 -1.779898e+001 97 66 38
4.066354e+000 -2.573585e+000 -1.804211e+001 124 90 58
3.824706e+000 -2.684684e+000 -1.823371e+001 91 65 38
1.739332e+000 -2.782624e+000 -1.790257e+001 91 65 42
-1.770994e+000 -2.273717e+000 -1.702283e+001 142 119 103
1.879747e+000 -2.874249e+000 -1.818007e+001 47 35 20
8.914329e-001 -2.102745e+000 -1.805096e+001 123 60 54
2.864008e+000 -2.365037e+000 -1.862648e+001 66 48 26
2.996221e+000 -2.451799e+000 -1.859877e+001 89 72 52
3.127704e+000 -2.240754e+000 -1.875470e+001 78 63 44
1.472349e+000 -2.169211e+000 -1.847997e+001 166 144 120
1.031773e+000 -7.206562e-001 -1.865987e+001 91 77 51
3.308152e+000 -1.590509e+000 -1.927075e+001 90 70 45
3.308152e+000 -1.590509e+000 -1.927075e+001 90 70 45
1.925340e+000 -1.834129e+000 -1.907417e+001 53 45 23
4.139130e+000 -2.042510e+000 -1.992260e+001 113 107 104
2.237837e+000 -7.425458e-001 -1.505966e+001 154 119 87
2.196599e+000 -1.522428e+000 -1.580635e+001 117 86 55
1.974347e+000 -1.878462e+000 -1.610052e+001 135 124 106
1.642413e+000 -1.845804e+000 -1.632602e+001 167 89 95
3.835153e+000 -1.936066e+000 -1.720766e+001 119 89 55
3.580788e+000 -2.093801e+000 -1.729926e+001 88 58 30
3.978788e+000 -2.126823e+000 -1.747564e+001 87 57 31
1.576765e+000 -2.632681e+000 -1.728155e+001 158 111 69
2.948450e+000 -2.575453e+000 -1.755521e+001 63 37 14
2.827537e+000 -2.685376e+000 -1.770328e+001 88 60 36
1.332520e+000 -2.276428e+000 -1.800911e+001 38 30 19
1.454786e+000 -2.527189e+000 -1.805941e+001 61 51 30
9.826064e-001 -2.062403e+000 -1.810589e+001 121 67 55
2.656217e+000 -2.373743e+000 -1.854873e+001 67 47 23
3.159285e+000 -1.411767e+000 -1.944340e+001 113 91 67
1.447017e+000 -1.795538e+000 -1.900119e+001 95 86 67
3.167317e+000 -1.184005e+000 -1.961662e+001 87 65 42
1.099307e+000 -1.300079e+000 -1.914480e+001 98 74 47
5.062994e+000 -3.117913e+000 -1.600726e+001 144 116 77
2.250021e+000 -4.016537e-001 -1.483808e+001 186 151 123
3.384630e+000 -7.727054e-001 -1.552255e+001 139 110 81
8.290598e-001 -1.443500e+000 -1.561618e+001 138 73 69
5.997412e-001 -8.756422e-001 -1.605002e+001 177 99 102
1.162208e+000 -2.231654e+000 -1.654226e+001 170 118 106
3.146886e+000 -2.058028e+000 -1.706472e+001 118 88 62
5.949442e-001 -1.414899e+000 -1.653235e+001 149 68 74
-1.343666e+000 -2.516848e+000 -1.626462e+001 143 100 83
-1.190029e+000 -2.586625e+000 -1.636181e+001 135 100 81
-1.190029e+000 -2.586625e+000 -1.636181e+001 135 100 81
1.929304e+000 -2.600522e+000 -1.708278e+001 235 210 183
1.393440e+000 -2.383016e+000 -1.720224e+001 139 91 71
3.884537e+000 -2.530220e+000 -1.785861e+001 136 103 72
2.104033e+000 -2.874157e+000 -1.758038e+001 248 236 198
2.104033e+000 -2.874157e+000 -1.758038e+001 248 236 198
3.543166e+000 -2.557731e+000 -1.806802e+001 121 88 62
1.257751e-001 -1.534797e+000 -1.745513e+001 80 50 39
1.120748e+000 -2.275572e+000 -1.795196e+001 139 103 84
1.253309e+000 -2.112765e+000 -1.804783e+001 84 47 38
2.266981e+000 -2.863522e+000 -1.821179e+001 63 50 33
3.045310e+000 -2.502298e+000 -1.849671e+001 79 57 34
3.193040e+000 -2.523153e+000 -1.854497e+001 67 49 29
2.584039e+000 -2.421849e+000 -1.853585e+001 95 78 52
3.230642e+000 -2.469067e+000 -1.861017e+001 94 74 51
3.437152e+000 -2.280386e+000 -1.878868e+001 99 81 57
1.443683e+000 -2.042035e+000 -1.857019e+001 153 130 106
1.505064e+000 -2.077467e+000 -1.856619e+001 85 63 43
2.501634e+000 -1.985704e+000 -1.883545e+001 89 68 47
2.501378e+000 -1.983996e+000 -1.883408e+001 89 68 47
1.481093e+000 -1.964277e+000 -1.864687e+001 81 56 39
1.683816e+000 -2.274339e+000 -1.867311e+001 37 27 13
2.547976e+000 -1.837131e+000 -1.897066e+001 91 73 53
1.217597e+000 -1.569592e+000 -1.899498e+001 106 83 57
2.515022e+000 -1.338413e+000 -1.938207e+001 103 82 61
5.053600e+000 -2.956937e+000 -1.587631e+001 234 208 150
2.655627e+000 -6.948801e-001 -1.478529e+001 104 93 73
2.197498e+000 -1.833466e+000 -1.626324e+001 56 40 26
7.293600e-001 -1.266989e+000 -1.648806e+001 177 100 99
2.281266e+000 -2.819914e+000 -1.707379e+001 184 163 126
1.714145e+000 -2.680084e+000 -1.721795e+001 210 178 142
1.425350e+000 -2.563293e+000 -1.751950e+001 162 123 70
1.697867e+000 -2.792110e+000 -1.784420e+001 101 70 49
5.965650e-001 -1.660612e+000 -1.783624e+001 127 60 64
1.556393e+000 -2.595151e+000 -1.813675e+001 92 67 45
2.606219e+000 -5.513420e-001 -1.475999e+001 41 34 28
1.543645e+000 -1.797606e+000 -1.608909e+001 125 53 55
1.076603e+000 -1.973717e+000 -1.640393e+001 141 80 74
1.300017e+000 -2.181737e+000 -1.666261e+001 124 70 62
3.755072e+000 -2.138347e+000 -1.727781e+001 134 104 70
8.506124e-001 -1.320682e+000 -1.656609e+001 179 102 108
1.164494e+000 -2.257477e+000 -1.744303e+001 111 44 42
1.438820e+000 -1.984798e+000 -1.622270e+001 169 122 99
-1.041835e+000 -2.644800e+000 -1.660867e+001 85 55 44
3.432483e+000 -2.515938e+000 -1.774849e+001 55 27 3
1.425802e+000 -2.464080e+000 -1.813557e+001 108 101 73
1.447354e+000 -2.292768e+000 -1.831643e+001 99 73 51
3.408230e+000 -2.075698e+000 -1.719243e+001 77 49 27
1.654310e+000 -2.323593e+000 -1.837587e+001 67 48 34
2.725071e+000 -2.007321e+000 -1.881251e+001 62 45 27
9.731106e-001 -1.733951e+000 -1.691449e+001 129 67 68
3.751737e+000 -1.184369e+000 -1.618653e+001 139 106 74
1.176628e+000 -1.491491e+000 -1.584161e+001 130 70 59
1.183842e+000 -1.501262e+000 -1.595357e+001 176 115 105
2.528574e+000 -1.796120e+000 -1.634490e+001 77 61 35
-1.511838e-001 -1.813648e+000 -1.642621e+001 83 59 39
1.261215e+000 -2.224359e+000 -1.669959e+001 94 42 29
1.969602e+000 -2.390473e+000 -1.690783e+001 222 192 157
-4.930764e-002 -1.790019e+000 -1.683053e+001 71 40 28
3.957470e+000 -2.647585e+000 -1.812804e+001 101 71 45
-1.747120e+000 -2.312416e+000 -1.698012e+001 138 112 95
2.912072e+000 -2.704747e+000 -1.824769e+001 47 26 9
2.880732e+000 -1.284433e+000 -1.948129e+001 85 63 40
4.860833e+000 -3.497705e+000 -1.655921e+001 143 110 64
3.241173e+000 -2.478677e+000 -1.757152e+001 109 80 55
1.081118e+000 -2.044164e+000 -1.813167e+001 133 90 75
1.354927e+000 -2.102851e+000 -1.827745e+001 57 48 29
1.203506e+000 -1.592444e+000 -1.873757e+001 39 30 14
4.860999e+000 -3.724144e+000 -1.674108e+001 163 129 82
4.173734e+000 -2.332223e+000 -1.776212e+001 106 70 34
3.850087e+000 -2.545930e+000 -1.860200e+001 97 76 49
2.548052e+000 -1.512999e+000 -1.921174e+001 94 73 52
1.775681e+000 -2.422693e+000 -1.701866e+001 208 173 137
-1.568436e+000 -2.591047e+000 -1.687279e+001 129 90 82
1.927259e+000 -2.605893e+000 -1.708353e+001 227 199 169
2.852670e+000 -6.716453e-001 -1.531957e+001 56 40 24
3.232267e+000 -1.904426e+000 -1.903580e+001 107 89 65
4.872481e+000 -3.575022e+000 -1.666203e+001 148 117 70
-3.140046e-001 -1.657951e+000 -1.634089e+001 108 85 64
-5.004681e-001 -1.611727e+000 -1.722103e+001 66 50 37
-2.760476e-001 -1.793509e+000 -1.659252e+001 169 134 108
-2.760476e-001 -1.793509e+000 -1.659252e+001 169 134 108
2.457926e+000 -1.450258e+000 -1.926885e+001 71 51 27
3.384831e+000 -2.672000e+000 -1.816214e+001 72 49 27
2.684768e+000 -2.593715e+000 -1.839782e+001 93 75 53
1.074185e+000 -1.454241e+000 -1.604350e+001 128 67 64
3.290571e+000 -2.461000e+000 -1.859117e+001 91 73 49
1.202589e+000 -1.556811e+000 -1.584231e+001 167 108 100
1.262650e+000 -2.220629e+000 -1.669718e+001 102 48 38
-1.967874e-001 -1.821053e+000 -1.636562e+001 143 113 89
3.053318e+000 -2.710745e+000 -1.786984e+001 70 40 14
-2.140693e-001 -1.813865e+000 -1.716712e+001 73 51 38
3.279072e+000 -2.487903e+000 -1.851842e+001 62 44 22
6.033915e-001 -8.728531e-001 -1.597003e+001 148 64 66
1.091242e+000 -2.106069e+000 -1.669058e+001 125 67 63
4.064307e+000 -2.621275e+000 -1.808426e+001 109 74 44
-1.676224e+000 -2.596742e+000 -1.682762e+001 107 54 60
2.548682e+000 -2.333799e+000 -1.856551e+001 56 38 16
4.255958e+000 -2.174700e+000 -1.894630e+001 80 62 41
3.175961e+000 -1.809408e+000 -1.903240e+001 75 54 33
1.267128e+000 -1.666667e+000 -1.876621e+001 94 72 51
2.487755e+000 -1.470603e+000 -1.924929e+001 89 68 47
2.315155e-002 -1.504647e+000 -1.744344e+001 68 44 33
3.793420e+000 -1.993572e+000 -1.903814e+001 67 46 25
2.555726e+000 -1.887599e+000 -1.889584e+001 67 49 28
2.477876e+000 -1.810465e+000 -1.894127e+001 61 42 25
4.408306e+000 -7.988637e-001 -1.594892e+001 106 75 45
3.390366e+000 -2.666939e+000 -1.822063e+001 58 32 15
3.209175e+000 -1.320709e+000 -1.951101e+001 70 49 30
-1.586265e+000 -2.699015e+000 -1.672981e+001 125 67 73
2.975885e+000 -2.633121e+000 -1.836076e+001 94 74 50
1.235413e+000 -2.010711e+000 -1.832138e+001 143 112 90
2.935109e+000 -1.628322e+000 -1.909535e+001 61 45 27
4.237129e+000 -2.518373e+000 -1.864768e+001 116 92 65
3.952241e+000 -1.381986e+000 -1.957472e+001 73 55 35
1.959542e+000 -2.265111e+000 -1.867826e+001 101 90 68
8.622511e-001 -1.431126e+000 -1.565912e+001 117 57 57
4.728522e+000 -2.206223e+000 -1.703897e+001 144 118 69
4.496944e+000 -4.000441e+000 -1.839379e+001 141 113 66
4.498514e+000 -3.926737e+000 -1.841410e+001 147 118 76
4.494236e+000 -3.885076e+000 -1.844493e+001 147 119 71
4.481604e+000 -3.940128e+000 -1.846025e+001 143 115 68
1.032964e+000 -1.594927e+000 -1.641446e+001 102 54 46
1.892853e+000 -2.728398e+000 -1.728435e+001 163 135 107
1.892853e+000 -2.728398e+000 -1.728435e+001 163 135 107
2.222937e+000 -2.970171e+000 -1.745478e+001 39 31 19
4.480947e+000 -3.574904e+000 -1.837326e+001 149 121 73
4.456134e+000 -4.021329e+000 -1.856981e+001 146 117 73
-4.096711e-002 -1.855611e+000 -1.650562e+001 130 104 89
1.391809e+000 -2.352143e+000 -1.719191e+001 142 95 79
4.059471e+000 -2.616215e+000 -1.812741e+001 92 61 35
4.381602e+000 -3.867439e+000 -1.882265e+001 139 111 63
-1.877893e+000 -2.507893e+000 -1.677752e+001 180 137 142
1.998052e+000 -2.936184e+000 -1.789533e+001 63 52 33
3.739966e+000 -2.629954e+000 -1.810924e+001 76 52 29
4.386035e+000 -3.316645e+000 -1.869967e+001 145 119 70
4.364907e+000 -3.694281e+000 -1.886716e+001 135 111 61
-1.841677e+000 -2.400173e+000 -1.690044e+001 129 98 96
4.383737e+000 -3.314040e+000 -1.874056e+001 131 104 57
-1.867829e+000 -2.161524e+000 -1.696506e+001 150 131 122
8.314201e-001 -2.326355e+000 -1.766081e+001 133 97 76
1.452132e+000 -2.563036e+000 -1.787956e+001 97 75 47
1.658033e+000 -2.688204e+000 -1.805206e+001 86 69 49
4.345719e+000 -2.440206e+000 -1.860252e+001 49 32 14
1.829445e+000 -2.667212e+000 -1.837956e+001 34 25 10
2.259366e+000 -2.591821e+000 -1.845762e+001 53 41 24
2.824685e+000 -2.524104e+000 -1.846050e+001 43 26 10
2.824685e+000 -2.524104e+000 -1.846050e+001 43 26 10
4.274650e+000 -2.871350e+000 -1.903048e+001 137 111 63
7.491004e-001 -1.999207e+000 -1.789300e+001 135 60 64
8.441504e-001 -2.020631e+000 -1.792847e+001 122 72 55
1.229289e+000 -2.096324e+000 -1.805845e+001 73 43 33
1.333060e+000 -2.142610e+000 -1.813851e+001 38 34 23
1.861913e+000 -2.586067e+000 -1.843265e+001 48 40 25
2.104923e+000 -2.534575e+000 -1.850966e+001 42 36 20
2.246339e+000 -2.578466e+000 -1.848017e+001 54 42 26
2.962424e+000 -2.432101e+000 -1.860887e+001 57 39 24
1.552713e+000 -2.336366e+000 -1.837714e+001 136 119 99
1.811947e+000 -2.436392e+000 -1.854438e+001 38 31 13
2.145241e+000 -2.447652e+000 -1.857140e+001 124 113 91
2.173992e+000 -2.329004e+000 -1.863177e+001 126 115 89
2.173992e+000 -2.329004e+000 -1.863177e+001 126 115 89
2.587767e+000 -2.191632e+000 -1.868293e+001 44 27 9
3.172904e+000 -2.123448e+000 -1.881631e+001 42 29 14
4.213553e+000 -3.319610e+000 -1.940453e+001 160 132 82
1.349965e+000 -2.064333e+000 -1.838806e+001 126 104 80
1.423993e+000 -2.105586e+000 -1.844620e+001 141 119 96
1.742588e+000 -2.270451e+000 -1.866233e+001 77 69 56
1.849841e+000 -2.365552e+000 -1.859393e+001 105 98 72
2.142173e+000 -2.267411e+000 -1.869937e+001 130 119 98
4.720510e-001 -1.608049e+000 -1.817558e+001 126 71 66
4.985322e-001 -1.634948e+000 -1.821212e+001 128 70 67
1.811005e+000 -2.201371e+000 -1.870026e+001 120 111 93
2.777774e+000 -1.986341e+000 -1.885340e+001 59 47 33
3.035487e+000 -1.941078e+000 -1.896893e+001 72 57 39
2.928187e+000 -1.880513e+000 -1.896701e+001 74 58 43
2.377727e-001 -4.971403e-001 -1.805904e+001 144 97 81
1.344819e+000 -1.772124e+000 -1.867085e+001 209 190 166
1.750746e+000 -1.998786e+000 -1.885699e+001 112 105 80
1.938348e+000 -2.046076e+000 -1.886816e+001 97 90 74
2.002543e+000 -1.981818e+000 -1.891292e+001 70 59 39
2.622064e+000 -1.808052e+000 -1.901023e+001 50 34 19
1.582132e+000 -1.952170e+000 -1.891289e+001 107 98 82
1.738692e+000 -1.982692e+000 -1.888253e+001 113 104 76
1.602107e+000 -1.842335e+000 -1.898248e+001 46 39 23
1.572123e+000 -1.797022e+000 -1.905197e+001 50 43 27
1.532990e+000 -1.755790e+000 -1.905742e+001 63 53 41
1.785406e+000 -1.713796e+000 -1.916709e+001 218 212 180
1.785406e+000 -1.713796e+000 -1.916709e+001 218 212 180
1.944396e+000 -1.567937e+000 -1.924384e+001 123 113 88
1.149362e+000 -1.239963e+000 -1.908263e+001 84 64 40
1.129629e+000 -1.229011e+000 -1.914339e+001 89 71 47
1.682493e+000 -1.454516e+000 -1.935202e+001 99 93 77
1.608660e+000 -1.552441e+000 -1.938862e+001 31 27 18
3.896909e+000 -1.120727e+000 -1.998599e+001 135 104 66
3.915561e+000 -1.309130e+000 -1.998434e+001 183 154 114
3.928569e+000 -1.810500e+000 -2.007563e+001 95 71 45
1.353606e+000 -1.244585e+000 -1.943287e+001 91 84 68
3.901060e+000 -6.034352e-001 -2.000201e+001 208 176 135
3.860324e+000 -1.843238e+000 -2.026794e+001 164 135 95
1.364633e+000 -1.185599e+000 -1.949195e+001 78 70 57
4.937719e+000 -2.775708e+000 -1.626429e+001 153 129 83
1.177038e+000 -2.183866e+000 -1.651121e+001 203 160 154
1.178901e+000 -2.167630e+000 -1.654291e+001 131 90 79
1.955959e+000 -2.015999e+000 -1.659801e+001 164 127 100
2.280557e+000 -2.964120e+000 -1.719792e+001 100 91 73
1.092856e+000 -2.029028e+000 -1.658797e+001 117 51 55
1.024076e+000 -1.404061e+000 -1.638611e+001 157 96 95
9.272199e-001 -1.240497e+000 -1.637158e+001 128 62 66
1.336275e+000 -2.298497e+000 -1.704195e+001 121 69 58
1.855668e+000 -2.589802e+000 -1.723108e+001 136 94 62
1.396242e+000 -2.337867e+000 -1.708028e+001 140 87 75
1.845672e+000 -2.858941e+000 -1.759702e+001 172 147 116
4.103383e+000 -2.557967e+000 -1.796522e+001 155 122 90
1.369903e+000 -2.399422e+000 -1.736751e+001 115 63 42
1.700834e+000 -2.780660e+000 -1.768604e+001 123 87 56
1.755650e+000 -2.804556e+000 -1.768667e+001 128 94 66
3.112868e+000 -2.674333e+000 -1.783268e+001 113 86 64
3.611715e+000 -2.626048e+000 -1.800621e+001 108 79 51
-1.875609e+000 -2.558442e+000 -1.676327e+001 154 113 117
3.525137e+000 -2.666188e+000 -1.808480e+001 89 65 39
3.489517e+000 -2.648131e+000 -1.814016e+001 97 75 51
3.802726e+000 -2.643024e+000 -1.818226e+001 102 78 54
3.845455e+000 -2.643241e+000 -1.822579e+001 88 67 44
-1.671585e+000 -2.457244e+000 -1.692157e+001 97 73 71
7.941458e-001 -2.332963e+000 -1.754731e+001 119 77 61
1.983423e+000 -2.942788e+000 -1.806624e+001 49 35 22
2.221218e+000 -2.904609e+000 -1.814163e+001 56 40 28
7.910286e-001 -2.324235e+000 -1.758351e+001 151 116 96
8.323608e-001 -2.318335e+000 -1.768787e+001 172 134 113
1.459188e+000 -2.527833e+000 -1.790241e+001 102 82 61
4.328151e+000 -3.371703e+000 -1.894746e+001 151 124 81
1.654379e+000 -2.565515e+000 -1.817733e+001 63 46 32
2.833867e+000 -2.555971e+000 -1.844801e+001 68 51 33
7.217811e-001 -2.027438e+000 -1.796293e+001 210 159 147
1.381361e+000 -2.330536e+000 -1.825495e+001 63 56 37
1.772970e+000 -2.614161e+000 -1.839174e+001 113 106 82
1.759428e+000 -2.564699e+000 -1.842265e+001 101 95 73
2.077936e+000 -2.569976e+000 -1.849688e+001 126 121 97
3.064956e+000 -2.263090e+000 -1.869934e+001 62 49 33
3.066642e+000 -2.262431e+000 -1.869976e+001 62 49 33
3.171842e+000 -2.259918e+000 -1.872212e+001 63 47 34
3.543869e+000 -2.247298e+000 -1.880492e+001 66 50 29
1.456841e+000 -2.170195e+000 -1.841008e+001 79 59 38
2.835818e+000 -2.158974e+000 -1.875765e+001 71 56 39
3.094622e+000 -2.214186e+000 -1.875926e+001 39 27 11
3.095227e+000 -2.144357e+000 -1.881356e+001 66 51 38
3.226605e+000 -2.215906e+000 -1.876046e+001 67 51 35
3.945591e-001 -1.470409e+000 -1.800550e+001 166 119 109
1.437352e+000 -2.006695e+000 -1.846718e+001 212 194 172
1.520556e+000 -2.055101e+000 -1.850440e+001 115 96 79
2.459906e+000 -2.071251e+000 -1.873223e+001 46 29 13
2.773777e+000 -2.140569e+000 -1.874498e+001 72 56 40
2.752453e+000 -2.078792e+000 -1.877664e+001 71 55 42
2.752453e+000 -2.078792e+000 -1.877664e+001 71 55 42
2.812662e+000 -2.078714e+000 -1.880437e+001 68 52 37
2.743889e+000 -2.037577e+000 -1.881610e+001 62 48 37
2.884690e+000 -2.109385e+000 -1.879167e+001 72 59 43
2.959399e+000 -2.011861e+000 -1.887666e+001 68 52 37
3.160529e+000 -2.109668e+000 -1.884144e+001 65 52 36
3.138887e+000 -2.038810e+000 -1.888270e+001 67 51 35
1.652864e+000 -2.142990e+000 -1.874803e+001 61 54 41
2.813830e+000 -1.949481e+000 -1.890284e+001 78 65 49
2.813830e+000 -1.949481e+000 -1.890284e+001 78 65 49
2.864590e+000 -1.922016e+000 -1.891157e+001 54 38 23
3.006293e+000 -1.969932e+000 -1.892031e+001 74 58 43
3.424860e+000 -1.844904e+000 -1.908883e+001 56 39 19
6.920587e-001 -3.282514e-001 -1.823741e+001 157 120 105
1.665452e+000 -1.993838e+000 -1.890692e+001 39 31 16
2.641248e+000 -1.660411e+000 -1.908934e+001 39 27 13
2.714536e+000 -1.622168e+000 -1.910719e+001 52 38 25
1.574399e+000 -1.873905e+000 -1.896495e+001 115 106 91
2.836545e+000 -1.561159e+000 -1.922775e+001 49 32 16
1.622769e+000 -1.653674e+000 -1.917966e+001 83 75 56
1.790537e+000 -1.709327e+000 -1.912149e+001 26 18 12
1.770030e+000 -1.702095e+000 -1.919155e+001 83 74 47
1.884609e+000 -1.621056e+000 -1.920840e+001 46 35 16
1.884609e+000 -1.621056e+000 -1.920840e+001 46 35 16
2.466768e+000 -1.436299e+000 -1.926667e+001 55 38 22
3.148523e+000 -1.321539e+000 -1.948944e+001 52 35 17
3.421275e+000 -1.410484e+000 -1.947086e+001 60 41 24
1.203089e+000 -1.416228e+000 -1.905359e+001 175 157 135
1.620308e+000 -1.556664e+000 -1.921671e+001 90 81 65
1.516671e+000 -1.558779e+000 -1.927739e+001 44 37 23
1.740874e+000 -1.607878e+000 -1.928124e+001 76 65 47
2.878248e+000 -1.298998e+000 -1.948719e+001 64 45 28
1.152999e+000 -1.249558e+000 -1.917090e+001 200 186 159
1.360768e+000 -1.255890e+000 -1.946140e+001 42 34 21
1.360414e+000 -1.259922e+000 -1.946241e+001 42 34 21
1.464712e+000 -1.375370e+000 -1.942164e+001 44 38 25
1.634302e+000 -1.327527e+000 -1.947247e+001 107 102 83
3.578486e+000 -6.564956e-001 -1.997061e+001 145 120 90
3.891583e+000 -1.129907e+000 -2.003882e+001 152 120 84
3.906055e+000 -1.257541e+000 -2.005440e+001 155 123 84
3.870985e+000 -1.716725e+000 -2.021938e+001 160 131 91
1.221007e+000 -1.510617e+000 -1.575928e+001 145 91 81
1.183723e+000 -2.148661e+000 -1.640885e+001 154 100 93
1.230283e+000 -2.193163e+000 -1.653580e+001 176 128 124
1.099641e+000 -2.086581e+000 -1.654763e+001 122 78 67
1.604768e+000 -2.213670e+000 -1.681296e+001 160 111 97
1.891858e+000 -2.710351e+000 -1.724262e+001 214 197 167
1.858201e+000 -2.866320e+000 -1.755217e+001 182 152 124
2.030746e+000 -2.920075e+000 -1.770980e+001 50 42 24
2.336941e+000 -2.946588e+000 -1.789431e+001 60 47 30
2.857103e+000 -2.756953e+000 -1.785864e+001 77 52 30
2.857103e+000 -2.756953e+000 -1.785864e+001 77 52 30
2.978925e+000 -2.742500e+000 -1.795431e+001 93 71 48
3.800895e+000 -2.648235e+000 -1.822689e+001 71 51 27
-7.846006e-001 -1.713041e+000 -1.707264e+001 139 113 96
1.486175e+000 -2.602676e+000 -1.785870e+001 144 117 86
2.764726e+000 -2.666172e+000 -1.825384e+001 55 37 23
2.760217e+000 -2.676993e+000 -1.825902e+001 55 37 23
3.905669e+000 -2.559730e+000 -1.853041e+001 52 32 16
3.838468e+000 -2.561796e+000 -1.852471e+001 74 55 38
-1.036018e+000 -1.980539e+000 -1.723442e+001 90 63 54
2.677118e+000 -2.529396e+000 -1.840913e+001 45 29 14
7.115803e-002 -1.543125e+000 -1.738315e+001 67 42 37
1.337223e+000 -2.260979e+000 -1.801515e+001 28 27 15
1.327132e+000 -2.258688e+000 -1.806772e+001 61 58 46
1.338647e+000 -2.212544e+000 -1.810464e+001 36 32 21
1.340783e+000 -2.216817e+000 -1.810698e+001 36 32 21
2.708839e+000 -2.426566e+000 -1.852128e+001 44 28 13
1.535689e+000 -2.365708e+000 -1.830593e+001 103 86 66
2.896161e+000 -2.292082e+000 -1.862823e+001 49 32 16
2.909466e+000 -2.288109e+000 -1.866832e+001 68 55 39
1.174485e+000 -2.053067e+000 -1.822249e+001 94 71 53
1.968311e+000 -2.386130e+000 -1.859129e+001 115 104 84
3.007003e+000 -2.165512e+000 -1.875872e+001 70 54 38
3.141090e+000 -2.212187e+000 -1.875889e+001 67 51 35
3.143917e+000 -2.207629e+000 -1.875754e+001 67 51 35
3.520224e+000 -2.116428e+000 -1.887797e+001 60 41 24
1.053749e+000 -1.783604e+000 -1.822848e+001 129 93 81
1.678244e+000 -2.250708e+000 -1.864677e+001 114 107 83
1.457752e+000 -2.066644e+000 -1.858598e+001 167 150 132
1.652080e+000 -2.177263e+000 -1.871317e+001 110 101 81
2.589996e+000 -1.942605e+000 -1.888007e+001 74 58 42
3.036300e+000 -1.718011e+000 -1.913301e+001 55 39 25
3.053517e-001 -5.366216e-001 -1.811970e+001 134 83 69
1.366403e+000 -1.729458e+000 -1.881574e+001 94 77 60
1.579714e+000 -1.945571e+000 -1.889771e+001 117 109 90
1.982773e+000 -1.946276e+000 -1.895981e+001 48 36 20
3.663940e+000 -1.528820e+000 -1.938517e+001 51 34 18
1.122188e+000 -1.624080e+000 -1.885543e+001 95 89 77
1.326713e+000 -1.585790e+000 -1.894695e+001 90 73 53
1.438570e+000 -1.696294e+000 -1.886766e+001 64 48 35
1.565432e+000 -1.817828e+000 -1.899628e+001 51 44 28
1.610636e+000 -1.839323e+000 -1.902661e+001 50 40 30
1.869389e+000 -1.827620e+000 -1.905938e+001 53 46 28
2.519672e+000 -1.497802e+000 -1.924926e+001 58 43 25
2.669511e+000 -1.451874e+000 -1.928624e+001 57 41 26
2.600612e+000 -1.426178e+000 -1.929439e+001 60 44 28
2.439906e+000 -1.325234e+000 -1.936084e+001 42 26 12
2.422314e+000 -1.367502e+000 -1.936916e+001 42 26 12
3.170293e+000 -1.177734e+000 -1.962103e+001 60 42 24
3.901603e+000 -1.369088e+000 -2.006312e+001 162 133 93
3.967130e+000 -2.169982e+000 -2.042088e+001 94 74 49
4.966694e+000 -3.407277e+000 -1.642108e+001 179 150 108
2.672488e+000 -6.309649e-001 -1.473728e+001 101 91 79
3.996096e+000 -1.421524e+000 -1.655411e+001 76 51 22
1.122050e+000 -2.141764e+000 -1.649005e+001 130 89 78
1.825656e+000 -2.821579e+000 -1.752482e+001 133 98 66
3.099178e+000 -2.645260e+000 -1.770634e+001 85 59 34
1.788782e+000 -2.868215e+000 -1.760771e+001 248 228 204
1.795308e+000 -2.850617e+000 -1.759904e+001 248 228 204
-1.525591e+000 -2.547583e+000 -1.687299e+001 100 77 71
1.158064e+000 -2.261900e+000 -1.743872e+001 104 40 40
1.490962e+000 -2.613815e+000 -1.761067e+001 120 84 34
3.434459e+000 -2.666805e+000 -1.815054e+001 92 72 48
1.664132e+000 -2.710644e+000 -1.789794e+001 75 51 33
2.830319e+000 -2.713378e+000 -1.819179e+001 43 27 12
1.680197e+000 -2.644634e+000 -1.797301e+001 116 99 79
3.050742e+000 -2.645856e+000 -1.830607e+001 84 63 46
3.210588e+000 -2.565945e+000 -1.844427e+001 42 28 17
3.396525e+000 -2.431711e+000 -1.859165e+001 48 31 13
3.397082e+000 -2.431566e+000 -1.859198e+001 48 31 13
3.309594e+000 -2.389537e+000 -1.864452e+001 50 38 23
3.309912e+000 -2.389591e+000 -1.864488e+001 50 38 23
6.363179e-001 -1.808467e+000 -1.787283e+001 192 135 128
1.799460e+000 -2.531496e+000 -1.838861e+001 112 106 83
1.794091e+000 -2.559197e+000 -1.844703e+001 35 26 17
1.871670e+000 -2.587226e+000 -1.841425e+001 47 38 23
2.128990e+000 -2.574245e+000 -1.853508e+001 97 86 64
2.762937e+000 -2.414742e+000 -1.855248e+001 47 31 16
2.762107e+000 -2.417420e+000 -1.855341e+001 47 31 16
2.812498e+000 -2.270608e+000 -1.864044e+001 60 43 27
1.484316e+000 -2.281101e+000 -1.832956e+001 73 56 38
1.771884e+000 -2.500708e+000 -1.850525e+001 35 27 16
1.747634e+000 -2.379952e+000 -1.856224e+001 35 24 20
2.730338e+000 -2.300391e+000 -1.863678e+001 82 65 43
3.570307e+000 -2.079835e+000 -1.893577e+001 43 30 13
3.569751e+000 -2.080638e+000 -1.893663e+001 43 30 13
1.416574e+000 -2.004655e+000 -1.856495e+001 112 91 70
1.687762e+000 -2.265346e+000 -1.869135e+001 32 23 14
1.642099e+000 -2.096193e+000 -1.881071e+001 36 27 18
1.724944e+000 -2.127781e+000 -1.878375e+001 46 39 23
7.617074e-001 -3.903703e-001 -1.821455e+001 152 106 87
1.602760e+000 -1.932894e+000 -1.893426e+001 41 31 19
3.465875e+000 -1.635467e+000 -1.925813e+001 61 44 26
3.464626e+000 -1.636092e+000 -1.925795e+001 61 44 26
1.282534e+000 -1.630732e+000 -1.880818e+001 79 60 43
1.341545e+000 -1.694482e+000 -1.883716e+001 147 133 111
1.341545e+000 -1.694482e+000 -1.883716e+001 147 133 111
1.942547e+000 -1.787650e+000 -1.908489e+001 43 34 17
2.538171e+000 -1.535350e+000 -1.921138e+001 81 64 48
2.541029e+000 -1.532026e+000 -1.920890e+001 81 64 48
3.576159e+000 -1.513941e+000 -1.939609e+001 61 45 27
1.227308e+000 -1.521496e+000 -1.899806e+001 97 77 53
1.226889e+000 -1.515952e+000 -1.899750e+001 97 77 53
2.383329e+000 -1.369674e+000 -1.933277e+001 76 59 43
2.895509e+000 -1.350090e+000 -1.945218e+001 100 82 62
1.391654e+000 -1.417844e+000 -1.916772e+001 68 57 39
1.837549e+000 -1.492162e+000 -1.935616e+001 54 42 27
4.764806e+000 -4.336020e+000 -1.742863e+001 165 136 92
1.027768e+000 -2.044200e+000 -1.665323e+001 159 110 103
1.161029e+000 -2.140984e+000 -1.663004e+001 104 67 55
1.417579e+000 -2.306087e+000 -1.694145e+001 169 119 112
1.205003e+000 -2.400942e+000 -1.720292e+001 158 103 100
1.443164e+000 -2.365670e+000 -1.714008e+001 136 90 74
1.441192e+000 -2.372441e+000 -1.714274e+001 136 90 74
3.605973e+000 -2.572367e+000 -1.783331e+001 82 54 30
-1.493753e+000 -2.630246e+000 -1.678990e+001 137 92 102
2.932889e+000 -2.706368e+000 -1.778842e+001 83 59 35
-1.564613e+000 -2.606205e+000 -1.686787e+001 141 100 109
1.711989e+000 -2.749950e+000 -1.794201e+001 123 105 84
3.045736e+000 -2.679633e+000 -1.824222e+001 53 34 18
4.402995e+000 -2.611939e+000 -1.852333e+001 133 107 62
1.482149e+000 -2.539352e+000 -1.793174e+001 97 78 59
2.815474e+000 -2.680278e+000 -1.823216e+001 75 58 43
-1.370821e+000 -1.914745e+000 -1.718473e+001 106 84 71
1.379119e-001 -1.415608e+000 -1.744027e+001 63 40 35
1.399762e-001 -1.418484e+000 -1.744002e+001 63 40 35
1.257854e+000 -2.118804e+000 -1.804621e+001 72 42 32
1.363363e+000 -2.309970e+000 -1.809663e+001 42 38 27
2.883792e+000 -2.485544e+000 -1.849526e+001 53 36 20
1.091121e+000 -2.068079e+000 -1.813125e+001 121 85 73
2.653572e+000 -2.333873e+000 -1.860889e+001 56 39 23
3.481148e+000 -2.317208e+000 -1.872775e+001 48 31 11
3.486422e+000 -2.311783e+000 -1.872529e+001 48 31 11
3.474248e+000 -2.263678e+000 -1.877610e+001 83 66 48
3.416886e+000 -2.010390e+000 -1.897506e+001 60 43 25
2.552448e+000 -1.892377e+000 -1.889521e+001 49 33 18
3.651216e+000 -1.806979e+000 -1.916376e+001 77 61 44
1.185315e+000 -1.601698e+000 -1.882149e+001 66 59 43
2.302097e+000 -1.387879e+000 -1.930711e+001 56 38 24
3.164133e+000 -1.389923e+000 -1.946037e+001 95 74 55
1.045982e+000 -1.074114e+000 -1.905866e+001 66 58 37
1.708829e+000 -1.555636e+000 -1.929250e+001 102 94 71
3.132343e+000 -1.285240e+000 -1.954066e+001 81 62 45
3.138357e+000 -1.278875e+000 -1.953886e+001 81 62 45
2.116957e+000 -2.877587e+000 -1.749070e+001 43 33 24
-1.400804e+000 -2.616449e+000 -1.678655e+001 90 64 68
-1.396951e+000 -2.640651e+000 -1.680117e+001 90 64 68
1.026201e+000 -2.347629e+000 -1.718865e+001 140 72 71
2.950445e+000 -2.763318e+000 -1.786531e+001 115 91 65
3.147548e+000 -2.687873e+000 -1.784492e+001 114 88 63
1.505019e+000 -2.584301e+000 -1.767166e+001 167 139 102
2.583830e+000 -2.833069e+000 -1.795479e+001 100 84 62
1.433916e+000 -2.567498e+000 -1.771174e+001 111 77 45
1.151063e+000 -2.267643e+000 -1.779237e+001 102 51 47
1.557034e+000 -2.597314e+000 -1.816334e+001 80 62 48
1.651154e+000 -2.585314e+000 -1.812947e+001 148 137 115
3.664770e+000 -2.548315e+000 -1.852091e+001 83 65 43
1.195661e+000 -2.128400e+000 -1.800264e+001 114 86 75
2.755860e+000 -2.523587e+000 -1.842828e+001 81 64 48
1.532898e+000 -2.336187e+000 -1.834376e+001 133 118 97
2.711529e+000 -2.385234e+000 -1.858117e+001 82 66 50
1.858421e+000 -2.460941e+000 -1.851335e+001 55 47 28
2.607554e+000 -2.275362e+000 -1.864887e+001 80 67 48
2.597208e+000 -2.280734e+000 -1.864598e+001 80 67 48
1.401958e+000 -1.985552e+000 -1.840853e+001 99 72 51
2.047625e+000 -2.265148e+000 -1.868809e+001 60 52 35
2.532049e+000 -2.124797e+000 -1.872783e+001 83 66 48
1.384258e+000 -1.952514e+000 -1.859106e+001 173 153 132
1.986073e+000 -2.141730e+000 -1.883037e+001 50 43 33
3.750701e+000 -1.847196e+000 -1.914582e+001 44 30 15
2.620095e+000 -1.774897e+000 -1.903006e+001 53 37 21
3.353930e+000 -1.834240e+000 -1.909882e+001 65 48 28
2.653690e+000 -1.639714e+000 -1.912032e+001 43 30 14
1.797825e+000 -1.806627e+000 -1.908240e+001 84 76 53
3.652548e+000 -1.371664e+000 -1.954241e+001 71 53 31
1.494991e+000 -1.557978e+000 -1.927453e+001 54 46 33
1.749681e+000 -1.361138e+000 -1.947100e+001 58 48 39
3.889847e+000 -5.737612e-001 -1.997796e+001 189 157 116
1.706902e+000 -2.739827e+000 -1.760871e+001 132 95 66
1.997500e+000 -2.881200e+000 -1.765405e+001 98 85 58
1.979580e+000 -2.923730e+000 -1.767428e+001 98 85 58
1.349982e+000 -2.399955e+000 -1.742349e+001 106 54 38
1.774234e+000 -2.824820e+000 -1.774411e+001 189 168 142
1.152644e+000 -2.372152e+000 -1.755612e+001 170 121 107
1.419744e+000 -2.376610e+000 -1.785983e+001 39 32 21
1.416778e+000 -2.494511e+000 -1.811958e+001 88 83 61
1.587191e+000 -2.459091e+000 -1.825675e+001 140 123 105
3.588274e+000 -2.441292e+000 -1.866613e+001 86 68 48
1.786043e+000 -2.549564e+000 -1.834450e+001 86 74 52
1.066606e+000 -1.967073e+000 -1.818998e+001 100 64 50
1.509122e+000 -2.181133e+000 -1.843162e+001 148 133 111
1.686136e+000 -2.436345e+000 -1.851584e+001 113 103 82
1.302509e+000 -2.060597e+000 -1.835169e+001 132 111 86
3.452504e+000 -2.099151e+000 -1.891050e+001 85 68 48
3.682171e+000 -2.036537e+000 -1.898804e+001 79 66 43
3.244613e+000 -1.875890e+000 -1.905172e+001 91 74 54
3.703927e+000 -1.699537e+000 -1.925173e+001 52 36 21
1.299591e+000 -1.714715e+000 -1.871254e+001 76 57 40
1.869340e+000 -1.910697e+000 -1.894662e+001 83 73 52
1.949439e+000 -1.964494e+000 -1.895369e+001 50 41 24
2.717019e+000 -1.750850e+000 -1.907377e+001 84 68 52
1.358679e+000 -1.687491e+000 -1.884251e+001 128 110 92
1.545296e+000 -1.850460e+000 -1.892837e+001 75 67 48
3.651248e+000 -1.518611e+000 -1.940631e+001 62 46 28
1.391660e+000 -1.702417e+000 -1.922910e+001 93 85 67
1.513869e+000 -1.435375e+000 -1.936995e+001 69 60 48
1.897601e+000 -2.836778e+000 -1.772288e+001 64 43 25
1.814246e+000 -2.792992e+000 -1.793110e+001 56 38 24
1.670338e+000 -2.767990e+000 -1.804587e+001 96 78 60
1.082083e+000 -2.201385e+000 -1.788037e+001 118 70 66
3.776337e+000 -2.468900e+000 -1.863548e+001 88 70 49
1.661300e+000 -2.215440e+000 -1.839162e+001 48 30 20
2.475086e+000 -2.028981e+000 -1.875138e+001 61 43 31
1.596398e+000 -2.118663e+000 -1.873925e+001 110 98 81
1.596398e+000 -2.118663e+000 -1.873925e+001 110 98 81
1.473983e+000 -1.788385e+000 -1.882853e+001 64 47 35
1.427913e+000 -1.615469e+000 -1.895731e+001 66 49 38
1.377822e+000 -1.544576e+000 -1.906768e+001 71 53 43
2.275503e+000 -1.409018e+000 -1.927501e+001 60 43 27
1.641475e+000 -2.789760e+000 -1.785076e+001 96 70 47
2.671950e+000 -2.722982e+000 -1.815842e+001 44 28 15
2.523058e+000 -2.681963e+000 -1.821791e+001 93 76 58
3.167967e+000 -2.564808e+000 -1.843676e+001 54 38 25
4.322123e+000 -2.702911e+000 -1.876621e+001 166 137 93
1.721437e+000 -2.540551e+000 -1.822483e+001 42 25 18
3.899394e+000 -2.410427e+000 -1.874582e+001 67 51 28
8.995009e-001 -1.837825e+000 -1.822719e+001 111 62 52
1.564992e+000 -2.132043e+000 -1.854657e+001 74 56 46
2.816001e+000 -1.717018e+000 -1.916551e+001 43 33 21
6.772223e-001 -1.418106e+000 -1.723904e+001 102 48 48
1.039616e+000 -2.249051e+000 -1.770120e+001 120 61 57
6.956313e-001 -1.751738e+000 -1.773855e+001 183 110 118
4.000954e+000 -8.098373e-001 -1.986588e+001 79 59 35
3.626603e+000 -1.922253e+000 -1.908950e+001 63 47 34
3.631693e+000 -1.919166e+000 -1.908994e+001 63 47 34
1.179584e+000 -1.067362e+000 -1.837644e+001 85 49 35
2.924998e+000 -1.449762e+000 -1.935043e+001 89 72 49
3.903946e+000 -1.583043e+000 -1.997271e+001 192 163 123
1.003877e+000 -2.336708e+000 -1.739603e+001 125 61 61
3.159180e+000 -2.221219e+000 -1.875989e+001 50 34 20
3.875903e+000 -2.521678e+000 -1.826032e+001 72 50 27
2.396038e+000 -2.024989e+000 -1.839541e+001 118 103 82
5.110976e+000 -2.178467e+000 -1.592331e+001 173 146 99
4.937694e+000 -2.173752e+000 -1.645123e+001 203 175 125
2.005799e+000 -1.257276e+000 -1.563308e+001 179 134 69
1.819028e+000 -1.809510e+000 -1.625087e+001 118 74 55
4.780556e+000 -1.848681e+000 -1.686099e+001 158 130 80
1.335507e+000 -2.192995e+000 -1.663253e+001 107 53 46
1.454473e+000 -2.358572e+000 -1.705505e+001 203 154 141
1.894043e+000 -2.867323e+000 -1.767573e+001 103 77 50
1.880192e+000 -2.816822e+000 -1.775056e+001 61 37 21
1.991991e+000 -2.969298e+000 -1.788497e+001 162 148 122
2.028547e+000 -2.969644e+000 -1.784211e+001 111 99 77
3.428200e+000 -2.606279e+000 -1.782767e+001 130 101 70
3.994086e+000 -2.591796e+000 -1.811156e+001 97 75 52
4.093257e+000 -2.586128e+000 -1.816176e+001 102 73 43
1.181292e+000 -2.343212e+000 -1.748687e+001 176 118 113
3.640621e+000 -2.579896e+000 -1.838699e+001 69 47 23
-5.622219e-001 -1.548402e+000 -1.723081e+001 121 105 92
1.213321e+000 -2.064331e+000 -1.809253e+001 73 43 32
1.530688e+000 -2.173370e+000 -1.847665e+001 151 134 114
2.002409e+000 -2.215354e+000 -1.872322e+001 37 29 11
