ply
format ascii 1.0
element face 0
property list uchar int vertex_indices
element vertex 891
property float x
property float y
property float z
property uchar diffuse_red
property uchar diffuse_green
property uchar diffuse_blue
end_header
2.569104e+000 -1.380824e+000 -1.591883e+001 68 55 33
3.645034e+000 -1.251564e+000 -1.622889e+001 108 81 56
4.377606e+000 -1.260606e+000 -1.647378e+001 76 52 25
3.306766e+000 -1.917220e+000 -1.695491e+001 100 73 53
3.169031e+000 -2.060590e+000 -1.712578e+001 98 72 49
1.602910e+000 -2.394252e+000 -1.715153e+001 134 83 62
2.194005e+000 1.441813e+000 -1.535287e+001 64 49 30
1.911957e+000 1.176950e+000 -1.538501e+001 105 79 56
3.422109e+000 9.436205e-001 -1.519149e+001 128 94 67
2.296365e+000 3.550863e-001 -1.447596e+001 200 166 128
8.324066e-001 2.344085e-001 -1.607765e+001 203 124 119
4.286939e+000 -5.823318e-001 -1.563556e+001 66 41 19
3.534342e+000 -7.661080e-001 -1.554476e+001 74 47 26
2.605181e+000 -1.116024e+000 -1.563408e+001 91 80 62
1.660495e+000 -1.397680e+000 -1.583322e+001 100 39 38
3.998275e+000 1.370860e+000 -1.560748e+001 121 90 57
2.099121e+000 3.934886e-001 -1.484054e+001 41 28 16
1.718117e+000 2.019550e-001 -1.521367e+001 189 146 103
4.648239e+000 3.432300e-001 -1.493546e+001 153 116 74
4.503218e+000 -1.794583e-001 -1.514923e+001 109 78 49
3.526141e+000 -1.128845e+000 -1.603690e+001 111 83 59
4.113475e+000 1.266386e+000 -1.551971e+001 131 90 60
3.392592e+000 -8.148450e-001 -1.552628e+001 102 74 52
8.004104e-001 -1.057231e+000 -1.555520e+001 135 86 75
2.380939e+000 -1.085901e+000 -1.570014e+001 57 41 26
3.101796e+000 -1.933128e+000 -1.687434e+001 73 51 30
1.330226e+000 4.218716e-002 -1.536509e+001 178 89 88
3.335263e+000 -1.967256e+000 -1.707578e+001 95 69 45
1.278996e+000 3.250007e-001 -1.561387e+001 187 102 95
2.717897e+000 2.713345e-001 -1.474281e+001 53 42 28
6.645284e-001 -1.694614e-001 -1.576535e+001 158 99 67
9.118950e-001 -1.108565e+000 -1.548625e+001 186 128 108
2.907065e+000 -2.648093e+000 -1.792637e+001 94 69 49
7.608063e-001 -4.034565e-001 -1.550855e+001 205 160 129
5.661276e-001 -9.955850e-001 -1.586282e+001 115 52 45
3.247305e+000 1.613384e+000 -1.589927e+001 117 84 59
3.389683e+000 1.853836e+000 -1.590212e+001 99 65 35
2.149164e+000 7.311665e-001 -1.472047e+001 178 142 106
3.185059e+000 8.971279e-001 -1.511685e+001 123 92 63
1.834872e+000 2.473015e-001 -1.513440e+001 192 150 104
1.597153e+000 9.433770e-002 -1.526538e+001 201 150 108
2.076921e+000 -1.573344e-001 -1.475372e+001 78 67 41
3.966604e+000 9.385831e-002 -1.480182e+001 84 52 29
4.134980e+000 -2.333716e-001 -1.503555e+001 73 45 20
4.249975e+000 -5.715633e-001 -1.561022e+001 45 18 0
3.907250e+000 -9.200753e-001 -1.591416e+001 64 37 15
3.978734e+000 -8.779321e-001 -1.588701e+001 64 37 16
4.198709e+000 -8.944556e-001 -1.596042e+001 71 45 22
-1.653347e+000 -1.606038e+000 -1.611009e+001 133 98 76
9.883866e-001 -1.391360e+000 -1.559047e+001 166 106 96
3.676577e+000 -1.225806e+000 -1.614627e+001 64 39 16
3.699548e+000 -1.312990e+000 -1.625248e+001 90 65 43
-1.566547e+000 -1.756871e+000 -1.608353e+001 109 71 52
-1.259252e+000 -2.158173e+000 -1.603634e+001 121 80 58
9.334094e-001 -2.318778e+000 -1.719636e+001 170 111 102
-1.664791e+000 -2.474783e+000 -1.615440e+001 188 118 118
1.749224e+000 -2.417208e+000 -1.704985e+001 171 128 101
3.870700e+000 1.802103e+000 -1.591237e+001 129 94 62
3.871671e+000 1.802673e+000 -1.591469e+001 129 94 62
3.488171e+000 1.490607e+000 -1.564536e+001 99 65 38
3.955628e+000 1.139322e+000 -1.545542e+001 115 76 46
3.441558e+000 8.569655e-001 -1.510907e+001 97 63 38
4.221956e+000 9.997693e-001 -1.538094e+001 132 96 60
3.673314e+000 7.540119e-001 -1.507398e+001 128 91 58
2.840335e+000 3.288725e-001 -1.451708e+001 132 116 90
1.056773e+000 -1.163808e-001 -1.540177e+001 165 73 74
3.886078e+000 -3.505255e-001 -1.510988e+001 96 69 43
8.633013e-001 -1.139170e+000 -1.548095e+001 196 138 119
2.246578e+000 -1.063565e+000 -1.537934e+001 171 143 116
3.995413e+000 -1.003899e+000 -1.603833e+001 70 44 21
4.286262e+000 -1.024040e+000 -1.618431e+001 60 34 12
-1.654426e+000 -1.647974e+000 -1.609851e+001 112 76 54
-1.669252e+000 -1.649002e+000 -1.613954e+001 112 76 54
3.998352e+000 -1.313138e+000 -1.637288e+001 107 81 54
1.819971e+000 -1.705938e+000 -1.619079e+001 73 52 34
3.993943e+000 -2.144729e+000 -1.747483e+001 68 43 21
3.788270e+000 1.274367e+000 -1.551981e+001 127 93 65
3.766043e+000 8.554361e-001 -1.516621e+001 125 89 57
4.163831e+000 8.928014e-001 -1.527923e+001 147 109 71
2.437129e+000 6.151737e-001 -1.464965e+001 76 60 44
4.037266e+000 2.690694e-001 -1.484500e+001 87 53 25
4.190798e+000 -4.443306e-001 -1.536217e+001 59 33 8
4.263707e+000 -4.273041e-001 -1.537048e+001 109 82 53
3.631650e+000 -1.187395e+000 -1.608994e+001 102 76 53
4.144002e+000 -1.185480e+000 -1.622725e+001 79 53 29
4.137495e+000 -1.060257e+000 -1.612530e+001 98 74 50
4.147176e+000 -1.060727e+000 -1.614273e+001 98 74 50
2.862906e+000 -1.348030e+000 -1.599741e+001 114 88 64
-1.948359e+000 -2.287022e+000 -1.636417e+001 206 141 134
3.971064e+000 1.492423e+000 -1.570033e+001 87 53 29
3.913880e+000 1.322556e+000 -1.558166e+001 97 65 37
2.432038e+000 6.804717e-001 -1.477870e+001 73 56 38
4.159251e+000 4.632955e-001 -1.492280e+001 112 73 40
4.243806e+000 2.816352e-001 -1.489464e+001 89 54 26
5.565877e-001 -4.702481e-001 -1.573393e+001 145 92 61
3.422857e+000 -5.905867e-001 -1.527076e+001 61 38 18
-1.972586e+000 -2.098825e+000 -1.643072e+001 255 255 253
3.105610e+000 1.868328e+000 -1.585170e+001 152 119 81
3.694764e+000 9.483891e-001 -1.523082e+001 129 96 65
2.292931e+000 3.472283e-001 -1.443610e+001 204 169 131
3.619297e+000 -1.499176e-001 -1.482768e+001 76 44 21
2.989685e+000 -1.536964e+000 -1.630875e+001 65 41 20
2.933876e+000 1.649255e+000 -1.569290e+001 129 95 68
1.464390e+000 -8.238446e-001 -1.572117e+001 116 48 45
1.733875e+000 -1.491057e+000 -1.601533e+001 168 106 99
4.222564e+000 -2.245344e+000 -1.765665e+001 139 106 75
4.905558e+000 4.883821e-001 -1.495514e+001 163 122 66
4.209609e+000 -3.600448e-001 -1.525593e+001 108 78 50
3.789577e+000 -1.918198e+000 -1.712803e+001 116 87 61
4.709811e+000 4.041607e-001 -1.501593e+001 151 109 69
2.667197e+000 -2.314199e+000 -1.727471e+001 132 104 80
1.636807e+000 1.681514e+000 -1.572664e+001 165 141 107
2.264768e+000 1.745490e+000 -1.565163e+001 39 27 13
2.640256e+000 9.325142e-001 -1.496281e+001 169 147 110
2.021260e+000 -1.182720e-002 -1.479467e+001 136 117 91
3.976012e+000 1.761544e-002 -1.485581e+001 75 43 18
1.412882e+000 -7.111088e-001 -1.577478e+001 115 55 47
1.255129e+000 -8.936841e-001 -1.561144e+001 170 110 99
3.712548e+000 -1.101891e+000 -1.603668e+001 75 47 23
2.189756e+000 -2.845309e+000 -1.718656e+001 67 55 39
2.194337e+000 -2.852965e+000 -1.722026e+001 67 55 39
3.960137e+000 8.452890e-001 -1.515588e+001 160 119 81
1.084767e+000 -4.930825e-003 -1.543350e+001 203 123 114
3.913631e+000 -7.637992e-001 -1.570937e+001 76 50 27
-1.674845e+000 -1.847469e+000 -1.609737e+001 160 116 87
3.697250e+000 -1.312863e+000 -1.625429e+001 91 67 42
3.350012e+000 -2.043013e+000 -1.713564e+001 105 79 56
3.546980e+000 -2.054787e+000 -1.725807e+001 99 73 50
1.917461e+000 -2.513765e+000 -1.702481e+001 148 113 81
3.401170e+000 1.245390e+000 -1.546902e+001 109 74 42
3.347593e+000 5.431671e-001 -1.480960e+001 126 91 63
7.641562e-001 -8.632660e-001 -1.556933e+001 160 94 82
4.149849e+000 -1.012785e+000 -1.607376e+001 70 44 21
4.230127e+000 -9.674366e-001 -1.605827e+001 67 41 20
3.827420e+000 -1.549262e+000 -1.662949e+001 99 73 48
2.593473e+000 1.070159e+000 -1.513334e+001 143 120 76
3.725219e+000 7.626252e-001 -1.509387e+001 102 66 35
3.604975e+000 5.838611e-001 -1.488951e+001 113 74 44
4.222735e+000 -6.167037e-001 -1.564277e+001 97 72 48
3.727719e+000 4.778048e-001 -1.481948e+001 136 100 66
9.434955e-001 -1.145430e+000 -1.544976e+001 186 129 111
4.024552e+000 -2.002084e-001 -1.500348e+001 111 79 56
1.422969e+000 -1.039883e+000 -1.569429e+001 129 58 54
4.285762e+000 1.338724e+000 -1.565686e+001 107 71 41
3.219082e+000 1.587067e+000 -1.568869e+001 85 54 29
3.869081e+000 1.499966e+000 -1.570627e+001 93 60 29
1.913217e+000 1.207888e+000 -1.536733e+001 123 96 72
9.781459e-001 7.605812e-001 -1.676010e+001 124 80 46
4.339520e+000 5.446116e-001 -1.499645e+001 96 60 29
1.726517e+000 -4.018872e-001 -1.532915e+001 156 114 89
4.870826e+000 -8.931883e-001 -1.572140e+001 101 73 34
3.219574e+000 -1.209707e+000 -1.599013e+001 89 65 42
4.795816e+000 -3.056492e+000 -1.685313e+001 143 114 68
3.386228e+000 1.200672e+000 -1.542384e+001 100 67 36
3.634664e+000 5.097526e-001 -1.485611e+001 124 90 59
3.653905e+000 4.872176e-001 -1.484074e+001 79 47 22
3.695656e+000 4.805422e-001 -1.482119e+001 136 101 71
4.983202e+000 6.303286e-002 -1.485061e+001 168 131 79
1.073393e+000 -1.414987e+000 -1.558314e+001 153 77 75
3.984796e+000 -1.618205e+000 -1.681182e+001 65 43 20
3.771256e+000 7.618687e-001 -1.508394e+001 148 112 76
3.829608e+000 8.291300e-001 -1.516224e+001 134 98 66
3.578088e+000 5.657256e-001 -1.489208e+001 106 71 41
4.154107e+000 4.706797e-001 -1.493517e+001 105 69 37
-9.227028e-001 -1.477593e+000 -1.622586e+001 145 100 65
4.048922e+000 1.173389e-002 -1.484615e+001 116 85 57
-9.814591e-001 -1.569851e+000 -1.617107e+001 147 101 63
4.145405e+000 1.942056e+000 -1.610331e+001 104 69 36
1.892213e+000 1.627673e+000 -1.552704e+001 165 132 99
3.475536e+000 1.721854e+000 -1.580620e+001 140 105 75
3.973572e+000 1.821420e+000 -1.599580e+001 89 55 27
3.053485e+000 1.426329e+000 -1.552663e+001 111 80 54
3.541130e+000 1.556001e+000 -1.571422e+001 98 63 36
2.294130e+000 1.250793e+000 -1.517748e+001 65 49 33
3.975312e+000 1.277169e+000 -1.556547e+001 86 52 24
3.897493e+000 1.031644e+000 -1.535560e+001 137 96 64
3.278620e+000 7.569473e-001 -1.498912e+001 110 73 45
3.922006e+000 8.045822e-001 -1.516317e+001 137 99 63
4.470946e+000 7.459410e-001 -1.515660e+001 93 54 23
4.095324e+000 5.815946e-001 -1.498039e+001 108 70 34
2.287893e+000 1.333513e-001 -1.439488e+001 182 149 110
4.277394e+000 4.007395e-001 -1.491269e+001 104 65 33
3.995740e+000 1.140085e-001 -1.482387e+001 94 64 40
1.951472e+000 -2.315621e-001 -1.494865e+001 184 140 79
9.209053e-001 -1.404527e+000 -1.558156e+001 148 81 74
4.078948e+000 2.060427e+000 -1.621695e+001 108 68 32
2.179879e+000 1.649720e+000 -1.548040e+001 53 43 26
3.814757e+000 1.755999e+000 -1.588618e+001 124 89 59
4.343023e+000 1.782333e+000 -1.594821e+001 129 94 66
4.595983e+000 1.923716e+000 -1.611513e+001 94 70 46
2.011296e+000 1.318889e+000 -1.523879e+001 144 108 75
3.271438e+000 1.518754e+000 -1.564080e+001 107 77 53
1.570288e+000 1.306692e+000 -1.581711e+001 116 81 49
3.986935e+000 1.440376e+000 -1.568750e+001 96 62 34
2.197952e+000 8.818655e-001 -1.486938e+001 150 114 80
4.259804e+000 1.032767e+000 -1.543104e+001 107 71 39
1.988065e+000 7.419065e-001 -1.496515e+001 87 77 48
2.939731e+000 7.656685e-001 -1.498095e+001 142 111 83
3.434160e+000 8.258629e-001 -1.508915e+001 118 83 55
3.911306e+000 9.173778e-001 -1.524452e+001 146 107 68
4.098639e+000 -2.260935e-001 -1.502922e+001 63 37 14
1.571357e+000 -1.446944e+000 -1.575116e+001 195 140 131
3.029990e+000 -1.508325e+000 -1.626903e+001 97 72 52
1.188107e+000 -1.972523e+000 -1.634797e+001 136 70 62
3.745367e+000 1.796965e+000 -1.595668e+001 101 66 36
3.754129e+000 1.632969e+000 -1.577252e+001 144 109 77
3.550356e+000 8.782238e-001 -1.517990e+001 88 54 27
3.550356e+000 8.782238e-001 -1.517990e+001 88 54 27
3.908310e+000 6.494891e-001 -1.503897e+001 111 72 39
4.356148e+000 -3.193663e-002 -1.497314e+001 85 52 27
1.332127e+000 -8.782067e-001 -1.562269e+001 156 94 83
3.399907e+000 1.625492e+000 -1.572893e+001 89 57 32
3.745303e+000 8.996963e-001 -1.520068e+001 103 68 40
1.422988e+000 4.878765e-001 -1.579849e+001 206 156 119
3.376603e+000 1.709344e-001 -1.466289e+001 112 78 51
4.179421e+000 5.909634e-002 -1.490986e+001 103 69 41
3.347166e+000 -8.235874e-001 -1.554336e+001 103 77 52
3.540292e+000 -1.107749e+000 -1.598086e+001 111 84 59
-1.242978e+000 -1.652178e+000 -1.592798e+001 149 108 86
1.742421e+000 -1.614214e+000 -1.609721e+001 131 67 67
4.148271e+000 1.793531e+000 -1.600673e+001 127 89 58
3.168313e+000 1.416214e+000 -1.555165e+001 86 56 30
1.730409e+000 1.924025e-001 -1.519982e+001 194 150 105
2.673324e+000 -3.514597e-001 -1.453068e+001 35 22 14
3.884365e+000 -4.305025e-001 -1.520115e+001 118 88 62
-3.100084e-001 -1.217360e+000 -1.630079e+001 127 92 65
4.395629e+000 -1.026981e+000 -1.617352e+001 82 56 28
1.270636e+000 8.260603e-001 -1.634258e+001 176 138 101
2.404845e+000 7.206576e-001 -1.479226e+001 226 208 168
3.423193e+000 9.409263e-001 -1.517647e+001 127 94 63
4.251329e+000 7.072918e-001 -1.512150e+001 108 69 36
4.251329e+000 7.072918e-001 -1.512150e+001 108 69 36
7.984536e-001 1.439230e-001 -1.586602e+001 173 97 74
4.541944e+000 -1.250594e-001 -1.509535e+001 79 47 22
3.257744e+000 -2.685695e-001 -1.479165e+001 73 48 25
1.365388e+000 -1.257594e+000 -1.564676e+001 148 76 79
-9.775279e-001 -1.589125e+000 -1.609195e+001 142 96 61
1.653969e+000 -1.481419e+000 -1.597472e+001 102 43 41
2.786567e+000 1.988890e+000 -1.612356e+001 121 87 59
3.662953e+000 1.517999e+000 -1.566077e+001 107 72 42
4.137176e+000 1.286110e+000 -1.558863e+001 132 92 62
4.454102e+000 5.403480e-001 -1.500863e+001 129 91 54
2.333375e+000 1.892841e-001 -1.437274e+001 218 188 152
3.621507e+000 2.404521e-001 -1.471902e+001 124 90 55
3.351867e+000 7.270289e-001 -1.497248e+001 126 92 57
8.251962e-001 -8.383614e-001 -1.553114e+001 197 135 120
-9.554034e-001 -1.544282e+000 -1.619499e+001 155 107 69
3.467714e+000 3.513035e-001 -1.475015e+001 121 86 54
3.802773e+000 2.306148e-001 -1.474591e+001 128 90 54
4.754112e+000 1.144663e+000 -1.550418e+001 25 17 14
4.820037e+000 -2.263964e-002 -1.574370e+001 115 80 48
3.497773e+000 2.004682e+000 -1.609904e+001 122 83 50
3.030595e+000 1.889745e+000 -1.591840e+001 130 94 62
3.449052e+000 1.520085e+000 -1.568680e+001 84 50 23
2.101766e+000 1.189418e+000 -1.513139e+001 128 97 63
4.275541e+000 1.345166e+000 -1.568128e+001 93 59 31
3.213551e+000 6.479010e-001 -1.488786e+001 105 73 47
3.937747e+000 7.929439e-001 -1.512913e+001 109 69 34
3.937747e+000 7.929439e-001 -1.512913e+001 109 69 34
1.835697e+000 4.816882e-001 -1.502576e+001 169 140 98
4.466659e+000 7.073566e-001 -1.515615e+001 133 93 58
3.682965e+000 4.540904e-001 -1.479484e+001 101 66 38
4.377439e+000 5.020318e-001 -1.500362e+001 104 67 33
4.377439e+000 5.020318e-001 -1.500362e+001 104 67 33
3.111846e+000 2.074068e-001 -1.458755e+001 163 128 100
2.341582e+000 -1.476418e-001 -1.440538e+001 164 130 101
1.760853e+000 -1.434901e+000 -1.590924e+001 165 100 94
5.075223e+000 -1.017363e+000 -1.478297e+001 115 84 41
3.443524e+000 2.022744e+000 -1.612272e+001 157 122 84
3.041421e+000 1.388016e+000 -1.551792e+001 83 51 26
3.303406e+000 1.374029e+000 -1.554141e+001 92 58 31
3.438495e+000 1.268721e+000 -1.547981e+001 109 74 44
3.900717e+000 1.110461e+000 -1.538611e+001 133 98 64
4.043012e+000 3.212061e-001 -1.488945e+001 91 56 26
2.079991e+000 -1.601158e-001 -1.474970e+001 74 61 40
9.594951e-001 -1.036318e+000 -1.546311e+001 143 75 59
1.769924e+000 -1.776486e+000 -1.623814e+001 121 67 67
1.859532e+000 1.693638e+000 -1.560707e+001 142 107 77
4.504984e+000 1.873465e+000 -1.620040e+001 81 49 24
3.378767e+000 1.493284e+000 -1.564547e+001 92 63 33
3.326725e+000 6.381706e-001 -1.488625e+001 97 64 35
2.653615e+000 -1.407738e-001 -1.445884e+001 41 27 16
4.347200e+000 2.520936e-002 -1.491140e+001 94 62 30
1.616888e+000 -9.349537e-001 -1.576430e+001 131 68 61
9.037353e-001 -1.195076e+000 -1.543696e+001 174 109 97
1.806534e+000 -1.729821e+000 -1.617452e+001 73 54 39
1.529217e+000 -2.432465e+000 -1.712764e+001 172 125 105
2.341331e+000 9.113122e-001 -1.494714e+001 43 32 22
3.787521e+000 7.570992e-001 -1.513969e+001 150 111 78
-1.453053e+000 -1.714934e+000 -1.600597e+001 104 65 50
2.161294e+000 4.815538e-001 -1.473940e+001 175 142 110
5.765387e-001 -6.303868e-001 -1.571558e+001 166 116 89
3.715912e+000 -9.667961e-001 -1.586345e+001 68 42 19
-9.939072e-001 -1.615775e+000 -1.612896e+001 132 89 52
3.837162e+000 1.267739e+000 -1.552699e+001 129 94 65
1.512992e+000 -4.105457e-001 -1.550458e+001 140 70 68
4.464582e+000 -3.265161e-001 -1.532152e+001 115 86 54
4.359719e+000 -1.056049e+000 -1.618722e+001 91 62 36
1.197810e+000 -1.422499e+000 -1.566058e+001 134 69 60
4.127805e+000 1.282505e+000 -1.557343e+001 132 96 64
3.264760e+000 -2.062714e-003 -1.464680e+001 58 35 23
3.790847e+000 -1.912566e+000 -1.712082e+001 117 87 61
3.917262e+000 6.997503e-001 -1.506239e+001 105 69 33
2.218307e+000 5.474814e-001 -1.464511e+001 187 149 111
2.101217e+000 1.556313e+000 -1.543152e+001 215 195 157
4.539506e+000 1.920667e+000 -1.613777e+001 82 53 27
2.166452e+000 1.187006e+000 -1.518198e+001 125 105 84
2.506542e+000 1.197100e+000 -1.522169e+001 88 67 38
1.868127e+000 1.165091e+000 -1.538184e+001 91 68 44
3.936374e+000 8.139499e-001 -1.514474e+001 120 81 42
5.005418e+000 6.942255e-001 -1.453314e+001 155 117 62
2.150883e+000 4.556394e-001 -1.479939e+001 141 112 81
2.213829e+000 4.679205e-001 -1.455709e+001 179 145 107
2.279884e+000 4.729560e-001 -1.449033e+001 179 145 107
2.763106e+000 3.372301e-001 -1.454810e+001 98 78 53
2.849153e+000 1.446949e-001 -1.449020e+001 57 40 23
2.083101e+000 8.625875e-002 -1.469460e+001 105 96 67
2.116587e+000 6.290229e-002 -1.451245e+001 104 96 68
4.635049e+000 1.967975e-001 -1.498027e+001 95 60 30
2.894137e+000 -2.617951e-002 -1.445894e+001 60 43 23
4.989982e+000 7.144344e-002 -1.488305e+001 176 138 90
1.911733e+000 -1.488697e-001 -1.498458e+001 148 101 48
1.982483e+000 -1.428913e-001 -1.490844e+001 138 102 67
2.371358e+000 -2.016983e-001 -1.441139e+001 161 128 97
2.651530e+000 -2.029650e-001 -1.445644e+001 118 103 82
8.258885e-001 -2.772413e-001 -1.554090e+001 203 149 120
1.684321e+000 -2.858985e-001 -1.528167e+001 117 61 48
2.718652e+000 -3.724052e-001 -1.458069e+001 65 52 35
4.079554e+000 -2.656341e-001 -1.507201e+001 74 52 27
1.742919e+000 -3.642463e-001 -1.528058e+001 163 124 90
3.650957e+000 -4.733804e-001 -1.514665e+001 96 70 47
3.675169e+000 -4.869498e-001 -1.517319e+001 69 45 21
2.263982e+000 -7.436173e-001 -1.501058e+001 157 126 97
2.431873e+000 -6.323061e-001 -1.501913e+001 44 31 14
2.467558e+000 -7.279302e-001 -1.515900e+001 48 35 18
3.878625e+000 -5.478422e-001 -1.540779e+001 66 41 17
8.084198e-001 -8.804567e-001 -1.553850e+001 167 94 85
1.998874e+000 -7.600367e-001 -1.525919e+001 98 67 46
3.913977e+000 -7.207712e-001 -1.564194e+001 92 66 45
2.270633e+000 -1.221641e+000 -1.553146e+001 107 83 59
2.463140e+000 -1.355724e+000 -1.565362e+001 22 13 13
2.637981e+000 -1.390434e+000 -1.585412e+001 94 78 59
2.662909e+000 -1.405619e+000 -1.589494e+001 57 39 21
3.975780e+000 -1.368073e+000 -1.643206e+001 79 52 27
-1.024853e+000 -1.606161e+000 -1.610885e+001 152 106 69
2.951462e+000 -1.583777e+000 -1.631032e+001 73 46 25
3.073687e+000 -1.528502e+000 -1.631102e+001 72 51 30
3.237427e+000 -1.429941e+000 -1.620380e+001 100 75 52
3.257726e+000 -1.586454e+000 -1.644808e+001 85 63 42
3.522704e+000 -1.482563e+000 -1.639596e+001 96 74 51
3.521544e+000 -1.483808e+000 -1.637896e+001 96 74 51
3.605476e+000 -1.504121e+000 -1.649686e+001 99 74 52
3.922459e+000 -1.411294e+000 -1.648071e+001 65 40 18
2.266076e+000 -1.694937e+000 -1.624006e+001 45 31 15
2.316742e+000 -1.670548e+000 -1.615738e+001 61 45 27
3.404427e+000 -1.616312e+000 -1.654092e+001 96 72 49
-9.482199e-001 -2.002659e+000 -1.607560e+001 92 56 41
1.322769e+000 -1.899510e+000 -1.628315e+001 145 87 76
1.483846e+000 -1.866840e+000 -1.608814e+001 132 77 70
1.331430e+000 -1.992555e+000 -1.628387e+001 145 83 72
2.098260e+000 -1.987667e+000 -1.646842e+001 140 111 85
2.124889e+000 -2.008320e+000 -1.654841e+001 50 30 14
2.224207e+000 -2.016742e+000 -1.663752e+001 70 55 36
3.447793e+000 -1.957024e+000 -1.701025e+001 104 77 56
3.446091e+000 -1.956702e+000 -1.701169e+001 104 77 56
3.716205e+000 -1.981394e+000 -1.719373e+001 88 62 37
3.716205e+000 -1.981394e+000 -1.719373e+001 88 62 37
1.429912e+000 -2.287842e+000 -1.689278e+001 140 77 72
1.626905e+000 -2.478600e+000 -1.721962e+001 188 148 113
1.936311e+000 -2.385630e+000 -1.693371e+001 146 112 84
2.132778e+000 -2.409175e+000 -1.712606e+001 35 25 23
3.108710e+000 -2.477920e+000 -1.750970e+001 74 47 27
3.428179e+000 -2.341670e+000 -1.747689e+001 81 57 31
3.598769e+000 -2.361489e+000 -1.757690e+001 89 61 37
4.941267e+000 -2.208338e+000 -1.592857e+001 119 90 50
2.323384e+000 -2.606844e+000 -1.708089e+001 41 29 21
2.866353e+000 -2.552298e+000 -1.751596e+001 77 49 28
2.866353e+000 -2.552298e+000 -1.751596e+001 77 49 28
4.574408e+000 -2.677437e+000 -1.775149e+001 174 147 102
5.128617e+000 -2.329907e+000 -1.516314e+001 157 128 89
4.939433e+000 -2.872685e+000 -1.605982e+001 141 112 68
2.473536e+000 1.518491e+000 -1.542304e+001 72 55 37
3.710968e+000 1.636927e+000 -1.575125e+001 110 75 43
2.425760e+000 1.321646e+000 -1.532478e+001 65 44 22
2.053826e+000 1.077919e+000 -1.504742e+001 128 89 53
3.348455e+000 1.214499e+000 -1.540013e+001 142 105 75
3.824238e+000 9.207837e-001 -1.528586e+001 142 106 70
2.669114e+000 7.218500e-001 -1.481673e+001 65 45 42
2.321058e+000 3.986457e-001 -1.445302e+001 126 88 49
3.569878e+000 6.615082e-001 -1.497439e+001 117 82 44
3.751089e+000 4.223820e-001 -1.479634e+001 107 73 39
2.115819e+000 -1.333510e-001 -1.463575e+001 84 70 44
2.352428e+000 -1.575872e-001 -1.437546e+001 171 140 109
2.408316e+000 -1.816617e-001 -1.432100e+001 121 87 61
2.653354e+000 -1.376400e-001 -1.446064e+001 43 29 18
1.925995e+000 -1.832097e-001 -1.496702e+001 200 160 95
2.605547e+000 -2.074325e-001 -1.450129e+001 122 105 85
2.605547e+000 -2.074325e-001 -1.450129e+001 122 105 85
2.835515e+000 -2.337379e-001 -1.454382e+001 42 28 18
2.015492e+000 -3.263075e-001 -1.483950e+001 166 119 42
2.394173e+000 -3.389619e-001 -1.453177e+001 112 76 51
3.443600e+000 -3.120829e-001 -1.491994e+001 58 35 17
4.567670e+000 -1.380229e-001 -1.511159e+001 61 34 13
4.571029e+000 -1.368849e-001 -1.511767e+001 61 34 13
3.962880e+000 -3.535668e-001 -1.513955e+001 94 69 43
4.223536e+000 -3.906739e-001 -1.530081e+001 86 60 35
2.168818e+000 -5.542327e-001 -1.490112e+001 153 117 84
2.466412e+000 -5.568804e-001 -1.486954e+001 38 28 20
2.855025e+000 -6.268864e-001 -1.448003e+001 87 73 54
3.607851e+000 -4.653268e-001 -1.510479e+001 70 47 23
4.085103e+000 -4.496338e-001 -1.537810e+001 51 26 6
2.021505e+000 -7.497121e-001 -1.525065e+001 135 100 70
3.769885e+000 -6.009642e-001 -1.543342e+001 66 39 18
2.037528e+000 -8.050758e-001 -1.526440e+001 148 116 92
4.184899e+000 -7.024210e-001 -1.574111e+001 95 73 50
2.444376e+000 -9.402607e-001 -1.540651e+001 38 26 13
2.480572e+000 -9.826146e-001 -1.543719e+001 53 38 19
3.505715e+000 -8.681409e-001 -1.566005e+001 63 37 14
1.573074e+000 -1.158259e+000 -1.564647e+001 146 69 71
2.457555e+000 -1.104428e+000 -1.558536e+001 49 34 15
2.494115e+000 -1.092769e+000 -1.561176e+001 122 106 76
3.962800e+000 -9.526318e-001 -1.596764e+001 51 28 10
7.601720e-001 -1.234214e+000 -1.552267e+001 169 91 87
1.743134e+000 -1.207531e+000 -1.590908e+001 138 78 67
2.108731e+000 -1.180186e+000 -1.532780e+001 74 64 37
2.714589e+000 -1.180293e+000 -1.577662e+001 120 106 73
2.633407e+000 -1.241624e+000 -1.575880e+001 62 48 30
3.997898e+000 -1.125070e+000 -1.615239e+001 67 39 15
3.469542e+000 -1.372081e+000 -1.623813e+001 68 46 23
-1.539858e+000 -1.639224e+000 -1.606800e+001 164 120 91
-1.528029e+000 -1.672742e+000 -1.605590e+001 139 97 74
1.351854e+000 -1.626983e+000 -1.574280e+001 133 77 63
2.124712e+000 -1.501218e+000 -1.573946e+001 106 67 41
3.226382e+000 -1.566688e+000 -1.642396e+001 64 42 21
3.254869e+000 -1.537597e+000 -1.637441e+001 96 71 50
3.389969e+000 -1.491785e+000 -1.636646e+001 91 66 44
1.716016e+000 -1.784687e+000 -1.621301e+001 123 61 60
2.384552e+000 -1.651799e+000 -1.613740e+001 38 25 16
3.932595e+000 -1.667858e+000 -1.684951e+001 99 73 51
3.964061e+000 -1.694488e+000 -1.688506e+001 77 50 27
2.072303e+000 -1.888235e+000 -1.629834e+001 152 126 103
2.072303e+000 -1.888235e+000 -1.629834e+001 152 126 103
3.424857e+000 -1.923201e+000 -1.700038e+001 80 53 32
2.000102e+000 -1.948398e+000 -1.625939e+001 65 50 29
2.512891e+000 -2.113145e+000 -1.683503e+001 58 42 26
3.674023e+000 -2.022654e+000 -1.724256e+001 76 50 26
-6.839341e-001 -2.240393e+000 -1.633614e+001 75 53 40
3.393595e+000 -2.221624e+000 -1.734059e+001 102 76 50
3.609695e+000 -2.253953e+000 -1.746621e+001 107 81 58
-1.665950e+000 -2.428675e+000 -1.615967e+001 163 93 95
1.432443e+000 -2.400130e+000 -1.709365e+001 180 129 113
1.951524e+000 -2.425092e+000 -1.694141e+001 227 196 167
2.360575e+000 -2.347904e+000 -1.714866e+001 48 36 24
3.322401e+000 -2.358211e+000 -1.751876e+001 104 77 56
1.833400e+000 1.936698e+000 -1.575833e+001 182 151 120
2.326212e+000 1.979449e+000 -1.579651e+001 64 48 23
4.586989e+000 1.986659e+000 -1.596545e+001 72 49 35
1.942691e+000 1.275236e+000 -1.531942e+001 130 96 62
1.567462e+000 1.306968e+000 -1.580792e+001 141 104 69
3.893331e+000 1.025939e+000 -1.535164e+001 151 112 76
4.043843e+000 6.322689e-001 -1.499071e+001 117 81 45
4.043843e+000 6.322689e-001 -1.499071e+001 117 81 45
4.374885e+000 6.207877e-001 -1.503443e+001 115 76 46
2.665949e+000 2.802265e-001 -1.452030e+001 73 60 38
1.759409e+000 2.481160e-001 -1.519681e+001 176 133 89
3.575431e+000 5.295324e-002 -1.475025e+001 81 48 26
2.403211e+000 -9.945033e-002 -1.436992e+001 129 95 68
2.169792e+000 -1.643772e-001 -1.454170e+001 107 91 66
2.334062e+000 -2.118833e-001 -1.442348e+001 158 125 90
2.877659e+000 -2.188605e-001 -1.455415e+001 139 118 86
2.440064e+000 -3.806755e-001 -1.456402e+001 110 79 47
2.717409e+000 -3.035103e-001 -1.453305e+001 65 52 34
3.641573e+000 -2.970565e-001 -1.494472e+001 85 57 33
4.585202e+000 -2.959419e-001 -1.533513e+001 79 49 25
2.180427e+000 -6.333625e-001 -1.508762e+001 105 70 48
2.303051e+000 -7.035447e-001 -1.496564e+001 196 167 137
2.499108e+000 -6.425803e-001 -1.500865e+001 47 33 20
4.224328e+000 -5.400361e-001 -1.557604e+001 97 70 49
6.889120e-001 -8.254954e-001 -1.561496e+001 169 103 92
2.510003e+000 -7.847234e-001 -1.517964e+001 35 26 11
4.067624e+000 -8.160443e-001 -1.581180e+001 95 69 47
4.072852e+000 -8.135676e-001 -1.582583e+001 95 69 47
4.362052e+000 -8.031120e-001 -1.597263e+001 59 36 15
4.019116e+000 -9.753094e-001 -1.598676e+001 92 67 45
4.212601e+000 -1.008504e+000 -1.609589e+001 86 65 42
4.254722e+000 -9.407101e-001 -1.603775e+001 60 38 15
1.861366e+000 -1.243238e+000 -1.572692e+001 119 79 58
2.103581e+000 -1.270515e+000 -1.544497e+001 55 44 22
4.215821e+000 -1.088862e+000 -1.619247e+001 62 37 15
3.040816e+000 -1.505844e+000 -1.630225e+001 101 77 54
3.151765e+000 -1.543026e+000 -1.635449e+001 96 71 50
3.682417e+000 -1.554599e+000 -1.660347e+001 62 37 17
-2.606644e-001 -1.769159e+000 -1.636018e+001 103 74 52
3.365660e+000 -1.726105e+000 -1.684064e+001 105 80 58
3.375686e+000 -1.802723e+000 -1.681257e+001 103 79 53
3.386408e+000 -1.803600e+000 -1.683802e+001 103 79 53
2.226680e+000 -2.079933e+000 -1.680969e+001 48 34 23
1.486694e+000 -2.280319e+000 -1.689891e+001 169 112 101
1.868413e+000 -2.221250e+000 -1.695857e+001 148 109 88
-1.645375e+000 -2.382647e+000 -1.613450e+001 182 119 110
-1.634425e+000 -2.502015e+000 -1.615370e+001 163 84 90
1.479098e+000 -2.424617e+000 -1.710105e+001 148 78 74
3.855606e+000 -2.328381e+000 -1.762980e+001 109 81 56
1.815309e+000 -2.520814e+000 -1.713396e+001 141 103 70
3.297826e+000 -2.562031e+000 -1.772060e+001 105 81 57
3.699482e+000 1.749274e+000 -1.583612e+001 111 75 43
3.030610e+000 1.276153e+000 -1.539607e+001 115 84 55
3.603536e+000 1.420454e+000 -1.560218e+001 153 117 88
3.919746e+000 1.403509e+000 -1.562114e+001 142 109 78
3.600500e+000 1.112918e+000 -1.534212e+001 102 66 36
3.600927e+000 1.114343e+000 -1.534566e+001 102 66 36
3.745702e+000 1.088220e+000 -1.536411e+001 103 68 36
2.700014e+000 6.784823e-001 -1.478210e+001 70 51 34
4.806515e+000 9.633266e-001 -1.545259e+001 171 130 78
2.153926e+000 3.701968e-001 -1.472519e+001 159 128 99
4.025144e+000 4.254517e-001 -1.488728e+001 100 64 32
2.627807e+000 2.589008e-002 -1.436637e+001 53 37 21
2.903708e+000 -1.973525e-001 -1.450392e+001 48 32 15
2.436605e+000 -2.967828e-001 -1.445779e+001 118 86 58
2.879837e+000 -3.725806e-001 -1.467038e+001 40 25 18
1.839109e+000 -4.695784e-001 -1.518047e+001 191 149 100
2.821668e+000 -6.046931e-001 -1.443974e+001 55 41 28
4.369879e+000 -5.074712e-001 -1.555545e+001 62 38 14
5.729622e-001 -7.150768e-001 -1.566026e+001 217 158 140
2.414714e+000 -6.750768e-001 -1.494707e+001 48 40 27
2.273816e+000 -9.712566e-001 -1.526221e+001 139 109 81
1.204235e+000 -1.233246e+000 -1.548223e+001 164 90 89
1.194294e+000 -1.300536e+000 -1.538339e+001 158 86 87
2.752595e+000 -1.176901e+000 -1.568350e+001 63 46 26
-4.505493e-001 -1.512512e+000 -1.638432e+001 184 140 113
2.721980e+000 -1.442830e+000 -1.603278e+001 65 49 28
-1.617248e+000 -1.788878e+000 -1.608557e+001 164 120 90
-8.517444e-001 -1.723804e+000 -1.610307e+001 197 160 132
2.053282e+000 -1.636512e+000 -1.589378e+001 107 76 48
3.366168e+000 -1.688225e+000 -1.664981e+001 101 76 54
3.633481e+000 -1.887100e+000 -1.700905e+001 80 53 30
1.912850e+000 -2.246854e+000 -1.692070e+001 136 96 71
-1.607898e+000 -2.388766e+000 -1.619241e+001 122 68 61
1.509254e+000 -2.512794e+000 -1.722895e+001 159 117 92
1.774946e+000 -2.467904e+000 -1.701944e+001 188 149 118
3.266240e+000 -2.456654e+000 -1.753011e+001 78 51 30
4.540440e+000 1.864716e+000 -1.620909e+001 76 52 27
4.243901e+000 1.769981e+000 -1.600363e+001 115 76 43
3.340644e+000 1.263633e+000 -1.544870e+001 133 99 67
4.149163e+000 1.488531e+000 -1.573044e+001 123 89 56
3.840758e+000 1.262513e+000 -1.550310e+001 142 107 79
3.627486e+000 4.605765e-001 -1.481214e+001 83 49 24
3.599959e+000 3.975712e-001 -1.479321e+001 131 95 59
4.627764e+000 3.004629e-001 -1.499695e+001 99 63 31
2.340659e+000 -3.024452e-001 -1.452627e+001 108 78 52
3.533733e+000 -2.698874e-001 -1.489792e+001 69 44 23
4.638386e+000 -2.519719e-001 -1.520329e+001 116 86 58
1.706226e+000 -3.566677e-001 -1.531542e+001 84 44 32
2.016092e+000 -4.070394e-001 -1.484376e+001 161 110 36
2.817801e+000 -5.120314e-001 -1.452263e+001 76 62 35
2.275432e+000 -5.490563e-001 -1.475920e+001 118 84 56
2.320602e+000 -5.998732e-001 -1.481182e+001 170 139 111
3.940414e+000 -4.240214e-001 -1.520613e+001 104 74 48
2.263800e+000 -6.408026e-001 -1.495493e+001 120 85 58
2.758310e+000 -7.837301e-001 -1.462938e+001 32 22 14
3.550808e+000 -6.989477e-001 -1.542260e+001 103 79 55
7.712469e-001 -1.169815e+000 -1.547643e+001 206 147 133
1.433713e+000 -1.138369e+000 -1.568568e+001 130 58 56
1.433713e+000 -1.138369e+000 -1.568568e+001 130 58 56
1.659179e+000 -1.396795e+000 -1.587404e+001 111 43 44
3.237576e+000 -1.464031e+000 -1.626520e+001 62 39 16
2.046733e+000 -1.771342e+000 -1.605589e+001 90 63 41
2.235915e+000 -1.615341e+000 -1.595345e+001 79 67 50
2.089145e+000 -1.878450e+000 -1.636072e+001 134 109 87
2.115345e+000 -2.125084e+000 -1.669119e+001 60 51 36
4.243940e+000 -2.084500e+000 -1.750467e+001 133 102 71
1.490249e+000 -2.358903e+000 -1.699650e+001 133 60 58
1.490364e+000 -2.359761e+000 -1.701007e+001 133 60 58
1.660920e+000 -2.479756e+000 -1.717254e+001 188 148 118
2.799611e+000 -2.533118e+000 -1.748096e+001 73 48 27
2.655928e+000 -2.780820e+000 -1.784783e+001 119 97 73
3.441130e+000 1.039442e+000 -1.525121e+001 117 82 50
3.000314e+000 6.966029e-001 -1.481415e+001 191 158 125
1.593231e+000 1.405707e-001 -1.528768e+001 206 157 112
1.420241e+000 -6.331110e-002 -1.531859e+001 156 75 69
2.035743e+000 -1.625165e-001 -1.482567e+001 182 158 124
2.459828e+000 -3.343978e-001 -1.452391e+001 38 25 16
3.248690e+000 -2.630910e-001 -1.479093e+001 69 47 24
4.491687e+000 -3.329180e-001 -1.539847e+001 104 77 50
1.624795e+000 -9.082140e-001 -1.571991e+001 123 66 55
3.965447e+000 -1.412670e+000 -1.652208e+001 64 39 15
2.209922e+000 -1.719979e+000 -1.600219e+001 72 57 41
2.965959e+000 -1.661794e+000 -1.646137e+001 67 41 24
-1.621502e+000 -2.348974e+000 -1.616911e+001 126 78 66
3.221477e+000 8.333782e-001 -1.505658e+001 152 116 81
4.307383e+000 8.821066e-001 -1.526781e+001 161 122 83
1.369251e+000 8.410700e-001 -1.607300e+001 101 85 49
3.084762e+000 -5.704186e-001 -1.501617e+001 104 82 59
3.654572e+000 -5.224788e-001 -1.524424e+001 69 47 26
2.794335e+000 -6.999966e-001 -1.465257e+001 71 59 43
3.945180e+000 -6.081646e-001 -1.552390e+001 102 78 50
3.779228e+000 -1.185547e+000 -1.614342e+001 106 79 52
3.344007e+000 -1.281365e+000 -1.609283e+001 113 87 61
2.928821e+000 -2.036321e+000 -1.668138e+001 112 82 58
4.027637e+000 -2.554499e+000 -1.805530e+001 100 72 45
2.469931e+000 1.752632e+000 -1.566506e+001 90 75 54
2.232928e+000 5.552170e-001 -1.455499e+001 220 186 148
3.724409e+000 8.347776e-001 -1.512526e+001 125 89 55
2.632946e+000 4.362558e-001 -1.460685e+001 74 61 40
3.468577e+000 5.430353e-002 -1.472132e+001 106 75 46
9.436521e-001 -4.047099e-001 -1.548502e+001 177 109 100
3.919131e+000 -1.053279e+000 -1.608186e+001 103 76 49
1.667169e+000 -1.832220e+000 -1.630292e+001 165 110 101
3.857276e+000 -1.744944e+000 -1.689252e+001 115 88 61
-7.784533e-001 -2.125241e+000 -1.620332e+001 112 75 57
1.378368e+000 -2.125646e+000 -1.645808e+001 130 57 62
4.527913e+000 -2.428504e+000 -1.829021e+001 107 79 41
4.010993e+000 1.564836e-001 -1.483347e+001 69 43 18
1.891340e+000 -2.622778e-001 -1.502950e+001 148 99 33
1.685325e+000 -2.525899e+000 -1.725617e+001 184 145 113
2.866142e+000 -2.357226e+000 -1.736725e+001 68 46 26
3.919453e+000 4.875150e-001 -1.496154e+001 143 105 68
3.299987e+000 -3.781471e-001 -1.490209e+001 64 41 25
2.845103e+000 -1.057671e+000 -1.500220e+001 116 90 67
1.816391e+000 1.225253e+000 -1.548846e+001 63 48 25
2.279253e+000 1.992992e-001 -1.439259e+001 150 116 79
3.805594e+000 2.352481e-001 -1.470632e+001 133 97 63
3.727210e+000 -4.156940e-002 -1.477520e+001 119 87 59
2.469622e+000 -1.442828e+000 -1.587886e+001 23 16 16
3.217018e+000 -2.468866e+000 -1.802898e+001 87 60 40
4.420714e+000 2.161670e-001 -1.492350e+001 124 89 61
-1.420000e+000 -2.125228e+000 -1.604838e+001 150 105 81
3.238404e+000 -2.644202e-001 -1.482495e+001 69 42 23
3.218030e+000 -3.611752e-001 -1.486381e+001 57 34 16
2.215069e+000 -8.578537e-001 -1.516858e+001 118 87 59
1.711236e+000 8.384920e-001 -1.554526e+001 153 114 77
3.510618e+000 -1.441365e-001 -1.478656e+001 64 38 15
3.571059e+000 1.141867e+000 -1.537557e+001 127 94 63
1.383277e+000 -7.146513e-001 -1.577194e+001 152 94 80
3.723038e+000 1.076803e+000 -1.535113e+001 91 57 29
3.802431e+000 1.446319e+000 -1.564860e+001 116 83 52
1.563062e+000 1.844373e-001 -1.531255e+001 214 164 123
4.580522e+000 1.865718e-001 -1.495681e+001 88 51 28
3.341089e+000 8.907956e-001 -1.514515e+001 112 81 52
4.196647e+000 1.433753e+000 -1.571880e+001 100 65 34
-1.952433e+000 -2.084245e+000 -1.634640e+001 255 254 253
4.305581e+000 3.061970e-001 -1.491708e+001 69 38 11
4.166654e+000 -4.617394e-001 -1.536387e+001 90 65 43
3.487615e+000 -5.821157e-001 -1.530205e+001 76 54 33
4.720748e+000 -6.485723e-001 -1.594598e+001 147 122 92
4.293505e+000 -7.937687e-001 -1.589966e+001 82 57 35
3.210776e+000 -1.251718e+000 -1.605553e+001 74 47 26
3.203332e+000 -1.302979e+000 -1.606218e+001 68 42 19
3.462880e+000 -1.332894e+000 -1.622045e+001 90 68 44
3.627239e+000 -1.709464e+000 -1.679436e+001 88 64 41
3.046610e+000 -2.402326e+000 -1.743316e+001 99 72 53
3.046610e+000 -2.402326e+000 -1.743316e+001 99 72 53
3.128470e+000 -7.088660e-001 -1.532315e+001 58 35 19
2.285045e+000 -9.276623e-001 -1.524405e+001 121 91 63
4.056676e+000 -9.152296e-001 -1.593973e+001 69 44 24
3.471081e+000 -2.444573e+000 -1.760302e+001 81 56 33
4.357624e+000 -7.753193e-001 -1.586458e+001 99 73 50
3.327251e+000 -1.987433e+000 -1.704965e+001 89 63 40
4.145438e+000 -4.583427e-001 -1.539614e+001 91 68 45
4.152301e+000 -1.012622e+000 -1.608591e+001 68 43 23
3.168569e+000 -1.293617e+000 -1.604929e+001 66 40 18
4.538000e+000 -1.700602e+000 -1.720676e+001 92 66 31
3.972230e+000 -1.180387e+000 -1.617406e+001 99 72 42
3.319307e+000 -1.830713e+000 -1.680812e+001 104 77 58
1.419747e+000 -6.355041e-002 -1.531863e+001 156 75 69
2.990694e+000 -1.855427e+000 -1.672477e+001 100 72 51
1.730428e+000 -2.439845e-001 -1.525188e+001 172 129 79
3.360519e+000 -4.434436e-001 -1.733650e+001 75 55 34
1.889294e+000 1.621130e+000 -1.548719e+001 187 153 126
1.930811e+000 1.161973e+000 -1.528262e+001 121 91 68
2.711930e+000 3.776142e-001 -1.456558e+001 182 163 134
1.917507e+000 3.969255e-001 -1.505860e+001 127 96 67
1.872445e+000 3.841491e-002 -1.505222e+001 142 98 63
2.614836e+000 -1.480444e-001 -1.448451e+001 44 31 19
2.938499e+000 -5.819675e-001 -1.448975e+001 81 65 49
2.851573e+000 -6.316090e-001 -1.446704e+001 85 73 57
3.171578e+000 -4.219037e-001 -1.490517e+001 90 69 47
4.095540e+000 -3.928126e-001 -1.528690e+001 56 37 22
3.688459e+000 -5.207144e-001 -1.527738e+001 45 28 12
3.834637e+000 -5.618039e-001 -1.541561e+001 47 26 7
4.280341e+000 -4.582117e-001 -1.544167e+001 38 19 4
4.352455e+000 -4.981242e-001 -1.559295e+001 51 29 15
4.074777e+000 -5.671254e-001 -1.553429e+001 69 50 36
4.179752e+000 -6.378862e-001 -1.567530e+001 33 13 2
3.617614e+000 -8.102661e-001 -1.561705e+001 85 63 45
4.385014e+000 -6.844147e-001 -1.580608e+001 58 37 20
2.416063e+000 -9.309132e-001 -1.538397e+001 101 89 73
8.986505e-001 -1.103276e+000 -1.548494e+001 175 118 105
4.170918e+000 -1.107742e+000 -1.616753e+001 50 30 19
4.172414e+000 -1.131905e+000 -1.620277e+001 77 58 43
9.208660e-001 -1.403397e+000 -1.559377e+001 143 80 76
1.747191e+000 -1.352905e+000 -1.588509e+001 139 74 80
2.156048e+000 -1.352694e+000 -1.568716e+001 103 78 56
3.254220e+000 -1.231634e+000 -1.603208e+001 52 30 16
2.396246e+000 -1.451906e+000 -1.591191e+001 36 24 10
2.322733e+000 -1.472672e+000 -1.591249e+001 74 61 44
3.696705e+000 -1.533278e+000 -1.656916e+001 76 59 41
-1.776300e+000 -1.712796e+000 -1.621013e+001 140 96 71
-1.006896e+000 -1.717034e+000 -1.611310e+001 167 125 103
2.297180e+000 -1.695506e+000 -1.621992e+001 108 96 80
2.297180e+000 -1.695506e+000 -1.621992e+001 108 96 80
2.583761e+000 -1.688264e+000 -1.631781e+001 44 31 15
2.681194e+000 -1.681740e+000 -1.628563e+001 64 47 31
1.353191e+000 -1.918149e+000 -1.627185e+001 124 76 64
1.725339e+000 -1.834131e+000 -1.627312e+001 111 52 55
1.155535e+000 -1.999320e+000 -1.638705e+001 183 126 117
1.450526e+000 -1.964024e+000 -1.624987e+001 164 122 109
1.742020e+000 -1.983233e+000 -1.652337e+001 143 87 86
-1.087453e+000 -2.257775e+000 -1.611842e+001 78 50 40
1.965317e+000 -2.249936e+000 -1.679537e+001 128 93 74
9.411476e-001 -2.313108e+000 -1.714432e+001 168 113 107
1.042966e+000 -2.269909e+000 -1.716692e+001 162 98 98
1.075494e+000 -2.279312e+000 -1.715289e+001 126 56 58
1.192523e+000 -2.345277e+000 -1.719334e+001 159 97 92
1.599738e+000 -2.292166e+000 -1.708136e+001 112 62 51
2.409129e+000 -2.383961e+000 -1.718166e+001 43 30 22
1.522402e+000 -2.430172e+000 -1.704857e+001 168 122 106
1.996171e+000 -2.662441e+000 -1.720312e+001 82 59 41
1.922010e+000 1.463079e+000 -1.534319e+001 176 145 116
3.295505e+000 1.569304e+000 -1.565834e+001 97 65 41
3.483834e+000 1.480487e+000 -1.562788e+001 114 79 52
3.277541e+000 1.105410e+000 -1.533132e+001 146 110 86
3.897834e+000 1.307090e+000 -1.553579e+001 118 81 54
3.961333e+000 1.170790e+000 -1.546339e+001 123 86 57
1.933212e+000 7.871099e-001 -1.501355e+001 119 105 78
2.831893e+000 3.226123e-001 -1.449165e+001 143 123 99
3.639901e+000 1.153215e-001 -1.474951e+001 72 42 19
2.195954e+000 -1.219061e-001 -1.448478e+001 97 85 66
3.254186e+000 6.051534e-002 -1.467703e+001 75 48 29
1.275532e+000 1.604027e-001 -1.543827e+001 227 151 145
2.366439e+000 -2.800323e-001 -1.447289e+001 140 110 84
3.247107e+000 -2.515666e-001 -1.488440e+001 60 37 21
2.294369e+000 -3.975608e-001 -1.456674e+001 169 139 111
4.238583e+000 -3.766472e-001 -1.533960e+001 69 47 27
2.900884e+000 -7.282473e-001 -1.470828e+001 82 65 49
3.839549e+000 -5.311858e-001 -1.539539e+001 90 68 47
4.083525e+000 -4.517640e-001 -1.537230e+001 43 26 10
4.242358e+000 -5.750454e-001 -1.559902e+001 44 25 10
2.444479e+000 -8.547334e-001 -1.528685e+001 47 37 22
3.903530e+000 -6.942318e-001 -1.562353e+001 48 29 14
4.206399e+000 -7.288762e-001 -1.580026e+001 49 30 16
2.115944e+000 -9.959882e-001 -1.528878e+001 78 70 47
4.184926e+000 -8.378416e-001 -1.590836e+001 45 27 13
4.179950e+000 -1.041400e+000 -1.610036e+001 46 31 20
4.179950e+000 -1.041400e+000 -1.610036e+001 46 31 20
2.237010e+000 -1.194339e+000 -1.550199e+001 97 76 55
2.632726e+000 -1.241234e+000 -1.575980e+001 49 37 23
3.220473e+000 -1.210792e+000 -1.598592e+001 73 54 37
3.659736e+000 -1.144615e+000 -1.609376e+001 50 32 12
3.755541e+000 -1.080166e+000 -1.602439e+001 76 55 38
3.755541e+000 -1.080166e+000 -1.602439e+001 76 55 38
3.738875e+000 -1.106950e+000 -1.602908e+001 51 27 12
3.738875e+000 -1.106950e+000 -1.602908e+001 51 27 12
2.610957e+000 -1.378605e+000 -1.590831e+001 38 25 16
2.648709e+000 -1.303223e+000 -1.575575e+001 46 34 18
2.380752e+000 -1.500954e+000 -1.599440e+001 37 25 10
3.786476e+000 -1.378495e+000 -1.639192e+001 46 27 10
3.709762e+000 -1.427607e+000 -1.637737e+001 55 36 19
1.568123e+000 -1.571899e+000 -1.587394e+001 86 35 31
2.349638e+000 -1.585911e+000 -1.606518e+001 25 15 5
2.581905e+000 -1.519900e+000 -1.605128e+001 44 32 18
3.597749e+000 -1.506726e+000 -1.646946e+001 80 62 42
-1.778020e+000 -1.752697e+000 -1.619328e+001 169 125 100
1.805928e+000 -1.770304e+000 -1.625011e+001 42 34 23
-1.723933e+000 -1.830824e+000 -1.614617e+001 137 93 67
-1.686459e+000 -1.845742e+000 -1.612709e+001 164 120 91
1.759881e+000 -1.933917e+000 -1.654095e+001 118 56 60
1.817616e+000 -1.928028e+000 -1.636449e+001 44 35 26
2.125994e+000 -1.883923e+000 -1.631036e+001 114 96 77
2.322838e+000 -1.898911e+000 -1.641900e+001 38 27 22
3.887309e+000 -1.876402e+000 -1.709477e+001 71 48 30
1.644602e+000 -2.217545e+000 -1.692222e+001 109 51 50
1.691425e+000 -2.226464e+000 -1.699432e+001 151 101 92
2.025296e+000 -2.179256e+000 -1.668250e+001 111 85 64
2.186487e+000 -2.209128e+000 -1.695779e+001 41 31 19
2.231460e+000 -2.209226e+000 -1.697561e+001 40 31 24
2.485026e+000 -2.221638e+000 -1.698659e+001 47 32 22
2.532835e+000 -2.203112e+000 -1.684006e+001 70 52 38
1.952554e+000 -2.279513e+000 -1.683597e+001 190 158 139
2.343968e+000 -2.282554e+000 -1.710303e+001 60 51 40
1.948652e+000 -2.683822e+000 -1.723760e+001 127 99 77
3.426213e+000 -2.580371e+000 -1.775318e+001 70 45 28
2.195235e+000 -2.857218e+000 -1.717859e+001 59 51 40
2.343246e+000 1.784804e+000 -1.562671e+001 91 76 61
1.818321e+000 1.254567e+000 -1.536815e+001 121 95 70
3.486684e+000 1.303834e+000 -1.549217e+001 131 97 69
3.502354e+000 5.454652e-001 -1.486807e+001 112 77 47
4.634372e+000 2.726385e-001 -1.479996e+001 139 103 71
4.634372e+000 2.726385e-001 -1.479996e+001 139 103 71
1.478783e+000 5.367766e-001 -1.572739e+001 204 160 124
2.446015e+000 -2.992867e-002 -1.436961e+001 139 108 85
4.050298e+000 1.701504e-001 -1.479008e+001 111 76 52
2.073998e+000 7.138859e-002 -1.479805e+001 95 87 68
3.572785e+000 4.946939e-002 -1.474249e+001 75 48 21
4.356221e+000 1.339186e-002 -1.493253e+001 84 53 32
4.579290e+000 1.699269e-001 -1.502874e+001 110 76 49
4.582572e+000 1.151174e-001 -1.498329e+001 86 54 31
1.084658e+000 -5.822388e-002 -1.540937e+001 187 97 99
1.936088e+000 -3.090952e-001 -1.506925e+001 132 90 42
2.858641e+000 -5.038841e-001 -1.450769e+001 32 22 10
4.161841e+000 -5.545020e-001 -1.559143e+001 68 49 32
2.488957e+000 -8.966464e-001 -1.536741e+001 47 37 24
3.952009e+000 -9.242328e-001 -1.589290e+001 77 59 41
4.244006e+000 -9.498362e-001 -1.600402e+001 47 29 15
4.285851e+000 -1.019472e+000 -1.617957e+001 43 22 12
3.207198e+000 -1.179560e+000 -1.593775e+001 54 35 20
3.990069e+000 -1.432474e+000 -1.649515e+001 57 38 22
-1.664165e+000 -1.652739e+000 -1.608650e+001 107 68 51
-1.668243e+000 -1.649234e+000 -1.611039e+001 107 68 51
1.966495e+000 -1.647003e+000 -1.603057e+001 55 37 27
2.634255e+000 -1.635256e+000 -1.622586e+001 47 35 21
3.302203e+000 -1.493023e+000 -1.633719e+001 78 59 44
3.413852e+000 -1.561542e+000 -1.645838e+001 77 60 42
1.936604e+000 -1.889267e+000 -1.610989e+001 60 53 40
1.189341e+000 -1.973478e+000 -1.634011e+001 134 69 67
1.835165e+000 -2.155094e+000 -1.688672e+001 100 57 46
1.933793e+000 -2.139574e+000 -1.672343e+001 129 89 72
3.111078e+000 -2.107811e+000 -1.719770e+001 72 49 33
3.985673e+000 -2.072354e+000 -1.744809e+001 58 37 21
2.440602e+000 -2.321910e+000 -1.715267e+001 53 40 31
3.490876e+000 -2.357127e+000 -1.753092e+001 95 74 55
1.478975e+000 -2.424813e+000 -1.709834e+001 140 71 73
1.895261e+000 -2.477783e+000 -1.702127e+001 133 97 73
3.824153e+000 -2.457988e+000 -1.774177e+001 104 78 58
2.221123e+000 -2.889043e+000 -1.713241e+001 66 53 44
3.379853e+000 1.516401e+000 -1.566717e+001 107 75 50
3.417931e+000 1.441721e+000 -1.559142e+001 141 107 80
3.779319e+000 9.400461e-001 -1.526006e+001 115 78 50
1.654522e+000 8.643168e-001 -1.567455e+001 209 173 137
2.882188e+000 1.239311e-001 -1.445982e+001 146 128 104
4.152995e+000 2.175737e-001 -1.487414e+001 100 65 38
4.343421e+000 2.960058e-001 -1.491309e+001 86 52 27
3.559225e+000 -6.608007e-002 -1.476578e+001 61 35 18
3.170600e+000 -5.941099e-001 -1.523861e+001 53 33 21
4.101245e+000 -4.619166e-001 -1.530514e+001 78 55 38
4.081036e+000 -4.815243e-001 -1.524256e+001 78 55 38
4.177409e+000 -4.575608e-001 -1.532890e+001 48 26 15
4.260389e+000 -4.319908e-001 -1.539019e+001 86 65 45
4.301332e+000 -4.840747e-001 -1.552776e+001 82 61 44
4.330783e+000 -4.255379e-001 -1.540985e+001 62 41 24
4.099338e+000 -8.912810e-001 -1.592356e+001 77 56 37
2.249886e+000 -1.031418e+000 -1.537441e+001 159 137 116
3.967565e+000 -9.564086e-001 -1.596175e+001 42 25 10
4.211503e+000 -1.009449e+000 -1.609083e+001 72 55 37
4.308119e+000 -9.697146e-001 -1.610921e+001 73 54 37
4.125365e+000 -1.096789e+000 -1.618457e+001 46 28 16
3.757353e+000 -1.256120e+000 -1.619784e+001 84 63 44
1.796426e+000 -1.457587e+000 -1.599387e+001 102 47 42
1.796426e+000 -1.457587e+000 -1.599387e+001 102 47 42
1.896854e+000 -1.417266e+000 -1.567532e+001 115 73 49
3.484589e+000 -1.540031e+000 -1.648583e+001 47 28 13
-5.766089e-001 -1.758013e+000 -1.638382e+001 130 93 79
1.921555e+000 -1.942825e+000 -1.630666e+001 94 83 63
1.321576e+000 -1.979825e+000 -1.630184e+001 138 79 75
2.084388e+000 -2.244621e+000 -1.682494e+001 70 57 45
2.462344e+000 -2.177018e+000 -1.699449e+001 45 33 24
1.731580e+000 -2.612806e+000 -1.715379e+001 172 138 113
2.913053e+000 1.897297e+000 -1.588695e+001 146 113 82
3.510084e+000 1.719852e+000 -1.579717e+001 156 119 89
3.556424e+000 1.647884e+000 -1.574003e+001 106 70 44
3.832077e+000 1.370462e+000 -1.558468e+001 108 74 46
3.360052e+000 1.067847e+000 -1.529049e+001 153 118 89
3.519253e+000 7.522937e-001 -1.503449e+001 147 110 81
1.436919e+000 9.988607e-001 -1.608650e+001 198 186 166
1.425838e+000 8.854250e-001 -1.599484e+001 114 99 66
1.986277e+000 3.549967e-001 -1.498968e+001 61 50 40
3.400500e+000 1.291706e-001 -1.467460e+001 87 54 32
3.581731e+000 -6.914993e-003 -1.474007e+001 105 75 51
2.319115e+000 -1.691539e-001 -1.440407e+001 110 79 58
2.028498e+000 -3.880317e-001 -1.490248e+001 154 106 47
3.938189e+000 -4.273175e-001 -1.519744e+001 89 67 46
3.780349e+000 -6.460840e-001 -1.549090e+001 86 63 45
4.223274e+000 -6.159432e-001 -1.564600e+001 78 61 43
4.491572e+000 -6.234388e-001 -1.579792e+001 58 40 18
1.140343e+000 -8.999865e-001 -1.564629e+001 140 73 66
2.206197e+000 -9.847084e-001 -1.533265e+001 66 48 28
2.210476e+000 -9.788466e-001 -1.535754e+001 66 48 28
3.661144e+000 -8.316179e-001 -1.569041e+001 59 37 24
3.764361e+000 -1.110956e+000 -1.602265e+001 57 36 18
2.612307e+000 -1.450342e+000 -1.592702e+001 44 32 26
2.120297e+000 -1.657732e+000 -1.596342e+001 152 126 103
3.029983e+000 -1.718456e+000 -1.652193e+001 78 58 44
3.110011e+000 -1.727179e+000 -1.657413e+001 56 36 24
1.687969e+000 -2.036874e+000 -1.656832e+001 150 97 91
2.854201e+000 -2.062416e+000 -1.698251e+001 81 55 38
4.174214e+000 -2.047540e+000 -1.748270e+001 70 48 27
1.776864e+000 -2.147973e+000 -1.686154e+001 174 131 114
1.903632e+000 -2.364085e+000 -1.692805e+001 119 87 64
1.860327e+000 -2.617236e+000 -1.721658e+001 131 96 74
1.709995e+000 1.553591e+000 -1.565539e+001 198 168 134
3.303138e+000 5.051816e-001 -1.478463e+001 149 115 87
