ply
format ascii 1.0
element face 0
property list uchar int vertex_indices
element vertex 892
property float x
property float y
property float z
property uchar diffuse_red
property uchar diffuse_green
property uchar diffuse_blue
end_header
2.537150e+000 7.165291e-002 -1.441690e+001 225 198 144
4.911645e+000 2.531004e-001 -1.510791e+001 76 42 14
5.051311e+000 1.339489e-001 -1.462357e+001 151 112 60
2.040470e+000 -1.046901e-001 -1.474432e+001 85 69 47
2.599022e+000 -1.384102e-001 -1.441141e+001 58 42 27
2.839525e+000 -1.374078e-001 -1.445370e+001 57 38 24
1.941333e+000 -2.465865e-001 -1.483856e+001 177 137 76
2.640006e+000 -1.903118e-001 -1.441970e+001 116 99 81
2.677305e+000 -1.940369e-001 -1.449217e+001 46 31 15
3.370609e+000 -2.562956e-001 -1.473574e+001 75 47 28
2.796825e+000 -4.058634e-001 -1.455495e+001 57 47 33
3.436801e+000 -2.996980e-001 -1.487446e+001 55 31 12
2.566867e+000 -4.751445e-001 -1.459798e+001 78 62 46
2.236887e+000 -7.406781e-001 -1.507729e+001 119 85 60
2.457851e+000 -7.196510e-001 -1.514450e+001 50 34 21
4.242400e+000 -5.319013e-001 -1.558401e+001 93 69 43
2.502392e+000 -8.440332e-001 -1.532300e+001 40 28 16
9.320026e-001 -1.065979e+000 -1.548382e+001 134 67 51
9.602109e-001 -1.055727e+000 -1.546506e+001 198 140 120
1.968505e+000 -9.563377e-001 -1.540608e+001 54 38 23
2.265737e+000 -1.046419e+000 -1.536903e+001 105 77 53
2.443946e+000 -9.660665e-001 -1.542025e+001 113 95 68
3.719594e+000 -9.111468e-001 -1.586692e+001 104 77 52
3.969238e+000 -9.843689e-001 -1.603831e+001 102 80 58
4.062966e+000 -8.824695e-001 -1.592062e+001 65 40 18
2.392177e+000 -1.108301e+000 -1.556953e+001 43 30 13
5.081112e+000 -9.943081e-001 -1.492581e+001 104 78 37
-1.557630e+000 -1.471178e+000 -1.605671e+001 145 106 77
2.465528e+000 -1.250581e+000 -1.578322e+001 102 88 64
2.607243e+000 -1.377905e+000 -1.589607e+001 53 41 20
3.762977e+000 -1.292477e+000 -1.630119e+001 61 36 14
1.974190e+000 -1.432014e+000 -1.563341e+001 131 96 65
2.357599e+000 -1.405364e+000 -1.586977e+001 45 32 15
3.774492e+000 -1.431162e+000 -1.645445e+001 63 38 17
1.378944e+000 -1.770351e+000 -1.600500e+001 163 102 97
2.063568e+000 -1.602217e+000 -1.581549e+001 122 88 61
2.306489e+000 -1.670927e+000 -1.616737e+001 52 40 18
3.409219e+000 -1.611639e+000 -1.652352e+001 89 66 48
1.799122e+000 -1.917838e+000 -1.627941e+001 54 45 28
2.247065e+000 -1.895651e+000 -1.641704e+001 62 47 25
2.276438e+000 -1.784744e+000 -1.629599e+001 63 47 31
2.478812e+000 -1.804099e+000 -1.644744e+001 78 62 44
2.527124e+000 -1.824884e+000 -1.644837e+001 40 24 9
5.048873e+000 -1.534784e+000 -1.521603e+001 108 79 39
5.048873e+000 -1.534784e+000 -1.521603e+001 108 79 39
5.203460e+000 -1.401511e+000 -1.456581e+001 115 83 42
1.232232e+000 -2.052018e+000 -1.631416e+001 185 124 111
3.745900e+000 -1.997698e+000 -1.727704e+001 83 57 32
1.564294e+000 -2.297964e+000 -1.697793e+001 119 68 49
5.180523e+000 -1.727427e+000 -1.449323e+001 126 94 53
4.979293e+000 -2.221873e+000 -1.594053e+001 113 85 45
5.154332e+000 -1.984361e+000 -1.480102e+001 123 94 53
1.629895e+000 1.788345e+000 -1.584613e+001 80 72 44
1.873984e+000 1.803940e+000 -1.550820e+001 144 107 80
2.329352e+000 1.873656e+000 -1.571450e+001 82 66 44
3.016859e+000 1.982639e+000 -1.589983e+001 168 132 98
3.409160e+000 2.016058e+000 -1.604362e+001 100 64 30
3.339281e+000 1.945921e+000 -1.593386e+001 100 63 34
3.791942e+000 2.002526e+000 -1.606960e+001 104 65 32
4.110625e+000 2.008834e+000 -1.614764e+001 125 89 57
4.475672e+000 2.102906e+000 -1.634984e+001 125 86 45
4.919075e+000 1.667804e+000 -1.465538e+001 187 146 88
1.811784e+000 1.690933e+000 -1.560330e+001 145 112 84
1.746400e+000 1.688773e+000 -1.580959e+001 121 92 65
1.889466e+000 1.540132e+000 -1.536323e+001 233 201 168
2.371638e+000 1.633752e+000 -1.546558e+001 78 62 47
4.095894e+000 1.833303e+000 -1.598199e+001 98 64 36
1.875520e+000 1.357171e+000 -1.522601e+001 138 108 70
2.542171e+000 1.539353e+000 -1.540123e+001 66 49 29
2.566510e+000 1.496517e+000 -1.541379e+001 60 43 25
2.485188e+000 1.381099e+000 -1.530711e+001 62 44 22
2.594960e+000 1.382755e+000 -1.530549e+001 63 48 29
3.184264e+000 1.570363e+000 -1.555052e+001 116 84 59
3.113149e+000 1.460918e+000 -1.555209e+001 84 54 31
3.315876e+000 1.562954e+000 -1.567087e+001 85 56 35
1.801696e+000 1.289917e+000 -1.537312e+001 117 97 69
3.607722e+000 1.373054e+000 -1.558358e+001 80 46 19
4.338379e+000 1.518286e+000 -1.580499e+001 116 80 48
4.929616e+000 1.243553e+000 -1.471929e+001 148 111 58
2.271605e+000 1.072159e+000 -1.502190e+001 75 57 37
2.460284e+000 1.063188e+000 -1.511037e+001 28 16 2
3.698802e+000 1.280701e+000 -1.547133e+001 90 55 29
4.002627e+000 1.227282e+000 -1.555637e+001 111 75 41
1.689177e+000 1.044802e+000 -1.546289e+001 92 77 51
2.139585e+000 8.984017e-001 -1.483448e+001 166 131 95
2.085932e+000 8.618838e-001 -1.483699e+001 186 154 116
2.234421e+000 8.569454e-001 -1.483535e+001 55 38 20
2.290375e+000 9.734504e-001 -1.490047e+001 33 28 18
2.428597e+000 8.031454e-001 -1.467623e+001 66 51 32
2.733519e+000 1.007979e+000 -1.510198e+001 79 62 36
2.740380e+000 9.589385e-001 -1.501591e+001 77 57 33
3.627252e+000 1.006631e+000 -1.524373e+001 126 92 64
4.175210e+000 1.100547e+000 -1.542011e+001 136 97 64
1.006653e+000 1.102427e+000 -1.671168e+001 216 203 188
1.336418e+000 9.643217e-001 -1.616879e+001 172 147 112
2.149696e+000 7.296186e-001 -1.467647e+001 189 157 119
3.413542e+000 8.997650e-001 -1.512899e+001 86 52 25
2.330575e+000 5.931936e-001 -1.458379e+001 53 36 22
2.451790e+000 5.546024e-001 -1.454745e+001 80 59 35
2.724990e+000 5.748834e-001 -1.465456e+001 69 52 31
3.314724e+000 7.024363e-001 -1.487730e+001 148 113 81
4.063620e+000 6.677291e-001 -1.500354e+001 114 71 37
4.063620e+000 6.677291e-001 -1.500354e+001 114 71 37
1.306068e+000 5.914560e-001 -1.583658e+001 179 114 87
2.308736e+000 4.188806e-001 -1.442795e+001 115 77 40
3.566662e+000 5.087495e-001 -1.481546e+001 94 63 34
1.499469e+000 3.118295e-001 -1.541660e+001 205 149 116
2.389240e+000 2.526837e-001 -1.436312e+001 143 105 69
2.676198e+000 2.826320e-001 -1.449767e+001 57 46 27
1.881202e+000 1.464126e-001 -1.509628e+001 131 88 53
2.131236e+000 2.037055e-001 -1.460928e+001 139 103 71
2.126959e+000 1.113558e-001 -1.440131e+001 128 114 87
2.848653e+000 1.602126e-001 -1.445960e+001 63 46 26
7.921480e-001 8.160490e-002 -1.585313e+001 155 79 66
1.825935e+000 1.038944e-001 -1.517684e+001 161 117 78
1.911478e+000 6.946138e-002 -1.496795e+001 153 111 73
2.096569e+000 -3.475277e-002 -1.456612e+001 111 101 75
7.973843e-001 -1.328215e-001 -1.554778e+001 175 98 86
1.616366e+000 -4.229446e-002 -1.526316e+001 175 109 93
1.926422e+000 -4.741115e-002 -1.486013e+001 150 118 84
1.926527e+000 -3.080814e-001 -1.502281e+001 135 94 45
2.289101e+000 -2.929654e-001 -1.457734e+001 117 84 58
2.325561e+000 -1.925155e-001 -1.441413e+001 156 124 95
2.360599e+000 -1.944835e-001 -1.438486e+001 155 124 93
2.345885e+000 -3.090815e-001 -1.458610e+001 126 92 64
2.841265e+000 -2.109735e-001 -1.457602e+001 39 25 19
2.892833e+000 -2.205853e-001 -1.450233e+001 52 36 21
4.520019e+000 -1.055243e-001 -1.508173e+001 64 35 11
1.697089e+000 -3.418504e-001 -1.527793e+001 95 56 40
2.286353e+000 -4.365567e-001 -1.465632e+001 166 131 100
2.448953e+000 -3.523682e-001 -1.463517e+001 107 73 46
2.738766e+000 -3.804160e-001 -1.458357e+001 62 50 34
2.804657e+000 -3.730397e-001 -1.459432e+001 23 14 6
2.721830e+000 -4.729873e-001 -1.448816e+001 67 56 39
2.823674e+000 -4.858671e-001 -1.447727e+001 81 66 45
4.256639e+000 -4.237572e-001 -1.534640e+001 100 75 51
7.104111e-001 -6.977901e-001 -1.562098e+001 163 113 85
6.602541e-001 -8.194026e-001 -1.559658e+001 159 98 83
1.538565e+000 -7.230114e-001 -1.580516e+001 138 70 71
2.842912e+000 -6.464454e-001 -1.450115e+001 79 63 47
3.794084e+000 -5.891645e-001 -1.546489e+001 58 34 11
-2.599575e-001 -9.994055e-001 -1.645101e+001 183 135 112
2.304643e+000 -8.209454e-001 -1.509285e+001 115 81 54
2.378216e+000 -8.212621e-001 -1.520537e+001 49 36 18
3.514217e+000 -6.871093e-001 -1.553177e+001 68 41 22
3.927963e+000 -7.244816e-001 -1.572511e+001 93 69 44
3.927963e+000 -7.244816e-001 -1.572511e+001 93 69 44
4.249652e+000 -8.038973e-001 -1.593752e+001 63 38 17
8.659498e-001 -9.946600e-001 -1.554267e+001 195 132 115
1.946067e+000 -1.027514e+000 -1.539198e+001 60 51 32
2.279213e+000 -1.003715e+000 -1.532800e+001 91 66 39
2.452480e+000 -8.943938e-001 -1.541968e+001 74 63 45
3.186679e+000 -1.009280e+000 -1.579706e+001 56 38 18
4.034119e+000 -9.699954e-001 -1.601761e+001 87 63 39
7.253689e-001 -1.237155e+000 -1.553660e+001 165 91 88
2.086996e+000 -1.270616e+000 -1.543092e+001 54 42 20
2.633689e+000 -1.238927e+000 -1.576723e+001 61 46 27
2.693892e+000 -1.217101e+000 -1.574879e+001 37 24 13
2.677150e+000 -1.309263e+000 -1.578495e+001 89 71 50
3.727397e+000 -1.351357e+000 -1.632520e+001 50 28 6
-1.201218e+000 -1.649188e+000 -1.602255e+001 104 64 39
2.370168e+000 -1.453532e+000 -1.595398e+001 80 68 48
2.365059e+000 -1.499711e+000 -1.597446e+001 43 30 13
3.935638e+000 -1.407451e+000 -1.649630e+001 70 46 22
1.335091e+000 -1.613997e+000 -1.567524e+001 115 66 52
1.253718e+000 -1.760954e+000 -1.611961e+001 159 106 92
2.375411e+000 -1.654996e+000 -1.616089e+001 37 27 17
2.293379e+000 -1.744574e+000 -1.625680e+001 47 33 18
3.413450e+000 -1.551694e+000 -1.643372e+001 88 66 47
3.843619e+000 -1.599476e+000 -1.685690e+001 72 47 25
3.843619e+000 -1.599476e+000 -1.685690e+001 72 47 25
-9.458226e-001 -1.947230e+000 -1.608472e+001 97 64 45
1.917967e+000 -1.874031e+000 -1.601715e+001 65 56 39
2.275046e+000 -1.858893e+000 -1.641676e+001 51 38 24
1.811912e+000 -2.149829e+000 -1.681690e+001 115 68 54
2.469700e+000 -2.119753e+000 -1.687569e+001 156 136 112
2.469700e+000 -2.119753e+000 -1.687569e+001 156 136 112
-1.772461e+000 -2.357312e+000 -1.610419e+001 180 110 110
1.467496e+000 -2.271802e+000 -1.677800e+001 167 108 100
1.695964e+000 -2.450218e+000 -1.709937e+001 146 105 77
-1.583144e+000 -2.652124e+000 -1.629894e+001 149 78 84
1.659941e+000 -2.488322e+000 -1.717506e+001 182 141 109
5.094959e+000 -2.505283e+000 -1.528279e+001 169 140 98
1.814213e+000 1.990833e+000 -1.577894e+001 164 132 101
1.593466e+000 1.856791e+000 -1.586914e+001 91 83 54
1.700490e+000 1.655881e+000 -1.573515e+001 169 139 108
1.775710e+000 1.710231e+000 -1.573008e+001 176 145 116
1.851446e+000 1.544311e+000 -1.534722e+001 137 105 73
1.973015e+000 1.598823e+000 -1.541797e+001 143 115 78
2.501484e+000 1.728104e+000 -1.557215e+001 74 58 35
1.676959e+000 1.410791e+000 -1.555917e+001 188 157 123
1.902025e+000 1.391188e+000 -1.525899e+001 247 219 184
2.571906e+000 1.434693e+000 -1.532159e+001 66 50 29
3.306101e+000 1.500034e+000 -1.559959e+001 118 89 59
3.467409e+000 1.649998e+000 -1.571044e+001 124 89 62
3.538168e+000 1.539760e+000 -1.565744e+001 125 94 66
1.925659e+000 1.290119e+000 -1.524979e+001 126 93 61
2.262338e+000 1.237924e+000 -1.513409e+001 123 103 75
2.566569e+000 1.247761e+000 -1.524893e+001 69 56 32
2.041220e+000 1.127935e+000 -1.509372e+001 120 81 50
2.116508e+000 9.610282e-001 -1.485063e+001 128 93 61
2.322789e+000 1.079549e+000 -1.503538e+001 134 114 78
2.201469e+000 9.794400e-001 -1.501763e+001 56 34 21
2.416728e+000 8.872546e-001 -1.487420e+001 56 42 26
2.634010e+000 9.442889e-001 -1.497752e+001 150 126 88
2.704748e+000 8.453908e-001 -1.484380e+001 67 50 30
4.203272e+000 1.103373e+000 -1.540626e+001 111 72 39
1.345511e+000 8.904873e-001 -1.599492e+001 73 65 26
2.185641e+000 6.639208e-001 -1.461594e+001 216 180 145
2.487309e+000 6.823468e-001 -1.467998e+001 62 46 28
3.273519e+000 7.403591e-001 -1.493238e+001 105 70 42
3.425936e+000 8.149845e-001 -1.500528e+001 123 89 61
3.889877e+000 8.676530e-001 -1.517964e+001 115 79 46
3.892108e+000 8.685433e-001 -1.518671e+001 115 79 46
2.325138e+000 5.605584e-001 -1.461824e+001 144 110 69
3.464086e+000 7.201542e-001 -1.498707e+001 79 48 22
4.005937e+000 7.501469e-001 -1.505548e+001 120 81 46
2.364001e+000 3.757739e-001 -1.442870e+001 143 104 68
2.481603e+000 4.891192e-001 -1.448429e+001 77 61 38
2.754477e+000 5.076071e-001 -1.459230e+001 81 63 43
4.744000e+000 6.876125e-001 -1.518764e+001 142 103 62
2.118847e+000 2.526916e-001 -1.473085e+001 175 137 106
2.099045e+000 1.291526e-001 -1.453203e+001 65 59 34
2.880172e+000 1.376169e-001 -1.444071e+001 138 120 96
2.880172e+000 1.376169e-001 -1.444071e+001 138 120 96
9.884242e-001 5.475928e-002 -1.554343e+001 210 132 124
2.131599e+000 -5.032025e-002 -1.451184e+001 71 60 38
2.131599e+000 -5.032025e-002 -1.451184e+001 71 60 38
2.549725e+000 -4.113410e-002 -1.440609e+001 38 24 13
2.681912e+000 3.941117e-002 -1.443206e+001 66 49 32
2.894748e+000 4.726782e-002 -1.443389e+001 56 37 21
2.894748e+000 4.726782e-002 -1.443389e+001 56 37 21
8.313646e-001 -6.265075e-002 -1.564311e+001 164 94 80
1.907056e+000 -1.638787e-001 -1.498083e+001 185 144 81
2.385294e+000 -8.937734e-002 -1.426455e+001 125 91 64
2.548797e+000 -1.193698e-001 -1.440111e+001 61 44 24
2.985979e+000 -5.628114e-002 -1.457238e+001 60 40 16
2.431333e+000 -2.283787e-001 -1.445674e+001 112 84 54
2.708050e+000 -2.803181e-001 -1.451381e+001 67 53 36
2.872603e+000 -2.073806e-001 -1.454800e+001 114 94 68
3.924221e+000 -1.969516e-001 -1.495064e+001 98 67 46
4.114921e+000 -2.082648e-001 -1.502147e+001 61 34 15
2.307164e+000 -3.324664e-001 -1.453887e+001 207 174 141
4.611848e+000 -2.790509e-001 -1.533169e+001 79 48 20
1.741985e+000 -4.927669e-001 -1.528368e+001 179 140 109
2.309751e+000 -4.917220e-001 -1.463438e+001 195 161 129
2.867825e+000 -4.947386e-001 -1.452505e+001 38 25 14
3.175394e+000 -5.153101e-001 -1.503131e+001 58 37 20
4.351610e+000 -4.030368e-001 -1.540252e+001 76 51 28
2.293321e+000 -6.997515e-001 -1.494581e+001 213 182 153
2.361293e+000 -5.997151e-001 -1.485261e+001 114 83 55
4.398506e+000 -5.346592e-001 -1.565167e+001 94 68 44
8.226300e-001 -8.677015e-001 -1.550398e+001 189 124 112
4.087848e+000 -8.006639e-001 -1.582308e+001 92 67 44
4.399572e+000 -7.923691e-001 -1.605545e+001 57 31 14
2.100614e+000 -9.914716e-001 -1.530480e+001 81 73 50
3.963943e+000 -9.074515e-001 -1.588703e+001 98 73 50
1.904506e+000 -1.103215e+000 -1.564499e+001 36 27 12
4.256448e+000 -1.004055e+000 -1.617290e+001 91 66 44
-1.829845e+000 -1.529155e+000 -1.620530e+001 178 137 110
3.162580e+000 -1.328117e+000 -1.602446e+001 103 75 53
3.856718e+000 -1.269604e+000 -1.631634e+001 70 43 22
9.182292e-001 -1.468209e+000 -1.556555e+001 177 119 107
2.178683e+000 -1.525891e+000 -1.585311e+001 111 77 50
3.698665e+000 -1.553392e+000 -1.665340e+001 61 39 18
1.943082e+000 -1.634485e+000 -1.585538e+001 145 114 90
3.377998e+000 -1.695335e+000 -1.669487e+001 97 71 51
3.604173e+000 -1.553207e+000 -1.656677e+001 73 52 30
1.696962e+000 -1.818408e+000 -1.622941e+001 122 53 56
1.314774e+000 -2.037599e+000 -1.628328e+001 168 115 101
1.676696e+000 -2.229123e+000 -1.695332e+001 163 110 92
1.897871e+000 -1.953400e+000 -1.625268e+001 100 82 63
4.075090e+000 -2.129203e+000 -1.758243e+001 92 68 44
1.842018e+000 -2.253515e+000 -1.702179e+001 138 100 77
1.937107e+000 -2.430494e+000 -1.693671e+001 203 172 144
3.188094e+000 -2.658376e+000 -1.780026e+001 101 79 55
3.496273e+000 -2.466885e+000 -1.770994e+001 79 54 32
1.890555e+000 -2.686552e+000 -1.723547e+001 200 168 140
1.901008e+000 1.980227e+000 -1.581532e+001 91 71 51
2.477313e+000 2.118361e+000 -1.616287e+001 214 198 179
3.651417e+000 1.928214e+000 -1.596024e+001 107 73 38
4.052570e+000 2.105276e+000 -1.628776e+001 135 97 61
1.548524e+000 1.746184e+000 -1.591364e+001 57 49 26
1.794281e+000 1.567533e+000 -1.545260e+001 167 137 108
3.705635e+000 1.790835e+000 -1.584354e+001 102 65 37
3.586328e+000 1.726778e+000 -1.577739e+001 101 67 40
3.573080e+000 1.712359e+000 -1.572732e+001 101 67 40
3.920393e+000 1.848973e+000 -1.595175e+001 125 90 60
1.531454e+000 1.613282e+000 -1.593804e+001 90 80 55
1.963291e+000 1.249749e+000 -1.516023e+001 214 180 144
3.008383e+000 1.375689e+000 -1.547482e+001 81 53 29
3.299868e+000 1.366503e+000 -1.551554e+001 90 59 31
1.944166e+000 1.048202e+000 -1.528297e+001 157 126 98
3.610818e+000 1.146425e+000 -1.534211e+001 99 64 36
3.181164e+000 1.022369e+000 -1.520514e+001 114 80 53
3.120217e+000 9.518334e-001 -1.521482e+001 106 79 50
3.465356e+000 9.408154e-001 -1.517197e+001 130 95 66
3.735220e+000 1.110485e+000 -1.532933e+001 99 63 37
3.804960e+000 9.819839e-001 -1.528515e+001 100 64 34
1.218039e+000 1.086015e+000 -1.660433e+001 191 151 117
1.989700e+000 7.556461e-001 -1.492388e+001 82 70 42
2.067993e+000 7.849346e-001 -1.483204e+001 139 105 72
2.205801e+000 7.345504e-001 -1.467272e+001 136 98 61
3.468746e+000 7.850949e-001 -1.501735e+001 95 61 33
9.737213e-001 8.501987e-001 -1.667358e+001 201 159 109
3.931902e+000 7.249917e-001 -1.505406e+001 110 69 37
3.921509e+000 6.328056e-001 -1.495357e+001 146 108 71
2.826166e+000 2.726574e-001 -1.440253e+001 128 110 80
2.274257e+000 1.052142e-001 -1.434625e+001 198 163 122
2.315025e+000 -1.490854e-001 -1.445236e+001 112 82 57
2.448256e+000 -1.905122e-001 -1.436404e+001 107 76 47
2.855315e+000 -2.502487e-001 -1.455031e+001 36 23 14
2.259519e+000 -4.102069e-001 -1.464451e+001 126 90 62
2.450342e+000 -3.216489e-001 -1.451896e+001 33 20 12
2.758064e+000 -4.611861e-001 -1.449318e+001 34 23 17
2.762125e+000 -4.622243e-001 -1.450651e+001 34 23 17
7.984992e-001 -7.595788e-001 -1.560500e+001 168 102 87
4.382194e+000 -4.956487e-001 -1.551198e+001 64 42 19
1.974637e+000 -1.009226e+000 -1.529583e+001 81 73 52
1.974637e+000 -1.009226e+000 -1.529583e+001 81 73 52
4.311681e+000 -9.631333e-001 -1.608632e+001 96 72 48
1.475689e+000 -1.158705e+000 -1.570951e+001 149 75 76
2.711203e+000 -1.060499e+000 -1.559348e+001 39 24 11
4.115595e+000 -1.000049e+000 -1.609094e+001 68 43 21
4.438505e+000 -1.128980e+000 -1.639918e+001 89 59 33
-1.662606e+000 -1.527455e+000 -1.605955e+001 140 104 80
1.058961e+000 -1.457296e+000 -1.558629e+001 187 135 117
2.008521e+000 -1.528219e+000 -1.570792e+001 130 95 67
1.796093e+000 -1.740832e+000 -1.619027e+001 70 53 41
2.107008e+000 -1.662401e+000 -1.598550e+001 164 134 108
2.942013e+000 -1.664651e+000 -1.640661e+001 68 42 25
2.599864e+000 -1.760506e+000 -1.639373e+001 47 33 19
2.667133e+000 -1.937286e+000 -1.676356e+001 121 96 76
1.755866e+000 -2.157194e+000 -1.685324e+001 174 128 104
1.898745e+000 -2.248235e+000 -1.687772e+001 134 94 69
1.899901e+000 -2.411031e+000 -1.711993e+001 138 99 73
3.102069e+000 -2.240293e+000 -1.727992e+001 101 75 56
2.627655e+000 -2.495486e+000 -1.735142e+001 98 72 53
3.291129e+000 -2.485436e+000 -1.765852e+001 74 49 27
1.806181e+000 1.848565e+000 -1.559423e+001 242 209 176
2.754320e+000 2.027438e+000 -1.602572e+001 125 90 60
4.054266e+000 2.077993e+000 -1.606897e+001 134 95 59
4.256186e+000 2.007342e+000 -1.608223e+001 199 157 117
4.287831e+000 1.907744e+000 -1.602307e+001 168 129 94
4.540325e+000 1.892418e+000 -1.619254e+001 66 40 25
3.648190e+000 1.664718e+000 -1.574488e+001 132 97 70
1.505709e+000 1.331677e+000 -1.586068e+001 128 112 78
3.627803e+000 1.462967e+000 -1.561474e+001 139 107 78
3.935922e+000 1.446392e+000 -1.563671e+001 135 100 70
3.013175e+000 1.046134e+000 -1.520714e+001 79 51 29
2.322013e+000 7.212170e-001 -1.478201e+001 77 61 38
4.839985e+000 8.773255e-001 -1.542238e+001 110 75 38
1.479903e+000 5.691991e-001 -1.566413e+001 192 148 111
3.776128e+000 5.765234e-001 -1.488904e+001 95 60 28
2.125757e+000 3.148006e-001 -1.481846e+001 118 82 56
2.116223e+000 3.103999e-001 -1.477449e+001 118 82 56
1.832997e+000 1.726653e-001 -1.516383e+001 168 122 79
1.060466e+000 9.333816e-002 -1.555670e+001 184 98 93
4.828501e+000 2.383967e-001 -1.502386e+001 131 93 57
2.597675e+000 -8.298490e-002 -1.445441e+001 134 112 76
2.507232e+000 -2.586768e-001 -1.449044e+001 52 38 24
1.333636e+000 -4.516637e-001 -1.545806e+001 132 56 58
1.944022e+000 -3.668720e-001 -1.500043e+001 178 132 48
2.748867e+000 -4.001768e-001 -1.461899e+001 62 48 31
3.074270e+000 -3.522764e-001 -1.475381e+001 83 61 41
3.520351e+000 -2.645546e-001 -1.488295e+001 71 44 23
3.125366e+000 -4.576493e-001 -1.488719e+001 105 85 63
1.948374e+000 -6.973464e-001 -1.517169e+001 93 62 42
1.363829e+000 -8.664182e-001 -1.560845e+001 151 88 81
2.637038e+000 -9.825488e-001 -1.559748e+001 79 68 47
1.581137e+000 -1.126297e+000 -1.569687e+001 152 104 82
1.660357e+000 -1.186676e+000 -1.589467e+001 105 45 36
1.229789e+000 -1.337149e+000 -1.570893e+001 100 26 29
1.566210e+000 -1.596728e+000 -1.591093e+001 107 43 37
3.235061e+000 -1.462634e+000 -1.629303e+001 69 45 27
-7.566652e-001 -1.830274e+000 -1.601889e+001 85 50 37
1.431246e+000 -1.968826e+000 -1.622423e+001 171 124 109
2.043410e+000 -1.781191e+000 -1.616120e+001 85 58 37
2.087036e+000 -1.865640e+000 -1.621539e+001 118 95 72
1.654236e+000 -2.188259e+000 -1.705852e+001 109 42 40
2.638912e+000 -2.050724e+000 -1.686943e+001 126 100 79
3.700603e+000 -2.093394e+000 -1.734045e+001 76 51 28
3.454975e+000 -2.617834e+000 -1.789487e+001 88 57 38
3.837344e+000 -2.567134e+000 -1.798215e+001 93 63 39
4.176319e+000 -3.573999e+000 -1.913243e+001 178 150 103
4.228079e+000 -3.780606e+000 -1.891020e+001 175 148 105
1.885198e+000 1.677656e+000 -1.540238e+001 196 163 130
1.517385e+000 1.703496e+000 -1.608559e+001 114 103 75
2.092003e+000 1.314557e+000 -1.523159e+001 43 29 20
3.706977e+000 1.197275e+000 -1.541996e+001 132 98 70
1.644710e+000 9.655438e-001 -1.559931e+001 75 67 44
1.111921e+000 1.090632e+000 -1.671881e+001 157 109 69
2.387719e+000 7.548700e-001 -1.479069e+001 203 179 146
1.099409e+000 8.736271e-001 -1.656828e+001 47 28 23
3.119993e+000 7.184288e-001 -1.487102e+001 95 63 40
4.529133e+000 8.005507e-001 -1.520372e+001 112 74 38
1.547274e+000 3.174751e-001 -1.543360e+001 200 155 113
2.895328e+000 3.224287e-001 -1.446726e+001 45 32 16
2.950098e+000 1.234966e-001 -1.446123e+001 67 49 25
4.036508e+000 3.128890e-001 -1.480208e+001 87 53 26
4.036508e+000 3.128890e-001 -1.480208e+001 87 53 26
1.166264e+000 1.119102e-001 -1.549464e+001 209 141 128
2.153575e+000 -2.893310e-001 -1.470526e+001 134 91 61
3.148824e+000 -3.354162e-001 -1.475210e+001 118 92 67
4.678777e+000 -2.487266e-001 -1.525153e+001 121 90 62
4.703496e+000 -2.465014e-001 -1.531511e+001 121 90 62
1.792066e+000 -5.769484e-001 -1.519820e+001 196 158 121
3.192252e+000 -5.167401e-001 -1.502640e+001 60 39 20
4.633824e+000 -3.563913e-001 -1.534404e+001 118 88 60
2.584911e+000 -7.211036e-001 -1.521872e+001 20 12 12
3.930199e+000 -6.136096e-001 -1.551372e+001 103 77 50
2.024436e+000 -8.967043e-001 -1.541855e+001 116 85 60
1.994246e+000 -1.099887e+000 -1.541730e+001 77 70 47
-1.474781e+000 -1.509777e+000 -1.601832e+001 135 94 66
3.376051e+000 -1.275979e+000 -1.612979e+001 106 78 57
3.808480e+000 -1.194544e+000 -1.626625e+001 107 77 51
-1.630211e+000 -1.734252e+000 -1.605583e+001 129 91 70
3.947228e+000 -1.435410e+000 -1.647446e+001 83 60 38
3.995402e+000 -1.646435e+000 -1.696777e+001 74 49 27
2.120074e+000 -2.137876e+000 -1.673571e+001 43 32 20
2.955617e+000 -2.039399e+000 -1.689012e+001 104 76 54
1.643679e+000 -2.282704e+000 -1.701558e+001 160 114 92
2.093623e+000 -2.261155e+000 -1.688941e+001 46 36 25
3.027422e+000 -2.636580e+000 -1.769902e+001 88 63 41
3.788819e+000 -2.654681e+000 -1.794880e+001 187 156 110
4.176332e+000 -2.731801e+000 -1.841585e+001 160 131 92
2.267962e+000 -2.832778e+000 -1.715289e+001 102 90 74
2.396459e+000 1.878679e+000 -1.560374e+001 75 61 42
2.044482e+000 1.514289e+000 -1.535397e+001 50 36 22
3.487882e+000 1.258081e+000 -1.545037e+001 147 112 79
3.482421e+000 1.253953e+000 -1.542920e+001 147 112 79
3.960892e+000 1.297302e+000 -1.553647e+001 92 58 31
1.355750e+000 8.468980e-001 -1.595501e+001 101 83 50
1.355750e+000 8.468980e-001 -1.595501e+001 101 83 50
2.737638e+000 8.177298e-001 -1.479988e+001 82 64 40
4.823800e+000 7.418877e-001 -1.501708e+001 164 121 67
2.381760e+000 4.488373e-001 -1.448131e+001 54 32 18
3.298852e+000 5.306392e-001 -1.475625e+001 127 95 65
4.156361e+000 3.310135e-001 -1.488729e+001 124 88 58
2.462822e+000 -1.319188e-001 -1.434103e+001 39 23 14
2.634777e+000 -2.005347e-001 -1.450001e+001 63 48 25
3.039364e+000 -2.630662e-001 -1.474998e+001 104 79 58
3.609868e+000 -5.046848e-001 -1.499092e+001 80 55 33
4.566585e+000 -4.695714e-001 -1.569474e+001 72 44 22
1.166154e+000 -1.005816e+000 -1.553724e+001 167 97 91
4.755093e+000 -8.164323e-001 -1.618236e+001 91 62 30
2.742775e+000 -1.065589e+000 -1.568441e+001 60 44 29
4.682003e+000 -9.833117e-001 -1.625083e+001 89 60 27
4.373942e+000 -1.233442e+000 -1.643161e+001 74 48 25
2.522449e+000 1.545785e+000 -1.543135e+001 77 57 42
2.350483e+000 1.205195e+000 -1.510709e+001 57 43 29
2.473745e+000 9.171079e-001 -1.495535e+001 64 48 31
1.460599e+000 9.389058e-001 -1.603334e+001 77 65 39
3.221365e+000 8.757988e-001 -1.508818e+001 130 99 70
3.360070e+000 7.581447e-001 -1.497157e+001 127 92 64
3.166124e+000 6.107779e-001 -1.476636e+001 79 48 27
4.021407e+000 1.757387e-001 -1.481703e+001 70 39 18
2.711287e+000 -1.075166e-001 -1.445698e+001 22 14 7
2.734300e+000 -1.032053e-001 -1.458393e+001 22 14 7
2.956572e+000 -1.185912e-001 -1.464671e+001 59 41 27
4.631963e+000 -5.885279e-001 -1.577137e+001 115 87 57
1.951144e+000 -1.210846e+000 -1.566465e+001 43 34 21
1.338441e+000 -1.490837e+000 -1.564066e+001 122 54 55
3.863223e+000 -1.740729e+000 -1.689349e+001 111 85 58
4.468050e+000 -2.357322e+000 -1.792350e+001 108 78 43
1.290914e+000 1.124218e+000 -1.644882e+001 186 148 112
3.652912e+000 6.985602e-001 -1.499032e+001 143 107 71
2.932217e+000 1.328114e-002 -1.445479e+001 52 33 16
4.374535e+000 -6.943528e-002 -1.496866e+001 90 58 33
3.654687e+000 -3.601796e-001 -1.498562e+001 112 82 55
4.092379e+000 -5.164257e-001 -1.539098e+001 88 65 41
4.360237e+000 -8.651169e-001 -1.598843e+001 69 44 24
3.287651e+000 -2.577871e+000 -1.783967e+001 89 64 42
1.786401e+000 1.251774e+000 -1.551686e+001 56 45 25
4.788321e+000 1.102762e+000 -1.553121e+001 24 18 18
3.889470e+000 4.922063e-001 -1.484173e+001 131 95 59
3.737829e+000 -1.934486e-002 -1.477932e+001 120 85 57
3.737829e+000 -1.934486e-002 -1.477932e+001 120 85 57
3.307149e+000 -3.587225e-001 -1.492459e+001 64 41 23
4.048627e+000 9.572890e-001 -1.529221e+001 152 109 74
1.677111e+000 6.637193e-001 -1.561429e+001 187 144 99
3.396235e+000 -4.184040e-001 -1.518010e+001 62 40 22
2.040778e+000 -1.507174e+000 -1.575180e+001 131 97 67
-7.229699e-001 -1.996916e+000 -1.655333e+001 63 42 37
3.115423e+000 -2.486429e+000 -1.777895e+001 74 49 29
4.241195e+000 -3.305184e+000 -1.841134e+001 162 136 91
2.248964e+000 1.728190e+000 -1.571077e+001 69 56 38
2.653839e+000 -2.711742e-001 -1.422097e+001 50 38 18
-6.510822e-001 -1.899911e+000 -1.465322e+001 85 54 41
2.534972e+000 2.102969e+000 -1.612201e+001 172 146 116
2.420220e+000 1.813200e+000 -1.560878e+001 65 51 32
3.475458e+000 1.800814e+000 -1.584926e+001 103 68 38
3.740620e+000 1.700772e+000 -1.580193e+001 96 64 38
4.541583e+000 1.973113e+000 -1.620887e+001 146 102 67
2.558949e+000 1.410304e+000 -1.533951e+001 81 68 48
3.161496e+000 1.513399e+000 -1.558009e+001 109 77 56
1.551427e+000 1.386335e+000 -1.585057e+001 197 161 127
4.043343e+000 1.502902e+000 -1.571663e+001 117 82 54
4.032185e+000 1.498073e+000 -1.568118e+001 117 82 54
2.427408e+000 1.191922e+000 -1.523245e+001 37 23 12
2.564495e+000 1.170670e+000 -1.513534e+001 136 114 81
2.529581e+000 1.113942e+000 -1.509821e+001 75 53 30
3.586562e+000 1.137487e+000 -1.533579e+001 97 63 35
2.412779e+000 9.515776e-001 -1.496882e+001 63 46 31
1.404876e+000 8.245119e-001 -1.588536e+001 93 73 39
1.435863e+000 8.169056e-001 -1.586575e+001 171 137 91
2.436584e+000 7.228924e-001 -1.475182e+001 64 47 26
2.884241e+000 8.686222e-001 -1.500838e+001 159 129 101
3.959658e+000 9.776769e-001 -1.529038e+001 124 85 49
2.976876e+000 5.648773e-001 -1.472349e+001 170 139 110
2.349925e+000 4.279356e-001 -1.452808e+001 169 129 94
2.530545e+000 4.315240e-001 -1.450427e+001 151 129 101
2.509441e+000 4.137522e-001 -1.451195e+001 70 55 29
2.723909e+000 4.919446e-001 -1.458391e+001 247 232 181
3.678416e+000 4.988808e-001 -1.479935e+001 123 92 61
2.095438e+000 2.909801e-001 -1.478957e+001 128 93 65
2.767164e+000 2.395133e-001 -1.449109e+001 146 129 102
2.767164e+000 2.395133e-001 -1.449109e+001 146 129 102
2.071671e+000 1.144645e-001 -1.466889e+001 102 95 67
2.552520e+000 5.454790e-002 -1.439888e+001 58 39 23
2.332762e+000 -1.589144e-001 -1.439893e+001 124 93 64
3.874276e+000 -8.228083e-002 -1.483524e+001 62 38 13
6.711438e-001 -6.741251e-001 -1.562490e+001 163 113 85
3.666594e+000 -4.525696e-001 -1.515455e+001 101 77 51
3.289283e+000 -7.832668e-001 -1.550348e+001 51 28 11
3.870924e+000 -7.105152e-001 -1.565110e+001 70 46 22
4.088904e+000 -7.575527e-001 -1.583223e+001 54 32 11
1.703162e+000 -9.853384e-001 -1.584131e+001 94 40 28
4.151097e+000 -9.154970e-001 -1.599101e+001 71 50 26
3.223317e+000 -1.180574e+000 -1.604964e+001 61 36 14
3.223317e+000 -1.180574e+000 -1.604964e+001 61 36 14
2.171058e+000 -1.336844e+000 -1.557656e+001 151 124 97
2.385211e+000 -1.219582e+000 -1.571139e+001 41 28 14
2.438578e+000 -1.239887e+000 -1.576031e+001 37 24 12
3.747724e+000 -1.253316e+000 -1.625330e+001 97 72 49
-1.623113e+000 -1.762486e+000 -1.606248e+001 115 77 55
-3.931089e-001 -1.651973e+000 -1.644377e+001 162 125 98
3.797776e+000 -1.378492e+000 -1.641102e+001 60 34 12
1.850557e+000 -1.787125e+000 -1.625485e+001 46 33 20
2.300468e+000 -1.704776e+000 -1.619507e+001 49 37 20
3.234909e+000 -1.569796e+000 -1.647971e+001 67 45 24
1.763224e+000 -1.990708e+000 -1.656780e+001 110 40 39
2.470840e+000 -1.861145e+000 -1.655684e+001 71 56 36
8.833632e-001 -2.228645e+000 -1.723753e+001 133 72 66
1.358189e+000 -2.039750e+000 -1.631535e+001 169 109 98
1.938372e+000 -2.296050e+000 -1.688849e+001 215 180 152
1.938372e+000 -2.296050e+000 -1.688849e+001 215 180 152
3.407900e+000 -2.327559e+000 -1.743065e+001 81 54 35
3.396303e+000 2.003833e+000 -1.599550e+001 100 64 30
3.103485e+000 1.453413e+000 -1.552617e+001 84 54 31
3.305206e+000 1.548691e+000 -1.561199e+001 85 56 35
1.812552e+000 1.262927e+000 -1.538543e+001 75 58 33
4.442745e+000 1.531940e+000 -1.576928e+001 115 85 58
2.712015e+000 1.046559e+000 -1.508729e+001 81 60 39
3.299200e+000 1.178634e+000 -1.533811e+001 98 67 39
3.479916e+000 9.828481e-001 -1.519712e+001 101 67 39
4.401848e+000 5.027491e-001 -1.495101e+001 101 64 32
4.401848e+000 5.027491e-001 -1.495101e+001 101 64 32
4.377095e+000 3.339674e-001 -1.491497e+001 88 53 26
2.378848e+000 4.188711e-002 -1.435072e+001 113 76 49
3.366124e+000 2.668580e-002 -1.467632e+001 70 39 18
9.472949e-001 -2.061345e-001 -1.539992e+001 170 94 86
2.100996e+000 -2.254228e-001 -1.469189e+001 148 119 88
2.160000e+000 -4.950698e-001 -1.486133e+001 151 112 80
3.172320e+000 -4.801919e-001 -1.491957e+001 61 40 23
4.355106e+000 -5.087774e-001 -1.559980e+001 72 46 23
4.204559e+000 -6.887573e-001 -1.575800e+001 92 70 47
2.042288e+000 -9.635820e-001 -1.540028e+001 40 31 14
1.741876e+000 -1.168734e+000 -1.582534e+001 115 60 46
1.897326e+000 -1.183348e+000 -1.576949e+001 53 41 25
1.882657e+000 -1.415016e+000 -1.582973e+001 119 81 45
1.936060e+000 -1.412416e+000 -1.554694e+001 162 129 94
3.592552e+000 -2.117799e+000 -1.734594e+001 76 49 28
1.777948e+000 -2.415860e+000 -1.697443e+001 143 99 72
2.525545e+000 -2.361842e+000 -1.723632e+001 65 46 29
1.757977e+000 -2.520958e+000 -1.698060e+001 152 113 82
2.244573e+000 2.092406e+000 -1.597010e+001 162 141 116
3.071059e+000 1.813454e+000 -1.572684e+001 121 86 59
4.459147e+000 2.017366e+000 -1.619707e+001 119 77 42
4.459147e+000 2.017366e+000 -1.619707e+001 119 77 42
2.523288e+000 1.618457e+000 -1.546545e+001 74 59 40
4.080722e+000 1.638485e+000 -1.578881e+001 97 63 36
3.113841e+000 1.416016e+000 -1.550549e+001 113 83 55
3.116461e+000 1.416006e+000 -1.550540e+001 113 83 55
3.315682e+000 1.429198e+000 -1.556745e+001 91 62 34
2.185138e+000 6.629573e-001 -1.461125e+001 216 180 145
1.230745e+000 7.070736e-001 -1.620794e+001 194 157 121
3.233162e+000 6.520145e-001 -1.485596e+001 78 48 24
3.617114e+000 6.659499e-001 -1.494505e+001 140 104 70
3.613267e+000 6.649659e-001 -1.493967e+001 140 104 70
1.839861e+000 -5.347032e-001 -1.511352e+001 157 115 73
3.463351e+000 -4.021901e-001 -1.506246e+001 70 48 25
4.083389e+000 -5.112539e-001 -1.537347e+001 87 65 41
4.179088e+000 -5.117287e-001 -1.553051e+001 65 42 20
4.179088e+000 -5.117287e-001 -1.553051e+001 65 42 20
4.199753e+000 -9.597376e-001 -1.608932e+001 67 45 22
4.276714e+000 -9.645023e-001 -1.613336e+001 64 42 19
4.148694e+000 -1.090564e+000 -1.621328e+001 63 36 17
3.921918e+000 -1.262078e+000 -1.628017e+001 78 51 29
3.921793e+000 -1.261926e+000 -1.628028e+001 78 51 29
-1.205633e+000 -1.616305e+000 -1.606021e+001 156 115 90
1.457266e+000 -1.569266e+000 -1.581670e+001 145 66 69
3.499282e+000 -1.365340e+000 -1.625282e+001 70 45 26
3.701114e+000 -1.554340e+000 -1.666643e+001 61 39 18
3.774262e+000 -1.603725e+000 -1.676468e+001 96 72 48
-1.549488e+000 -2.010328e+000 -1.604728e+001 126 83 58
3.651221e+000 -1.896838e+000 -1.709145e+001 73 49 25
1.896900e+000 2.070141e+000 -1.590807e+001 218 201 183
2.318998e+000 9.349935e-001 -1.487304e+001 40 27 18
4.071092e+000 1.094333e+000 -1.538932e+001 114 79 41
3.661630e+000 9.274616e-001 -1.519655e+001 103 67 39
2.348142e+000 2.885907e-001 -1.438368e+001 135 99 63
4.229638e+000 3.971782e-001 -1.489915e+001 97 61 29
3.396798e+000 2.001097e-001 -1.465143e+001 108 74 47
1.677941e+000 -1.229497e-001 -1.509766e+001 191 154 115
4.375141e+000 -6.003778e-003 -1.496504e+001 81 51 27
4.166733e+000 -3.744650e-001 -1.525353e+001 112 82 58
3.798490e+000 -6.307624e-001 -1.549071e+001 104 77 52
-1.584695e-001 -1.100737e+000 -1.598571e+001 201 160 122
4.115589e+000 -1.000058e+000 -1.609129e+001 68 43 21
2.063124e+000 -1.320660e+000 -1.550424e+001 56 49 32
3.787907e+000 -1.248926e+000 -1.629119e+001 101 74 49
-1.612634e+000 -1.776487e+000 -1.590737e+001 157 113 84
3.982771e+000 -2.114129e+000 -1.745106e+001 69 44 22
2.797469e+000 -2.420425e+000 -1.736762e+001 72 45 28
1.555542e+000 -2.568454e+000 -1.729543e+001 174 135 106
3.727390e+000 2.065556e+000 -1.614290e+001 168 126 88
4.012465e+000 1.555180e+000 -1.580440e+001 86 55 26
3.351157e+000 4.776921e-001 -1.474905e+001 93 59 31
1.911802e+000 -2.494928e-001 -1.493840e+001 126 82 22
4.039601e+000 -8.352492e-002 -1.490247e+001 109 77 53
3.327584e+000 -1.151531e+000 -1.596099e+001 80 52 30
2.461251e+000 -1.587830e+000 -1.618668e+001 23 14 11
1.431147e+000 -1.967235e+000 -1.621062e+001 171 124 109
1.910968e+000 1.563623e+000 -1.534781e+001 199 166 131
1.110910e+000 7.085780e-001 -1.637469e+001 195 155 119
2.566359e+000 -1.869565e+000 -1.652437e+001 51 39 22
2.417580e+000 1.411334e+000 -1.529143e+001 106 83 58
2.959075e+000 1.333001e+000 -1.548777e+001 88 57 35
1.777930e+000 5.969467e-001 -1.517881e+001 198 159 116
2.899924e+000 3.243663e-001 -1.447679e+001 44 30 13
1.606705e+000 -1.510462e-001 -1.532442e+001 151 72 67
2.708813e+000 -1.375157e+000 -1.605768e+001 44 28 12
4.253289e+000 2.050256e+000 -1.610156e+001 183 140 101
2.264429e+000 1.478427e+000 -1.529936e+001 61 49 32
1.137963e+000 -1.235181e+000 -1.559459e+001 149 77 80
3.651305e+000 -6.902729e-001 -1.552062e+001 96 69 44
1.968808e+000 -1.202992e+000 -1.550958e+001 55 41 27
4.245200e+000 1.352981e-001 -1.485466e+001 111 75 43
2.031778e+000 -4.872937e-001 -1.469169e+001 177 138 98
3.707253e+000 1.733017e+000 -1.579041e+001 100 65 35
3.679157e+000 4.975115e-001 -1.479833e+001 123 92 61
1.930494e+000 3.174493e-001 -1.506740e+001 125 86 55
1.938854e+000 1.776259e-002 -1.488367e+001 145 108 74
2.149315e+000 -1.177163e-002 -1.437074e+001 93 84 53
3.648035e+000 1.017803e-001 -1.471426e+001 109 76 46
2.350168e+000 -2.754628e-001 -1.441660e+001 150 115 87
6.241685e-001 -6.448211e-001 -1.568138e+001 172 123 93
3.619506e+000 -4.488087e-001 -1.510621e+001 64 38 15
1.506097e+000 -7.161657e-001 -1.583404e+001 143 73 76
1.378985e+000 -7.268828e-001 -1.582410e+001 150 90 79
2.473941e+000 -6.862199e-001 -1.511257e+001 44 31 22
4.079515e+000 -5.579248e-001 -1.549825e+001 85 60 36
2.216833e+000 -8.628209e-001 -1.516527e+001 121 89 64
2.792346e+000 -7.426310e-001 -1.460905e+001 61 49 36
3.735222e+000 -8.217120e-001 -1.570522e+001 55 30 8
4.016782e+000 -8.975888e-001 -1.591773e+001 97 72 49
4.062025e+000 -8.817157e-001 -1.591747e+001 65 40 18
2.114088e+000 -1.070777e+000 -1.528221e+001 84 72 47
3.174669e+000 -1.155037e+000 -1.592191e+001 57 35 14
3.186471e+000 -1.156654e+000 -1.598002e+001 57 35 14
4.086259e+000 -1.082486e+000 -1.616473e+001 87 63 39
3.139899e+000 -1.314367e+000 -1.608737e+001 68 43 21
3.393113e+000 -1.349497e+000 -1.617741e+001 93 68 46
3.475596e+000 -1.329332e+000 -1.623738e+001 89 64 42
4.076744e+000 -1.332377e+000 -1.644754e+001 85 57 33
4.298261e+000 -1.190954e+000 -1.636333e+001 68 42 19
4.287036e+000 -1.294686e+000 -1.647452e+001 76 48 26
1.743943e+000 -1.509376e+000 -1.595608e+001 153 94 88
2.211594e+000 -1.471963e+000 -1.580824e+001 117 86 58
3.766367e+000 -1.460585e+000 -1.646337e+001 92 68 44
4.012408e+000 -1.396362e+000 -1.648054e+001 100 76 50
1.287581e+000 -1.783999e+000 -1.616719e+001 132 74 63
1.850786e+000 -1.787655e+000 -1.626336e+001 46 33 20
3.226252e+000 -1.686930e+000 -1.658945e+001 66 44 23
3.273643e+000 -1.617318e+000 -1.648241e+001 67 45 24
1.151576e+000 -1.990645e+000 -1.640512e+001 132 64 57
3.909048e+000 -1.872971e+000 -1.715510e+001 89 63 40
1.905290e+000 -2.027240e+000 -1.635334e+001 56 49 29
2.074199e+000 -2.202336e+000 -1.684285e+001 100 72 50
1.591966e+000 -2.456769e+000 -1.723851e+001 142 97 65
2.037192e+000 -2.235709e+000 -1.680609e+001 117 86 61
2.024551e+000 -2.521510e+000 -1.711579e+001 59 41 21
5.040069e+000 -1.954854e+000 -1.550649e+001 114 85 43
4.443103e+000 1.973615e+000 -1.618979e+001 151 114 85
1.907832e+000 1.497399e+000 -1.532194e+001 161 127 94
2.304119e+000 1.167630e+000 -1.509039e+001 112 97 74
2.560088e+000 1.304924e+000 -1.525051e+001 68 53 34
1.724648e+000 1.144787e+000 -1.549293e+001 82 68 41
2.332354e+000 1.113134e+000 -1.500091e+001 64 48 32
1.690916e+000 5.717540e-001 -1.524805e+001 214 173 129
1.407832e+000 5.228103e-001 -1.581257e+001 201 149 112
2.180679e+000 3.606996e-001 -1.459622e+001 180 145 114
3.559464e+000 4.386430e-002 -1.475105e+001 83 51 26
3.560852e+000 4.339127e-002 -1.474808e+001 83 51 26
3.865523e+000 -1.312940e-001 -1.488629e+001 64 41 20
2.198259e+000 -4.893153e-001 -1.497452e+001 112 75 46
2.536389e+000 -6.860102e-001 -1.514258e+001 30 21 12
4.230244e+000 -5.557495e-001 -1.562945e+001 60 38 15
3.508487e+000 -6.872923e-001 -1.551559e+001 68 41 22
3.817853e+000 -6.741666e-001 -1.553632e+001 81 55 30
4.178696e+000 -8.028201e-001 -1.587354e+001 87 65 42
1.800697e+000 -1.018004e+000 -1.568511e+001 71 56 34
2.415461e+000 -1.040833e+000 -1.552856e+001 93 80 61
3.788067e+000 -9.174664e-001 -1.584952e+001 78 54 28
3.324475e+000 -1.494278e+000 -1.640601e+001 87 65 44
4.270102e+000 -1.375045e+000 -1.655535e+001 74 49 27
2.347682e+000 -1.771626e+000 -1.638518e+001 60 43 28
3.054802e+000 -1.580428e+000 -1.639598e+001 81 59 36
3.386101e+000 -1.757945e+000 -1.676454e+001 77 52 30
3.386088e+000 -1.757406e+000 -1.676971e+001 77 52 30
1.371176e+000 -1.849132e+000 -1.612024e+001 128 71 63
1.666218e+000 -1.877063e+000 -1.629598e+001 161 107 95
3.213642e+000 -1.848140e+000 -1.681170e+001 87 63 41
3.689706e+000 -1.965062e+000 -1.717756e+001 105 79 54
1.873365e+000 -2.045209e+000 -1.634624e+001 147 102 81
3.384452e+000 1.938718e+000 -1.590875e+001 155 121 86
2.117293e+000 1.608251e+000 -1.539294e+001 69 54 36
3.311847e+000 1.419063e+000 -1.554894e+001 91 62 34
4.115131e+000 1.080050e+000 -1.540799e+001 146 107 73
1.274059e+000 9.552417e-001 -1.632444e+001 175 132 97
2.401970e+000 8.226346e-001 -1.482829e+001 122 99 66
2.750507e+000 6.836169e-001 -1.468053e+001 67 48 31
2.792303e+000 5.553386e-001 -1.464071e+001 132 113 80
3.675265e+000 6.510693e-001 -1.492626e+001 117 78 45
4.639729e+000 4.010275e-001 -1.496673e+001 113 74 41
1.214682e+000 1.519884e-001 -1.542876e+001 209 140 125
1.001509e+000 5.258837e-002 -1.552164e+001 210 132 124
1.697105e+000 9.218982e-003 -1.521845e+001 137 77 49
1.850911e+000 6.629377e-002 -1.508065e+001 132 86 52
1.675989e+000 -1.210661e-001 -1.514875e+001 192 155 115
4.106065e+000 -3.971387e-001 -1.523057e+001 75 51 27
4.379636e+000 -5.368698e-001 -1.560267e+001 94 68 44
2.110281e+000 -8.069490e-001 -1.536680e+001 104 71 52
4.389345e+000 -7.605214e-001 -1.590908e+001 96 72 46
1.015918e+000 -1.105632e+000 -1.548244e+001 133 62 58
4.131705e+000 -9.613707e-001 -1.603241e+001 95 71 48
-1.298183e+000 -1.370465e+000 -1.637728e+001 196 154 121
1.827861e+000 -1.105699e+000 -1.570575e+001 58 47 25
4.245278e+000 -1.259043e+000 -1.641047e+001 100 72 48
3.975475e+000 -1.481268e+000 -1.662709e+001 66 41 20
1.299056e+000 -1.990357e+000 -1.633868e+001 146 85 74
1.299056e+000 -1.990357e+000 -1.633868e+001 146 85 74
1.698980e+000 -1.943340e+000 -1.648689e+001 128 64 61
3.553097e+000 -2.060036e+000 -1.724132e+001 99 73 51
3.580342e+000 -2.469608e+000 -1.771238e+001 84 58 33
3.370715e+000 1.528682e+000 -1.559696e+001 92 60 33
3.544445e+000 9.019744e-001 -1.508810e+001 91 57 31
3.889265e+000 8.688073e-001 -1.517705e+001 116 80 47
4.399266e+000 2.505759e-001 -1.491145e+001 80 47 19
3.919046e+000 7.893644e-002 -1.478611e+001 77 47 23
8.684145e-001 -1.847101e-001 -1.549163e+001 202 124 114
2.655612e+000 -9.445096e-002 -1.447091e+001 42 25 15
3.514869e+000 -4.150689e-001 -1.503811e+001 94 68 45
3.542056e+000 -5.741894e-001 -1.531652e+001 68 44 23
3.188765e+000 -1.015015e+000 -1.576896e+001 63 42 23
4.433309e+000 -1.021506e+000 -1.621448e+001 84 54 28
2.563962e+000 -1.380254e+000 -1.592480e+001 68 55 33
3.655219e+000 -1.247955e+000 -1.623884e+001 108 81 56
4.398447e+000 -1.256302e+000 -1.648691e+001 76 52 25
3.313045e+000 -1.923733e+000 -1.697454e+001 100 73 53
3.173307e+000 -2.068168e+000 -1.714902e+001 98 72 49
1.585359e+000 -2.407919e+000 -1.717576e+001 134 83 62
2.180775e+000 1.481817e+000 -1.534886e+001 64 49 30
1.894945e+000 1.212877e+000 -1.538171e+001 105 79 56
3.426956e+000 9.776675e-001 -1.518512e+001 128 94 67
2.285361e+000 3.790533e-001 -1.445986e+001 200 166 128
8.011768e-001 2.563274e-001 -1.608519e+001 203 124 119
4.305822e+000 -5.690223e-001 -1.563639e+001 66 41 19
3.542384e+000 -7.561885e-001 -1.554463e+001 74 47 26
2.600235e+000 -1.111872e+000 -1.563579e+001 91 80 62
1.642442e+000 -1.398249e+000 -1.583824e+001 100 39 38
4.011256e+000 1.411998e+000 -1.560668e+001 121 90 57
2.085363e+000 4.180825e-001 -1.482995e+001 41 28 16
1.699206e+000 2.237108e-001 -1.520878e+001 189 146 103
4.671746e+000 3.697806e-001 -1.492512e+001 153 116 74
4.524962e+000 -1.604881e-001 -1.514249e+001 109 78 49
3.534445e+000 -1.123737e+000 -1.604397e+001 111 83 59
4.128244e+000 1.306075e+000 -1.551758e+001 131 90 60
3.399609e+000 -8.060479e-001 -1.552626e+001 102 74 52
7.697606e-001 -1.053987e+000 -1.555628e+001 135 86 75
2.372785e+000 -1.081479e+000 -1.570285e+001 57 41 26
3.104966e+000 -1.939165e+000 -1.689408e+001 73 51 30
1.306002e+000 6.136926e-002 -1.536237e+001 178 89 88
3.341913e+000 -1.973436e+000 -1.709864e+001 95 69 45
1.253854e+000 3.483103e-001 -1.561455e+001 187 102 95
2.713071e+000 2.947069e-001 -1.473056e+001 53 42 28
6.312121e-001 -1.536343e-001 -1.576867e+001 158 99 67
8.828509e-001 -1.105997e+000 -1.548636e+001 186 128 108
2.908352e+000 -2.663547e+000 -1.796132e+001 94 69 49
7.289817e-001 -3.910256e-001 -1.550836e+001 205 160 129
5.322258e-001 -9.914610e-001 -1.586814e+001 115 52 45
3.249213e+000 1.657375e+000 -1.590298e+001 117 84 59
3.393454e+000 1.901442e+000 -1.590553e+001 99 65 35
2.135781e+000 7.605464e-001 -1.470783e+001 178 142 106
3.186500e+000 9.302026e-001 -1.510950e+001 123 92 63
1.817550e+000 2.697300e-001 -1.512811e+001 192 150 104
1.576634e+000 1.144701e-001 -1.526127e+001 201 150 108
2.063333e+000 -1.406785e-001 -1.474221e+001 78 67 41
3.980111e+000 1.160021e-001 -1.479016e+001 84 52 29
4.151299e+000 -2.156066e-001 -1.502754e+001 73 45 20
4.268276e+000 -5.581439e-001 -1.561063e+001 45 18 0
3.920882e+000 -9.117329e-001 -1.591932e+001 64 37 15
3.993356e+000 -8.689464e-001 -1.589169e+001 64 37 16
4.216585e+000 -8.854498e-001 -1.596615e+001 71 45 22
-1.718303e+000 -1.612594e+000 -1.611987e+001 133 98 76
9.607255e-001 -1.392654e+000 -1.559229e+001 166 106 96
3.687183e+000 -1.221853e+000 -1.615501e+001 64 39 16
3.710584e+000 -1.310177e+000 -1.626279e+001 90 65 43
-1.630148e+000 -1.765519e+000 -1.609304e+001 109 71 52
-1.318137e+000 -2.172298e+000 -1.604546e+001 121 80 58
9.063472e-001 -2.331981e+000 -1.722158e+001 170 111 102
-1.729300e+000 -2.493855e+000 -1.616573e+001 188 118 118
1.733714e+000 -2.431180e+000 -1.707280e+001 171 128 101
3.881583e+000 1.849595e+000 -1.591594e+001 129 94 62
3.882581e+000 1.850162e+000 -1.591825e+001 129 94 62
3.493624e+000 1.532926e+000 -1.564528e+001 99 65 38
3.968141e+000 1.176932e+000 -1.545248e+001 115 76 46
3.446741e+000 8.897222e-001 -1.510149e+001 97 63 38
4.238497e+000 1.035614e+000 -1.537685e+001 132 96 60
3.681960e+000 7.855160e-001 -1.506587e+001 128 91 58
2.837173e+000 3.530409e-001 -1.450145e+001 132 116 90
1.028826e+000 -9.967849e-002 -1.539978e+001 165 73 74
3.898828e+000 -3.346360e-001 -1.510310e+001 96 69 43
8.335926e-001 -1.137086e+000 -1.548101e+001 196 138 119
2.236420e+000 -1.059193e+000 -1.537748e+001 171 143 116
4.010449e+000 -9.965680e-001 -1.604543e+001 70 44 21
4.305604e+000 -1.016652e+000 -1.619347e+001 60 34 12
-1.719312e+000 -1.655127e+000 -1.610809e+001 112 76 54
-1.734403e+000 -1.656169e+000 -1.614981e+001 112 76 54
4.013772e+000 -1.309988e+000 -1.638496e+001 107 81 54
1.804569e+000 -1.710456e+000 -1.620116e+001 73 52 34
4.010268e+000 -2.152571e+000 -1.750327e+001 68 43 21
3.798236e+000 1.313788e+000 -1.551779e+001 127 93 65
3.775974e+000 8.885627e-001 -1.515934e+001 125 89 57
4.179576e+000 9.269664e-001 -1.527375e+001 147 109 71
2.427942e+000 6.431119e-001 -1.463584e+001 76 60 44
4.051668e+000 2.938333e-001 -1.483376e+001 87 53 25
4.208111e+000 -4.293180e-001 -1.535893e+001 59 33 8
4.282102e+000 -4.119783e-001 -1.536736e+001 109 82 53
3.641560e+000 -1.182979e+000 -1.609786e+001 102 76 53
4.161365e+000 -1.180481e+000 -1.623699e+001 79 53 29
4.154664e+000 -1.053551e+000 -1.613358e+001 98 74 50
4.164508e+000 -1.054018e+000 -1.615134e+001 98 74 50
2.861951e+000 -1.346665e+000 -1.600447e+001 114 88 64
-2.016977e+000 -2.303489e+000 -1.637830e+001 206 141 134
3.983581e+000 1.535336e+000 -1.570079e+001 87 53 29
3.925655e+000 1.362853e+000 -1.558044e+001 97 65 37
2.422750e+000 7.094242e-001 -1.476673e+001 73 56 38
4.175299e+000 4.910416e-001 -1.491247e+001 112 73 40
4.261203e+000 3.068141e-001 -1.488387e+001 89 54 26
5.220029e-001 -4.587848e-001 -1.573713e+001 145 92 61
3.429113e+000 -5.784474e-001 -1.526672e+001 61 38 18
-2.041614e+000 -2.112530e+000 -1.644558e+001 255 255 253
3.105278e+000 1.915845e+000 -1.585459e+001 152 119 81
3.703590e+000 9.828254e-001 -1.522490e+001 129 96 65
2.281889e+000 3.710744e-001 -1.441954e+001 204 169 131
3.627934e+000 -1.316096e-001 -1.481674e+001 76 44 21
2.990782e+000 -1.537953e+000 -1.632037e+001 65 41 20
2.931187e+000 1.693279e+000 -1.569360e+001 129 95 68
1.442979e+000 -8.165357e-001 -1.572428e+001 116 48 45
1.717018e+000 -1.492771e+000 -1.602330e+001 168 106 99
4.242343e+000 -2.254303e+000 -1.768774e+001 139 106 75
4.932882e+000 5.173671e-001 -1.494484e+001 163 122 66
4.227158e+000 -3.438762e-001 -1.525120e+001 108 78 50
3.802725e+000 -1.923234e+000 -1.715152e+001 116 87 61
4.734180e+000 4.317183e-001 -1.500668e+001 151 109 69
2.664615e+000 -2.325668e+000 -1.730035e+001 132 104 80
1.615511e+000 1.724693e+000 -1.572825e+001 165 141 107
2.252380e+000 1.790192e+000 -1.565193e+001 39 27 13
2.633775e+000 9.654116e-001 -1.495329e+001 169 147 110
2.006753e+000 6.866374e-003 -1.478368e+001 136 117 91
3.989729e+000 3.869521e-002 -1.484491e+001 75 43 18
1.390653e+000 -7.022008e-001 -1.577871e+001 115 55 47
1.230792e+000 -8.876613e-001 -1.561291e+001 170 110 99
3.723562e+000 -1.096234e+000 -1.604387e+001 75 47 23
2.180956e+000 -2.864916e+000 -1.721183e+001 67 55 39
2.185625e+000 -2.872653e+000 -1.724603e+001 67 55 39
3.972941e+000 8.784905e-001 -1.514881e+001 160 119 81
1.057127e+000 1.338710e-002 -1.543183e+001 203 123 114
3.927220e+000 -7.533739e-001 -1.571159e+001 76 50 27
-1.739877e+000 -1.857506e+000 -1.610711e+001 160 116 87
