ply
format ascii 1.0
element face 0
property list uchar int vertex_indices
element vertex 893
property float x
property float y
property float z
property uchar diffuse_red
property uchar diffuse_green
property uchar diffuse_blue
end_header
1.026402e-001 -3.948820e+000 -1.850115e+001 180 129 113
1.119989e+000 -4.037395e+000 -1.814516e+001 227 196 167
1.957274e+000 -3.944338e+000 -1.854724e+001 48 36 24
3.907329e+000 -4.097685e+000 -1.926012e+001 104 77 56
1.255347e+000 4.674987e+000 -1.602086e+001 182 151 120
2.241583e+000 4.724792e+000 -1.610505e+001 64 48 23
6.742910e+000 4.509095e+000 -1.629959e+001 72 49 35
1.366359e+000 3.365399e+000 -1.507993e+001 130 96 62
6.679034e-001 3.454788e+000 -1.609832e+001 141 104 69
5.176597e+000 2.676735e+000 -1.499986e+001 151 112 76
5.387928e+000 1.899821e+000 -1.423789e+001 117 81 45
5.387928e+000 1.899821e+000 -1.423789e+001 117 81 45
6.040864e+000 1.842456e+000 -1.430223e+001 115 76 46
2.609792e+000 1.367908e+000 -1.336836e+001 73 60 38
8.892456e-001 1.371651e+000 -1.479014e+001 176 133 89
4.383815e+000 8.237248e-001 -1.375731e+001 81 48 26
2.045258e+000 6.609108e-001 -1.306420e+001 129 95 68
1.598143e+000 5.497303e-001 -1.341711e+001 107 91 66
1.903431e+000 4.463513e-001 -1.316837e+001 158 125 90
2.972667e+000 3.715632e-001 -1.339109e+001 139 118 86
2.103657e+000 9.950101e-002 -1.342914e+001 110 79 47
2.649594e+000 2.237799e-001 -1.335485e+001 65 52 34
4.494951e+000 1.224342e-001 -1.411724e+001 85 57 33
6.387614e+000 8.094830e-003 -1.483351e+001 79 49 25
1.613977e+000 -3.961744e-001 -1.447937e+001 105 70 48
1.836453e+000 -5.389008e-001 -1.422199e+001 196 167 137
2.229742e+000 -4.419931e-001 -1.429824e+001 47 33 20
5.679973e+000 -4.482027e-001 -1.532869e+001 97 70 49
-1.297551e+000 -6.522114e-001 -1.563395e+001 169 103 92
2.250631e+000 -7.315731e-001 -1.462940e+001 35 26 11
5.368290e+000 -9.894278e-001 -1.579873e+001 95 69 47
5.365207e+000 -9.902250e-001 -1.578877e+001 95 69 47
5.962901e+000 -1.003731e+000 -1.610167e+001 59 36 15
5.268339e+000 -1.308465e+000 -1.616272e+001 92 67 45
5.665537e+000 -1.401750e+000 -1.635365e+001 86 65 42
5.749112e+000 -1.268545e+000 -1.623610e+001 60 38 15
9.738809e-001 -1.600401e+000 -1.575011e+001 119 79 58
1.425260e+000 -1.659196e+000 -1.516565e+001 55 44 22
5.673437e+000 -1.567197e+000 -1.654264e+001 62 37 15
3.320455e+000 -2.278348e+000 -1.682556e+001 101 77 54
3.539533e+000 -2.366940e+000 -1.691454e+001 96 71 50
4.612591e+000 -2.462565e+000 -1.738543e+001 62 37 17
-3.232526e+000 -2.466099e+000 -1.716147e+001 103 74 52
3.993214e+000 -2.788448e+000 -1.789407e+001 105 80 58
4.025549e+000 -2.943983e+000 -1.788156e+001 103 79 53
4.025549e+000 -2.943983e+000 -1.788156e+001 103 79 53
1.692827e+000 -3.371231e+000 -1.789001e+001 48 34 23
2.095218e-001 -3.700779e+000 -1.811573e+001 169 112 101
9.780727e-001 -3.626681e+000 -1.820220e+001 148 109 88
-6.037447e+000 -3.519264e+000 -1.675894e+001 182 119 110
-6.028678e+000 -3.756276e+000 -1.678593e+001 163 84 90
1.933386e-001 -4.002787e+000 -1.851100e+001 148 78 74
4.993459e+000 -4.101228e+000 -1.947066e+001 109 81 56
8.542740e-001 -4.232323e+000 -1.856103e+001 141 103 70
3.852095e+000 -4.517228e+000 -1.964531e+001 105 81 57
4.939381e+000 4.127770e+000 -1.607867e+001 111 75 43
3.511782e+000 3.255261e+000 -1.516265e+001 115 84 55
4.677061e+000 3.477593e+000 -1.555224e+001 153 117 88
5.300994e+000 3.411977e+000 -1.556884e+001 142 109 78
4.615788e+000 2.884901e+000 -1.502679e+001 102 66 36
4.610622e+000 2.880424e+000 -1.501290e+001 102 66 36
4.894479e+000 2.813890e+000 -1.503891e+001 103 68 36
2.741877e+000 2.132847e+000 -1.391235e+001 70 51 34
6.980057e+000 2.458716e+000 -1.513784e+001 171 130 78
1.637774e+000 1.586987e+000 -1.381604e+001 159 128 99
5.316826e+000 1.500263e+000 -1.401883e+001 100 64 32
2.495088e+000 8.825813e-001 -1.304980e+001 53 37 21
3.021051e+000 4.133760e-001 -1.329091e+001 48 32 15
2.097003e+000 2.689318e-001 -1.322438e+001 118 86 58
2.971369e+000 6.556122e-002 -1.361286e+001 40 25 18
9.696300e-001 -4.616071e-002 -1.469718e+001 191 149 100
2.812417e+000 -3.683556e-001 -1.314429e+001 55 41 28
5.968480e+000 -3.974940e-001 -1.528186e+001 62 38 14
-1.512008e+000 -4.258118e-001 -1.574091e+001 217 158 140
2.056125e+000 -4.934542e-001 -1.417888e+001 48 40 27
1.775318e+000 -1.078132e+000 -1.479935e+001 139 109 81
-3.336671e-001 -1.497412e+000 -1.530768e+001 164 90 89
-3.664243e-001 -1.621780e+000 -1.510472e+001 158 86 87
2.729887e+000 -1.557305e+000 -1.560755e+001 63 46 26
-3.581277e+000 -1.941413e+000 -1.724683e+001 184 140 113
2.672425e+000 -2.102040e+000 -1.629631e+001 65 49 28
-5.924179e+000 -2.346953e+000 -1.669694e+001 164 120 90
-4.406003e+000 -2.296877e+000 -1.668073e+001 197 160 132
1.325731e+000 -2.404213e+000 -1.609620e+001 107 76 48
3.976831e+000 -2.698234e+000 -1.749334e+001 101 76 54
4.521697e+000 -3.148030e+000 -1.819805e+001 80 53 30
1.061005e+000 -3.679664e+000 -1.813128e+001 136 96 71
-5.964073e+000 -3.538890e+000 -1.687001e+001 122 68 61
2.529567e-001 -4.192320e+000 -1.876664e+001 159 117 92
7.710533e-001 -4.112751e+000 -1.833017e+001 188 149 118
3.786815e+000 -4.290111e+000 -1.930516e+001 78 51 30
6.652703e+000 4.253375e+000 -1.676057e+001 76 52 27
6.027996e+000 4.097932e+000 -1.635204e+001 115 76 43
4.125717e+000 3.198069e+000 -1.524801e+001 133 99 67
5.776131e+000 3.554711e+000 -1.578153e+001 123 89 56
5.116251e+000 3.144260e+000 -1.532519e+001 142 107 79
4.534486e+000 1.611972e+000 -1.389752e+001 83 49 24
4.471828e+000 1.492180e+000 -1.385759e+001 131 95 59
6.496513e+000 1.190164e+000 -1.418889e+001 99 63 31
1.915357e+000 2.641240e-001 -1.336670e+001 108 78 52
4.259205e+000 1.771236e-001 -1.398914e+001 69 44 23
6.462275e+000 9.202856e-002 -1.454945e+001 116 86 58
7.242445e-001 1.749337e-001 -1.495289e+001 84 44 32
1.296925e+000 7.640406e-002 -1.401555e+001 161 110 36
2.822226e+000 -1.921216e-001 -1.331477e+001 76 62 35
1.781675e+000 -2.226266e-001 -1.382046e+001 118 84 56
1.868447e+000 -3.296714e-001 -1.391673e+001 170 139 111
5.094451e+000 -1.704976e-001 -1.461287e+001 104 74 48
1.765409e+000 -4.116614e-001 -1.420691e+001 120 85 58
2.687321e+000 -7.216373e-001 -1.351451e+001 32 22 14
4.323178e+000 -6.830143e-001 -1.505521e+001 103 79 55
-1.178023e+000 -1.328541e+000 -1.533070e+001 206 147 133
1.403861e-001 -1.347955e+000 -1.570371e+001 130 58 56
1.403861e-001 -1.347955e+000 -1.570371e+001 130 58 56
5.706671e-001 -1.892075e+000 -1.605357e+001 111 43 44
3.709833e+000 -2.213079e+000 -1.673824e+001 62 39 16
1.308989e+000 -2.682399e+000 -1.637747e+001 90 63 41
1.689780e+000 -2.386524e+000 -1.615864e+001 79 67 50
1.405548e+000 -2.921939e+000 -1.699067e+001 134 109 87
1.457155e+000 -3.438604e+000 -1.764004e+001 60 51 36
5.768437e+000 -3.644326e+000 -1.916431e+001 133 102 71
2.151509e-001 -3.864368e+000 -1.829916e+001 133 60 58
2.161787e-001 -3.868478e+000 -1.833998e+001 133 60 58
5.542971e-001 -4.138620e+000 -1.865555e+001 188 148 118
2.839536e+000 -4.386712e+000 -1.918732e+001 73 48 27
2.562090e+000 -4.903350e+000 -1.996870e+001 119 97 73
4.278372e+000 2.751703e+000 -1.482796e+001 117 82 50
3.333848e+000 2.137035e+000 -1.395786e+001 191 158 125
5.589672e-001 1.171542e+000 -1.497155e+001 206 157 112
2.002550e-001 7.869601e-001 -1.503150e+001 156 75 69
1.359372e+000 5.532200e-001 -1.399262e+001 182 158 124
2.143926e+000 1.899645e-001 -1.335208e+001 38 25 16
3.714220e+000 2.359094e-001 -1.383526e+001 69 47 24
6.207408e+000 -5.844494e-002 -1.496523e+001 104 77 50
5.428434e-001 -9.169059e-001 -1.577427e+001 123 66 55
5.181461e+000 -2.204677e+000 -1.721594e+001 64 39 15
1.631761e+000 -2.593630e+000 -1.625936e+001 72 57 41
3.133596e+000 -2.608490e+000 -1.709901e+001 67 41 24
-5.986411e+000 -3.458158e+000 -1.683037e+001 126 78 66
3.805118e+000 2.374734e+000 -1.443743e+001 152 116 81
5.971416e+000 2.359188e+000 -1.480830e+001 161 122 83
2.464825e-001 2.546065e+000 -1.662379e+001 101 85 49
3.383116e+000 -3.604575e-001 -1.427774e+001 104 82 59
4.546992e+000 -3.267873e-001 -1.472882e+001 69 47 26
2.768458e+000 -5.634066e-001 -1.356333e+001 71 59 43
5.143150e+000 -5.404264e-001 -1.530622e+001 102 78 50
4.796320e+000 -1.710021e+000 -1.646911e+001 106 79 52
3.934763e+000 -1.852547e+000 -1.641099e+001 113 87 61
3.077756e+000 -3.345433e+000 -1.757595e+001 112 82 58
5.353532e+000 -4.611965e+000 -2.031812e+001 100 72 45
2.483907e+000 4.247281e+000 -1.577621e+001 90 75 54
1.797450e+000 1.946990e+000 -1.348295e+001 220 186 148
4.798680e+000 2.324712e+000 -1.454235e+001 125 89 55
2.569582e+000 1.672363e+000 -1.355222e+001 74 61 40
4.170564e+000 8.372649e-001 -1.370141e+001 106 75 46
-7.600131e-001 1.565101e-001 -1.538130e+001 177 109 100
5.077438e+000 -1.460134e+000 -1.633089e+001 103 76 49
5.718337e-001 -2.782973e+000 -1.689828e+001 165 110 101
4.968933e+000 -2.879700e+000 -1.795247e+001 115 88 61
-4.297944e+000 -3.103990e+000 -1.685314e+001 112 75 57
-1.913436e-002 -3.345995e+000 -1.722576e+001 130 57 62
6.399671e+000 -4.433904e+000 -2.078705e+001 107 79 41
5.255945e+000 9.787228e-001 -1.390117e+001 69 43 18
1.082076e+000 3.625797e-001 -1.440385e+001 148 99 33
6.041054e-001 -4.240472e+000 -1.882455e+001 184 145 113
2.996941e+000 -4.039633e+000 -1.904291e+001 68 46 26
5.124952e+000 1.629511e+000 -1.417853e+001 143 105 68
3.813083e+000 4.336505e-005 -1.404658e+001 64 41 25
2.861087e+000 -1.288356e+000 -1.423261e+001 116 90 67
1.125933e+000 3.275656e+000 -1.542717e+001 63 48 25
1.837163e+000 1.254364e+000 -1.313558e+001 150 116 79
4.846678e+000 1.157662e+000 -1.366012e+001 133 97 63
4.672585e+000 6.223211e-001 -1.379036e+001 119 87 59
2.162289e+000 -2.065213e+000 -1.600728e+001 23 16 16
3.736746e+000 -4.354916e+000 -2.033060e+001 87 60 40
6.073896e+000 1.048462e+000 -1.405307e+001 124 89 61
-5.569669e+000 -3.025901e+000 -1.657819e+001 150 105 81
3.698031e+000 2.329417e-001 -1.390639e+001 69 42 23
3.651644e+000 4.385510e-002 -1.397890e+001 57 34 16
1.664911e+000 -8.433701e-001 -1.462483e+001 118 87 59
8.810055e-001 2.517628e+000 -1.549958e+001 153 114 77
4.244598e+000 4.419123e-001 -1.383437e+001 64 38 15
4.548307e+000 2.929306e+000 -1.504660e+001 127 94 63
9.179990e-002 -5.131925e-001 -1.590680e+001 152 94 80
4.837673e+000 2.787116e+000 -1.498548e+001 91 57 29
5.060139e+000 3.494155e+000 -1.558770e+001 116 83 52
5.057873e-001 1.258993e+000 -1.501769e+001 214 164 123
6.391735e+000 9.720965e-001 -1.411281e+001 88 51 28
4.050389e+000 2.468923e+000 -1.459693e+001 112 81 52
5.840562e+000 3.427210e+000 -1.569749e+001 100 65 34
-6.615918e+000 -2.917587e+000 -1.724235e+001 255 254 253
5.859092e+000 1.238435e+000 -1.405813e+001 69 38 11
5.551824e+000 -2.762848e-001 -1.491235e+001 90 65 43
4.202972e+000 -4.373230e-001 -1.483862e+001 76 54 33
6.691120e+000 -7.341804e-001 -1.603897e+001 147 122 92
5.826026e+000 -9.740051e-001 -1.596356e+001 82 57 35
3.658534e+000 -1.776588e+000 -1.632140e+001 74 47 26
3.638919e+000 -1.877309e+000 -1.633174e+001 68 42 19
4.174148e+000 -1.971047e+000 -1.665559e+001 90 68 44
4.506638e+000 -2.777844e+000 -1.777001e+001 88 64 41
3.341643e+000 -4.147013e+000 -1.908006e+001 99 72 53
3.341643e+000 -4.147013e+000 -1.908006e+001 99 72 53
3.483706e+000 -6.538866e-001 -1.488207e+001 58 35 19
1.800525e+000 -9.925830e-001 -1.476484e+001 121 91 63
5.350139e+000 -1.191779e+000 -1.605212e+001 69 44 24
4.199103e+000 -4.289669e+000 -1.939741e+001 81 56 33
5.950422e+000 -9.419903e-001 -1.588935e+001 99 73 50
3.884103e+000 -3.323152e+000 -1.828337e+001 89 63 40
5.506282e+000 -2.737080e-001 -1.495688e+001 91 68 45
5.545700e+000 -1.402174e+000 -1.633701e+001 68 43 23
3.590434e+000 -1.849683e+000 -1.633897e+001 66 40 18
6.362817e+000 -2.886164e+000 -1.855680e+001 92 66 31
5.180207e+000 -1.721596e+000 -1.651507e+001 99 72 42
3.871961e+000 -2.983578e+000 -1.784903e+001 104 77 58
1.991814e-001 7.865561e-001 -1.503158e+001 156 75 69
3.236070e+000 -2.997362e+000 -1.774091e+001 100 72 51
7.859532e-001 3.949423e-001 -1.481805e+001 172 129 79
4.176131e+000 -2.690831e-001 -1.901340e+001 75 55 34
1.316890e+000 4.075422e+000 -1.549846e+001 187 153 126
1.332060e+000 3.160199e+000 -1.503445e+001 121 91 68
2.716502e+000 1.556371e+000 -1.347416e+001 182 163 134
1.205361e+000 1.654395e+000 -1.451268e+001 127 96 67
1.078237e+000 9.533954e-001 -1.447257e+001 142 98 63
2.462085e+000 5.400378e-001 -1.327627e+001 44 31 19
3.046200e+000 -3.392326e-001 -1.323464e+001 81 65 49
2.869454e+000 -4.260781e-001 -1.319136e+001 85 73 57
3.558733e+000 -7.218183e-002 -1.406117e+001 90 69 47
5.415898e+000 -1.309824e-001 -1.474837e+001 56 37 22
4.598273e+000 -3.382021e-001 -1.476795e+001 45 28 12
4.887147e+000 -4.507262e-001 -1.499759e+001 47 26 7
5.785741e+000 -2.844610e-001 -1.506404e+001 38 19 4
5.940780e+000 -3.788567e-001 -1.536187e+001 51 29 15
5.379953e+000 -4.830996e-001 -1.525701e+001 69 50 36
5.594488e+000 -6.412982e-001 -1.552973e+001 33 13 2
4.462686e+000 -9.203470e-001 -1.543534e+001 85 63 45
6.008458e+000 -7.617878e-001 -1.577669e+001 58 37 20
2.068223e+000 -1.021889e+000 -1.503438e+001 101 89 73
-9.217577e-001 -1.212054e+000 -1.533451e+001 175 118 105
5.578914e+000 -1.598634e+000 -1.649110e+001 50 30 19
5.583083e+000 -1.648921e+000 -1.656075e+001 77 58 43
-9.024155e-001 -1.810753e+000 -1.553492e+001 143 80 76
7.489815e-001 -1.816309e+000 -1.606734e+001 139 74 80
1.538222e+000 -1.843578e+000 -1.563660e+001 103 78 56
3.743106e+000 -1.740670e+000 -1.626836e+001 52 30 16
2.018765e+000 -2.078968e+000 -1.606842e+001 36 24 10
1.871897e+000 -2.112408e+000 -1.607348e+001 74 61 44
4.637768e+000 -2.420109e+000 -1.730932e+001 76 59 41
-6.231942e+000 -2.188776e+000 -1.696197e+001 140 96 71
-4.712745e+000 -2.268294e+000 -1.671002e+001 167 125 103
1.823349e+000 -2.571635e+000 -1.668530e+001 108 96 80
1.823349e+000 -2.571635e+000 -1.668530e+001 108 96 80
2.398005e+000 -2.593977e+000 -1.686427e+001 44 31 15
2.588118e+000 -2.588512e+000 -1.679189e+001 64 47 31
-6.017476e-002 -2.918668e+000 -1.684705e+001 124 76 64
6.839727e-001 -2.790965e+000 -1.682725e+001 111 52 55
-4.518679e-001 -3.067932e+000 -1.709192e+001 183 126 117
1.258607e-001 -3.017252e+000 -1.679192e+001 164 122 109
7.196246e-001 -3.107031e+000 -1.732686e+001 143 87 86
-4.925235e+000 -3.326630e+000 -1.669029e+001 78 50 40
1.153973e+000 -3.679749e+000 -1.784751e+001 128 93 74
-8.625124e-001 -3.730933e+000 -1.863972e+001 168 113 107
-6.539848e-001 -3.657576e+000 -1.868205e+001 162 98 98
-5.911144e-001 -3.678346e+000 -1.864985e+001 126 56 58
-3.625221e-001 -3.824751e+000 -1.871918e+001 159 97 92
4.452777e-001 -3.751091e+000 -1.846096e+001 112 62 51
2.051112e+000 -4.024146e+000 -1.859686e+001 43 30 22
2.746693e-001 -4.013841e+000 -1.838859e+001 168 122 106
1.202510e+000 -4.536214e+000 -1.865174e+001 82 59 41
1.352609e+000 3.759335e+000 -1.518784e+001 176 145 116
4.110062e+000 3.830339e+000 -1.575811e+001 97 65 41
4.469002e+000 3.634243e+000 -1.567458e+001 114 79 52
3.984914e+000 2.913569e+000 -1.504662e+001 146 110 86
5.256137e+000 3.247550e+000 -1.544063e+001 118 81 54
5.356268e+000 2.970999e+000 -1.527516e+001 123 86 57
1.274681e+000 2.424625e+000 -1.445587e+001 119 105 78
2.937762e+000 1.439399e+000 -1.331459e+001 143 123 99
4.518922e+000 9.416423e-001 -1.376156e+001 72 42 19
1.648421e+000 6.327906e-001 -1.330482e+001 97 85 66
3.751283e+000 8.760280e-001 -1.363741e+001 75 48 29
-5.312604e-002 1.237343e+000 -1.530080e+001 227 151 145
1.962779e+000 3.074791e-001 -1.325843e+001 140 110 84
3.723326e+000 2.551462e-001 -1.402809e+001 60 37 21
1.817742e+000 8.054902e-002 -1.344136e+001 169 139 111
5.701338e+000 -1.141123e-001 -1.486755e+001 69 47 27
2.977611e+000 -6.332125e-001 -1.366185e+001 82 65 49
4.906336e+000 -3.807184e-001 -1.499489e+001 90 68 47
5.392087e+000 -2.477909e-001 -1.493865e+001 43 26 10
5.716007e+000 -5.194609e-001 -1.537580e+001 44 25 10
2.123715e+000 -8.693566e-001 -1.484206e+001 47 37 22
5.053463e+000 -7.145143e-001 -1.545333e+001 48 29 14
5.650745e+000 -8.309071e-001 -1.577363e+001 49 30 16
1.465007e+000 -1.113173e+000 -1.485845e+001 78 70 47
5.608176e+000 -1.050364e+000 -1.598541e+001 45 27 13
5.596655e+000 -1.464076e+000 -1.635899e+001 46 31 20
5.596655e+000 -1.464076e+000 -1.635899e+001 46 31 20
1.698893e+000 -1.528208e+000 -1.526702e+001 97 76 55
2.493318e+000 -1.677865e+000 -1.575780e+001 49 37 23
3.674359e+000 -1.692989e+000 -1.617840e+001 73 54 37
4.543424e+000 -1.619874e+000 -1.633488e+001 50 32 12
4.747024e+000 -1.492309e+000 -1.623046e+001 76 55 38
4.747024e+000 -1.492309e+000 -1.623046e+001 76 55 38
4.711473e+000 -1.543836e+000 -1.623849e+001 51 27 12
4.711473e+000 -1.543836e+000 -1.623849e+001 51 27 12
2.448902e+000 -1.956249e+000 -1.605089e+001 38 25 16
2.517703e+000 -1.801066e+000 -1.574413e+001 46 34 18
1.990001e+000 -2.179932e+000 -1.623371e+001 37 25 10
4.813754e+000 -2.110120e+000 -1.695314e+001 46 27 10
4.655051e+000 -2.198289e+000 -1.692466e+001 55 36 19
3.725522e-001 -2.228075e+000 -1.604395e+001 86 35 31
1.925581e+000 -2.349294e+000 -1.637399e+001 25 15 5
2.389096e+000 -2.241821e+000 -1.633349e+001 44 32 18
4.434654e+000 -2.350041e+000 -1.711449e+001 80 62 42
-6.239371e+000 -2.266205e+000 -1.692450e+001 169 125 100
8.481664e-001 -2.671492e+000 -1.677867e+001 42 34 23
-6.141092e+000 -2.422273e+000 -1.682026e+001 137 93 67
-6.068689e+000 -2.454084e+000 -1.677758e+001 164 120 91
7.614858e-001 -3.012849e+000 -1.736496e+001 118 56 60
8.631383e-001 -2.992851e+000 -1.700014e+001 44 35 26
1.472766e+000 -2.932822e+000 -1.686950e+001 114 96 77
1.868754e+000 -2.991089e+000 -1.707522e+001 38 27 22
5.014455e+000 -3.154838e+000 -1.832101e+001 71 48 30
5.308469e-001 -3.594004e+000 -1.813544e+001 109 51 50
6.281093e-001 -3.622641e+000 -1.827964e+001 151 101 92
1.271569e+000 -3.536395e+000 -1.761676e+001 111 85 64
1.609685e+000 -3.635473e+000 -1.816700e+001 41 31 19
1.700338e+000 -3.641769e+000 -1.820017e+001 40 31 24
2.202814e+000 -3.693024e+000 -1.820204e+001 47 32 22
2.286934e+000 -3.648524e+000 -1.789859e+001 70 52 38
1.128656e+000 -3.740481e+000 -1.792967e+001 190 158 139
1.926186e+000 -3.809561e+000 -1.844803e+001 60 51 40
1.108435e+000 -4.577008e+000 -1.872467e+001 127 99 77
4.105160e+000 -4.569944e+000 -1.968409e+001 70 45 28
1.574830e+000 -4.939707e+000 -1.856970e+001 59 51 40
2.245451e+000 4.356595e+000 -1.577339e+001 91 76 61
1.127221e+000 3.353649e+000 -1.522410e+001 121 95 70
4.438446e+000 3.283808e+000 -1.537948e+001 131 97 69
4.312135e+000 1.796595e+000 -1.404440e+001 112 77 47
6.484871e+000 1.143815e+000 -1.379401e+001 139 103 71
6.484871e+000 1.143815e+000 -1.379401e+001 139 103 71
4.070489e-001 1.950099e+000 -1.590663e+001 204 160 124
2.135766e+000 7.927946e-001 -1.306706e+001 139 108 85
5.331981e+000 1.005581e+000 -1.381768e+001 111 76 52
1.456353e+000 1.009270e+000 -1.395286e+001 95 87 68
4.379429e+000 8.195321e-001 -1.374674e+001 75 48 21
5.928920e+000 6.602146e-001 -1.406861e+001 84 53 32
6.395543e+000 9.400070e-001 -1.425593e+001 110 76 49
6.389795e+000 8.338912e-001 -1.415970e+001 86 54 31
-4.531186e-001 8.271819e-001 -1.523859e+001 187 97 99
1.167545e+000 2.639749e-001 -1.447642e+001 132 90 42
2.900790e+000 -1.800070e-001 -1.328094e+001 32 22 10
5.559296e+000 -4.702936e-001 -1.536800e+001 68 49 32
2.213411e+000 -9.609898e-001 -1.499850e+001 47 37 24
5.137647e+000 -1.196029e+000 -1.596303e+001 77 59 41
5.722844e+000 -1.283381e+000 -1.616694e+001 47 29 15
5.817607e+000 -1.436782e+000 -1.651540e+001 43 22 12
3.646904e+000 -1.626816e+000 -1.608380e+001 54 35 20
5.221113e+000 -2.245146e+000 -1.714525e+001 57 38 22
-6.013587e+000 -2.066958e+000 -1.675522e+001 107 68 51
-6.013587e+000 -2.066958e+000 -1.675522e+001 107 68 51
1.161404e+000 -2.454251e+000 -1.621788e+001 55 37 27
2.495243e+000 -2.487518e+000 -1.667685e+001 47 35 21
3.842746e+000 -2.284495e+000 -1.686364e+001 78 59 44
4.064093e+000 -2.438815e+000 -1.710062e+001 77 60 42
1.082843e+000 -2.908127e+000 -1.647518e+001 60 53 40
-3.853297e-001 -3.016567e+000 -1.699541e+001 134 69 67
9.130029e-001 -3.486691e+000 -1.805226e+001 100 57 46
1.097765e+000 -3.452144e+000 -1.771061e+001 129 89 72
3.476735e+000 -3.549183e+000 -1.859784e+001 72 49 33
5.244681e+000 -3.589481e+000 -1.905304e+001 58 37 21
2.117928e+000 -3.901748e+000 -1.853964e+001 53 40 31
4.233539e+000 -4.116588e+000 -1.925842e+001 95 74 55
1.924292e-001 -4.003254e+000 -1.849509e+001 140 71 73
1.012338e+000 -4.145110e+000 -1.838521e+001 133 97 73
4.904750e+000 -4.366172e+000 -1.962982e+001 104 78 58
1.619048e+000 -5.000818e+000 -1.847014e+001 66 53 44
4.271715e+000 3.715845e+000 -1.576544e+001 107 75 50
4.329945e+000 3.564091e+000 -1.560050e+001 141 107 80
4.945933e+000 2.536259e+000 -1.485264e+001 115 78 50
7.850618e-001 2.584609e+000 -1.581772e+001 209 173 137
3.010878e+000 1.046530e+000 -1.323198e+001 146 128 104
5.548245e+000 1.084686e+000 -1.398275e+001 100 65 38
5.934686e+000 1.217413e+000 -1.405222e+001 86 52 27
4.327102e+000 5.864574e-001 -1.377030e+001 61 35 18
3.570706e+000 -4.281488e-001 -1.471743e+001 53 33 21
5.368617e+000 -2.990449e-001 -1.467412e+001 78 55 38
5.368617e+000 -2.990449e-001 -1.467412e+001 78 55 38
5.570467e+000 -2.664834e-001 -1.484352e+001 48 26 15
5.743810e+000 -2.278377e-001 -1.496412e+001 86 65 45
5.834010e+000 -3.423840e-001 -1.523431e+001 82 61 44
5.885004e+000 -2.234916e-001 -1.499900e+001 62 41 24
5.437164e+000 -1.145191e+000 -1.603144e+001 77 56 37
1.730830e+000 -1.201628e+000 -1.501940e+001 159 137 116
5.146032e+000 -1.265676e+000 -1.607304e+001 42 25 10
5.661634e+000 -1.403537e+000 -1.634036e+001 72 55 37
5.859081e+000 -1.336142e+000 -1.637448e+001 73 54 37
5.492231e+000 -1.573532e+000 -1.652987e+001 46 28 16
4.713651e+000 -1.857340e+000 -1.651097e+001 84 63 44
8.431488e-001 -2.035098e+000 -1.627822e+001 102 47 42
8.431488e-001 -2.035098e+000 -1.627822e+001 102 47 42
1.020993e+000 -1.943263e+000 -1.562703e+001 115 73 49
4.209048e+000 -2.405582e+000 -1.715336e+001 47 28 13
-3.856675e+000 -2.413704e+000 -1.722871e+001 130 93 79
1.062505e+000 -3.027939e+000 -1.687304e+001 94 83 63
-1.270546e-001 -3.039456e+000 -1.690703e+001 138 79 75
1.391078e+000 -3.690319e+000 -1.790606e+001 70 57 45
2.163373e+000 -3.603037e+000 -1.822353e+001 45 33 24
6.840768e-001 -4.411189e+000 -1.868797e+001 172 138 113
3.413781e+000 4.523238e+000 -1.628490e+001 146 113 82
4.568842e+000 4.108487e+000 -1.604449e+001 156 119 89
4.645601e+000 3.960254e+000 -1.591662e+001 106 70 44
5.139665e+000 3.379786e+000 -1.555150e+001 108 74 46
4.138848e+000 2.831722e+000 -1.495486e+001 153 118 89
4.387327e+000 2.197541e+000 -1.439674e+001 147 110 81
3.991239e-001 2.862476e+000 -1.668645e+001 198 186 166
3.585397e-001 2.640129e+000 -1.648883e+001 114 99 66
1.330268e+000 1.567528e+000 -1.436607e+001 61 50 40
4.044643e+000 9.960787e-001 -1.362853e+001 87 54 32
4.390149e+000 7.081093e-001 -1.373662e+001 105 75 51
1.878887e+000 5.346930e-001 -1.313654e+001 110 79 58
1.304074e+000 7.412310e-002 -1.401375e+001 154 106 47
5.089899e+000 -1.754862e-001 -1.459787e+001 89 67 46
4.782456e+000 -6.083182e-001 -1.518052e+001 86 63 45
5.665932e+000 -6.091966e-001 -1.543395e+001 78 61 43
6.187168e+000 -6.774014e-001 -1.564724e+001 58 40 18
-4.154229e-001 -8.475669e-001 -1.565618e+001 140 73 66
1.646659e+000 -1.102984e+000 -1.494131e+001 66 48 28
1.646659e+000 -1.102984e+000 -1.494131e+001 66 48 28
4.579578e+000 -9.670846e-001 -1.557934e+001 59 37 24
4.760691e+000 -1.553808e+000 -1.622379e+001 57 36 18
2.445485e+000 -2.098887e+000 -1.608370e+001 44 32 26
1.444227e+000 -2.466606e+000 -1.614880e+001 152 126 103
3.280085e+000 -2.719761e+000 -1.717047e+001 78 58 44
3.468282e+000 -2.749817e+000 -1.735988e+001 56 36 24
6.102778e-001 -3.211188e+000 -1.741926e+001 150 97 91
2.951884e+000 -3.414785e+000 -1.817768e+001 81 55 38
5.644117e+000 -3.558040e+000 -1.916961e+001 70 48 27
7.962322e-001 -3.464518e+000 -1.800568e+001 174 131 114
1.029659e+000 -3.910949e+000 -1.811618e+001 119 87 64
9.087534e-001 -4.444755e+000 -1.864087e+001 131 96 74
9.679657e-001 3.954872e+000 -1.584482e+001 198 168 134
3.908557e+000 1.740286e+000 -1.388653e+001 149 115 87
4.902371e+000 1.649824e+000 -1.397144e+001 155 118 84
2.757794e+000 1.262655e-001 -1.348194e+001 21 14 9
5.981619e+000 -6.687293e-001 -1.562006e+001 88 67 48
-1.285182e+000 -4.860804e-001 -1.561398e+001 209 161 139
-6.104340e-003 -1.366784e+000 -1.538133e+001 148 78 81
5.940607e+000 -1.657105e+000 -1.651834e+001 66 45 26
5.127606e+000 -2.636785e+000 -1.777606e+001 52 34 20
2.050722e+000 -3.396458e+000 -1.780546e+001 113 101 86
8.077269e-001 -3.679557e+000 -1.837690e+001 90 51 34
2.919102e+000 -3.604543e+000 -1.829934e+001 71 48 30
5.558136e+000 -3.841318e+000 -1.934637e+001 71 50 30
1.132845e+000 -4.064320e+000 -1.819239e+001 180 149 129
1.422440e+000 1.420738e+000 -1.395895e+001 194 160 132
1.098849e+000 8.094275e-001 -1.429403e+001 208 171 142
6.345258e+000 -8.158708e-003 -1.484026e+001 73 48 26
5.709777e+000 -3.892240e-001 -1.517508e+001 76 57 40
6.229756e+000 -3.838788e-001 -1.530489e+001 51 33 16
4.152448e+000 -7.301515e-001 -1.513472e+001 59 37 23
1.347710e+000 -9.089299e-001 -1.507387e+001 106 79 60
8.021379e-001 -1.251445e+000 -1.571967e+001 138 99 87
3.925955e+000 -1.854309e+000 -1.639523e+001 88 68 46
2.623931e+000 -1.959917e+000 -1.609811e+001 39 27 13
3.166100e-001 -2.643188e+000 -1.661404e+001 108 47 52
3.166100e-001 -2.643188e+000 -1.661404e+001 108 47 52
-5.808504e+000 -3.750605e+000 -1.693817e+001 167 97 105
2.150092e+000 -4.121548e+000 -1.859829e+001 42 33 28
1.069839e+000 -4.406253e+000 -1.841586e+001 151 123 104
1.699101e+000 -4.801602e+000 -1.814517e+001 109 97 83
3.136677e+000 9.248305e-001 -1.340403e+001 58 42 23
-1.377308e+000 -4.554536e-001 -1.567781e+001 201 153 132
2.634659e+000 -1.177085e+000 -1.464835e+001 47 35 23
3.584352e+000 -2.038898e+000 -1.648343e+001 86 63 47
4.511580e+000 -2.124498e+000 -1.699080e+001 91 70 53
4.511580e+000 -2.124498e+000 -1.699080e+001 91 70 53
3.441848e+000 3.284365e+000 -1.516010e+001 101 69 47
5.443596e+000 2.385775e+000 -1.472679e+001 163 126 90
-1.240696e+000 6.294790e-001 -1.587386e+001 167 106 77
4.976719e+000 -2.629806e-001 -1.486398e+001 96 69 50
3.499525e+000 -1.221117e+000 -1.564731e+001 48 30 19
-2.056417e+000 -1.757272e+000 -1.711544e+001 58 33 31
3.086167e+000 -4.615563e+000 -1.984070e+001 102 76 59
4.673425e+000 6.189769e-001 -1.378378e+001 117 85 60
1.194916e+000 -1.463437e+000 -1.553649e+001 49 39 29
1.525899e+000 7.952340e-001 -1.376894e+001 116 110 78
2.195601e+000 -5.964303e-001 -1.356299e+001 37 27 17
1.285862e+000 -2.124106e+000 -1.575566e+001 119 85 58
3.866705e+000 3.701195e+000 -1.566816e+001 114 83 57
2.941316e+000 7.099787e-001 -1.460786e+001 41 30 22
6.840063e+000 5.706997e+000 -1.507845e+001 117 82 47
6.819204e+000 5.527884e+000 -1.534004e+001 120 82 46
9.700523e-001 4.603951e+000 -1.666447e+001 64 49 28
2.101742e+000 4.873398e+000 -1.666729e+001 110 92 69
4.354429e+000 4.801144e+000 -1.698855e+001 133 97 61
1.583026e+000 4.481021e+000 -1.587484e+001 70 51 27
1.669496e+000 4.482519e+000 -1.583035e+001 70 54 36
1.593597e+000 4.395556e+000 -1.570737e+001 61 44 20
3.700268e+000 4.539814e+000 -1.620784e+001 133 94 61
4.278856e+000 4.533621e+000 -1.637075e+001 133 98 66
5.879926e+000 4.743739e+000 -1.693807e+001 140 97 55
1.096912e+000 4.090370e+000 -1.601639e+001 118 91 64
3.672449e+000 4.428009e+000 -1.619475e+001 147 112 82
5.243647e+000 4.245405e+000 -1.622332e+001 100 63 37
5.243647e+000 4.245405e+000 -1.622332e+001 100 63 37
1.171240e+000 3.836839e+000 -1.565314e+001 80 62 36
1.921772e+000 3.824929e+000 -1.520922e+001 49 37 15
2.538450e+000 3.845594e+000 -1.541735e+001 79 62 42
2.538450e+000 3.845594e+000 -1.541735e+001 79 62 42
5.858851e+000 4.242712e+000 -1.639002e+001 82 49 18
1.101127e+000 3.479195e+000 -1.493181e+001 89 72 42
1.346368e+000 3.672290e+000 -1.512044e+001 213 180 149
1.747013e+000 3.663724e+000 -1.519764e+001 65 47 25
1.940449e+000 3.732364e+000 -1.518052e+001 47 33 21
2.147292e+000 3.531627e+000 -1.515942e+001 68 54 39
5.769272e+000 3.892788e+000 -1.605577e+001 101 66 36
2.417151e+000 3.300001e+000 -1.491975e+001 70 50 25
2.347624e+000 3.275210e+000 -1.498701e+001 72 55 32
3.819183e+000 3.556827e+000 -1.548749e+001 74 44 20
1.832515e+000 3.196398e+000 -1.479705e+001 61 41 19
4.408751e+000 3.204420e+000 -1.532030e+001 110 77 46
4.465037e+000 3.218811e+000 -1.532040e+001 101 68 37
1.614761e+000 2.732112e+000 -1.434449e+001 156 121 83
2.530429e+000 2.844933e+000 -1.458075e+001 77 58 27
3.929657e+000 2.752843e+000 -1.484979e+001 91 58 31
-4.259320e-001 2.152653e+000 -1.801123e+001 91 60 40
2.777890e+000 2.495376e+000 -1.422303e+001 68 50 28
4.830490e+000 2.639158e+000 -1.491392e+001 97 64 33
6.442839e+000 2.767052e+000 -1.513468e+001 111 74 45
2.777726e-001 1.970824e+000 -1.608718e+001 201 156 115
1.706719e+000 2.427899e+000 -1.394384e+001 170 135 97
2.672102e+000 2.239518e+000 -1.399500e+001 82 62 42
4.565876e+000 2.477186e+000 -1.470189e+001 113 79 52
5.228153e+000 2.454384e+000 -1.473366e+001 119 79 43
2.641520e+000 2.092740e+000 -1.389839e+001 71 54 33
2.815692e+000 2.087002e+000 -1.390040e+001 111 93 73
3.286944e+000 1.892587e+000 -1.375237e+001 148 117 88
5.315100e+000 1.892822e+000 -1.442842e+001 120 81 43
8.843974e-001 1.364117e+000 -1.478994e+001 181 138 93
2.610219e+000 1.630698e+000 -1.352470e+001 74 62 44
6.747242e+000 1.714915e+000 -1.415525e+001 146 107 69
-1.035052e+000 6.565074e-001 -1.584279e+001 201 129 115
-1.024142e+000 6.936068e-001 -1.568861e+001 201 129 115
1.824290e+000 1.335717e+000 -1.315452e+001 193 157 120
3.005013e+000 1.485437e+000 -1.338419e+001 54 36 22
-1.398088e+000 2.863143e-001 -1.599118e+001 164 111 80
3.018071e+000 1.153508e+000 -1.326299e+001 53 34 19
3.170682e+000 1.067982e+000 -1.337880e+001 95 70 44
2.927814e+000 8.683729e-001 -1.384344e+001 240 215 157
3.000278e+000 9.417688e-001 -1.321286e+001 61 44 24
-1.451256e+000 -4.224216e-001 -1.572024e+001 178 118 98
2.033476e+000 6.795274e-001 -1.304115e+001 141 106 74
-3.057617e+000 -1.027722e+000 -1.740551e+001 178 126 102
8.374429e-001 -2.154204e-001 -1.480062e+001 203 164 130
-4.475041e-001 -6.854611e-001 -1.555679e+001 168 100 88
1.350500e+000 -3.500267e-001 -1.421019e+001 181 145 111
1.602257e+000 -8.946442e-001 -1.483010e+001 139 104 80
7.027127e+000 6.027115e+000 -1.474060e+001 106 80 51
2.129225e+000 4.760203e+000 -1.642608e+001 90 74 53
1.248326e+000 4.553167e+000 -1.601701e+001 208 175 144
1.695068e+000 4.400486e+000 -1.576796e+001 68 56 38
3.943438e+000 4.532675e+000 -1.626156e+001 106 72 42
5.280084e+000 4.686135e+000 -1.673537e+001 145 108 71
3.791105e+000 4.163598e+000 -1.595988e+001 112 76 49
5.738597e+000 4.460525e+000 -1.654604e+001 125 89 57
1.227662e+000 3.980797e+000 -1.556067e+001 152 118 89
1.553664e+000 3.756988e+000 -1.516400e+001 122 88 63
4.498455e+000 4.066276e+000 -1.603646e+001 136 104 75
5.159811e+000 4.158169e+000 -1.615831e+001 86 52 24
1.317244e+000 3.623469e+000 -1.513793e+001 138 105 74
1.434525e+000 3.472504e+000 -1.493907e+001 223 190 157
2.356379e+000 3.719685e+000 -1.533156e+001 60 42 25
3.639777e+000 3.837051e+000 -1.564164e+001 111 78 50
3.944073e+000 3.825993e+000 -1.575363e+001 83 51 26
4.721677e+000 3.731249e+000 -1.575385e+001 98 65 38
1.467027e+000 3.366912e+000 -1.485295e+001 200 166 131
1.500740e+000 3.245774e+000 -1.467278e+001 167 131 96
1.998664e+000 3.306416e+000 -1.480915e+001 112 94 70
1.998664e+000 3.306416e+000 -1.480915e+001 112 94 70
4.817041e+000 3.519702e+000 -1.557663e+001 145 110 80
-2.806982e-002 2.730445e+000 -1.755263e+001 192 155 113
1.203770e-001 2.771835e+000 -1.725883e+001 183 143 107
1.501081e+000 2.934413e+000 -1.450289e+001 226 191 155
1.501081e+000 2.934413e+000 -1.450289e+001 226 191 155
-4.895511e-002 2.496255e+000 -1.729859e+001 133 91 53
1.449500e+000 2.796067e+000 -1.462170e+001 171 138 103
3.926613e+000 2.926324e+000 -1.501428e+001 84 53 27
4.951925e+000 2.918982e+000 -1.512899e+001 98 64 36
5.342316e+000 2.955130e+000 -1.525457e+001 113 77 45
5.768973e+000 2.824515e+000 -1.522581e+001 108 70 39
3.158316e+000 2.646187e+000 -1.461195e+001 138 106 83
4.201569e+000 2.682362e+000 -1.483374e+001 95 60 32
5.691094e+000 2.778617e+000 -1.509659e+001 133 97 63
1.363010e+000 2.185332e+000 -1.408978e+001 109 100 69
1.590858e+000 2.330480e+000 -1.408927e+001 145 111 76
2.201109e+000 2.422260e+000 -1.416165e+001 104 83 56
2.288240e+000 2.359201e+000 -1.403427e+001 64 48 30
5.213563e+000 2.518782e+000 -1.475051e+001 123 85 49
1.781392e+000 1.985536e+000 -1.354542e+001 251 219 180
2.192213e+000 2.164965e+000 -1.387087e+001 76 62 37
1.857612e+000 1.753114e+000 -1.333719e+001 193 153 117
3.345465e+000 1.787355e+000 -1.377719e+001 145 111 83
5.881868e+000 1.899100e+000 -1.435188e+001 113 74 43
2.450298e+000 1.662004e+000 -1.331241e+001 55 42 23
1.863370e+000 1.470606e+000 -1.319309e+001 176 141 103
4.762445e+000 1.527741e+000 -1.383845e+001 108 72 39
-1.271337e+000 4.175193e-001 -1.593786e+001 174 121 89
1.949494e+000 1.111510e+000 -1.307262e+001 206 172 137
1.144070e+000 5.138554e-001 -1.428616e+001 192 150 84
1.164721e+000 3.435108e-001 -1.445150e+001 133 85 29
-3.150358e+000 -1.020830e+000 -1.741029e+001 131 94 66
2.887742e+000 3.739401e-001 -1.337744e+001 54 40 25
4.216527e+000 1.682754e-001 -1.401158e+001 74 46 22
4.954471e+000 1.942497e-001 -1.414257e+001 66 40 15
-9.041376e-001 -8.237702e-001 -1.536832e+001 193 125 116
-8.978794e-001 -9.615241e-001 -1.528870e+001 203 140 124
2.907300e+000 -1.567735e-001 -1.331659e+001 36 24 10
1.026139e+000 -2.307305e+000 -1.627519e+001 176 131 112
8.394739e-001 4.449914e+000 -1.633203e+001 88 83 53
4.514816e+000 4.749099e+000 -1.676370e+001 100 65 33
1.309489e+000 4.121849e+000 -1.547990e+001 212 179 144
1.786919e+000 4.047696e+000 -1.551030e+001 65 49 32
3.936379e+000 4.315030e+000 -1.618737e+001 124 85 56
4.240911e+000 4.436971e+000 -1.628359e+001 95 60 28
4.965091e+000 4.253377e+000 -1.611272e+001 93 59 29
5.073368e+000 4.229693e+000 -1.617802e+001 132 97 68
5.332919e+000 4.275723e+000 -1.627043e+001 97 62 33
1.277874e+000 3.841591e+000 -1.534383e+001 115 83 60
5.001437e+000 4.177145e+000 -1.616141e+001 94 61 32
1.167939e+000 3.475448e+000 -1.486969e+001 175 146 112
1.263567e+000 3.472271e+000 -1.495340e+001 141 107 72
1.563222e+000 3.593914e+000 -1.504306e+001 136 100 62
5.813937e+000 3.704163e+000 -1.593598e+001 92 57 29
1.547064e+000 3.371558e+000 -1.489704e+001 123 87 55
2.460299e+000 3.274879e+000 -1.487859e+001 49 35 22
2.461323e+000 3.274257e+000 -1.488890e+001 49 35 22
4.785801e+000 3.362226e+000 -1.546886e+001 102 69 38
4.785801e+000 3.362226e+000 -1.546886e+001 102 69 38
4.895424e+000 3.563597e+000 -1.568500e+001 100 65 38
4.895424e+000 3.563597e+000 -1.568500e+001 100 65 38
5.166021e+000 3.527705e+000 -1.564098e+001 123 90 57
-1.677893e-001 2.683902e+000 -1.742896e+001 196 159 116
4.532660e-002 2.782916e+000 -1.734885e+001 157 114 81
4.970597e+000 3.311080e+000 -1.546979e+001 99 63 36
4.970597e+000 3.311080e+000 -1.546979e+001 99 63 36
2.532643e+000 2.943704e+000 -1.465730e+001 71 56 38
5.054153e+000 2.930263e+000 -1.523949e+001 122 89 56
2.202044e+000 2.659701e+000 -1.424312e+001 62 50 30
3.157643e+000 2.482846e+000 -1.429131e+001 132 105 77
5.793724e+000 2.757352e+000 -1.518595e+001 103 66 37
5.900243e+000 2.642161e+000 -1.512823e+001 110 69 39
6.254737e+000 2.694783e+000 -1.517084e+001 96 55 25
1.327401e-001 2.035629e+000 -1.631828e+001 175 106 79
1.415613e+000 2.221768e+000 -1.408572e+001 77 69 38
1.710386e+000 2.252221e+000 -1.381435e+001 203 169 131
1.798215e+000 2.267880e+000 -1.392988e+001 145 108 66
2.301354e+000 2.207465e+000 -1.391117e+001 50 37 21
1.755879e+000 2.094481e+000 -1.371774e+001 230 194 157
2.845036e+000 2.075694e+000 -1.379451e+001 65 53 31
4.695942e+000 2.164159e+000 -1.447715e+001 129 93 60
4.903353e+000 2.222596e+000 -1.463502e+001 106 69 40
5.422418e+000 2.050132e+000 -1.442570e+001 150 112 76
2.285436e+000 1.872789e+000 -1.361564e+001 69 55 41
-9.643101e-001 6.322018e-001 -1.578059e+001 173 92 83
1.038997e+000 1.054273e+000 -1.480634e+001 171 124 81
1.905296e+000 1.417382e+000 -1.317338e+001 197 162 124
1.992573e+000 1.344160e+000 -1.308280e+001 144 106 69
5.680332e+000 1.372145e+000 -1.402265e+001 97 57 32
6.227876e-001 7.673907e-001 -1.495596e+001 190 123 107
7.402254e-001 7.729470e-001 -1.464673e+001 223 185 144
1.143960e+000 6.183544e-001 -1.434387e+001 143 96 49
-1.268071e+000 -4.365182e-001 -1.565944e+001 210 162 130
4.372152e+000 5.942692e-001 -1.378097e+001 89 60 30
4.250436e+000 5.450888e-001 -1.375240e+001 81 51 27
4.250436e+000 5.450888e-001 -1.375240e+001 81 51 27
-3.319102e-002 -4.817426e-001 -1.586383e+001 179 122 107
-5.827518e+000 -1.790741e+000 -1.682039e+001 99 68 52
1.541133e+000 -1.125672e+000 -1.478078e+001 111 88 60
4.244369e+000 -1.316557e+000 -1.582614e+001 77 49 25
5.905592e+000 6.145238e+000 -2.231334e+001 168 134 87
2.327172e+000 4.431552e+000 -1.575683e+001 68 53 34
4.480070e+000 4.655328e+000 -1.663701e+001 154 115 84
6.243804e+000 4.783149e+000 -1.698377e+001 204 160 117
3.570747e+000 3.997453e+000 -1.582625e+001 102 69 40
4.812344e+000 4.024940e+000 -1.599980e+001 122 87 57
6.143230e-001 3.535597e+000 -1.614349e+001 208 174 136
1.100881e+000 3.592953e+000 -1.502515e+001 146 130 91
4.903415e+000 3.887563e+000 -1.583490e+001 96 62 34
5.372523e+000 3.686923e+000 -1.578749e+001 124 90 63
2.538080e-001 3.136489e+000 -1.750705e+001 181 137 98
5.172220e+000 3.443657e+000 -1.557963e+001 95 60 30
5.172220e+000 3.443657e+000 -1.557963e+001 95 60 30
2.009746e+000 3.197858e+000 -1.473525e+001 122 103 72
4.658737e+000 3.112648e+000 -1.528852e+001 93 61 33
1.360590e+000 2.857662e+000 -1.495734e+001 161 127 99
2.081493e+000 2.882847e+000 -1.446072e+001 134 115 86
1.290603e+000 2.561065e+000 -1.479799e+001 159 126 101
1.603934e+000 2.651215e+000 -1.433685e+001 216 182 145
2.140135e+000 2.450689e+000 -1.420856e+001 67 49 29
2.667137e+000 2.465425e+000 -1.427662e+001 73 52 32
3.700610e+000 2.543544e+000 -1.461030e+001 82 50 25
4.546549e+000 2.526312e+000 -1.476549e+001 90 56 29
4.311899e-001 1.858220e+000 -1.579926e+001 155 105 72
4.851288e+000 2.440402e+000 -1.469017e+001 99 65 34
6.095392e+000 2.454508e+000 -1.494867e+001 113 74 41
2.030914e+000 1.948583e+000 -1.361646e+001 49 30 21
2.818266e+000 1.855569e+000 -1.368878e+001 71 54 27
4.256186e+000 1.774760e+000 -1.397815e+001 94 60 33
4.266995e+000 1.769890e+000 -1.399900e+001 94 60 33
4.506321e+000 1.943613e+000 -1.415067e+001 139 103 71
6.047851e+000 1.837727e+000 -1.429770e+001 107 71 38
6.047851e+000 1.837727e+000 -1.429770e+001 107 71 38
-5.697090e-001 8.760142e-001 -1.534768e+001 184 88 89
1.577432e+000 1.310192e+000 -1.385409e+001 177 141 107
2.056047e+000 1.476071e+000 -1.312643e+001 133 95 57
1.692970e+000 1.144196e+000 -1.341061e+001 152 118 91
1.926125e+000 1.144123e-001 -1.337640e+001 252 218 183
-5.879177e+000 -1.841942e+000 -1.672703e+001 137 101 79
-5.180286e+000 -2.100342e+000 -1.636514e+001 148 110 88
4.595343e+000 -3.483850e+000 -1.864281e+001 79 51 27
9.409897e-001 4.378249e+000 -1.610520e+001 127 112 89
1.367189e+000 3.956481e+000 -1.533345e+001 193 160 127
5.332413e+000 4.173318e+000 -1.620625e+001 123 90 59
1.367312e+000 3.327346e+000 -1.496884e+001 136 103 72
1.585742e+000 3.236704e+000 -1.472758e+001 183 145 108
4.080171e+000 3.435342e+000 -1.545967e+001 92 60 32
5.007481e+000 3.625581e+000 -1.569642e+001 140 105 76
4.733379e+000 3.246372e+000 -1.535984e+001 134 100 72
4.734633e+000 3.246110e+000 -1.536068e+001 134 100 72
-2.020187e-001 2.565656e+000 -1.755541e+001 55 33 30
1.351243e+000 2.405956e+000 -1.436507e+001 161 140 107
4.321780e+000 2.726416e+000 -1.488731e+001 92 57 29
2.528907e-001 2.055153e+000 -1.613892e+001 206 159 118
3.995668e+000 2.336893e+000 -1.450792e+001 83 51 26
2.432723e-001 1.431649e+000 -1.542046e+001 205 133 121
1.158178e+000 1.389710e+000 -1.455483e+001 193 150 103
3.466142e-001 1.027399e+000 -1.492902e+001 165 80 77
5.933620e-001 1.080556e+000 -1.486483e+001 195 142 102
1.094127e+000 9.463714e-001 -1.481318e+001 130 79 50
1.820817e+000 1.231107e+000 -1.316294e+001 136 101 69
1.254251e+000 1.000672e+000 -1.404533e+001 192 158 126
1.576100e+000 1.122345e+000 -1.337605e+001 70 64 39
1.342460e+000 5.414369e-001 -1.380127e+001 176 144 108
1.796628e+000 4.099680e-002 -1.376200e+001 169 134 104
6.283114e+000 3.653100e-001 -1.432798e+001 87 53 25
-5.101196e+000 -1.557446e+000 -1.726907e+001 195 152 122
2.501895e+000 -1.261494e-002 -1.330918e+001 50 35 20
2.722064e+000 -1.069956e-002 -1.340538e+001 70 53 37
5.679445e+000 -8.228013e-001 -1.568938e+001 102 75 51
-5.866354e+000 -2.231969e+000 -1.669517e+001 115 80 60
4.515721e-001 -1.313245e+000 -1.562112e+001 162 114 90
1.419058e+000 -1.227353e+000 -1.483557e+001 63 55 34
-1.022262e-001 -1.711714e+000 -1.558291e+001 157 86 85
2.300868e+000 4.682615e+000 -1.608517e+001 82 69 52
5.576790e+000 4.600801e+000 -1.670345e+001 135 96 63
1.499948e+000 4.261559e+000 -1.561726e+001 51 31 20
2.184949e+000 4.143585e+000 -1.565031e+001 156 140 107
1.585291e+000 3.950476e+000 -1.533899e+001 48 28 18
4.798925e+000 4.193164e+000 -1.611060e+001 143 106 76
5.099548e+000 3.142632e+000 -1.534190e+001 128 94 66
2.483572e-001 2.208057e+000 -1.634637e+001 128 95 65
1.893857e+000 2.459119e+000 -1.407421e+001 50 32 19
-8.374110e-001 1.388026e+000 -1.635056e+001 207 127 118
1.998711e+000 2.163707e+000 -1.384623e+001 58 40 23
1.680067e+000 1.697178e+000 -1.380309e+001 180 147 112
2.186009e+000 8.928410e-001 -1.319345e+001 57 35 22
3.301977e+000 2.087284e-001 -1.381339e+001 111 89 65
5.384156e+000 2.721798e-001 -1.415790e+001 78 48 24
3.504974e+000 7.283504e-002 -1.380654e+001 127 101 74
-3.428300e+000 -1.712622e+000 -1.706352e+001 108 77 54
1.757156e-001 -1.511631e+000 -1.574804e+001 112 44 39
2.194584e+000 4.446413e+000 -1.606378e+001 152 125 96
1.043735e+000 4.255865e+000 -1.608192e+001 45 40 21
3.323149e+000 3.278028e+000 -1.521329e+001 79 50 32
1.091352e+000 2.888376e+000 -1.552084e+001 136 105 77
4.378916e+000 3.081183e+000 -1.518036e+001 147 113 79
5.359972e+000 3.137651e+000 -1.548085e+001 87 53 27
4.088342e+000 2.819500e+000 -1.494194e+001 134 101 70
4.088342e+000 2.819500e+000 -1.494194e+001 134 101 70
5.436335e+000 2.845744e+000 -1.520680e+001 153 114 81
5.436335e+000 2.845744e+000 -1.520680e+001 153 114 81
4.335788e+000 2.331415e+000 -1.462388e+001 80 49 21
2.064072e+000 1.934165e+000 -1.366389e+001 58 40 17
3.632225e+000 1.893650e+000 -1.390804e+001 74 48 25
3.921708e+000 1.708832e+000 -1.398092e+001 128 97 67
3.078661e+000 1.419474e+000 -1.330557e+001 58 36 22
1.016648e+000 5.184924e-001 -1.453635e+001 160 111 50
1.116462e+000 3.118364e-001 -1.427458e+001 154 107 51
1.400811e+000 3.172489e-001 -1.381022e+001 190 155 125
-5.548156e+000 -1.839238e+000 -1.677397e+001 132 91 62
4.604076e-001 -1.014948e+000 -1.549986e+001 112 49 40
4.917145e+000 4.590887e+000 -1.649056e+001 161 123 86
1.351480e+000 4.062878e+000 -1.548238e+001 191 158 123
4.131773e+000 4.206063e+000 -1.610058e+001 141 106 74
5.818030e+000 4.335611e+000 -1.636330e+001 103 68 40
1.375966e+000 3.854363e+000 -1.511573e+001 203 170 139
1.407303e+000 3.563159e+000 -1.502037e+001 229 194 162
1.614652e+000 3.729185e+000 -1.505737e+001 50 32 26
3.805936e+000 2.381151e+000 -1.455312e+001 123 89 61
-1.210225e+000 1.084824e+000 -1.600725e+001 190 145 111
2.099560e+000 1.663475e+000 -1.330643e+001 58 34 21
7.109405e+000 1.706811e+000 -1.434024e+001 165 122 67
5.821141e+000 1.249937e+000 -1.402387e+001 83 49 25
2.236955e+000 5.409126e-001 -1.320026e+001 60 43 28
2.482068e+000 1.348638e-001 -1.324914e+001 41 28 17
2.520844e+000 4.071168e+000 -1.557806e+001 66 51 30
2.083077e+000 3.678210e+000 -1.529225e+001 54 40 29
2.584596e+000 3.746667e+000 -1.533803e+001 60 45 24
1.666721e+000 2.414633e+000 -1.398960e+001 204 172 135
7.027002e+000 2.516206e+000 -1.492141e+001 170 127 74
2.173460e+000 1.459858e+000 -1.325318e+001 77 55 40
9.120718e-001 7.248448e-001 -1.459478e+001 207 169 131
5.815602e+000 2.802939e+000 -1.492961e+001 123 87 55
1.488681e+000 8.618991e-001 -1.392775e+001 72 61 43
2.103577e+000 2.682720e+000 -1.440357e+001 72 56 40
1.322322e+000 1.980460e+000 -1.448046e+001 93 80 49
8.231545e-001 1.718937e+000 -1.455142e+001 207 169 122
3.929750e+000 4.445307e+000 -1.620496e+001 114 79 49
3.929750e+000 4.445307e+000 -1.620496e+001 114 79 49
4.599187e+000 4.152163e+000 -1.604912e+001 106 71 41
1.849830e+000 3.583209e+000 -1.511933e+001 62 41 21
3.770483e+000 3.597413e+000 -1.553516e+001 105 75 51
3.576590e+000 3.530566e+000 -1.541839e+001 104 74 49
-7.876634e-001 6.619653e-001 -1.535324e+001 173 100 87
1.977377e+000 9.083334e-001 -1.306138e+001 158 122 86
3.944169e+000 4.177873e+000 -1.598990e+001 120 85 52
4.334883e+000 3.994740e+000 -1.584605e+001 120 86 59
4.629502e+000 3.730098e+000 -1.568936e+001 123 89 62
4.950145e+000 2.926056e+000 -1.513080e+001 98 64 36
4.609822e+000 1.654624e+000 -1.398116e+001 81 49 26
1.652851e+000 1.331888e+000 -1.390196e+001 141 104 72
3.645496e+000 4.341369e+000 -1.610028e+001 112 77 47
6.474436e+000 4.596790e+000 -1.694389e+001 118 74 36
6.474436e+000 4.596790e+000 -1.694389e+001 118 74 36
3.991599e+000 3.615688e+000 -1.551841e+001 83 53 29
3.881766e+000 2.843423e+000 -1.494373e+001 80 49 22
5.481601e+000 4.609195e+000 -1.673263e+001 139 100 66
4.387247e+000 3.693294e+000 -1.563235e+001 92 59 33
5.256983e+000 3.724630e+000 -1.580806e+001 92 58 30
6.109851e+000 3.373428e+000 -1.576152e+001 119 85 48
4.054560e+000 2.278958e+000 -1.443400e+001 140 106 71
5.964808e+000 1.078632e+000 -1.399906e+001 92 55 28
4.439972e+000 4.243565e-001 -1.384729e+001 82 54 30
3.851889e+000 2.325941e+000 -1.444489e+001 127 94 63
5.951096e-001 1.076203e+000 -1.486217e+001 195 142 102
-4.227845e+000 -2.621310e+000 -1.664269e+001 82 53 42
5.238778e+000 4.557895e+000 -1.654494e+001 97 62 31
4.737525e+000 3.246634e+000 -1.535586e+001 129 95 67
4.818139e+000 1.773443e+000 -1.404878e+001 97 62 32
6.979981e+000 5.809551e+000 -1.494525e+001 93 67 41
1.048291e+000 4.443125e+000 -1.615142e+001 64 51 34
1.314027e+000 4.412831e+000 -1.564416e+001 173 140 109
1.754359e+000 4.391457e+000 -1.565441e+001 45 35 16
1.954259e+000 4.492007e+000 -1.579738e+001 70 58 45
2.086461e+000 4.332571e+000 -1.567513e+001 151 136 107
6.495132e+000 4.674990e+000 -1.695084e+001 172 126 76
5.129441e+000 4.382279e+000 -1.628700e+001 137 100 72
2.087963e+000 3.805779e+000 -1.530863e+001 75 67 54
2.878082e+000 3.916301e+000 -1.557588e+001 137 112 83
4.683697e+000 4.056697e+000 -1.597519e+001 74 44 18
4.683697e+000 4.056697e+000 -1.597519e+001 74 44 18
2.020100e+000 3.726788e+000 -1.527033e+001 64 55 36
3.280290e+000 3.670928e+000 -1.547379e+001 79 48 27
4.582779e+000 3.687296e+000 -1.568210e+001 93 61 36
5.776687e+000 3.888883e+000 -1.607582e+001 85 54 26
1.783803e+000 3.461434e+000 -1.502426e+001 70 53 28
1.803090e+000 3.372653e+000 -1.493015e+001 59 43 19
2.422780e+000 3.298334e+000 -1.492277e+001 71 54 39
4.828615e+000 3.425912e+000 -1.548056e+001 125 91 63
1.573707e+000 3.247850e+000 -1.468711e+001 189 158 127
2.329004e+000 3.296619e+000 -1.484881e+001 68 51 33
5.316692e+000 3.189006e+000 -1.541032e+001 101 67 45
5.236230e-001 2.591390e+000 -1.619829e+001 62 49 22
1.787935e+000 2.655814e+000 -1.427941e+001 76 46 25
2.083559e+000 2.783224e+000 -1.431826e+001 87 76 52
2.701319e+000 2.671506e+000 -1.434944e+001 49 35 21
2.224348e-001 1.799015e+000 -1.604472e+001 178 116 88
3.933087e+000 2.604508e+000 -1.476646e+001 104 77 48
4.390351e+000 2.526407e+000 -1.468678e+001 93 61 35
2.235518e+000 2.198508e+000 -1.389673e+001 53 40 23
3.167102e+000 2.285748e+000 -1.425730e+001 141 115 92
5.163279e+000 2.245205e+000 -1.453803e+001 124 89 57
3.767635e-001 1.467295e+000 -1.520680e+001 172 99 84
2.641519e+000 2.094910e+000 -1.389213e+001 64 52 30
5.240857e-001 1.243524e+000 -1.494338e+001 209 164 122
1.795717e+000 1.833598e+000 -1.338007e+001 202 167 129
1.875980e+000 1.605583e+000 -1.330813e+001 191 156 119
4.403922e+000 1.658467e+000 -1.393532e+001 86 54 29
-3.013938e+000 -7.915382e-001 -1.779352e+001 148 99 82
3.559900e+000 1.539044e+000 -1.344806e+001 122 91 62
6.239965e+000 1.314704e+000 -1.413844e+001 73 41 14
2.943205e+000 1.273916e+000 -1.328444e+001 135 120 86
1.297242e+000 4.866539e-001 -1.417807e+001 139 101 55
3.041619e+000 1.033850e+000 -1.321638e+001 66 50 29
