ply
format ascii 1.0
element face 0
property list uchar int vertex_indices
element vertex 884
property float x
property float y
property float z
property uchar diffuse_red
property uchar diffuse_green
property uchar diffuse_blue
end_header
1.724564e+000 -2.698933e+000 -1.749156e+001 154 117 90
4.080778e+000 -3.368679e-001 -1.530531e+001 127 93 58
4.240383e+000 -3.702846e-001 -1.531504e+001 108 72 36
4.880790e+000 -2.956564e-001 -1.552489e+001 146 110 58
4.343934e+000 -6.088220e-001 -1.568406e+001 106 73 36
5.108324e+000 -2.924889e+000 -1.570343e+001 131 97 49
4.334576e+000 -8.099351e-001 -1.591766e+001 96 64 28
4.886396e+000 -1.579720e+000 -1.599689e+001 167 134 80
5.075457e+000 -3.033728e+000 -1.584075e+001 128 94 48
1.674528e+000 -1.376267e+000 -1.583092e+001 156 73 69
3.973574e+000 -1.152885e+000 -1.617807e+001 141 106 65
3.953075e+000 -1.275800e+000 -1.630395e+001 91 57 22
2.743021e+000 -1.542941e+000 -1.621067e+001 135 109 78
4.303576e+000 -1.399256e+000 -1.654113e+001 115 82 49
5.254592e-001 -8.781679e-001 -1.597732e+001 169 91 79
3.150770e+000 -1.520274e+000 -1.631630e+001 67 38 8
3.256512e+000 -1.595853e+000 -1.645132e+001 99 72 42
4.257963e+000 -1.410185e+000 -1.663260e+001 68 40 10
2.774162e+000 -1.745329e+000 -1.653960e+001 118 87 57
1.412268e+000 -1.959630e+000 -1.622331e+001 146 96 61
3.163859e+000 -1.795366e+000 -1.669259e+001 63 36 8
3.629883e+000 -1.724625e+000 -1.684963e+001 67 36 8
3.829410e+000 -1.720777e+000 -1.681495e+001 105 71 36
2.703751e+000 -2.028572e+000 -1.664466e+001 122 92 58
3.414503e+000 -1.866082e+000 -1.692389e+001 67 36 8
4.593576e+000 -1.636942e+000 -1.722753e+001 89 55 17
3.961154e+000 -1.871325e+000 -1.715512e+001 87 52 20
3.962115e+000 -1.876186e+000 -1.715334e+001 87 52 20
3.191916e+000 -2.117819e+000 -1.722065e+001 76 42 14
3.689814e+000 -2.322790e+000 -1.757625e+001 111 74 38
-3.490280e-001 -1.830776e+000 -1.731831e+001 80 57 33
1.420995e+000 -2.666383e+000 -1.768966e+001 165 124 69
3.020704e+000 -2.739042e+000 -1.802566e+001 72 46 19
7.115923e-001 -2.082489e+000 -1.806448e+001 192 136 111
7.836964e-001 -2.142477e+000 -1.803596e+001 183 128 98
8.077053e-001 -2.106465e+000 -1.807052e+001 144 90 65
3.973459e+000 -2.601051e+000 -1.854299e+001 76 51 21
3.867849e+000 -2.570415e+000 -1.862346e+001 98 76 45
2.450106e+000 -4.839738e-001 -1.465886e+001 53 31 8
2.496979e+000 -5.188596e-001 -1.477562e+001 56 38 24
2.553164e+000 -5.638628e-001 -1.470971e+001 84 67 43
2.227725e+000 -7.772361e-001 -1.506967e+001 133 94 53
3.655466e+000 -5.900528e-001 -1.529974e+001 124 91 58
1.527061e+000 -2.480100e-001 -1.536669e+001 189 100 91
4.046237e+000 -6.629224e-001 -1.570428e+001 102 73 43
4.139430e+000 -7.410509e-001 -1.578881e+001 112 81 51
2.161203e+000 -1.330947e+000 -1.561854e+001 238 209 172
1.945285e+000 -1.444710e+000 -1.560088e+001 184 153 106
1.892822e+000 -1.510752e+000 -1.578749e+001 164 119 51
2.857090e+000 -1.391563e+000 -1.607520e+001 130 100 64
3.683713e+000 -1.319253e+000 -1.624509e+001 123 90 55
2.118630e+000 -1.685319e+000 -1.592750e+001 207 171 131
3.039772e+000 -1.418251e+000 -1.613854e+001 82 51 22
3.553027e+000 -1.389517e+000 -1.626421e+001 133 100 65
3.515567e+000 -1.455179e+000 -1.637947e+001 86 55 26
4.973595e+000 -3.449180e+000 -1.635705e+001 217 181 108
4.981380e+000 -3.436377e+000 -1.635994e+001 217 181 108
2.336005e+000 -1.823929e+000 -1.636277e+001 39 23 7
3.793280e+000 -1.615596e+000 -1.674897e+001 120 87 56
3.432333e+000 -1.742408e+000 -1.673662e+001 96 66 38
3.978344e+000 -1.697140e+000 -1.694859e+001 79 43 13
2.076669e+000 -2.069633e+000 -1.658854e+001 118 86 48
3.560509e+000 -1.782993e+000 -1.690228e+001 78 47 19
3.560509e+000 -1.782993e+000 -1.690228e+001 78 47 19
4.044193e+000 -1.757611e+000 -1.700683e+001 115 82 47
5.676951e-001 -1.510702e+000 -1.657434e+001 140 61 56
3.849558e+000 -1.935216e+000 -1.723577e+001 117 82 42
2.707812e+000 -2.114199e+000 -1.703607e+001 132 100 62
3.635485e+000 -2.006843e+000 -1.721398e+001 120 87 49
3.691514e+000 -2.064283e+000 -1.728748e+001 67 36 8
3.497221e+000 -2.227613e+000 -1.741248e+001 90 57 26
9.775406e-001 -1.908420e+000 -1.707752e+001 132 70 55
3.189357e+000 -2.358710e+000 -1.741134e+001 108 78 48
3.726179e+000 -2.249604e+000 -1.754036e+001 95 61 26
3.943946e+000 -2.355403e+000 -1.767338e+001 115 81 44
1.707322e+000 -2.595151e+000 -1.719923e+001 177 135 93
-2.751813e-001 -1.763647e+000 -1.720897e+001 66 43 22
3.953473e+000 -2.546291e+000 -1.790591e+001 92 58 23
-1.471284e+000 -2.691539e+000 -1.676412e+001 107 70 57
3.260405e+000 -2.655467e+000 -1.780090e+001 103 75 44
5.614821e-001 -1.605750e+000 -1.785589e+001 125 57 50
3.047840e+000 -2.744189e+000 -1.788981e+001 80 49 18
1.736412e+000 -2.893423e+000 -1.769415e+001 141 106 66
3.376512e+000 -2.708272e+000 -1.824748e+001 70 43 16
1.996025e+000 -2.980185e+000 -1.801091e+001 60 44 21
2.779975e+000 -2.720995e+000 -1.826723e+001 94 76 52
3.820590e+000 -2.565479e+000 -1.859333e+001 65 43 19
2.896864e+000 -2.596438e+000 -1.844586e+001 77 56 29
1.218000e+000 -1.682828e+000 -1.877917e+001 133 108 78
2.686592e+000 -9.770502e-001 -1.484015e+001 49 38 22
3.724739e+000 -5.900284e-001 -1.541037e+001 115 80 49
3.500379e+000 -7.848980e-001 -1.558428e+001 127 93 55
3.346111e+000 -9.203769e-001 -1.564825e+001 130 97 60
3.709520e+000 -1.180465e+000 -1.607136e+001 124 90 52
9.260813e-001 -1.505354e+000 -1.561463e+001 127 59 50
3.237676e+000 -1.274161e+000 -1.602127e+001 88 55 24
3.676971e+000 -1.220523e+000 -1.612693e+001 106 71 38
3.091628e+000 -1.527879e+000 -1.629355e+001 73 43 15
4.263342e+000 -1.344528e+000 -1.646262e+001 96 63 28
4.148675e+000 -1.408232e+000 -1.650814e+001 108 74 37
1.225598e+000 -1.594179e+000 -1.592571e+001 139 82 60
1.943400e+000 -1.961838e+000 -1.611504e+001 104 88 62
3.404884e+000 -1.499049e+000 -1.637344e+001 114 83 55
2.123673e+000 -1.908125e+000 -1.634284e+001 99 68 39
2.543399e+000 -1.788093e+000 -1.640993e+001 47 33 15
4.062803e+000 -1.527862e+000 -1.671732e+001 115 82 49
3.331070e+000 -1.777971e+000 -1.677792e+001 75 47 18
3.331070e+000 -1.777971e+000 -1.677792e+001 75 47 18
4.606843e+000 -1.552627e+000 -1.705146e+001 90 59 18
2.000537e+000 -2.063657e+000 -1.650908e+001 189 158 119
2.973375e+000 -1.992351e+000 -1.686257e+001 112 80 45
3.406058e+000 -1.920159e+000 -1.700075e+001 70 37 8
4.370334e+000 -1.845336e+000 -1.725667e+001 138 100 53
3.537389e+000 -2.061148e+000 -1.721719e+001 119 86 53
3.133707e+000 -2.263440e+000 -1.729410e+001 79 50 18
1.872422e+000 -2.586694e+000 -1.706719e+001 150 106 62
3.620846e+000 -2.266928e+000 -1.749326e+001 132 97 62
4.812409e+000 -4.175692e+000 -1.718059e+001 153 122 62
-3.088738e-001 -1.813800e+000 -1.727339e+001 103 75 51
-2.279003e-001 -1.783790e+000 -1.726826e+001 70 47 27
1.148494e+000 -2.477125e+000 -1.726139e+001 161 106 86
1.778603e+000 -2.639210e+000 -1.730286e+001 155 114 70
3.229157e+000 -2.559795e+000 -1.767038e+001 76 49 21
3.940217e+000 -2.517891e+000 -1.783522e+001 92 59 24
3.517597e+000 -2.665556e+000 -1.795646e+001 90 57 24
8.510035e-001 -2.289167e+000 -1.787890e+001 131 75 60
3.090826e+000 -2.677972e+000 -1.833922e+001 61 38 18
3.090826e+000 -2.677972e+000 -1.833922e+001 61 38 18
3.189336e+000 -2.590928e+000 -1.847244e+001 59 37 15
2.724623e+000 -2.582436e+000 -1.845683e+001 103 83 56
3.844147e+000 -2.255519e+000 -1.892686e+001 89 67 36
2.191074e+000 -9.274210e-002 -1.444541e+001 86 72 38
2.681015e+000 -7.324784e-001 -1.462528e+001 53 41 24
2.231221e+000 -1.077972e+000 -1.535705e+001 190 160 122
4.664253e+000 -7.037215e-001 -1.599762e+001 138 102 53
3.789930e+000 -1.099647e+000 -1.606021e+001 95 61 26
3.052912e+000 -1.589467e+000 -1.636754e+001 99 68 40
1.330790e+000 -2.078080e+000 -1.631994e+001 138 77 59
3.726724e+000 -1.726127e+000 -1.683937e+001 80 49 20
1.153277e+000 -2.180043e+000 -1.642823e+001 146 80 66
1.815418e+000 -1.925665e+000 -1.655667e+001 103 46 35
-1.474021e+000 -2.752554e+000 -1.641682e+001 155 86 81
3.566187e-001 -1.168973e+000 -1.752593e+001 150 95 65
1.063197e-001 -1.498992e+000 -1.744309e+001 98 47 30
3.755912e+000 -2.596199e+000 -1.790340e+001 86 55 24
1.160581e+000 -2.412892e+000 -1.774937e+001 138 96 71
3.937461e+000 -2.647305e+000 -1.816100e+001 78 49 19
4.315388e+000 -2.613956e+000 -1.832121e+001 133 100 57
1.796991e+000 -2.869899e+000 -1.769779e+001 167 135 96
2.900705e+000 -2.728805e+000 -1.824860e+001 63 41 18
3.775395e+000 -2.509481e+000 -1.867623e+001 108 82 57
3.079063e+000 -6.763112e-001 -1.519135e+001 101 77 49
3.820123e+000 -8.749326e-001 -1.579035e+001 132 98 60
3.956243e+000 -1.075341e+000 -1.609066e+001 139 104 66
4.271019e+000 -1.058586e+000 -1.618007e+001 90 59 30
3.725389e+000 -1.459543e+000 -1.647780e+001 116 87 53
2.191729e+000 -1.791702e+000 -1.626953e+001 39 26 15
1.944067e+000 -1.947709e+000 -1.653547e+001 103 65 42
4.230607e+000 -1.864588e+000 -1.729755e+001 109 74 34
3.470340e+000 -2.090943e+000 -1.725508e+001 69 42 19
2.059431e+000 -2.361103e+000 -1.696958e+001 60 39 20
1.574451e+000 -2.357079e+000 -1.706630e+001 133 75 52
2.029684e+000 -2.530943e+000 -1.708003e+001 56 38 19
3.438809e+000 -2.364912e+000 -1.750926e+001 98 64 35
1.560809e+000 -2.426561e+000 -1.713890e+001 140 87 58
2.685495e+000 -2.631708e+000 -1.743988e+001 115 89 54
1.220627e+000 -2.439691e+000 -1.725473e+001 147 82 64
-1.454092e+000 -2.646462e+000 -1.672619e+001 69 41 32
1.237916e+000 -2.425294e+000 -1.751275e+001 164 109 82
3.494157e+000 -2.693801e+000 -1.829543e+001 102 76 43
1.939256e+000 -2.917992e+000 -1.809507e+001 59 47 25
2.658289e+000 -2.626834e+000 -1.837349e+001 59 41 19
2.658289e+000 -2.626834e+000 -1.837349e+001 59 41 19
2.745088e+000 -2.648085e+000 -1.838807e+001 103 84 54
4.398055e+000 -6.351633e-001 -1.574064e+001 144 108 71
3.871798e+000 -1.536832e+000 -1.665915e+001 121 88 53
3.351869e+000 -1.704745e+000 -1.668707e+001 116 85 54
2.120524e+000 -2.025137e+000 -1.654893e+001 39 21 7
2.611573e+000 -2.209519e+000 -1.706674e+001 151 122 84
-1.502133e-001 -1.885034e+000 -1.665378e+001 144 107 79
2.264080e+000 -2.938930e+000 -1.725143e+001 235 204 142
2.265297e+000 -2.936898e+000 -1.725302e+001 235 204 142
2.787473e+000 -2.569769e+000 -1.746915e+001 73 43 15
2.572114e+000 -2.876124e+000 -1.797985e+001 108 84 58
2.679350e+000 -2.810530e+000 -1.797941e+001 80 54 29
3.696209e+000 -7.507966e-001 -1.556209e+001 132 98 60
1.515801e+000 -1.938438e+000 -1.629568e+001 120 46 41
-1.215909e-001 -1.748625e+000 -1.724703e+001 127 82 61
-1.215909e-001 -1.748625e+000 -1.724703e+001 127 82 61
2.009081e+000 -2.754909e+000 -1.738723e+001 73 56 39
1.141734e+000 -2.318720e+000 -1.745342e+001 116 49 41
1.249954e+000 -2.346984e+000 -1.767356e+001 103 53 30
1.736252e+000 -2.919481e+000 -1.779770e+001 145 113 75
3.898316e+000 -1.249266e+000 -1.981547e+001 112 88 53
2.790800e+000 -7.355758e-001 -1.512550e+001 33 23 14
2.659096e+000 -1.536743e+000 -1.606283e+001 56 38 14
4.434175e+000 -1.398477e+000 -1.656068e+001 167 131 81
3.036758e+000 -1.819293e+000 -1.669307e+001 116 82 51
-1.004047e-001 -1.813475e+000 -1.630481e+001 151 109 75
1.132682e+000 -2.371478e+000 -1.758396e+001 154 91 75
1.132682e+000 -2.371478e+000 -1.758396e+001 154 91 75
1.368392e+000 -2.717053e+000 -1.782088e+001 184 151 107
3.283974e+000 -2.696208e+000 -1.791082e+001 117 83 48
4.029985e+000 -2.604266e+000 -1.812609e+001 93 59 30
4.421137e+000 -4.879676e-001 -1.544812e+001 113 79 41
1.344712e+000 -2.498323e+000 -1.749597e+001 111 64 36
4.002347e+000 -2.427836e+000 -1.853763e+001 84 58 29
4.250690e+000 -1.031897e+000 -1.607061e+001 93 60 27
-3.265952e-001 -1.862375e+000 -1.659069e+001 167 125 93
-3.265952e-001 -1.862375e+000 -1.659069e+001 167 125 93
9.703993e-001 -2.419435e+000 -1.742056e+001 128 60 51
2.964054e+000 -5.011094e-001 -1.488547e+001 109 85 64
4.831192e+000 -4.296971e-001 -1.566707e+001 151 118 67
2.438320e+000 -8.363140e-001 -1.537998e+001 64 44 26
2.445989e+000 -9.389884e-001 -1.539981e+001 138 120 100
4.298997e+000 -6.620293e-001 -1.576795e+001 104 70 35
1.669559e+000 -3.139925e-001 -1.536074e+001 173 92 75
4.212267e+000 -8.138659e-001 -1.594238e+001 127 94 61
1.983656e+000 -1.570104e+000 -1.572680e+001 148 110 71
2.574609e+000 -1.239714e+000 -1.591324e+001 167 145 109
2.460757e+000 -1.375188e+000 -1.592213e+001 67 53 36
3.446519e+000 -1.292990e+000 -1.614428e+001 75 46 17
1.117791e+000 -1.356223e+000 -1.578919e+001 139 73 61
1.350197e+000 -1.661313e+000 -1.582846e+001 142 86 70
1.258003e+000 -1.586658e+000 -1.599288e+001 143 80 65
1.553955e+000 -1.668109e+000 -1.601859e+001 130 65 56
1.892857e+000 -1.541280e+000 -1.612188e+001 83 69 53
4.252258e+000 -1.482799e+000 -1.668198e+001 104 74 49
1.709834e+000 -1.788565e+000 -1.626565e+001 150 77 71
3.619561e+000 -1.683145e+000 -1.676618e+001 85 55 27
3.682718e+000 -1.629836e+000 -1.683755e+001 101 71 44
2.606682e+000 -2.009559e+000 -1.675948e+001 82 58 31
3.381176e+000 -2.027765e+000 -1.706883e+001 143 110 75
1.918909e+000 -2.130020e+000 -1.681920e+001 144 96 67
2.137743e+000 -2.203047e+000 -1.690716e+001 214 194 159
3.734094e+000 -2.083517e+000 -1.733657e+001 98 63 34
3.436252e+000 -2.302752e+000 -1.746701e+001 123 90 58
-5.848348e-002 -1.902626e+000 -1.673117e+001 81 45 34
1.761004e+000 -2.638704e+000 -1.744323e+001 151 110 78
5.797555e-001 -1.829079e+000 -1.783979e+001 142 72 65
6.665260e-001 -2.222834e+000 -1.789434e+001 183 118 107
1.895131e+000 -3.038836e+000 -1.796489e+001 151 135 98
1.821021e+000 -2.914101e+000 -1.803511e+001 90 75 54
1.566748e+000 -2.264628e+000 -1.880061e+001 66 55 39
5.196407e+000 -2.065663e+000 -1.539050e+001 168 135 81
4.599973e+000 5.447068e-002 -1.497834e+001 180 143 95
5.002187e+000 -5.656298e-001 -1.516256e+001 207 175 118
2.330686e+000 -5.984400e-001 -1.477207e+001 199 165 128
2.370229e+000 -5.465595e-001 -1.485854e+001 136 103 69
4.963936e+000 8.642753e-002 -1.524053e+001 143 109 60
2.205741e+000 -6.472741e-001 -1.503848e+001 164 126 90
5.082936e+000 -3.074397e+000 -1.593114e+001 145 111 65
2.184855e+000 -7.204098e-001 -1.515808e+001 169 131 96
2.444855e+000 -7.987086e-001 -1.542974e+001 66 49 31
3.505721e+000 -8.687591e-001 -1.566731e+001 109 76 43
3.633787e+000 -7.933688e-001 -1.564661e+001 138 103 70
3.633787e+000 -7.933688e-001 -1.564661e+001 138 103 70
4.176481e+000 -8.085039e-001 -1.586828e+001 127 97 65
2.053781e+000 -1.331241e+000 -1.566865e+001 169 131 92
2.799138e+000 -1.223450e+000 -1.586736e+001 145 122 91
2.637254e+000 -1.495513e+000 -1.599987e+001 66 51 31
3.102042e+000 -1.335389e+000 -1.607055e+001 88 56 33
3.487964e+000 -1.161028e+000 -1.610578e+001 140 107 72
4.348611e+000 -1.144551e+000 -1.629346e+001 141 107 70
7.452694e-001 -1.386382e+000 -1.571305e+001 137 75 58
1.186543e+000 -1.523491e+000 -1.579387e+001 151 94 77
1.936082e+000 -1.676106e+000 -1.609044e+001 94 82 59
4.246838e+000 -1.438204e+000 -1.662940e+001 79 49 23
4.685373e+000 -1.362921e+000 -1.673305e+001 150 116 64
1.822501e+000 -1.607769e+000 -1.615448e+001 127 101 73
3.436461e+000 -1.618019e+000 -1.657455e+001 71 45 22
2.003511e+000 -1.962857e+000 -1.641382e+001 113 80 48
2.124902e+000 -1.867017e+000 -1.645436e+001 122 93 60
3.488304e+000 -1.685106e+000 -1.673360e+001 64 36 17
3.930183e+000 -1.708010e+000 -1.684092e+001 124 91 60
4.626551e+000 -1.583124e+000 -1.702370e+001 156 120 67
2.301177e+000 -1.878513e+000 -1.657332e+001 46 33 16
3.155910e+000 -1.861663e+000 -1.682539e+001 81 53 29
3.768175e+000 -1.866136e+000 -1.696154e+001 124 86 50
2.461162e+000 -2.046725e+000 -1.683615e+001 88 69 40
3.695395e+000 -2.066121e+000 -1.714546e+001 128 92 56
1.107277e+000 -2.192325e+000 -1.665771e+001 120 72 57
1.107366e+000 -2.142194e+000 -1.666209e+001 120 72 57
1.532269e+000 -2.165885e+000 -1.675847e+001 138 83 64
4.345041e+000 -1.988112e+000 -1.742959e+001 155 116 71
3.695894e+000 -2.201288e+000 -1.743435e+001 100 65 36
4.512633e+000 -2.050249e+000 -1.758336e+001 160 120 67
2.225974e+000 -2.882913e+000 -1.708534e+001 120 101 72
3.648512e+000 -2.299472e+000 -1.751978e+001 102 66 32
3.647109e+000 -2.302984e+000 -1.751903e+001 102 66 32
1.604636e+000 -2.279669e+000 -1.718666e+001 158 112 77
3.284720e+000 -2.444023e+000 -1.753273e+001 113 83 52
2.260960e+000 -3.115634e+000 -1.730716e+001 106 85 61
3.482990e+000 -2.600608e+000 -1.778254e+001 100 65 35
1.487603e-001 -1.622380e+000 -1.741021e+001 91 39 30
1.992612e+000 -2.707132e+000 -1.779224e+001 60 41 24
7.889680e-001 -2.372257e+000 -1.777163e+001 182 126 107
6.309547e-001 -1.962312e+000 -1.795360e+001 166 94 86
8.909210e-001 -2.227821e+000 -1.797776e+001 132 67 55
1.215058e+000 -2.119090e+000 -1.811457e+001 112 79 60
1.949589e+000 -3.083049e+000 -1.805239e+001 65 52 35
8.325940e-001 -2.311719e+000 -1.804038e+001 180 127 106
1.422288e+000 -2.659033e+000 -1.811008e+001 120 105 76
2.072393e+000 -2.901011e+000 -1.827038e+001 155 144 109
2.205696e+000 -3.019729e+000 -1.815345e+001 83 71 45
1.266684e+000 -2.258927e+000 -1.836973e+001 145 116 86
1.743738e+000 -2.888690e+000 -1.820254e+001 96 81 58
3.384719e+000 -2.512884e+000 -1.877302e+001 79 57 34
3.571976e+000 -2.104572e+000 -1.897013e+001 61 43 23
3.058535e+000 -2.218062e+000 -1.892662e+001 79 59 34
1.574996e+000 -2.535336e+000 -1.855074e+001 78 64 45
1.959718e+000 -2.439215e+000 -1.874708e+001 56 45 25
1.814938e+000 -2.240955e+000 -1.894021e+001 93 83 60
1.521396e+000 -2.159094e+000 -1.890279e+001 64 51 35
1.721289e+000 -2.274243e+000 -1.893225e+001 34 27 17
2.726443e+000 -6.619755e-001 -1.456171e+001 125 110 87
2.162704e+000 -1.555305e-001 -1.453008e+001 139 116 84
2.248654e+000 -1.101959e-001 -1.455172e+001 142 106 76
4.126380e+000 -1.885691e-001 -1.501672e+001 100 67 36
4.126380e+000 -1.885691e-001 -1.501672e+001 100 67 36
3.624757e+000 -4.256655e-001 -1.511202e+001 105 72 41
2.258461e+000 -6.252204e-001 -1.491232e+001 162 121 89
2.522330e+000 -7.338347e-001 -1.508111e+001 39 28 22
3.764121e+000 -5.257328e-001 -1.534247e+001 111 76 45
2.204315e+000 -8.622314e-001 -1.517055e+001 155 118 82
2.517241e+000 -8.178437e-001 -1.524287e+001 38 25 17
2.034374e+000 -9.561751e-001 -1.530949e+001 95 91 56
2.284458e+000 -9.058833e-001 -1.528699e+001 127 93 56
2.479410e+000 -9.443974e-001 -1.546425e+001 43 32 15
4.234884e+000 -6.726500e-001 -1.574990e+001 139 106 72
5.040241e+000 -2.192375e+000 -1.605781e+001 172 139 86
1.556130e+000 -1.319741e+000 -1.571658e+001 160 74 73
2.183365e+000 -1.596365e+000 -1.592337e+001 123 90 55
3.557379e+000 -1.200174e+000 -1.605792e+001 142 108 75
4.324449e+000 -1.129672e+000 -1.626253e+001 110 76 39
4.238964e+000 -1.224538e+000 -1.635921e+001 97 67 29
4.658181e+000 -1.079965e+000 -1.642954e+001 159 122 77
1.014307e+000 -1.378643e+000 -1.576485e+001 149 85 75
1.525425e+000 -1.509381e+000 -1.578713e+001 206 155 137
1.967157e+000 -1.565677e+000 -1.599517e+001 64 53 35
2.056755e+000 -1.660873e+000 -1.601849e+001 240 210 179
4.322840e+000 -1.333415e+000 -1.649884e+001 140 106 70
1.119594e+000 -1.504834e+000 -1.589506e+001 159 97 84
1.260590e+000 -1.594000e+000 -1.587755e+001 170 117 97
1.260590e+000 -1.594000e+000 -1.587755e+001 170 117 97
1.329420e+000 -1.582439e+000 -1.595952e+001 135 74 60
1.886687e+000 -1.583930e+000 -1.616098e+001 70 53 35
3.908599e+000 -1.410257e+000 -1.646157e+001 91 58 28
4.281394e+000 -1.358462e+000 -1.656669e+001 88 57 29
1.669790e+000 -1.866010e+000 -1.625524e+001 181 123 108
1.862974e+000 -1.905286e+000 -1.624948e+001 75 66 44
2.395598e+000 -1.721874e+000 -1.639842e+001 80 67 40
3.328433e+000 -1.498818e+000 -1.660741e+001 106 76 49
1.656717e+000 -1.913508e+000 -1.634519e+001 140 65 66
1.731829e+000 -1.829163e+000 -1.641064e+001 152 99 83
3.235134e+000 -1.757327e+000 -1.672457e+001 68 40 16
3.741371e+000 -1.702617e+000 -1.684005e+001 84 53 24
3.999716e+000 -1.637531e+000 -1.683508e+001 84 52 24
1.100749e+000 -2.053104e+000 -1.633631e+001 149 80 74
4.586139e+000 -1.614616e+000 -1.711586e+001 93 58 20
2.269953e+000 -2.067146e+000 -1.669854e+001 41 25 11
2.186279e+000 -2.129454e+000 -1.676985e+001 75 59 43
3.009807e+000 -2.068479e+000 -1.698590e+001 96 62 35
1.064995e+000 -2.115651e+000 -1.663182e+001 125 60 52
1.915460e+000 -2.121906e+000 -1.674543e+001 155 109 79
2.453598e+000 -2.081592e+000 -1.689340e+001 59 41 23
8.602973e-001 -1.426505e+000 -1.670146e+001 180 109 103
1.314973e+000 -2.185214e+000 -1.677744e+001 133 80 62
1.950693e+000 -2.428560e+000 -1.692379e+001 213 177 141
2.162657e+000 -2.231916e+000 -1.698370e+001 65 48 32
1.583134e+000 -2.270539e+000 -1.700484e+001 168 112 89
1.685261e+000 -2.226014e+000 -1.697745e+001 170 114 86
3.139750e+000 -2.354017e+000 -1.738249e+001 117 90 60
3.325550e+000 -2.295231e+000 -1.739680e+001 86 55 27
3.318939e+000 -2.360536e+000 -1.747682e+001 134 101 69
3.615643e+000 -2.282479e+000 -1.749003e+001 147 112 75
4.472259e+000 -2.167851e+000 -1.773714e+001 103 66 26
1.456390e+000 -2.447850e+000 -1.713045e+001 194 145 121
1.777404e+000 -2.597222e+000 -1.714278e+001 151 106 63
2.337559e+000 -2.887130e+000 -1.722420e+001 101 86 64
3.561983e+000 -2.417052e+000 -1.759448e+001 128 94 57
3.990301e+000 -2.405106e+000 -1.777645e+001 144 124 97
1.176180e+000 -2.372204e+000 -1.718427e+001 182 112 102
1.268625e+000 -2.287742e+000 -1.720794e+001 180 124 98
1.302926e+000 -2.409010e+000 -1.718451e+001 142 84 65
1.425451e+000 -2.463966e+000 -1.725740e+001 176 131 98
2.088513e+000 -2.610637e+000 -1.734857e+001 51 38 23
1.948856e+000 -2.834344e+000 -1.743773e+001 162 125 87
2.466091e+000 -2.795284e+000 -1.759492e+001 60 41 24
3.413574e+000 -2.611527e+000 -1.777830e+001 75 47 23
4.135205e-001 -1.208534e+000 -1.747355e+001 121 59 47
2.124590e+000 -2.896402e+000 -1.762983e+001 84 64 43
1.333100e+000 -2.497002e+000 -1.761485e+001 152 113 74
3.431325e+000 -2.711772e+000 -1.823684e+001 66 41 17
3.431325e+000 -2.711772e+000 -1.823684e+001 66 41 17
1.722331e+000 -2.796059e+000 -1.792566e+001 98 70 47
1.550835e+000 -2.729845e+000 -1.805121e+001 100 76 52
7.672293e-001 -2.076214e+000 -1.801842e+001 145 87 68
8.631559e-001 -2.283267e+000 -1.802367e+001 125 61 49
1.956598e+000 -2.962903e+000 -1.813979e+001 64 53 33
1.983033e+000 -2.969823e+000 -1.815498e+001 92 82 57
2.117389e+000 -2.943642e+000 -1.816799e+001 145 131 101
2.631437e+000 -2.669599e+000 -1.839908e+001 59 38 17
2.685523e+000 -2.557633e+000 -1.848466e+001 69 49 25
3.041366e+000 -2.445167e+000 -1.861521e+001 92 72 47
1.406020e+000 -2.435919e+000 -1.833920e+001 110 83 53
1.867448e+000 -2.953458e+000 -1.826653e+001 62 49 33
2.076776e+000 -2.984075e+000 -1.826814e+001 96 82 56
2.668631e+000 -2.326659e+000 -1.864139e+001 66 46 22
2.790128e+000 -2.608382e+000 -1.858010e+001 76 56 32
3.330246e+000 -2.302113e+000 -1.890091e+001 76 54 30
3.672963e+000 -2.348728e+000 -1.894431e+001 67 46 19
1.602361e+000 -2.578332e+000 -1.846180e+001 146 118 94
1.738922e+000 -2.793125e+000 -1.839912e+001 49 37 21
1.939559e+000 -2.550666e+000 -1.864691e+001 52 42 27
2.052820e+000 -2.553131e+000 -1.864585e+001 113 98 72
2.922188e+000 -2.128273e+000 -1.901554e+001 60 42 22
1.032348e+000 -1.629073e+000 -1.889103e+001 95 79 52
3.436294e+000 -6.689182e-002 -1.474770e+001 130 94 62
5.019232e+000 -5.964108e-001 -1.516195e+001 208 176 119
4.635047e+000 -3.034395e-001 -1.520302e+001 177 141 95
2.261952e+000 -8.369101e-001 -1.509544e+001 212 178 141
4.328634e+000 -9.688387e-001 -1.611388e+001 142 110 76
1.161822e+000 -1.512194e+000 -1.566438e+001 148 64 58
1.944651e+000 -1.564099e+000 -1.577435e+001 169 136 101
8.084496e-001 -1.431697e+000 -1.574963e+001 156 97 77
2.138820e+000 -1.556798e+000 -1.593352e+001 224 190 155
4.218541e+000 -1.368264e+000 -1.651019e+001 144 111 78
6.769960e-001 -1.276884e+000 -1.579604e+001 177 113 104
3.227196e+000 -1.581071e+000 -1.644210e+001 80 52 27
1.749980e+000 -1.727034e+000 -1.619194e+001 162 99 93
1.749884e+000 -1.720551e+000 -1.619113e+001 162 99 93
3.245954e+000 -1.673502e+000 -1.650201e+001 122 96 69
3.713798e+000 -1.559896e+000 -1.660932e+001 79 49 22
1.335146e+000 -1.828113e+000 -1.618908e+001 158 102 79
2.061536e+000 -1.939861e+000 -1.638017e+001 101 70 42
3.572629e+000 -1.749689e+000 -1.683161e+001 79 49 22
4.301582e+000 -1.631361e+000 -1.693681e+001 124 85 46
1.667761e+000 -2.041220e+000 -1.661431e+001 183 121 109
1.667761e+000 -2.041220e+000 -1.661431e+001 183 121 109
1.991814e+000 -2.117519e+000 -1.667808e+001 215 183 147
3.702410e+000 -1.926972e+000 -1.704261e+001 137 103 66
-3.209144e-001 -1.775967e+000 -1.629139e+001 175 140 110
1.592724e+000 -2.249920e+000 -1.679560e+001 154 94 86
1.956999e+000 -2.262621e+000 -1.678576e+001 158 114 77
3.687634e+000 -2.019958e+000 -1.722551e+001 92 60 34
3.192547e+000 -2.142950e+000 -1.721428e+001 87 55 27
3.199058e+000 -2.131261e+000 -1.721678e+001 87 55 27
3.665002e+000 -2.186407e+000 -1.742374e+001 130 94 64
3.440512e+000 -2.264231e+000 -1.737904e+001 91 59 31
3.540304e+000 -2.276442e+000 -1.744909e+001 93 59 32
2.117740e+000 -2.767308e+000 -1.727400e+001 34 22 10
3.166911e+000 -2.382093e+000 -1.744241e+001 83 53 28
4.034471e+000 -2.358647e+000 -1.774695e+001 84 53 25
3.584123e+000 -2.491416e+000 -1.769232e+001 103 68 36
4.246560e+000 -2.579347e+000 -1.793189e+001 137 99 55
3.332359e+000 -2.645368e+000 -1.777083e+001 70 42 21
2.316705e+000 -2.981884e+000 -1.769140e+001 27 20 14
1.061188e+000 -2.417235e+000 -1.764607e+001 121 58 51
1.432498e+000 -2.643602e+000 -1.774250e+001 125 90 52
1.425762e+000 -2.713345e+000 -1.772340e+001 125 90 52
2.194489e+000 -3.005078e+000 -1.784320e+001 62 50 33
3.437389e+000 -2.687406e+000 -1.819774e+001 99 72 45
1.100157e+000 -2.274966e+000 -1.797839e+001 134 98 73
1.097252e+000 -2.424647e+000 -1.793722e+001 134 98 73
1.171702e+000 -2.177642e+000 -1.804790e+001 123 87 69
2.013882e+000 -2.900953e+000 -1.812836e+001 87 76 56
2.158673e+000 -2.960981e+000 -1.805794e+001 213 196 144
3.715182e+000 -2.538361e+000 -1.861343e+001 68 46 22
2.723411e+000 -2.575816e+000 -1.852090e+001 68 47 26
2.723411e+000 -2.575816e+000 -1.852090e+001 68 47 26
3.505116e+000 -2.475183e+000 -1.865556e+001 75 50 28
3.506132e+000 -2.471033e+000 -1.865662e+001 75 50 28
3.613985e+000 -2.540540e+000 -1.872974e+001 84 63 36
1.675075e+000 -2.742833e+000 -1.828447e+001 49 33 20
2.595337e+000 -2.293948e+000 -1.868846e+001 108 89 63
2.010473e+000 -2.601731e+000 -1.859558e+001 62 52 32
1.126544e+000 -2.019313e+000 -1.860781e+001 84 71 52
1.558687e+000 -2.428384e+000 -1.857394e+001 146 123 93
1.634887e+000 -2.577004e+000 -1.858970e+001 49 37 21
1.052162e+000 -1.744047e+000 -1.880843e+001 133 109 78
1.149869e+000 -2.130465e+000 -1.867352e+001 74 62 44
1.190504e+000 -1.965256e+000 -1.887165e+001 117 92 66
1.782350e+000 -2.223747e+000 -1.897034e+001 27 21 14
3.176158e+000 -2.150071e-001 -1.474479e+001 164 136 104
3.638345e+000 -3.719611e-001 -1.501647e+001 155 121 84
3.638080e+000 -3.730625e-001 -1.501657e+001 155 121 84
1.771728e+000 -1.059479e+000 -1.571064e+001 178 135 107
1.900356e+000 -1.474935e+000 -1.573244e+001 140 93 45
2.142951e+000 -1.531851e+000 -1.585282e+001 201 171 135
4.247362e+000 -1.301060e+000 -1.635804e+001 97 65 36
3.277403e+000 -1.535869e+000 -1.636948e+001 109 83 54
4.886048e-001 -7.593063e-001 -1.584089e+001 204 152 122
1.846401e+000 -1.696182e+000 -1.621181e+001 48 36 20
1.742180e+000 -1.918141e+000 -1.630103e+001 172 134 102
4.660034e+000 -1.564024e+000 -1.697535e+001 154 119 63
8.126532e-001 -1.495655e+000 -1.678097e+001 175 102 98
2.307592e+000 -2.888738e+000 -1.705206e+001 92 73 56
3.528051e+000 -2.192543e+000 -1.736241e+001 118 85 54
3.527814e+000 -2.192259e+000 -1.736225e+001 118 85 54
1.893095e+000 -2.512353e+000 -1.704774e+001 162 120 80
7.607722e-001 -1.586639e+000 -1.699060e+001 181 104 103
2.206396e+000 -2.944622e+000 -1.734352e+001 77 59 42
2.399607e+000 -3.074664e+000 -1.741608e+001 61 43 24
2.944739e+000 -2.627252e+000 -1.758019e+001 71 43 21
1.083458e+000 -2.495197e+000 -1.720204e+001 168 110 98
2.232771e+000 -3.093366e+000 -1.741048e+001 51 41 26
-1.573171e+000 -2.671520e+000 -1.675603e+001 120 64 64
-4.013735e-001 -1.805558e+000 -1.735096e+001 136 106 79
1.560059e+000 -2.798344e+000 -1.780308e+001 146 110 72
3.655446e+000 -2.527419e+000 -1.862294e+001 61 39 18
1.383832e+000 -2.493646e+000 -1.809862e+001 92 83 54
1.869136e+000 -2.985209e+000 -1.816938e+001 53 42 23
2.818219e+000 -2.555545e+000 -1.848968e+001 72 51 30
3.098588e+000 -2.556078e+000 -1.855268e+001 97 77 52
3.044427e+000 -2.721141e+000 -1.849104e+001 97 77 52
3.429857e+000 -2.396912e+000 -1.871652e+001 103 81 57
1.668920e+000 -2.747680e+000 -1.833502e+001 113 90 70
2.703615e+000 -2.407112e+000 -1.862308e+001 103 83 58
3.386133e+000 -2.404049e+000 -1.884938e+001 98 76 52
1.316515e+000 -2.120777e+000 -1.855752e+001 166 135 106
2.442243e+000 -2.097704e+000 -1.878252e+001 75 55 31
2.978037e+000 -2.152460e+000 -1.901896e+001 115 91 63
1.233652e+000 -2.150363e+000 -1.871649e+001 98 76 52
1.754427e+000 -2.222099e+000 -1.891077e+001 85 74 53
1.906250e+000 -2.388419e+000 -1.879060e+001 66 53 37
4.041441e+000 -3.405057e-001 -1.515275e+001 99 68 34
2.105740e+000 -1.261397e+000 -1.542468e+001 81 68 41
2.656374e+000 -8.456857e-001 -1.544410e+001 177 157 123
2.198095e+000 -1.202248e+000 -1.549145e+001 203 176 147
2.566707e+000 -1.312613e+000 -1.572542e+001 101 77 47
3.397339e+000 -1.283746e+000 -1.611179e+001 145 111 74
4.378261e+000 -1.127495e+000 -1.623509e+001 125 91 54
2.253004e+000 -1.512351e+000 -1.598925e+001 66 50 34
2.222367e+000 -1.640222e+000 -1.611235e+001 49 34 23
1.533045e+000 -1.800889e+000 -1.617840e+001 122 45 45
5.066527e-001 -1.005568e+000 -1.610619e+001 141 63 53
5.725809e-001 -9.336830e-001 -1.615957e+001 169 94 90
2.149115e+000 -1.892055e+000 -1.640100e+001 44 25 18
2.143572e+000 -1.910870e+000 -1.655796e+001 51 29 19
3.928859e+000 -1.807770e+000 -1.701004e+001 148 112 78
5.490083e-001 -1.090812e+000 -1.635998e+001 129 61 52
2.111237e+000 -2.044593e+000 -1.670962e+001 50 28 16
2.111237e+000 -2.044593e+000 -1.670962e+001 50 28 16
5.477001e-001 -1.413528e+000 -1.651755e+001 151 67 67
2.081880e+000 -2.226176e+000 -1.684875e+001 71 50 28
1.940695e+000 -2.470499e+000 -1.696933e+001 214 184 147
2.912396e+000 -2.421531e+000 -1.737264e+001 73 45 25
1.992139e+000 -2.693360e+000 -1.722487e+001 59 37 20
2.231835e+000 -3.082686e+000 -1.734081e+001 217 184 131
2.247762e+000 -3.008848e+000 -1.735707e+001 217 184 131
1.921529e+000 -2.854543e+000 -1.758449e+001 73 43 24
2.003007e+000 -2.787986e+000 -1.760598e+001 207 179 134
3.553212e-001 -1.157689e+000 -1.752599e+001 158 101 75
1.446378e+000 -2.695415e+000 -1.757943e+001 138 99 48
3.692466e+000 -2.671770e+000 -1.814583e+001 84 54 26
3.386945e+000 -2.691424e+000 -1.825191e+001 69 44 22
4.233858e+000 -2.572692e+000 -1.863265e+001 129 100 66
7.398664e-001 -2.196722e+000 -1.788769e+001 148 69 62
1.302251e+000 -2.438506e+000 -1.817445e+001 71 59 40
1.638089e+000 -2.603062e+000 -1.815827e+001 161 138 112
3.400747e+000 -2.463953e+000 -1.861891e+001 78 54 30
3.409419e+000 -2.443406e+000 -1.862680e+001 78 54 30
1.919110e+000 -2.951855e+000 -1.825226e+001 81 71 50
2.514119e+000 -2.363573e+000 -1.860448e+001 71 52 28
1.309476e+000 -2.207679e+000 -1.841526e+001 151 120 89
3.255142e+000 -2.306640e+000 -1.890843e+001 108 87 58
3.622255e+000 -2.212377e+000 -1.903552e+001 55 36 13
2.637300e+000 -2.142154e+000 -1.894175e+001 99 79 55
2.738066e+000 -2.136001e+000 -1.899965e+001 60 43 27
4.075281e+000 -2.813388e+000 -1.936255e+001 69 62 54
3.650213e+000 -5.329176e-001 -1.523440e+001 105 76 44
1.981519e+000 -1.961319e+000 -1.616317e+001 86 58 41
2.487684e+000 -1.818663e+000 -1.644995e+001 255 247 198
1.024559e+000 -2.027614e+000 -1.641629e+001 127 72 58
3.396863e+000 -2.007291e+000 -1.710214e+001 129 96 61
3.051893e+000 -2.156909e+000 -1.715362e+001 74 44 20
3.051012e+000 -2.165716e+000 -1.715269e+001 74 44 20
1.924561e+000 -2.563082e+000 -1.710795e+001 214 183 147
2.121321e+000 -2.817393e+000 -1.734066e+001 84 65 47
2.855220e+000 -2.693003e+000 -1.761373e+001 114 83 52
3.094806e+000 -2.653429e+000 -1.772832e+001 89 57 32
-1.556807e+000 -2.732929e+000 -1.666406e+001 148 90 88
1.320931e+000 -2.394198e+000 -1.743397e+001 113 57 31
1.446975e+000 -2.603345e+000 -1.745491e+001 111 68 33
1.509377e+000 -2.842494e+000 -1.751170e+001 190 156 115
1.785542e+000 -2.890754e+000 -1.818106e+001 105 93 67
1.947416e+000 -2.942617e+000 -1.818550e+001 89 78 56
3.593749e+000 -2.442504e+000 -1.872042e+001 105 84 57
1.414650e+000 -2.488084e+000 -1.827914e+001 104 77 54
1.573324e+000 -2.488780e+000 -1.828168e+001 137 116 89
2.174806e+000 -5.202482e-001 -1.498405e+001 152 102 62
3.879187e+000 -4.503103e-001 -1.527228e+001 145 111 75
1.621963e+000 -1.402306e+000 -1.585602e+001 123 43 42
4.898449e+000 -3.613035e+000 -1.667272e+001 150 118 67
1.722456e+000 -1.622500e+000 -1.609854e+001 120 50 48
2.622361e+000 -1.719593e+000 -1.625626e+001 59 47 26
2.614676e+000 -1.747087e+000 -1.640196e+001 60 43 25
2.436027e+000 -2.003437e+000 -1.664020e+001 190 161 115
2.601470e-001 -1.559414e+000 -1.631746e+001 84 45 38
1.362992e+000 -2.208640e+000 -1.664522e+001 164 101 91
3.294365e+000 -2.233288e+000 -1.732313e+001 122 87 57
1.482194e+000 -2.343972e+000 -1.702520e+001 115 45 33
1.662318e+000 -2.360162e+000 -1.709038e+001 189 145 110
3.389727e+000 -2.616147e+000 -1.777526e+001 72 44 17
1.145485e+000 -2.382102e+000 -1.743909e+001 118 52 47
-1.686835e-002 -1.568327e+000 -1.742034e+001 79 49 39
2.162798e+000 -2.955064e+000 -1.769885e+001 22 15 12
3.932713e+000 -2.708517e+000 -1.852791e+001 84 59 33
2.216129e+000 -2.891203e+000 -1.808285e+001 109 95 61
3.172159e+000 -2.581465e+000 -1.847565e+001 58 39 22
3.172159e+000 -2.581465e+000 -1.847565e+001 58 39 22
2.195859e+000 -3.153422e+000 -1.811769e+001 69 57 35
2.891165e+000 -2.523594e+000 -1.849125e+001 80 58 34
1.496639e+000 -2.222436e+000 -1.845141e+001 150 127 98
3.021326e+000 -5.814806e-001 -1.507841e+001 93 68 48
3.881387e+000 -1.105164e+000 -1.611401e+001 147 114 73
3.814202e+000 -1.826733e+000 -1.690823e+001 144 110 73
1.817010e+000 -1.978037e+000 -1.671201e+001 98 51 36
2.552683e+000 -1.972600e+000 -1.676637e+001 77 62 36
7.151320e-001 -1.481934e+000 -1.668030e+001 145 64 63
2.370077e+000 -2.872336e+000 -1.717003e+001 41 31 21
-3.478849e-001 -1.790990e+000 -1.710909e+001 132 97 77
4.401104e+000 -2.830143e+000 -1.834438e+001 150 117 63
1.597344e+000 -2.601743e+000 -1.794519e+001 91 63 41
2.977541e+000 -2.657259e+000 -1.839281e+001 99 77 54
2.954568e+000 -2.741579e+000 -1.836405e+001 99 77 54
1.707210e+000 -2.606470e+000 -1.825388e+001 52 32 23
2.812175e+000 -2.099633e+000 -1.898296e+001 66 51 32
9.112326e-001 -1.739303e+000 -1.672482e+001 170 101 94
1.325203e+000 -2.470972e+000 -1.803221e+001 55 49 33
2.674125e+000 -2.750308e+000 -1.819266e+001 53 34 17
1.902438e+000 -1.608029e+000 -1.612459e+001 68 55 37
1.655506e+000 -2.461092e+000 -1.717546e+001 178 128 74
8.484325e-001 -2.228801e+000 -1.712213e+001 188 113 106
4.069842e+000 -2.262958e+000 -1.832192e+001 96 66 38
3.354971e+000 -1.489808e+000 -1.663937e+001 97 67 39
1.407012e+000 -2.274573e+000 -1.678365e+001 111 55 42
4.289910e+000 -2.245113e+000 -1.911929e+001 88 69 36
1.344701e+000 -1.899376e+000 -1.605604e+001 153 96 77
1.763222e+000 -2.663171e+000 -1.721152e+001 149 107 69
4.393845e+000 -1.271425e+000 -1.649716e+001 88 54 21
1.988568e+000 -2.103248e+000 -1.657331e+001 229 199 162
1.985949e+000 -2.118086e+000 -1.656925e+001 229 199 162
1.673373e+000 -2.111003e+000 -1.670084e+001 157 100 81
3.986087e+000 -1.853899e+000 -1.710398e+001 118 85 52
7.742961e-001 -1.292019e+000 -1.676667e+001 127 54 48
1.405028e+000 -2.437594e+000 -1.710869e+001 192 145 118
3.997696e+000 -1.836802e+000 -2.041351e+001 107 79 40
4.788287e+000 -4.080636e+000 -1.684933e+001 226 187 117
4.014526e+000 -8.663627e-001 -1.587775e+001 108 77 48
3.483467e+000 -2.031786e+000 -1.710475e+001 76 46 18
2.981327e+000 -2.767850e+000 -1.805545e+001 66 42 19
1.033584e+000 -1.469989e+000 -1.573533e+001 126 60 47
3.518744e+000 -1.522830e+000 -1.645937e+001 96 70 44
4.161103e+000 -1.824911e+000 -1.718989e+001 92 57 23
-1.912742e-001 -1.810819e+000 -1.717855e+001 73 42 22
3.385768e+000 -2.699706e+000 -1.819466e+001 81 54 26
8.296158e-001 -2.141392e+000 -1.809445e+001 180 127 103
5.968671e-001 -1.864327e+000 -1.791032e+001 186 120 104
4.065336e+000 -1.087320e+000 -1.613849e+001 123 89 51
2.936818e+000 -1.930452e+000 -1.679045e+001 80 49 20
3.407063e+000 -1.920022e+000 -1.700117e+001 70 37 8
-1.554866e+000 -2.714671e+000 -1.664489e+001 145 84 79
-1.554866e+000 -2.714671e+000 -1.664489e+001 145 84 79
3.232581e+000 -2.675390e+000 -1.787163e+001 93 62 31
3.838701e+000 -1.322130e+000 -1.632578e+001 149 115 77
5.027238e+000 -2.028003e+000 -1.527691e+001 181 146 92
2.629307e+000 -9.430688e-001 -1.483491e+001 101 87 67
2.242399e+000 -9.188282e-001 -1.517479e+001 241 209 171
4.072902e+000 -6.824584e-001 -1.571493e+001 89 57 32
4.072902e+000 -6.824584e-001 -1.571493e+001 89 57 32
4.899670e+000 -1.434638e+000 -1.597080e+001 144 111 58
4.867665e+000 -1.531606e+000 -1.599859e+001 179 146 92
4.153535e+000 -7.627779e-001 -1.585923e+001 87 56 27
2.341394e+000 -1.435541e+000 -1.583051e+001 67 51 33
3.341779e+000 -1.492432e+000 -1.639083e+001 95 64 35
3.276692e+000 -1.826628e+000 -1.677647e+001 116 87 57
3.675329e+000 -1.814933e+000 -1.693657e+001 119 88 60
3.887655e+000 -1.783847e+000 -1.699427e+001 130 92 55
3.457053e+000 -2.050363e+000 -1.718856e+001 98 68 42
3.952861e+000 -1.989522e+000 -1.724209e+001 119 85 50
3.952861e+000 -1.989522e+000 -1.724209e+001 119 85 50
7.994556e-001 -2.060691e+000 -1.802424e+001 158 103 78
1.385508e+000 -1.969165e+000 -1.850598e+001 112 85 55
3.084549e+000 -1.753960e+000 -1.912926e+001 80 59 32
2.596161e+000 -1.507034e+000 -1.924855e+001 74 54 34
1.354377e+000 -1.597048e+000 -1.896926e+001 133 112 89
2.910944e+000 -1.297253e+000 -1.950579e+001 119 94 68
5.088106e+000 -1.307017e+000 -1.486554e+001 217 184 130
5.089061e+000 -1.314296e+000 -1.490216e+001 187 156 101
2.319274e+000 -4.973996e-001 -1.460928e+001 226 193 158
5.012687e+000 -2.387959e+000 -1.555912e+001 194 161 107
2.523604e+000 -6.380096e-001 -1.496121e+001 135 117 100
2.052808e+000 -1.278371e+000 -1.539808e+001 122 113 78
2.240412e+000 -1.124277e+000 -1.540619e+001 131 101 68
2.315513e+000 -1.058849e+000 -1.535592e+001 62 40 20
2.863044e+000 -8.212684e-001 -1.545198e+001 159 135 111
2.389450e+000 -1.093136e+000 -1.551966e+001 60 45 26
4.209371e+000 -1.111540e+000 -1.618853e+001 91 60 31
4.206570e+000 -1.118947e+000 -1.618787e+001 91 60 31
1.909612e+000 -1.508390e+000 -1.592999e+001 147 101 61
2.758701e+000 -1.459973e+000 -1.606521e+001 146 119 90
2.746805e+000 -1.519715e+000 -1.613937e+001 155 128 98
3.456212e+000 -1.360652e+000 -1.621246e+001 116 85 59
3.495414e+000 -1.446900e+000 -1.628275e+001 100 66 38
4.133779e+000 -1.289410e+000 -1.642919e+001 98 64 27
1.534269e+000 -1.734606e+000 -1.599761e+001 166 108 91
2.095143e+000 -1.819018e+000 -1.614499e+001 175 144 115
3.312610e+000 -1.608535e+000 -1.647608e+001 72 42 18
4.043264e+000 -1.506613e+000 -1.663721e+001 111 80 52
4.389047e+000 -1.192469e+000 -1.661843e+001 112 81 51
4.246504e+000 -1.439854e+000 -1.662957e+001 79 49 23
2.979737e+000 -1.705645e+000 -1.652666e+001 77 51 26
3.515432e+000 -1.660790e+000 -1.665175e+001 69 42 20
4.260948e+000 -1.496107e+000 -1.671756e+001 79 49 25
2.238237e+000 -1.948040e+000 -1.649713e+001 71 53 35
3.570273e+000 -1.694169e+000 -1.675027e+001 84 54 28
3.666559e+000 -1.683722e+000 -1.679632e+001 85 54 26
3.404762e+000 -1.883314e+000 -1.692156e+001 79 49 23
3.790230e+000 -1.797336e+000 -1.693971e+001 116 82 45
3.990123e+000 -1.669873e+000 -1.694991e+001 79 48 19
3.818316e+000 -1.815801e+000 -1.698905e+001 144 109 72
4.375011e+000 -1.863630e+000 -1.734065e+001 151 113 68
3.363801e+000 -2.247536e+000 -1.734352e+001 103 70 38
3.771745e+000 -2.136608e+000 -1.741382e+001 122 87 55
-3.447517e-002 -1.884101e+000 -1.667537e+001 122 69 56
-5.705795e-002 -1.895279e+000 -1.670068e+001 79 43 32
3.212770e+000 -2.314917e+000 -1.735651e+001 119 88 59
3.618154e+000 -2.240778e+000 -1.745544e+001 106 70 41
3.004539e+000 -2.482468e+000 -1.743857e+001 92 63 33
4.027051e+000 -2.311943e+000 -1.769501e+001 111 77 49
1.801006e+000 -2.643532e+000 -1.725087e+001 168 125 86
3.809408e+000 -2.567643e+000 -1.791263e+001 126 92 57
3.777330e+000 -2.606407e+000 -1.794734e+001 89 60 28
3.925195e+000 -2.581361e+000 -1.856599e+001 71 44 23
4.301238e+000 -2.436463e+000 -1.872465e+001 114 90 59
1.501555e+000 -2.532873e+000 -1.810265e+001 99 81 55
1.614650e+000 -2.543411e+000 -1.823947e+001 92 70 47
1.858505e+000 -2.893639e+000 -1.817521e+001 86 74 52
2.137965e+000 -2.924699e+000 -1.820821e+001 87 73 46
2.628124e+000 -2.624660e+000 -1.836487e+001 60 39 18
1.328135e+000 -2.086942e+000 -1.831121e+001 73 58 35
4.022263e+000 -1.219539e+000 -1.966339e+001 72 52 30
1.310428e+000 -1.667320e+000 -1.888075e+001 141 117 91
1.694757e+000 -2.158837e+000 -1.881006e+001 65 57 38
1.777641e+000 -1.698540e+000 -1.912588e+001 79 72 54
2.529086e+000 -7.124544e-001 -1.515887e+001 53 40 25
4.004673e+000 -6.419367e-001 -1.557106e+001 134 101 70
4.467699e+000 -5.905081e-001 -1.567384e+001 137 105 66
4.488933e+000 -5.421253e-001 -1.567065e+001 137 105 66
2.178450e+000 -1.100218e+000 -1.533852e+001 130 96 61
3.932492e+000 -6.957347e-001 -1.565918e+001 127 93 64
3.927831e+000 -9.194543e-001 -1.590523e+001 95 64 35
4.195986e+000 -9.312701e-001 -1.601084e+001 144 111 77
2.193406e+000 -1.511050e+000 -1.580707e+001 115 79 46
3.483894e+000 -1.222999e+000 -1.607315e+001 116 81 49
4.156623e+000 -1.178722e+000 -1.625529e+001 100 70 36
4.059832e+000 -1.244475e+000 -1.625950e+001 132 98 61
4.209302e+000 -1.145371e+000 -1.628980e+001 89 54 22
1.826989e+000 -1.261292e+000 -1.583903e+001 156 96 45
2.320887e+000 -1.647959e+000 -1.610085e+001 60 44 27
4.357660e+000 -1.215783e+000 -1.642725e+001 133 98 63
3.536109e+000 -1.461245e+000 -1.640463e+001 124 93 62
3.698781e+000 -1.551927e+000 -1.655627e+001 113 82 53
1.755581e+000 -1.842962e+000 -1.623206e+001 65 49 31
1.752128e+000 -1.866207e+000 -1.623198e+001 65 49 31
3.650209e+000 -1.568256e+000 -1.657688e+001 80 50 24
2.026386e+000 -2.035077e+000 -1.647923e+001 134 102 71
3.805622e+000 -1.592385e+000 -1.675009e+001 125 92 61
3.928260e+000 -1.642593e+000 -1.682077e+001 76 47 17
3.994244e+000 -1.652151e+000 -1.683520e+001 84 52 24
1.844690e+000 -1.927727e+000 -1.648747e+001 139 84 71
2.106815e+000 -2.071338e+000 -1.657550e+001 45 22 17
4.581706e+000 -1.666427e+000 -1.722396e+001 102 67 27
4.256966e+000 -1.766886e+000 -1.716010e+001 112 77 37
2.240143e+000 -2.173339e+000 -1.685439e+001 43 28 12
3.555007e+000 -2.324151e+000 -1.752168e+001 108 74 39
3.664814e+000 -2.327845e+000 -1.753908e+001 142 106 71
1.823358e+000 -2.542281e+000 -1.713296e+001 188 145 103
1.823358e+000 -2.542281e+000 -1.713296e+001 188 145 103
3.427569e+000 -2.334915e+000 -1.753958e+001 95 61 33
3.569734e+000 -2.397132e+000 -1.759851e+001 128 94 57
3.608601e+000 -2.406828e+000 -1.761678e+001 99 64 32
3.612162e+000 -2.398950e+000 -1.761891e+001 99 64 32
3.652343e+000 -2.409039e+000 -1.762351e+001 110 76 41
3.759510e+000 -2.332788e+000 -1.762244e+001 97 63 28
1.781595e+000 -2.657538e+000 -1.741216e+001 163 122 91
3.056782e+000 -2.722143e+000 -1.789311e+001 82 52 24
8.524922e-002 -1.438367e+000 -1.747202e+001 85 43 31
8.524922e-002 -1.438367e+000 -1.747202e+001 85 43 31
3.409241e+000 -2.711815e+000 -1.805903e+001 105 77 47
2.038822e+000 -2.954144e+000 -1.804337e+001 85 69 50
3.881577e+000 -2.560654e+000 -1.858868e+001 66 44 21
3.568382e+000 -2.292266e+000 -1.880800e+001 67 45 19
1.439170e+000 -2.089192e+000 -1.848526e+001 125 97 75
3.354849e+000 -1.813188e+000 -1.914091e+001 91 67 41
1.345921e+000 -1.730183e+000 -1.883093e+001 150 129 102
1.346350e+000 -1.737990e+000 -1.883096e+001 150 129 102
5.031061e+000 -2.943510e+000 -1.564035e+001 153 121 72
2.045243e+000 1.975089e-001 -1.463805e+001 44 40 37
3.114159e+000 -7.633149e-001 -1.535661e+001 68 43 23
3.658291e+000 -8.426803e-001 -1.569016e+001 111 76 44
2.107475e+000 -1.486655e+000 -1.572836e+001 157 112 74
4.084113e+000 -1.036495e+000 -1.609104e+001 98 67 37
4.327609e+000 -9.735336e-001 -1.611403e+001 142 110 76
1.183700e+000 -1.578773e+000 -1.571287e+001 186 137 109
3.097595e+000 -1.305467e+000 -1.602589e+001 112 81 53
4.415280e+000 -1.102981e+000 -1.627944e+001 118 83 43
4.015662e+000 -1.449016e+000 -1.647450e+001 143 111 72
4.224652e+000 -1.352485e+000 -1.650951e+001 144 111 78
3.726863e+000 -1.607221e+000 -1.666320e+001 120 89 58
4.086778e+000 -1.486858e+000 -1.666371e+001 97 64 36
3.538517e+000 -1.714328e+000 -1.669448e+001 111 81 53
4.422190e+000 -1.663593e+000 -1.693977e+001 142 103 60
2.058607e+000 -2.028979e+000 -1.650057e+001 118 84 54
2.935711e+000 -1.888163e+000 -1.672924e+001 122 89 59
6.052012e-001 -1.385719e+000 -1.656040e+001 193 109 109
3.743141e+000 -2.130206e+000 -1.738468e+001 89 54 23
3.963822e+000 -2.295953e+000 -1.761978e+001 96 62 34
1.740403e+000 -2.619532e+000 -1.716998e+001 183 146 104
1.723917e+000 -2.632778e+000 -1.744351e+001 170 129 97
2.350658e+000 -2.899160e+000 -1.762371e+001 31 21 15
3.199535e+000 -2.749924e+000 -1.795420e+001 119 88 57
2.649812e+000 -2.491380e+000 -1.849100e+001 95 75 50
2.415363e+000 -1.952840e+000 -1.884593e+001 71 53 30
2.542889e+000 -2.103410e+000 -1.876940e+001 94 74 49
2.548736e+000 -1.377878e+000 -1.934984e+001 80 62 38
2.230829e+000 -4.137402e-001 -1.482542e+001 187 148 117
2.222677e+000 -4.492643e-001 -1.482997e+001 187 148 117
2.034180e+000 -6.947343e-001 -1.516941e+001 144 96 60
3.539486e+000 -8.823998e-001 -1.566904e+001 99 68 37
3.235617e+000 -1.148876e+000 -1.588696e+001 136 103 72
3.397373e+000 -1.060867e+000 -1.588664e+001 139 106 73
3.388685e+000 -1.088198e+000 -1.588942e+001 139 106 73
4.122221e+000 -1.012697e+000 -1.602892e+001 136 103 69
4.122221e+000 -1.012697e+000 -1.602892e+001 136 103 69
4.191035e+000 -1.061735e+000 -1.612577e+001 123 91 56
4.191035e+000 -1.061735e+000 -1.612577e+001 123 91 56
3.897831e+000 -1.265811e+000 -1.627216e+001 98 63 31
3.893058e+000 -1.282422e+000 -1.627362e+001 98 63 31
3.539976e+000 -2.078623e+000 -1.723133e+001 129 96 63
3.526978e+000 -2.508747e+000 -1.764476e+001 102 66 32
1.821265e+000 -2.843188e+000 -1.752579e+001 140 102 66
-1.569846e+000 -2.681209e+000 -1.675846e+001 120 64 64
2.195934e+000 -2.863992e+000 -1.818560e+001 67 56 31
3.587730e+000 -2.176949e+000 -1.890122e+001 103 81 56
1.950785e+000 -2.200146e+000 -1.872819e+001 87 76 56
4.647081e+000 -3.535247e-001 -1.537400e+001 168 131 86
4.866245e+000 -4.466913e-001 -1.561353e+001 161 125 71
4.393307e+000 -6.497660e-001 -1.574275e+001 151 117 79
3.920896e+000 -8.612935e-001 -1.586941e+001 96 65 36
4.853629e+000 -3.882903e+000 -1.677190e+001 230 191 126
1.303939e+000 -1.661926e+000 -1.605767e+001 133 63 55
3.399464e+000 -1.849582e+000 -1.689035e+001 89 59 33
1.035128e+000 -2.044233e+000 -1.657170e+001 168 115 97
1.496526e+000 -2.207498e+000 -1.665866e+001 160 92 86
1.303821e+000 -2.227302e+000 -1.676254e+001 136 84 65
4.268340e+000 -2.057562e+000 -1.749056e+001 173 136 91
-1.480022e+000 -2.615664e+000 -1.624774e+001 142 78 69
3.374929e+000 -2.359188e+000 -1.746460e+001 125 92 59
3.374929e+000 -2.359188e+000 -1.746460e+001 125 92 59
1.555837e+000 -2.435495e+000 -1.713801e+001 146 95 68
2.254880e+000 -2.929883e+000 -1.716610e+001 31 26 15
2.740932e+000 -2.702416e+000 -1.759513e+001 84 54 28
1.921615e+000 -2.857462e+000 -1.758471e+001 73 43 24
1.598319e+000 -2.594681e+000 -1.800727e+001 83 56 33
4.617763e+000 -3.509895e-002 -1.505415e+001 148 107 64
4.469396e+000 -2.338100e-001 -1.518732e+001 162 123 81
2.380502e+000 -7.888778e-001 -1.509490e+001 69 48 30
2.941808e+000 -6.097004e-001 -1.509953e+001 93 70 52
4.953747e+000 -3.158241e+000 -1.591410e+001 219 183 125
2.374973e+000 -8.514528e-001 -1.522666e+001 93 71 47
3.736822e+000 -5.875197e-001 -1.541476e+001 119 85 55
3.736822e+000 -5.875197e-001 -1.541476e+001 119 85 55
2.349642e+000 -1.012293e+000 -1.537024e+001 69 50 33
4.895099e+000 -3.718583e+000 -1.659762e+001 219 181 120
1.696041e+000 -1.654369e+000 -1.596405e+001 173 109 97
3.886998e+000 -1.714227e+000 -1.690342e+001 143 107 73
3.794102e+000 -2.089343e+000 -1.729118e+001 135 101 66
1.046613e-001 -1.537601e+000 -1.733837e+001 136 81 69
2.814981e+000 -2.768134e+000 -1.778946e+001 104 73 52
2.985305e+000 -2.757757e+000 -1.805582e+001 73 48 25
3.299471e+000 -1.695525e+000 -1.916628e+001 117 93 67
