ply
format ascii 1.0
element face 0
property list uchar int vertex_indices
element vertex 891
property float x
property float y
property float z
property uchar diffuse_red
property uchar diffuse_green
property uchar diffuse_blue
end_header
5.104088e+000 7.058923e-002 -1.466554e+001 103 74 50
5.267166e+000 -2.285887e-001 -1.500787e+001 92 66 43
3.137834e-001 -1.479127e+000 -1.580593e+001 100 26 29
1.376838e+000 -2.074125e+000 -1.631430e+001 44 34 24
-3.728392e+000 -1.823502e+000 -1.683243e+001 164 119 98
1.850355e+000 2.483204e+000 -1.471086e+001 215 184 155
3.751735e+000 1.303279e+000 -1.396171e+001 76 48 27
8.479664e-001 2.016068e+000 -1.619164e+001 197 157 120
1.617394e+000 9.323176e-001 -1.461253e+001 180 147 113
5.986111e+000 5.953417e-001 -1.436210e+001 116 81 51
5.843517e+000 4.240766e-001 -1.433077e+001 109 72 45
2.190117e+000 9.749376e-002 -1.381359e+001 192 160 129
1.867504e+000 -8.835983e-001 -1.520587e+001 47 35 23
7.475013e-001 -8.806730e-001 -1.556749e+001 195 138 124
4.689346e+000 -9.003603e-001 -1.564557e+001 103 78 50
3.761803e-002 -9.712312e-001 -1.552650e+001 132 64 56
4.149638e+000 -1.124807e+000 -1.576921e+001 67 42 20
1.947633e+000 -1.349006e+000 -1.535848e+001 132 108 82
-3.030569e+000 -1.857567e+000 -1.681040e+001 123 82 62
3.872082e+000 -3.470465e+000 -1.837785e+001 80 53 34
1.729098e+000 1.164352e+000 -1.417662e+001 188 155 120
5.292482e+000 1.079547e+000 -1.418160e+001 124 88 58
2.258059e+000 6.077368e-001 -1.353207e+001 181 150 119
4.412480e+000 8.353946e-001 -1.402768e+001 77 45 22
4.412480e+000 8.353946e-001 -1.402768e+001 77 45 22
4.725774e+000 1.642714e-001 -1.445275e+001 109 79 53
3.729102e-001 -5.180962e-001 -1.572285e+001 119 52 49
2.318382e-001 -9.149908e-001 -1.555343e+001 167 97 91
1.381016e+000 -1.489819e+000 -1.570415e+001 154 119 91
2.482379e+000 1.214027e+000 -1.396951e+001 62 44 25
4.177656e+000 7.269302e-001 -1.409287e+001 104 72 47
4.089761e+000 -1.653875e+000 -1.631128e+001 86 59 38
2.716374e+000 -1.880113e+000 -1.628147e+001 40 25 12
-9.327834e+001 3.688888e+001 -1.952562e+002 255 255 255
-1.078693e+002 1.997052e+001 -2.363641e+002 183 173 163
4.199782e+000 1.233051e+000 -1.414263e+001 121 87 53
5.958936e+000 1.035938e+000 -1.425337e+001 98 64 36
-8.962129e-002 -1.219575e+000 -1.550074e+001 131 59 57
-3.313681e+000 -2.036228e+000 -1.657647e+001 174 139 113
2.091859e+000 3.234239e+000 -1.526371e+001 66 50 33
2.210412e+000 3.253939e+000 -1.531709e+001 50 32 19
1.242040e+000 3.444278e+000 -1.575648e+001 165 131 94
3.989962e+000 3.202223e+000 -1.557176e+001 104 73 47
4.401425e+000 3.222677e+000 -1.564821e+001 122 91 63
4.827715e+000 3.247395e+000 -1.571208e+001 96 62 35
4.814708e+000 2.879968e+000 -1.547524e+001 99 64 38
5.770633e+000 2.636847e+000 -1.539301e+001 96 60 28
2.232590e+000 1.298951e+000 -1.360554e+001 124 88 51
2.713545e+000 3.576920e-001 -1.360500e+001 116 99 81
5.802841e+000 -5.234526e-001 -1.562012e+001 77 49 25
1.216329e+000 -8.388080e-001 -1.610866e+001 95 43 30
4.117735e+000 -1.441664e+000 -1.615466e+001 76 49 24
-1.899963e-001 -2.946204e+000 -1.809221e+001 170 110 100
3.647354e+000 3.414716e+000 -1.561874e+001 139 106 76
4.349988e+000 3.456729e+000 -1.585448e+001 95 64 37
5.023366e+000 3.329967e+000 -1.565172e+001 118 84 56
4.036314e+000 3.273380e+000 -1.559584e+001 74 45 18
4.430609e+000 3.143626e+000 -1.558400e+001 125 94 66
4.574514e+000 3.111867e+000 -1.555960e+001 97 63 35
4.848741e+000 2.964514e+000 -1.550471e+001 134 99 71
1.759333e+000 2.544144e+000 -1.481382e+001 128 94 62
1.623356e+000 1.414457e+000 -1.484244e+001 124 95 65
2.287575e+000 1.008833e+000 -1.353216e+001 128 94 59
4.593859e+000 1.213577e+000 -1.412782e+001 125 92 59
1.638311e+000 1.286030e+000 -1.465943e+001 147 119 95
3.085659e+000 1.218548e-001 -1.404359e+001 33 23 13
3.125837e+000 1.354586e-001 -1.394944e+001 94 78 56
3.170114e+000 1.558290e-001 -1.392163e+001 47 29 16
5.916105e+000 -4.141150e-001 -1.544185e+001 82 54 30
2.316228e+000 -9.551297e-001 -1.524661e+001 38 27 10
3.502607e+000 -1.923909e+000 -1.654243e+001 57 32 11
-2.420750e+000 -1.894677e+000 -1.675745e+001 151 114 90
-4.761614e+000 -2.179295e+000 -1.666035e+001 138 94 65
3.723051e+000 -2.553495e+000 -1.744527e+001 71 46 27
3.085238e-001 -2.610615e+000 -1.668422e+001 138 75 65
3.421061e+000 -3.381102e+000 -1.815347e+001 98 71 50
3.323783e+000 -3.516759e+000 -1.839421e+001 73 51 30
4.638582e+000 3.642193e+000 -1.598475e+001 142 107 75
2.169338e+000 2.933218e+000 -1.503317e+001 64 45 26
3.600330e+000 3.002453e+000 -1.540023e+001 83 53 29
5.506634e+000 3.094810e+000 -1.575902e+001 115 80 52
5.049731e+000 2.535797e+000 -1.523738e+001 128 93 61
3.986631e+000 2.034015e+000 -1.468694e+001 89 55 27
3.813569e+000 1.621241e+000 -1.423081e+001 117 86 57
5.593924e+000 2.004406e+000 -1.497637e+001 111 71 38
5.614119e+000 1.689942e+000 -1.442942e+001 145 107 71
4.874962e+000 1.598312e+000 -1.442737e+001 99 63 31
4.208160e+000 9.382135e-001 -1.408054e+001 83 52 24
5.321874e+000 -4.050863e-001 -1.539107e+001 85 63 39
4.917808e-001 -4.123129e-001 -1.591261e+001 178 122 109
9.631397e-001 -1.063094e+000 -1.574191e+001 110 49 45
1.203316e+000 -9.105274e-001 -1.600466e+001 151 99 85
1.203316e+000 -9.105274e-001 -1.600466e+001 151 99 85
2.394916e+000 -1.115960e+000 -1.551096e+001 45 37 15
4.460143e+000 -1.578785e+000 -1.633374e+001 63 39 14
3.207034e+000 -2.605794e+000 -1.724158e+001 73 46 27
3.207034e+000 -2.605794e+000 -1.724158e+001 73 46 27
4.320776e+000 -2.464711e+000 -1.730056e+001 64 42 19
4.337803e+000 -2.851088e+000 -1.795517e+001 101 75 50
1.656824e+000 -3.228670e+000 -1.763800e+001 113 81 53
1.424982e+000 -3.628365e+000 -1.784313e+001 201 171 142
4.909866e+000 3.374244e+000 -1.577951e+001 134 98 71
3.464140e+000 3.000131e+000 -1.532787e+001 113 83 59
4.460481e+000 3.033029e+000 -1.553154e+001 93 62 33
4.706332e+000 2.696172e+000 -1.521922e+001 96 62 35
5.025178e+000 2.637097e+000 -1.527279e+001 89 55 28
1.132037e+000 2.856439e+000 -1.605033e+001 185 155 117
1.696186e+000 2.100093e+000 -1.466823e+001 159 132 105
4.089165e+000 1.794084e+000 -1.440769e+001 136 103 72
4.470442e+000 1.395630e+000 -1.418247e+001 70 39 18
4.458181e+000 1.182425e+000 -1.412283e+001 81 48 18
5.694445e+000 -1.731820e-002 -1.483149e+001 81 53 30
-8.095314e-001 -8.069383e-002 -1.601302e+001 143 92 63
-5.911201e-001 -3.721847e-001 -1.573042e+001 203 156 126
-3.825265e-001 -1.186262e+000 -1.527785e+001 165 94 92
1.918446e+000 -1.227780e+000 -1.524432e+001 91 67 41
5.391065e+000 -1.263461e+000 -1.628710e+001 61 37 13
2.315482e+000 -1.796088e+000 -1.600755e+001 80 67 48
3.951286e+000 -2.788298e+000 -1.771787e+001 102 75 51
5.035326e+000 -3.043339e+000 -1.833318e+001 92 68 44
4.908534e+000 2.716966e+000 -1.527003e+001 127 93 65
3.177948e+000 2.171574e+000 -1.463339e+001 143 116 89
5.092305e+000 1.573581e+000 -1.431850e+001 148 108 72
4.327519e-001 2.347980e+000 -1.726330e+001 189 147 112
7.316742e-001 1.927135e+000 -1.619486e+001 110 80 52
5.813375e+000 9.011406e-001 -1.421223e+001 113 76 46
7.929126e-001 1.088835e+000 -1.523369e+001 206 134 120
4.289245e+000 1.857044e-001 -1.429456e+001 74 46 25
1.568829e+000 1.042891e-001 -1.470946e+001 178 132 48
9.652846e-001 -7.720785e-001 -1.553077e+001 119 65 56
1.751716e+000 -1.079476e+000 -1.507398e+001 56 49 31
3.775179e+000 -1.454024e+000 -1.611882e+001 74 48 26
2.621743e+000 -2.067757e+000 -1.642840e+001 54 39 21
4.017264e+000 -2.923007e+000 -1.798235e+001 73 46 25
1.730449e+000 3.097771e+000 -1.508950e+001 212 178 143
5.201185e+000 2.478029e+000 -1.518096e+001 149 114 76
5.865802e+000 2.100892e+000 -1.486784e+001 114 78 44
1.865237e+000 1.419015e+000 -1.438754e+001 41 28 16
2.400167e+000 9.300757e-001 -1.326025e+001 58 39 22
5.810601e+000 1.165938e+000 -1.442613e+001 115 78 49
1.956974e+000 5.920994e-001 -1.370480e+001 59 51 28
-9.862159e-002 7.094415e-001 -1.554202e+001 218 160 140
5.496034e-002 7.206821e-001 -1.558452e+001 163 72 72
1.695866e+000 4.608382e-001 -1.426840e+001 172 147 113
4.202175e+000 2.641454e-001 -1.422171e+001 93 65 43
5.239390e+000 2.175026e-001 -1.448144e+001 72 46 25
-5.991239e+001 6.372841e+001 -2.800283e+002 122 120 125
-8.738348e+001 6.583338e+001 -3.172344e+002 136 128 125
2.054574e+000 -6.695513e-001 -1.473109e+001 170 139 111
-6.465961e+001 4.955204e+001 -3.210703e+002 129 128 144
4.376341e+000 -1.315988e+000 -1.607023e+001 65 37 16
4.376341e+000 -1.315988e+000 -1.607023e+001 65 37 16
-2.101683e+000 -2.000707e+000 -1.666009e+001 177 137 111
4.492644e+000 -2.327369e+000 -1.732992e+001 72 44 22
1.790129e+000 2.804462e+000 -1.493003e+001 178 142 105
3.353685e+000 3.157152e+000 -1.546831e+001 97 66 38
6.414143e+000 2.239904e+000 -1.513239e+001 21 16 13
6.414143e+000 2.239904e+000 -1.513239e+001 21 16 13
2.949559e+000 1.412087e+000 -1.381364e+001 152 129 96
3.204941e+000 1.500140e+000 -1.405427e+001 65 47 27
8.227615e-001 9.047088e-001 -1.510594e+001 169 84 79
-4.900433e+001 7.243226e+001 -2.835249e+002 167 166 164
-7.619749e+001 7.196975e+001 -3.113165e+002 138 138 149
4.002846e+000 -4.952625e-001 -1.505786e+001 98 73 51
-8.823997e+001 6.213407e+001 -2.973258e+002 126 121 117
5.740465e+000 -7.060396e-001 -1.567283e+001 89 57 32
9.844692e-001 -1.776425e+000 -1.628793e+001 97 43 41
4.530572e+000 -1.743953e+000 -1.648936e+001 62 37 17
4.738657e+000 -1.729177e+000 -1.661122e+001 105 79 52
-3.031347e+000 -2.063516e+000 -1.676955e+001 79 46 31
-9.001343e+001 9.748187e+000 -1.975410e+002 176 166 151
3.373106e+000 -2.349168e+000 -1.700960e+001 96 72 48
3.156882e+000 -3.590236e+000 -1.838697e+001 106 79 58
1.943508e+000 2.092633e+000 -1.416831e+001 211 178 145
2.578609e+000 8.585066e-001 -1.344534e+001 116 95 64
4.901212e+000 8.746538e-001 -1.423545e+001 120 88 57
2.286942e+000 3.639285e-001 -1.364474e+001 181 152 122
1.992952e+000 -1.848043e-001 -1.425584e+001 132 97 68
-5.197101e+001 7.217232e+001 -2.982494e+002 78 76 81
-6.995941e+001 5.979910e+001 -2.796811e+002 105 105 115
-6.691034e+001 6.811725e+001 -3.186909e+002 106 105 113
-5.249208e+001 6.172521e+001 -2.716770e+002 176 168 165
-5.249208e+001 6.172521e+001 -2.716770e+002 176 168 165
-7.376737e+001 5.850418e+001 -2.991123e+002 172 165 161
-7.376737e+001 5.850418e+001 -2.991123e+002 172 165 161
5.689143e+000 -1.821059e+000 -1.680678e+001 131 100 69
-9.603213e+001 -1.586445e+000 -2.331658e+002 191 178 169
-9.900994e+001 5.831040e+001 -2.981918e+002 177 170 165
-9.900994e+001 5.831040e+001 -2.981918e+002 177 170 165
-5.643896e+001 5.818894e+001 -3.299058e+002 87 85 96
4.846504e-001 -1.745985e+000 -1.567535e+001 122 54 55
1.533137e+000 -2.859950e+000 -1.695069e+001 166 135 107
-8.459805e+001 3.913311e-001 -1.984822e+002 245 228 221
-8.613144e+001 6.111283e+001 -2.728357e+002 91 93 102
-8.613144e+001 6.111283e+001 -2.728357e+002 91 93 102
-4.844964e+001 4.920257e+001 -2.523729e+002 173 168 158
-4.844964e+001 4.920257e+001 -2.523729e+002 173 168 158
-9.795766e+001 6.065775e+001 -2.705074e+002 89 89 99
1.693384e+000 1.691101e+000 -1.472790e+001 84 71 44
-8.529435e+001 1.317034e+001 -1.994772e+002 254 254 254
-9.807815e+001 -8.510839e+000 -2.250390e+002 163 154 147
4.214310e+000 3.435108e+000 -1.563981e+001 121 87 60
4.554212e+000 3.575492e+000 -1.594229e+001 104 68 42
4.954458e+000 3.738045e+000 -1.612640e+001 109 73 41
5.092154e+000 3.697626e+000 -1.605269e+001 96 61 31
5.422873e+000 3.864194e+000 -1.615980e+001 111 75 43
2.207015e+000 3.295098e+000 -1.528459e+001 105 87 59
3.851783e+000 3.241804e+000 -1.550935e+001 116 84 59
4.090913e+000 3.258743e+000 -1.564009e+001 125 93 69
5.904454e+000 3.142965e+000 -1.571709e+001 113 73 49
2.638538e+000 2.916225e+000 -1.507225e+001 226 211 173
2.638538e+000 2.916225e+000 -1.507225e+001 226 211 173
5.022886e+000 3.073065e+000 -1.561733e+001 115 82 54
4.986754e+000 2.864203e+000 -1.544926e+001 97 63 36
4.986754e+000 2.864203e+000 -1.544926e+001 97 63 36
5.111587e+000 3.011149e+000 -1.550071e+001 125 91 61
1.875078e+000 2.406739e+000 -1.460017e+001 177 139 105
1.963418e+000 2.454362e+000 -1.470295e+001 140 103 67
5.145228e+000 2.668143e+000 -1.533875e+001 116 82 54
3.216734e+000 2.069945e+000 -1.444570e+001 159 129 101
3.499681e+000 2.293654e+000 -1.468846e+001 100 74 47
4.136429e+000 2.096183e+000 -1.471491e+001 86 52 25
5.566956e+000 2.246257e+000 -1.511318e+001 134 98 64
2.883111e+000 1.679591e+000 -1.407886e+001 253 236 170
2.915190e+000 1.725682e+000 -1.413027e+001 67 45 24
3.726121e+000 1.734595e+000 -1.435516e+001 103 71 46
4.103741e+000 2.031930e+000 -1.464257e+001 132 100 72
1.433339e+000 1.678885e+000 -1.479034e+001 193 157 116
2.547823e+000 1.460424e+000 -1.383748e+001 166 148 115
4.072211e+000 1.589085e+000 -1.428011e+001 87 54 29
5.683457e+000 1.557645e+000 -1.455618e+001 103 64 31
7.444503e-001 1.795900e+000 -1.612770e+001 195 152 113
4.490175e+000 1.354094e+000 -1.418993e+001 67 37 13
6.130000e-001 1.206068e+000 -1.550877e+001 210 138 126
1.147046e+000 -1.102860e+000 -1.578716e+001 124 68 57
2.238771e+000 -1.445936e+000 -1.569957e+001 37 23 8
4.050686e-001 -2.242493e+000 -1.650913e+001 132 74 63
1.642514e+000 3.496331e+000 -1.540878e+001 166 134 98
2.010528e+000 3.646896e+000 -1.561342e+001 70 54 32
4.150503e+000 3.832174e+000 -1.605610e+001 100 63 34
3.981394e+000 3.419383e+000 -1.559908e+001 110 77 46
4.239124e+000 3.832465e+000 -1.606524e+001 155 121 86
4.817722e+000 3.792031e+000 -1.611364e+001 145 106 73
4.824262e+000 3.700042e+000 -1.605737e+001 103 66 37
4.924194e+000 3.798386e+000 -1.609802e+001 145 109 73
4.319482e+000 3.325524e+000 -1.565267e+001 124 89 62
5.255425e+000 3.470255e+000 -1.589193e+001 86 54 21
1.887130e+000 2.826273e+000 -1.490162e+001 184 151 113
4.749404e+000 2.926847e+000 -1.543552e+001 104 68 42
2.006720e+000 2.435340e+000 -1.458122e+001 142 105 76
2.863935e+000 2.326649e+000 -1.453464e+001 62 47 26
4.385757e+000 2.510082e+000 -1.512990e+001 104 69 39
4.890807e+000 2.554045e+000 -1.528203e+001 122 87 59
4.890807e+000 2.554045e+000 -1.528203e+001 122 87 59
1.905956e+000 2.167844e+000 -1.441075e+001 186 154 116
2.825791e+000 2.025786e+000 -1.433506e+001 76 64 42
4.266199e+000 2.229792e+000 -1.484818e+001 101 67 39
4.111457e+000 2.224453e+000 -1.492384e+001 99 64 38
4.045522e+000 2.127976e+000 -1.476307e+001 111 80 52
4.540389e+000 2.268524e+000 -1.498633e+001 126 92 64
4.352223e+000 2.157295e+000 -1.479647e+001 118 83 55
5.007475e+000 2.327817e+000 -1.493510e+001 103 67 33
4.909512e+000 2.108863e+000 -1.491225e+001 102 66 32
2.147626e+000 1.747612e+000 -1.393141e+001 148 110 73
4.760471e+000 1.977466e+000 -1.465547e+001 108 69 36
9.095788e-001 2.062635e+000 -1.600252e+001 153 118 78
4.291297e+000 1.687644e+000 -1.432650e+001 97 62 34
5.088398e+000 1.670229e+000 -1.448068e+001 122 81 50
5.939613e+000 1.512209e+000 -1.440676e+001 127 89 53
1.143954e+000 1.595679e+000 -1.513097e+001 211 173 128
2.212896e+000 1.258760e+000 -1.367480e+001 175 140 102
3.111030e+000 1.254806e+000 -1.380539e+001 128 111 85
4.542778e+000 1.328252e+000 -1.410703e+001 118 83 55
1.594214e+000 1.239643e+000 -1.462545e+001 125 86 55
1.644348e+000 4.274914e-001 -1.448034e+001 141 100 50
6.036262e+000 3.919961e-001 -1.448532e+001 78 46 21
-4.039800e-001 5.040014e-001 -1.588886e+001 158 100 78
1.589196e+000 2.075448e-001 -1.464250e+001 180 133 59
3.160260e-001 -7.163706e-001 -1.573405e+001 173 115 101
8.675997e-001 -5.863479e-001 -1.586149e+001 168 110 97
8.675997e-001 -5.863479e-001 -1.586149e+001 168 110 97
9.743639e-001 -4.524378e-001 -1.591094e+001 135 66 69
2.166509e+000 -6.411621e-001 -1.474692e+001 103 72 43
5.332706e+000 -6.846608e-001 -1.572429e+001 52 30 8
1.866037e+000 -9.821394e-001 -1.514494e+001 98 81 56
2.366125e+000 -8.949715e-001 -1.523274e+001 39 25 17
5.272227e+000 -8.560364e-001 -1.580304e+001 88 65 43
5.577114e+000 -1.027910e+000 -1.605433e+001 55 31 9
-4.140847e+000 -1.404469e+000 -1.716709e+001 92 70 60
-4.140847e+000 -1.404469e+000 -1.716709e+001 92 70 60
2.290552e+000 -1.697577e+000 -1.587346e+001 38 25 10
1.468681e+000 -1.814102e+000 -1.566900e+001 178 146 105
3.743936e+000 -1.850472e+000 -1.649194e+001 66 43 22
-4.751652e+000 -2.055499e+000 -1.658932e+001 141 94 64
2.039801e+000 -2.647652e+000 -1.691275e+001 51 35 18
1.605810e+000 -2.959545e+000 -1.719477e+001 126 92 65
3.461345e+000 -3.124237e+000 -1.803645e+001 99 75 51
4.829726e+000 3.528003e+000 -1.587955e+001 131 98 70
5.326116e+000 3.602166e+000 -1.606502e+001 124 91 60
5.326116e+000 3.602166e+000 -1.606502e+001 124 91 60
2.123861e+000 3.096087e+000 -1.511414e+001 65 48 28
4.328362e+000 3.215184e+000 -1.567545e+001 86 54 26
5.126059e+000 3.480942e+000 -1.594352e+001 89 55 27
5.234535e+000 3.389858e+000 -1.588160e+001 124 93 64
5.385687e+000 3.360451e+000 -1.588455e+001 117 84 53
2.641247e+000 2.845012e+000 -1.501896e+001 47 33 20
3.527310e+000 2.927427e+000 -1.535031e+001 81 53 29
4.566064e+000 2.809357e+000 -1.531953e+001 137 104 73
2.403549e+000 2.446521e+000 -1.470747e+001 47 35 19
2.704485e+000 2.573602e+000 -1.482598e+001 69 50 35
2.760880e+000 2.289242e+000 -1.455050e+001 77 60 37
3.971639e+000 2.488680e+000 -1.504443e+001 127 96 67
4.535166e+000 2.700520e+000 -1.527455e+001 97 63 35
3.282392e+000 2.293321e+000 -1.482922e+001 141 111 83
3.749300e+000 2.214416e+000 -1.481700e+001 81 54 25
4.119850e+000 2.314860e+000 -1.490965e+001 98 63 35
5.478460e+000 2.048176e+000 -1.480987e+001 108 67 35
5.478460e+000 2.048176e+000 -1.480987e+001 108 67 35
3.070036e+000 1.605898e+000 -1.409967e+001 132 113 80
5.075657e+000 1.738374e+000 -1.458927e+001 145 107 70
5.521792e+000 1.523465e+000 -1.404291e+001 128 93 61
1.781118e+000 1.018167e+000 -1.412823e+001 67 60 32
2.374357e+000 1.026318e+000 -1.359330e+001 126 93 58
2.376328e+000 8.799190e-001 -1.357496e+001 117 82 49
1.199981e+000 1.019448e+000 -1.505716e+001 156 107 68
1.775284e+000 8.246415e-001 -1.416542e+001 94 84 58
1.875179e+000 7.064713e-001 -1.378650e+001 112 102 74
1.904486e+000 8.470597e-001 -1.357379e+001 73 65 38
1.917869e+000 7.650748e-001 -1.356958e+001 141 122 89
6.082928e+000 7.066740e-001 -1.439851e+001 89 55 27
1.691488e+000 5.631801e-001 -1.430491e+001 156 137 105
3.043401e+000 2.352735e-001 -1.395683e+001 51 39 27
-1.803036e-001 1.061706e-001 -1.537046e+001 171 108 93
4.285282e+000 -1.688733e-001 -1.464491e+001 71 44 23
1.359334e+000 -3.923760e-001 -1.470747e+001 186 152 117
5.819680e+000 -4.687043e-001 -1.552881e+001 93 64 40
5.117946e+000 -5.686919e-001 -1.546352e+001 62 43 19
5.305814e+000 -1.104376e+000 -1.607106e+001 67 45 22
4.501249e+000 -1.720599e+000 -1.650369e+001 50 28 6
3.074789e-001 -1.905728e+000 -1.576504e+001 185 144 126
1.247568e+000 -1.869724e+000 -1.631099e+001 92 39 35
1.247568e+000 -1.869724e+000 -1.631099e+001 92 39 35
1.404983e+000 -1.961360e+000 -1.610011e+001 159 116 98
4.282801e+000 -2.043160e+000 -1.684339e+001 73 52 30
1.585860e+000 -3.154124e+000 -1.749218e+001 122 88 62
1.683240e+000 -3.330219e+000 -1.774806e+001 41 31 20
1.811993e+000 3.696761e+000 -1.560402e+001 56 37 24
4.100375e+000 3.451392e+000 -1.573951e+001 135 102 71
4.755123e+000 3.551719e+000 -1.590648e+001 102 65 37
4.806528e+000 3.140988e+000 -1.558020e+001 137 104 71
5.044767e+000 3.239813e+000 -1.574104e+001 88 57 28
2.779142e+000 2.403293e+000 -1.477228e+001 69 56 39
1.228504e+000 2.728407e+000 -1.613651e+001 81 63 39
1.941128e+000 1.814708e+000 -1.403174e+001 137 104 71
6.536775e+000 1.925938e+000 -1.508439e+001 110 75 38
1.422448e+000 1.806118e+000 -1.507904e+001 203 164 120
2.012222e+000 1.607699e+000 -1.395656e+001 136 102 67
4.057236e+000 1.674089e+000 -1.435902e+001 87 55 30
4.057236e+000 1.674089e+000 -1.435902e+001 87 55 30
4.135628e+000 1.553082e+000 -1.437796e+001 89 57 34
1.737375e+000 1.363179e+000 -1.434946e+001 155 125 95
1.737375e+000 1.363179e+000 -1.434946e+001 155 125 95
2.124471e+000 1.082710e+000 -1.360339e+001 132 96 65
2.130938e+000 8.907193e-001 -1.358911e+001 198 163 122
8.964962e-001 1.148804e+000 -1.526297e+001 187 118 92
2.384163e+000 6.726523e-001 -1.355708e+001 138 107 76
4.023463e+000 8.529401e-001 -1.398636e+001 81 50 22
1.534792e+000 5.253669e-001 -1.467019e+001 135 86 41
1.563665e+000 -7.385684e-003 -1.466813e+001 121 78 36
4.333694e+000 -1.006969e-001 -1.449564e+001 107 80 53
5.547609e+000 -1.994949e-002 -1.465662e+001 103 75 49
-2.962990e-002 -7.636296e-002 -1.525692e+001 155 93 82
2.590477e+000 -3.036196e-001 -1.459463e+001 30 20 12
4.294335e+000 -3.435141e-001 -1.491284e+001 72 43 25
5.366836e+000 -5.693785e-001 -1.552573e+001 61 42 18
1.918446e+000 -1.227780e+000 -1.524432e+001 91 67 41
2.021394e+000 -1.020876e+000 -1.510916e+001 186 160 133
4.843675e+000 -1.398224e+000 -1.625040e+001 93 63 39
4.848588e+000 -1.399649e+000 -1.626264e+001 93 63 39
1.857760e+000 -1.664651e+000 -1.568770e+001 207 177 151
1.857760e+000 -1.664651e+000 -1.568770e+001 207 177 151
-3.997492e+000 -1.838407e+000 -1.647254e+001 147 107 83
3.813453e+000 -1.831483e+000 -1.649668e+001 65 43 22
1.049088e+000 -2.711636e+000 -1.718671e+001 170 112 99
3.568392e+000 -3.139917e+000 -1.808758e+001 70 47 23
1.174102e+000 -3.438798e+000 -1.776057e+001 186 147 116
1.879454e+000 3.427368e+000 -1.533910e+001 59 38 21
4.414372e+000 3.492571e+000 -1.579101e+001 134 99 70
4.292553e+000 3.121845e+000 -1.570742e+001 120 89 60
4.923347e+000 2.894585e+000 -1.542123e+001 95 61 33
5.520776e+000 2.954907e+000 -1.555003e+001 92 61 33
4.669575e+000 2.217299e+000 -1.493594e+001 128 95 65
1.166915e+000 2.217308e+000 -1.585476e+001 193 160 117
3.598464e+000 2.023188e+000 -1.463836e+001 89 59 34
2.083339e+000 1.383607e+000 -1.371713e+001 141 103 67
1.663687e+000 1.341190e+000 -1.453802e+001 56 45 27
-4.103301e+001 7.098984e+001 -3.321706e+002 148 148 184
5.833690e+000 1.016850e+000 -1.429759e+001 79 45 21
5.842126e+000 -5.516138e-001 -1.555546e+001 74 44 18
4.841684e+000 -1.696837e+000 -1.652837e+001 109 83 56
4.841684e+000 -1.696837e+000 -1.652837e+001 109 83 56
8.540611e-001 -1.964074e+000 -1.611521e+001 104 38 38
1.342837e+000 -1.843722e+000 -1.611387e+001 161 108 90
1.249024e+000 -2.073913e+000 -1.642775e+001 136 92 81
1.178532e+000 -2.738279e+000 -1.725074e+001 106 45 40
1.214804e+000 -3.068438e+000 -1.772698e+001 108 59 42
5.124570e+000 -3.109773e+000 -1.822514e+001 88 58 33
1.898886e+000 -3.873750e+000 -1.771649e+001 80 66 55
2.176827e+000 4.162840e+000 -1.621705e+001 214 198 180
5.631251e+000 3.243759e+000 -1.582454e+001 89 56 25
2.028479e+000 2.618616e+000 -1.486559e+001 58 37 23
5.317393e+000 2.286831e+000 -1.493869e+001 137 99 63
2.010672e+000 1.450852e+000 -1.423638e+001 173 138 108
-7.606995e+001 7.050581e+001 -3.323817e+002 140 136 137
2.400167e+000 9.300757e-001 -1.326025e+001 58 39 22
-9.862159e-002 7.094415e-001 -1.554202e+001 218 160 140
-7.112442e+001 5.483181e+001 -3.934278e+002 132 132 155
-7.112442e+001 5.483181e+001 -3.934278e+002 132 132 155
2.924822e+000 9.421397e-002 -1.386349e+001 24 17 11
-6.631345e+001 2.928049e+001 -3.009813e+002 112 112 124
5.484519e+000 -3.290434e-001 -1.531494e+001 97 73 47
6.030462e+000 -4.529209e-001 -1.553314e+001 124 93 64
-6.902378e+001 2.298114e+001 -3.148477e+002 108 109 129
2.812595e-001 -6.758567e-001 -1.574594e+001 166 106 95
4.460705e+000 -7.142984e-001 -1.549633e+001 106 79 52
5.417558e+000 -6.941464e-001 -1.559962e+001 90 66 42
1.223248e+000 -1.078853e+000 -1.570997e+001 146 107 89
-3.971871e+000 -1.704378e+000 -1.654235e+001 121 79 55
1.711129e+000 -3.336124e+000 -1.773673e+001 54 45 38
2.781643e+000 -3.526761e+000 -1.831045e+001 139 111 89
5.259763e+000 -3.598734e+000 -1.882167e+001 125 98 66
2.622142e+000 2.723643e+000 -1.497745e+001 145 121 87
4.364715e+000 1.883149e+000 -1.449714e+001 126 91 59
5.941594e+000 1.626147e+000 -1.442582e+001 97 61 29
6.138289e-001 1.106425e+000 -1.545813e+001 208 136 124
2.408378e+000 7.897715e-001 -1.355334e+001 57 33 21
-1.105471e-001 3.772644e-001 -1.533528e+001 183 103 96
6.001968e+000 -1.582444e-002 -1.494840e+001 91 60 32
6.078569e+000 -1.187308e-001 -1.493714e+001 118 88 60
-1.091185e+002 3.966838e+001 -3.644151e+002 106 105 121
-1.396397e+002 3.822242e+001 -5.236395e+002 164 160 162
1.068882e+000 -6.055061e-001 -1.595787e+001 98 40 38
9.150652e-001 -9.118567e-001 -1.574054e+001 94 35 27
4.383635e+000 -1.124528e+000 -1.593091e+001 108 80 52
6.782933e-001 -1.339810e+000 -1.588684e+001 106 41 39
3.515096e+000 -1.744569e+000 -1.629677e+001 101 75 50
-4.293237e+000 -1.748751e+000 -1.657156e+001 161 117 88
2.518034e-001 -1.774780e+000 -1.572837e+001 159 114 94
3.453051e+000 -2.668084e+000 -1.752139e+001 73 51 30
2.768528e+000 2.974088e+000 -1.507073e+001 75 62 46
2.425908e+000 2.393648e+000 -1.447657e+001 71 58 41
2.872057e+000 2.401993e+000 -1.450212e+001 87 70 45
2.653172e+000 1.991991e+000 -1.451817e+001 75 62 40
4.939697e+000 6.373048e-001 -1.410808e+001 73 42 20
-7.972353e+001 5.587934e+001 -3.487810e+002 107 111 138
5.052606e+000 1.788804e-001 -1.444618e+001 103 74 49
5.052606e+000 1.788804e-001 -1.444618e+001 103 74 49
-9.358712e+001 3.623858e+001 -3.290411e+002 186 189 234
-6.475700e+001 3.722125e+001 -3.414900e+002 159 153 150
-6.475700e+001 3.722125e+001 -3.414900e+002 159 153 150
-7.862260e+001 2.763268e+001 -2.919653e+002 162 153 155
-6.198371e+001 2.934935e+001 -3.034147e+002 92 89 104
-8.531418e+001 1.711191e+001 -2.751592e+002 185 174 184
4.852441e+000 -1.224507e+000 -1.606326e+001 104 74 48
1.669594e+000 -1.521397e+000 -1.542973e+001 72 67 48
1.669594e+000 -1.521397e+000 -1.542973e+001 72 67 48
6.007840e+000 -1.706151e+000 -1.676112e+001 99 68 38
9.965537e-001 -2.350442e+000 -1.670424e+001 173 114 108
8.044419e-001 -2.525062e+000 -1.719688e+001 97 32 36
2.370288e+000 -3.445069e+000 -1.812304e+001 46 31 24
1.906937e+000 4.081807e+000 -1.635295e+001 97 76 57
3.974194e+000 3.220114e+000 -1.566604e+001 106 76 47
4.304497e+000 3.815657e-001 -1.416669e+001 82 54 32
1.709100e+000 2.938825e-001 -1.416484e+001 184 155 119
4.416111e+000 -3.006693e-002 -1.440505e+001 112 82 55
-1.010041e+002 4.293964e+001 -3.983816e+002 204 211 253
-6.176366e+001 2.728545e+001 -3.269314e+002 159 149 147
-6.386661e-001 -4.177772e-001 -1.585154e+001 191 135 112
-1.111797e+002 3.491562e+001 -4.398070e+002 194 200 254
3.063833e-003 -6.704773e-001 -1.579493e+001 130 62 53
3.028341e+000 -1.959265e+000 -1.646116e+001 127 101 76
3.028341e+000 -1.959265e+000 -1.646116e+001 127 101 76
3.307348e+000 -2.081036e+000 -1.662085e+001 66 43 27
5.455526e+000 -3.204352e+000 -1.865456e+001 131 100 69
-3.016647e+001 6.000180e+001 -2.468051e+002 184 167 141
-9.569832e+001 6.235386e+001 -4.380728e+002 140 152 207
-9.569832e+001 6.235386e+001 -4.380728e+002 140 152 207
-3.402330e+000 -2.482267e+000 -1.658539e+001 93 67 54
5.344797e+000 3.744320e+000 -1.621957e+001 98 65 30
5.188708e+000 2.114655e+000 -1.483688e+001 152 109 74
-5.092601e+001 7.216101e+001 -3.136387e+002 88 87 93
-7.999265e+001 5.217872e+001 -2.792240e+002 190 180 181
-8.300946e+001 6.418350e+001 -3.739365e+002 113 115 133
1.416431e+000 -2.235332e-001 -1.468851e+001 199 161 114
-6.447858e+001 1.331700e+001 -1.923179e+002 92 91 107
-6.447858e+001 1.331700e+001 -1.923179e+002 92 91 107
-9.333863e+001 1.033531e+001 -1.843509e+002 181 172 155
1.842321e+000 7.157775e-001 -1.437821e+001 56 48 28
5.522444e+000 -4.003209e+000 -1.913971e+001 164 135 91
-1.353769e+002 4.916595e+001 -5.124423e+002 168 169 199
-1.353769e+002 4.916595e+001 -5.124423e+002 168 169 199
5.247293e+000 -9.539926e-001 -1.580895e+001 77 51 31
5.602159e+000 2.159775e+000 -1.526419e+001 121 82 47
1.871675e+000 3.966473e+000 -1.588562e+001 73 58 36
1.805072e+000 3.883610e+000 -1.579559e+001 77 51 36
2.766505e+000 3.753563e+000 -1.582222e+001 129 105 80
3.919012e+000 3.944015e+000 -1.613677e+001 106 71 41
5.106552e+000 4.000677e+000 -1.640650e+001 98 59 25
1.594131e+000 3.530172e+000 -1.550308e+001 204 171 138
4.876772e+000 3.674340e+000 -1.605425e+001 137 101 69
1.421907e+000 3.268485e+000 -1.534649e+001 161 134 103
1.437872e+000 3.185395e+000 -1.520739e+001 78 67 35
1.437872e+000 3.185395e+000 -1.520739e+001 78 67 35
1.543732e+000 3.031354e+000 -1.508174e+001 173 140 108
1.864537e+000 3.137596e+000 -1.514076e+001 145 113 80
2.127956e+000 2.951348e+000 -1.504717e+001 69 53 29
2.302356e+000 2.985673e+000 -1.517408e+001 50 40 20
3.073841e+000 3.041629e+000 -1.530550e+001 140 109 81
3.826753e+000 3.196666e+000 -1.557319e+001 88 56 34
1.438982e+000 2.906916e+000 -1.521904e+001 90 75 45
2.595587e+000 2.872488e+000 -1.502496e+001 74 58 28
2.873459e+000 2.911323e+000 -1.518434e+001 70 53 33
3.989396e+000 3.027923e+000 -1.547841e+001 85 55 29
5.087822e+000 3.037071e+000 -1.556684e+001 88 53 25
5.111587e+000 3.011149e+000 -1.550071e+001 125 91 61
1.159901e+000 2.833383e+000 -1.585578e+001 189 159 126
1.811216e+000 2.557591e+000 -1.473981e+001 209 175 139
2.318884e+000 2.597966e+000 -1.478560e+001 120 103 77
2.548917e+000 2.581475e+000 -1.495041e+001 28 15 2
2.743524e+000 2.625610e+000 -1.481216e+001 136 114 81
4.320719e+000 2.539008e+000 -1.504558e+001 125 92 59
4.320719e+000 2.539008e+000 -1.504558e+001 125 92 59
6.244110e+000 2.553571e+000 -1.552463e+001 114 85 65
7.216840e-001 2.615644e+000 -1.717489e+001 198 159 126
1.164995e+000 2.408931e+000 -1.571265e+001 65 59 31
1.860514e+000 2.266019e+000 -1.459714e+001 138 104 69
1.830685e+000 2.203537e+000 -1.466540e+001 132 97 62
1.957076e+000 2.145277e+000 -1.438695e+001 229 196 162
2.160211e+000 2.291335e+000 -1.468476e+001 62 41 22
2.160211e+000 2.291335e+000 -1.468476e+001 62 41 22
2.143258e+000 2.082758e+000 -1.433293e+001 143 113 74
2.748803e+000 2.257291e+000 -1.451717e+001 84 62 40
3.300820e+000 2.210907e+000 -1.480943e+001 137 107 78
5.189540e+000 2.154615e+000 -1.431804e+001 112 73 40
6.163363e+000 2.505095e+000 -1.543186e+001 118 84 57
5.323662e-001 2.440890e+000 -1.717565e+001 145 105 69
2.883088e+000 2.062990e+000 -1.438389e+001 176 150 105
3.004967e+000 1.862723e+000 -1.418927e+001 67 49 29
3.328617e+000 2.133608e+000 -1.476379e+001 139 108 79
4.069849e+000 2.057947e+000 -1.469635e+001 98 64 37
4.242312e+000 2.026657e+000 -1.468527e+001 76 42 17
5.430473e+000 1.977645e+000 -1.473949e+001 150 110 75
6.474799e+000 1.991795e+000 -1.511505e+001 95 62 29
4.105364e+000 1.636804e+000 -1.432637e+001 110 78 53
2.820664e-001 1.982965e+000 -1.722474e+001 206 167 128
8.784386e-001 1.806483e+000 -1.596476e+001 160 116 79
8.784386e-001 1.806483e+000 -1.596476e+001 160 116 79
1.155015e+000 1.534149e+000 -1.514161e+001 185 147 102
1.915178e+000 1.570685e+000 -1.423033e+001 124 95 71
2.038541e+000 1.519954e+000 -1.379669e+001 175 141 106
2.483148e+000 1.387512e+000 -1.384711e+001 65 48 23
2.733409e+000 1.385467e+000 -1.392268e+001 79 64 41
3.032723e+000 1.350091e+000 -1.377477e+001 159 136 108
2.871879e+000 1.086202e+000 -1.391821e+001 54 42 29
9.340251e-001 1.042089e+000 -1.507051e+001 182 119 84
1.667202e+000 1.090718e+000 -1.476643e+001 182 144 111
1.816379e+000 9.994746e-001 -1.391916e+001 105 94 71
1.844626e+000 8.677780e-001 -1.382442e+001 97 90 62
1.844626e+000 8.677780e-001 -1.382442e+001 97 90 62
2.542702e+000 8.447381e-001 -1.364308e+001 75 53 32
2.709082e+000 1.007411e+000 -1.360476e+001 40 27 12
1.695396e+000 8.002734e-001 -1.438195e+001 139 111 83
2.573156e+000 8.087926e-001 -1.367041e+001 225 198 144
6.588355e+000 8.842293e-001 -1.455781e+001 76 42 14
6.789396e+000 6.864157e-001 -1.376506e+001 151 112 60
1.739491e+000 5.456300e-001 -1.424845e+001 85 69 47
2.654714e+000 4.488723e-001 -1.363312e+001 58 42 27
3.063824e+000 4.286957e-001 -1.369522e+001 57 38 24
1.564008e+000 3.120266e-001 -1.439912e+001 177 137 76
2.713545e+000 3.576920e-001 -1.360500e+001 116 99 81
2.785691e+000 3.455001e-001 -1.376473e+001 46 31 15
3.955706e+000 1.745499e-001 -1.408982e+001 75 47 28
2.967397e+000 -2.059617e-002 -1.381891e+001 57 47 33
4.067758e+000 9.210772e-002 -1.430207e+001 55 31 12
2.585952e+000 -1.200550e-001 -1.396068e+001 78 62 46
2.026745e+000 -5.502104e-001 -1.472319e+001 119 85 60
2.402555e+000 -5.344220e-001 -1.480589e+001 50 34 21
5.416908e+000 -3.846463e-001 -1.534251e+001 93 69 43
2.483409e+000 -7.542555e-001 -1.513763e+001 40 28 16
-1.717426e-001 -1.000380e+000 -1.554183e+001 134 67 51
-1.270437e-001 -9.905417e-001 -1.557342e+001 198 140 120
1.577520e+000 -9.001234e-001 -1.530357e+001 54 38 23
2.061329e+000 -1.071590e+000 -1.516560e+001 105 77 53
2.369766e+000 -9.515809e-001 -1.522707e+001 113 95 68
4.520652e+000 -9.797905e-001 -1.582093e+001 104 77 52
4.927313e+000 -1.123371e+000 -1.603456e+001 102 80 58
5.097166e+000 -9.624762e-001 -1.587621e+001 65 40 18
2.277737e+000 -1.188945e+000 -1.546565e+001 43 30 13
6.735624e+000 -1.210607e+000 -1.418659e+001 104 78 37
-4.436997e+000 -1.503949e+000 -1.676388e+001 145 106 77
2.399596e+000 -1.438591e+000 -1.580322e+001 102 88 64
2.626006e+000 -1.664523e+000 -1.594632e+001 53 41 20
4.559734e+000 -1.620638e+000 -1.642933e+001 61 36 14
1.551581e+000 -1.697025e+000 -1.558758e+001 131 96 65
2.206405e+000 -1.689132e+000 -1.592818e+001 45 32 15
4.575434e+000 -1.854822e+000 -1.667145e+001 63 38 17
5.505798e-001 -2.231013e+000 -1.628767e+001 163 102 97
1.695763e+000 -1.985580e+000 -1.582638e+001 122 88 61
2.110913e+000 -2.134950e+000 -1.639354e+001 52 40 18
3.964059e+000 -2.131176e+000 -1.684138e+001 89 66 48
1.255988e+000 -2.515752e+000 -1.666689e+001 54 45 28
2.006259e+000 -2.502018e+000 -1.675908e+001 62 47 25
2.065739e+000 -2.330232e+000 -1.664337e+001 63 47 31
2.399139e+000 -2.367966e+000 -1.678071e+001 78 62 44
2.476953e+000 -2.409452e+000 -1.678678e+001 40 24 9
6.634172e+000 -2.112363e+000 -1.461451e+001 108 79 39
6.634172e+000 -2.112363e+000 -1.461451e+001 108 79 39
6.867972e+000 -1.886200e+000 -1.355907e+001 115 83 42
2.956361e-001 -2.688504e+000 -1.672525e+001 185 124 111
4.515418e+000 -2.810412e+000 -1.796803e+001 83 57 32
8.717680e-001 -3.158865e+000 -1.785914e+001 119 68 49
6.784297e+000 -2.419956e+000 -1.341372e+001 126 94 53
6.430948e+000 -3.231891e+000 -1.562322e+001 113 85 45
6.727722e+000 -2.849572e+000 -1.389153e+001 123 94 53
1.274302e+000 3.734988e+000 -1.609414e+001 80 72 44
1.678806e+000 3.787726e+000 -1.566333e+001 144 107 80
2.448539e+000 3.819204e+000 -1.582436e+001 82 66 44
3.623964e+000 3.938598e+000 -1.609111e+001 168 132 98
4.251784e+000 3.922313e+000 -1.615622e+001 100 64 30
4.150503e+000 3.832174e+000 -1.605610e+001 100 63 34
4.904421e+000 3.869322e+000 -1.618842e+001 104 65 32
5.415934e+000 3.841343e+000 -1.625617e+001 125 89 57
6.069093e+000 3.971229e+000 -1.661278e+001 125 86 45
6.710244e+000 3.270574e+000 -1.388416e+001 187 146 88
1.552766e+000 3.552207e+000 -1.564901e+001 145 112 84
1.456872e+000 3.546726e+000 -1.597664e+001 121 92 65
1.664206e+000 3.315017e+000 -1.530682e+001 233 201 168
2.479204e+000 3.408874e+000 -1.536564e+001 78 62 47
5.397847e+000 3.571884e+000 -1.606615e+001 98 64 36
1.616171e+000 3.009295e+000 -1.506988e+001 138 108 70
2.773284e+000 3.265321e+000 -1.536291e+001 66 49 29
2.799808e+000 3.176459e+000 -1.532191e+001 60 43 25
2.640467e+000 2.987838e+000 -1.512855e+001 62 44 22
2.824427e+000 2.975738e+000 -1.509864e+001 63 48 29
3.851783e+000 3.241804e+000 -1.550935e+001 116 84 59
3.718895e+000 3.061756e+000 -1.549280e+001 84 54 31
4.063831e+000 3.200324e+000 -1.562029e+001 85 56 35
1.492501e+000 2.891616e+000 -1.528372e+001 117 97 69
4.505673e+000 2.843199e+000 -1.537402e+001 80 46 19
5.811599e+000 3.048847e+000 -1.584715e+001 116 80 48
6.691628e+000 2.555252e+000 -1.396652e+001 148 111 58
2.244922e+000 2.497253e+000 -1.468412e+001 75 57 37
2.569472e+000 2.467243e+000 -1.484175e+001 28 16 2
4.665211e+000 2.697895e+000 -1.524825e+001 90 55 29
5.204189e+000 2.596135e+000 -1.545424e+001 111 75 41
1.287608e+000 2.488106e+000 -1.544667e+001 92 77 51
1.993222e+000 2.228248e+000 -1.441721e+001 166 131 95
1.905956e+000 2.167844e+000 -1.441075e+001 186 154 116
2.152875e+000 2.143330e+000 -1.437677e+001 55 38 20
2.253808e+000 2.324201e+000 -1.443520e+001 33 28 18
2.475307e+000 2.049975e+000 -1.416093e+001 66 51 32
3.018270e+000 2.344983e+000 -1.477042e+001 79 62 36
3.021757e+000 2.265366e+000 -1.463774e+001 77 57 33
4.540389e+000 2.268524e+000 -1.498633e+001 126 92 64
5.404590e+000 2.341518e+000 -1.502516e+001 136 97 64
2.143398e-001 2.612355e+000 -1.757637e+001 216 203 188
7.256828e-001 2.368227e+000 -1.667541e+001 172 147 112
1.994575e+000 1.946721e+000 -1.416349e+001 189 157 119
4.136429e+000 2.096183e+000 -1.471491e+001 86 52 25
2.280387e+000 1.700900e+000 -1.397154e+001 53 36 22
2.491151e+000 1.635775e+000 -1.398943e+001 80 59 35
2.939808e+000 1.629234e+000 -1.402459e+001 69 52 31
3.956961e+000 1.787816e+000 -1.435839e+001 148 113 81
5.236442e+000 1.661997e+000 -1.454233e+001 114 71 37
5.236442e+000 1.661997e+000 -1.454233e+001 114 71 37
6.247141e-001 1.754257e+000 -1.613915e+001 179 114 87
2.219762e+000 1.414468e+000 -1.371818e+001 115 77 40
4.355327e+000 1.439947e+000 -1.420841e+001 94 63 34
9.019749e-001 1.273869e+000 -1.538515e+001 205 149 116
2.330645e+000 1.127161e+000 -1.356992e+001 143 105 69
2.805756e+000 1.138284e+000 -1.368053e+001 57 46 27
1.512736e+000 9.725339e-001 -1.484685e+001 131 88 53
1.911521e+000 1.060871e+000 -1.402368e+001 139 103 71
1.884687e+000 9.115888e-001 -1.367000e+001 128 114 87
3.110863e+000 9.302380e-001 -1.373648e+001 63 46 26
-2.828655e-001 9.355751e-001 -1.614066e+001 155 79 66
1.422655e+000 9.052546e-001 -1.500716e+001 161 117 78
1.550342e+000 8.442043e-001 -1.463209e+001 153 111 73
1.838797e+000 6.681323e-001 -1.399911e+001 111 101 75
-3.135121e-001 5.827570e-001 -1.566075e+001 175 98 86
1.059214e+000 6.714466e-001 -1.511721e+001 175 109 93
1.558535e+000 6.495823e-001 -1.446544e+001 150 118 84
1.540213e+000 2.038252e-001 -1.466892e+001 135 94 45
2.118052e+000 2.097904e-001 -1.385089e+001 117 84 58
2.202069e+000 3.834648e-001 -1.373938e+001 156 124 95
2.246844e+000 3.762049e-001 -1.359818e+001 155 124 93
2.224886e+000 1.787224e-001 -1.394816e+001 126 92 64
3.070603e+000 3.016950e-001 -1.391182e+001 39 25 19
3.148147e+000 2.825875e-001 -1.376598e+001 52 36 21
5.894052e+000 3.173374e-001 -1.451243e+001 64 35 11
1.169992e+000 1.594118e-001 -1.512227e+001 95 56 40
2.117374e+000 -3.188493e-002 -1.405821e+001 166 131 100
2.399414e+000 9.565830e-002 -1.403362e+001 107 73 46
2.873672e+000 2.550886e-002 -1.387634e+001 62 50 34
2.984523e+000 3.233829e-002 -1.388162e+001 23 14 6
2.821873e+000 -1.266671e-001 -1.367883e+001 67 56 39
3.018867e+000 -1.589528e-001 -1.376389e+001 81 66 45
5.444466e+000 -1.991482e-001 -1.497348e+001 100 75 51
-5.027164e-001 -3.612022e-001 -1.572783e+001 163 113 85
-6.046370e-001 -5.652672e-001 -1.579214e+001 159 98 83
8.987592e-001 -4.822920e-001 -1.602233e+001 138 70 71
3.019417e+000 -4.274524e-001 -1.371938e+001 79 63 47
4.660116e+000 -4.390194e-001 -1.519343e+001 58 34 11
-2.113176e+000 -8.080276e-001 -1.715140e+001 183 135 112
2.137658e+000 -6.931952e-001 -1.477063e+001 115 81 54
2.260919e+000 -6.996571e-001 -1.489780e+001 49 36 18
4.173711e+000 -5.797532e-001 -1.528107e+001 68 41 22
4.850944e+000 -6.739463e-001 -1.548261e+001 93 69 44
4.850944e+000 -6.739463e-001 -1.548261e+001 93 69 44
5.391164e+000 -8.426820e-001 -1.581832e+001 63 38 17
-2.705675e-001 -8.722180e-001 -1.559504e+001 195 132 115
1.529795e+000 -1.013929e+000 -1.523818e+001 60 51 32
2.087775e+000 -9.988989e-001 -1.510128e+001 91 66 39
2.384352e+000 -8.315544e-001 -1.519877e+001 74 63 45
3.609957e+000 -1.091556e+000 -1.570311e+001 56 38 18
5.043250e+000 -1.107699e+000 -1.602428e+001 87 63 39
-5.297193e-001 -1.268764e+000 -1.558915e+001 165 91 88
1.749330e+000 -1.432318e+000 -1.527940e+001 54 42 20
2.671092e+000 -1.426667e+000 -1.570391e+001 61 46 27
2.773373e+000 -1.396433e+000 -1.567999e+001 37 24 13
2.750552e+000 -1.553612e+000 -1.578821e+001 89 71 50
4.501249e+000 -1.720599e+000 -1.650369e+001 50 28 6
-3.748900e+000 -1.789859e+000 -1.633492e+001 104 64 39
2.230173e+000 -1.774411e+000 -1.607783e+001 80 68 48
2.218566e+000 -1.851751e+000 -1.610964e+001 43 30 13
4.855249e+000 -1.836104e+000 -1.676201e+001 70 46 22
4.696570e-001 -1.950471e+000 -1.570668e+001 115 66 52
3.473968e-001 -2.197179e+000 -1.641556e+001 159 106 92
2.234308e+000 -2.117102e+000 -1.641291e+001 37 27 17
2.088533e+000 -2.256095e+000 -1.652795e+001 47 33 18
3.975758e+000 -2.032740e+000 -1.671704e+001 88 66 47
4.731808e+000 -2.170168e+000 -1.744612e+001 72 47 25
4.731808e+000 -2.170168e+000 -1.744612e+001 72 47 25
-3.368199e+000 -2.327726e+000 -1.651472e+001 97 64 45
1.439647e+000 -2.438396e+000 -1.618279e+001 65 56 39
2.060145e+000 -2.453240e+000 -1.681170e+001 51 38 24
1.280825e+000 -2.902886e+000 -1.744591e+001 115 68 54
2.378475e+000 -2.903819e+000 -1.746521e+001 156 136 112
2.378475e+000 -2.903819e+000 -1.746521e+001 156 136 112
-4.842878e+000 -2.979925e+000 -1.671797e+001 180 110 110
6.971868e-001 -3.084837e+000 -1.744997e+001 167 108 100
1.096929e+000 -3.490463e+000 -1.832652e+001 146 105 77
-4.572960e+000 -3.528137e+000 -1.712494e+001 149 78 84
1.020659e+000 -3.470504e+000 -1.806316e+001 182 141 109
6.590477e+000 -3.709983e+000 -1.462090e+001 169 140 98
1.595386e+000 4.053909e+000 -1.594479e+001 164 132 101
1.219314e+000 3.857459e+000 -1.615831e+001 91 83 54
1.373084e+000 3.498480e+000 -1.586018e+001 169 139 108
1.500073e+000 3.585850e+000 -1.585581e+001 176 145 116
1.599704e+000 3.322811e+000 -1.526592e+001 137 105 73
1.808429e+000 3.391396e+000 -1.533280e+001 143 115 78
2.716997e+000 3.563054e+000 -1.557494e+001 74 58 35
1.305861e+000 3.110427e+000 -1.564879e+001 188 157 123
1.665195e+000 3.063053e+000 -1.512251e+001 247 219 184
2.793654e+000 3.066745e+000 -1.513199e+001 66 50 29
4.040980e+000 3.100053e+000 -1.551592e+001 118 89 59
4.319482e+000 3.325524e+000 -1.565267e+001 124 89 62
4.430609e+000 3.143626e+000 -1.558400e+001 125 94 66
1.699505e+000 2.900555e+000 -1.515258e+001 126 93 61
2.249307e+000 2.772508e+000 -1.486450e+001 123 103 75
2.765831e+000 2.757071e+000 -1.502039e+001 69 56 32
1.865315e+000 2.608926e+000 -1.481924e+001 120 81 50
1.965211e+000 2.330247e+000 -1.442679e+001 128 93 61
2.335257e+000 2.508766e+000 -1.472467e+001 134 114 78
2.109433e+000 2.334377e+000 -1.460609e+001 56 34 21
2.465562e+000 2.178786e+000 -1.443514e+001 56 42 26
2.840782e+000 2.252312e+000 -1.459142e+001 150 126 88
2.947864e+000 2.086776e+000 -1.438572e+001 67 50 30
5.486953e+000 2.358039e+000 -1.509313e+001 111 72 39
7.253439e-001 2.247270e+000 -1.637956e+001 73 65 26
2.047109e+000 1.835192e+000 -1.406233e+001 216 180 145
2.556924e+000 1.834421e+000 -1.411962e+001 62 46 28
3.836532e+000 1.827176e+000 -1.424218e+001 105 70 42
4.154275e+000 1.960958e+000 -1.453380e+001 123 89 61
4.947192e+000 2.004137e+000 -1.479306e+001 115 79 46
4.947192e+000 2.004137e+000 -1.479306e+001 115 79 46
2.270130e+000 1.645238e+000 -1.402669e+001 144 110 69
4.203130e+000 1.797101e+000 -1.449012e+001 79 48 22
5.151062e+000 1.810459e+000 -1.465988e+001 120 81 46
2.314568e+000 1.338085e+000 -1.374019e+001 143 104 68
2.517678e+000 1.513501e+000 -1.378054e+001 77 61 38
2.977853e+000 1.514073e+000 -1.391016e+001 81 63 43
6.353162e+000 1.624865e+000 -1.471531e+001 142 103 62
1.900970e+000 1.140458e+000 -1.421102e+001 175 137 106
1.853213e+000 9.446702e-001 -1.393406e+001 65 59 34
3.154618e+000 8.886766e-001 -1.366655e+001 138 120 96
3.154618e+000 8.886766e-001 -1.366655e+001 138 120 96
3.347433e-002 8.841887e-001 -1.564798e+001 210 132 124
1.886724e+000 6.365619e-001 -1.387440e+001 71 60 38
1.886724e+000 6.365619e-001 -1.387440e+001 71 60 38
2.586918e+000 6.181186e-001 -1.367504e+001 38 24 13
2.812947e+000 7.404934e-001 -1.367874e+001 66 49 32
3.172789e+000 7.356543e-001 -1.366510e+001 56 37 21
3.172789e+000 7.356543e-001 -1.366510e+001 56 37 21
-2.428972e-001 6.959297e-001 -1.580852e+001 164 94 80
1.521237e+000 4.502142e-001 -1.463385e+001 185 144 81
2.300002e+000 5.566442e-001 -1.345473e+001 125 91 64
2.570942e+000 4.862732e-001 -1.360870e+001 61 44 24
3.316827e+000 5.482608e-001 -1.384963e+001 60 40 16
2.361878e+000 3.098623e-001 -1.368762e+001 112 84 54
2.829533e+000 1.991553e-001 -1.378441e+001 67 53 36
3.113454e+000 3.057373e-001 -1.381825e+001 114 94 68
4.939374e+000 2.198248e-001 -1.449701e+001 98 67 46
5.208724e+000 1.820026e-001 -1.445575e+001 61 34 15
2.156006e+000 1.440229e-001 -1.386990e+001 207 174 141
6.024629e+000 1.366715e-002 -1.486420e+001 79 48 20
1.228701e+000 -9.571142e-002 -1.509466e+001 179 140 109
2.149349e+000 -1.256593e-001 -1.400655e+001 195 161 129
3.074910e+000 -1.759654e-001 -1.375847e+001 38 25 14
3.615729e+000 -2.512149e-001 -1.456504e+001 58 37 20
5.608311e+000 -1.731649e-001 -1.505599e+001 76 51 28
2.120054e+000 -4.821383e-001 -1.451051e+001 213 182 153
2.234189e+000 -3.166557e-001 -1.432898e+001 114 83 55
5.659743e+000 -4.057924e-001 -1.539537e+001 94 68 44
-3.385629e-001 -6.576128e-001 -1.560202e+001 189 124 112
5.142565e+000 -8.258942e-001 -1.572292e+001 92 67 44
5.657655e+000 -8.415057e-001 -1.602786e+001 57 31 14
1.786974e+000 -9.643180e-001 -1.508345e+001 81 73 50
4.928849e+000 -9.949528e-001 -1.583112e+001 98 73 50
1.464758e+000 -1.139597e+000 -1.560787e+001 36 27 12
5.392665e+000 -1.179896e+000 -1.617903e+001 91 66 44
-4.862882e+000 -1.568254e+000 -1.691316e+001 178 137 110
3.559793e+000 -1.630043e+000 -1.609451e+001 103 75 53
4.730030e+000 -1.596110e+000 -1.648936e+001 70 43 22
-2.234312e-001 -1.673183e+000 -1.560324e+001 177 119 107
1.892658e+000 -1.862896e+000 -1.584082e+001 111 77 50
4.435373e+000 -2.050588e+000 -1.694829e+001 61 39 18
1.507873e+000 -2.057792e+000 -1.608387e+001 145 114 90
3.911802e+000 -2.269579e+000 -1.710643e+001 97 71 51
4.282801e+000 -2.043160e+000 -1.684339e+001 73 52 30
1.090988e+000 -2.339683e+000 -1.659984e+001 122 53 56
4.347705e-001 -2.675284e+000 -1.670152e+001 168 115 101
1.059486e+000 -3.040882e+000 -1.774630e+001 163 110 92
1.425647e+000 -2.606423e+000 -1.674573e+001 100 82 63
5.035326e+000 -3.043339e+000 -1.833318e+001 92 68 44
1.332360e+000 -3.080186e+000 -1.775746e+001 138 100 77
1.472222e+000 -3.382906e+000 -1.761771e+001 203 172 144
3.557438e+000 -3.862579e+000 -1.880111e+001 101 79 55
4.056692e+000 -3.542946e+000 -1.852499e+001 79 54 32
1.387219e+000 -3.806869e+000 -1.807004e+001 200 168 140
1.740017e+000 4.017061e+000 -1.595798e+001 91 71 51
2.720660e+000 4.161791e+000 -1.639807e+001 214 198 179
4.664942e+000 3.768755e+000 -1.605387e+001 107 73 38
5.367731e+000 4.019268e+000 -1.655340e+001 135 97 61
1.136340e+000 3.667817e+000 -1.620855e+001 57 49 26
1.508835e+000 3.360857e+000 -1.543759e+001 167 137 108
4.755123e+000 3.551719e+000 -1.590648e+001 102 65 37
4.507668e+000 3.424460e+000 -1.568620e+001 101 67 40
4.507668e+000 3.424460e+000 -1.568620e+001 101 67 40
5.050055e+000 3.564852e+000 -1.582354e+001 125 90 60
1.098035e+000 3.447918e+000 -1.626246e+001 90 80 55
1.746810e+000 2.817167e+000 -1.492645e+001 214 180 144
3.527310e+000 2.927427e+000 -1.535031e+001 81 53 29
4.028176e+000 2.891523e+000 -1.542872e+001 90 59 31
1.714932e+000 2.495364e+000 -1.524094e+001 157 126 98
4.499060e+000 2.483917e+000 -1.503890e+001 99 64 36
3.765862e+000 2.319821e+000 -1.485966e+001 114 80 53
3.671135e+000 2.215056e+000 -1.493931e+001 106 79 50
4.225151e+000 2.155379e+000 -1.475715e+001 130 95 66
4.713672e+000 2.419197e+000 -1.504136e+001 99 63 37
4.789303e+000 2.186906e+000 -1.488840e+001 100 64 34
5.588278e-001 2.540420e+000 -1.721794e+001 191 151 117
1.744014e+000 2.000428e+000 -1.459292e+001 82 70 42
1.871797e+000 2.041375e+000 -1.441228e+001 139 105 72
2.098413e+000 1.960230e+000 -1.421540e+001 136 98 61
4.307352e+000 1.943032e+000 -1.482743e+001 95 61 33
1.338285e-001 2.195313e+000 -1.754322e+001 201 159 109
5.070297e+000 1.783249e+000 -1.477233e+001 110 69 37
4.998142e+000 1.622270e+000 -1.449560e+001 146 108 71
3.076389e+000 1.122831e+000 -1.362233e+001 128 110 80
2.130938e+000 8.907193e-001 -1.358911e+001 198 163 122
2.181487e+000 4.554649e-001 -1.373667e+001 112 82 57
2.399778e+000 3.763965e-001 -1.360180e+001 107 76 47
3.084428e+000 2.340655e-001 -1.384310e+001 36 23 14
2.073964e+000 1.428376e-002 -1.404921e+001 126 90 62
2.391556e+000 1.511975e-001 -1.379250e+001 33 20 12
2.905743e+000 -1.128354e-001 -1.377140e+001 34 23 17
2.905743e+000 -1.128354e-001 -1.377140e+001 34 23 17
-3.570576e-001 -4.726431e-001 -1.567790e+001 168 102 87
5.643762e+000 -3.334993e-001 -1.519858e+001 64 42 19
1.570955e+000 -9.791480e-001 -1.503494e+001 81 73 52
