ply
format ascii 1.0
element face 0
property list uchar int vertex_indices
element vertex 883
property float x
property float y
property float z
property uchar diffuse_red
property uchar diffuse_green
property uchar diffuse_blue
end_header
2.915192e+000 -2.400033e+000 -1.735249e+001 73 45 25
2.006875e+000 -2.668918e+000 -1.720766e+001 59 37 20
2.243337e+000 -3.053193e+000 -1.732241e+001 217 184 131
2.259055e+000 -2.980438e+000 -1.733830e+001 217 184 131
1.938295e+000 -2.829345e+000 -1.756283e+001 73 43 24
2.017854e+000 -2.761787e+000 -1.758382e+001 207 179 134
3.931920e-001 -1.153505e+000 -1.750364e+001 158 101 75
1.468604e+000 -2.670691e+000 -1.755782e+001 138 99 48
3.685443e+000 -2.646041e+000 -1.811513e+001 84 54 26
3.384053e+000 -2.665230e+000 -1.822006e+001 69 44 22
4.220115e+000 -2.547229e+000 -1.859500e+001 129 100 66
7.721569e-001 -2.178430e+000 -1.786157e+001 148 69 62
1.327045e+000 -2.416084e+000 -1.814460e+001 71 59 40
1.658208e+000 -2.578696e+000 -1.812867e+001 161 138 112
3.398066e+000 -2.439782e+000 -1.858189e+001 78 54 30
3.406595e+000 -2.419698e+000 -1.858958e+001 78 54 30
1.935484e+000 -2.922712e+000 -1.822175e+001 81 71 50
2.527540e+000 -2.319916e+000 -1.856802e+001 71 52 28
1.334537e+000 -2.187442e+000 -1.838193e+001 151 120 89
3.255511e+000 -2.281286e+000 -1.886847e+001 108 87 58
3.618405e+000 -2.186819e+000 -1.899397e+001 55 36 13
2.645713e+000 -2.118986e+000 -1.890146e+001 99 79 55
2.745308e+000 -2.112435e+000 -1.895866e+001 60 43 27
4.068539e+000 -2.774586e+000 -1.932035e+001 69 62 54
3.641704e+000 -5.389559e-001 -1.524059e+001 105 76 44
1.995874e+000 -1.947866e+000 -1.615929e+001 86 58 41
2.495522e+000 -1.806666e+000 -1.644169e+001 255 247 198
1.051899e+000 -2.012638e+000 -1.640978e+001 127 72 58
3.392946e+000 -1.991863e+000 -1.708466e+001 129 96 61
3.052580e+000 -2.139645e+000 -1.713587e+001 74 44 20
3.051851e+000 -2.147807e+000 -1.713505e+001 74 44 20
1.940158e+000 -2.540467e+000 -1.709218e+001 214 183 147
2.134500e+000 -2.790803e+000 -1.732206e+001 84 65 47
2.858848e+000 -2.667852e+000 -1.759075e+001 114 83 52
3.095349e+000 -2.628744e+000 -1.770354e+001 89 57 32
-1.494680e+000 -2.710244e+000 -1.665674e+001 148 90 88
1.344864e+000 -2.373621e+000 -1.741395e+001 113 57 31
1.469148e+000 -2.579933e+000 -1.743486e+001 111 68 33
1.530655e+000 -2.815400e+000 -1.749130e+001 190 156 115
1.803639e+000 -2.862635e+000 -1.815145e+001 105 93 67
1.963357e+000 -2.913749e+000 -1.815583e+001 89 78 56
3.588598e+000 -2.418486e+000 -1.868187e+001 105 84 57
1.438012e+000 -2.464645e+000 -1.824794e+001 104 77 54
1.594478e+000 -2.465621e+000 -1.825026e+001 137 116 89
2.186345e+000 -5.270302e-001 -1.499477e+001 152 102 62
3.867616e+000 -4.573731e-001 -1.527773e+001 145 111 75
1.641189e+000 -1.396694e+000 -1.585598e+001 123 43 42
4.874277e+000 -3.578244e+000 -1.666183e+001 150 118 67
1.740385e+000 -1.613698e+000 -1.609535e+001 120 50 48
2.628269e+000 -1.709145e+000 -1.625040e+001 59 47 26
2.620794e+000 -1.736071e+000 -1.639418e+001 60 43 25
2.444664e+000 -1.988680e+000 -1.662963e+001 190 161 115
2.981930e-001 -1.551513e+000 -1.631230e+001 84 45 38
1.385861e+000 -2.191567e+000 -1.663556e+001 164 101 91
3.291943e+000 -2.214690e+000 -1.730304e+001 122 87 57
1.503728e+000 -2.324008e+000 -1.701060e+001 115 45 33
1.681471e+000 -2.340295e+000 -1.707475e+001 189 145 110
3.386444e+000 -2.591599e+000 -1.774967e+001 72 44 17
1.171800e+000 -2.361712e+000 -1.741912e+001 118 52 47
3.038033e-002 -1.545769e+000 -1.740238e+001 79 49 39
2.175433e+000 -2.927154e+000 -1.767549e+001 22 15 12
3.923368e+000 -2.680229e+000 -1.849254e+001 84 59 33
2.228492e+000 -2.862934e+000 -1.805434e+001 109 95 61
3.172288e+000 -2.556415e+000 -1.844079e+001 58 39 22
3.172288e+000 -2.556415e+000 -1.844079e+001 58 39 22
2.208290e+000 -3.122407e+000 -1.808893e+001 69 57 35
2.882066e+000 -2.521662e+000 -1.844872e+001 80 58 34
1.519091e+000 -2.202205e+000 -1.841743e+001 150 127 98
3.021334e+000 -5.871287e-001 -1.508723e+001 93 68 48
3.870412e+000 -1.102361e+000 -1.610854e+001 147 114 73
3.804652e+000 -1.813542e+000 -1.689289e+001 144 110 73
1.833980e+000 -1.963688e+000 -1.670087e+001 98 51 36
2.559884e+000 -1.957975e+000 -1.675400e+001 77 62 36
7.472975e-001 -1.474964e+000 -1.666973e+001 145 64 63
2.379684e+000 -2.845807e+000 -1.715349e+001 41 31 21
-3.003830e-001 -1.776721e+000 -1.709413e+001 132 97 77
4.384894e+000 -2.802022e+000 -1.831081e+001 150 117 63
1.608022e+000 -2.600578e+000 -1.791813e+001 91 63 41
2.980259e+000 -2.631076e+000 -1.835941e+001 99 77 54
2.957561e+000 -2.714219e+000 -1.833122e+001 99 77 54
1.726495e+000 -2.581834e+000 -1.822297e+001 52 32 23
2.818456e+000 -2.076536e+000 -1.894208e+001 66 51 32
9.405367e-001 -1.727569e+000 -1.671391e+001 170 101 94
1.349561e+000 -2.448219e+000 -1.800435e+001 55 49 33
2.680514e+000 -2.723864e+000 -1.816213e+001 53 34 17
1.917947e+000 -1.599542e+000 -1.612090e+001 68 55 37
1.674762e+000 -2.439621e+000 -1.715885e+001 178 128 74
8.785896e-001 -2.211057e+000 -1.710640e+001 188 113 106
4.058545e+000 -2.240535e+000 -1.828847e+001 96 66 38
3.351276e+000 -1.481966e+000 -1.662755e+001 97 67 39
1.429373e+000 -2.256303e+000 -1.677220e+001 111 55 42
4.274953e+000 -2.224563e+000 -1.907367e+001 88 69 36
1.367537e+000 -1.886685e+000 -1.605400e+001 153 96 77
1.781086e+000 -2.638742e+000 -1.719469e+001 149 107 69
4.375933e+000 -1.266604e+000 -1.648628e+001 88 54 21
2.003096e+000 -2.087335e+000 -1.656406e+001 229 199 162
2.000530e+000 -2.101850e+000 -1.656011e+001 229 199 162
1.692240e+000 -2.094705e+000 -1.669015e+001 157 100 81
3.974152e+000 -1.840690e+000 -1.708581e+001 118 85 52
8.058166e-001 -1.287011e+000 -1.675467e+001 127 54 48
1.427571e+000 -2.416970e+000 -1.709301e+001 192 145 118
3.986702e+000 -1.821967e+000 -2.034784e+001 107 79 40
4.766778e+000 -4.038186e+000 -1.683710e+001 226 187 117
4.001489e+000 -8.671736e-001 -1.587521e+001 108 77 48
3.478352e+000 -2.016155e+000 -1.708718e+001 76 46 18
2.983728e+000 -2.740854e+000 -1.802667e+001 66 42 19
1.060563e+000 -1.463539e+000 -1.573743e+001 126 60 47
3.512676e+000 -1.514797e+000 -1.644989e+001 96 70 44
4.146871e+000 -1.811901e+000 -1.717041e+001 92 57 23
-1.468105e-001 -1.797717e+000 -1.716244e+001 73 42 22
3.381027e+000 -2.676248e+000 -1.816291e+001 81 54 26
8.607536e-001 -2.123171e+000 -1.806547e+001 180 127 103
6.312432e-001 -1.849232e+000 -1.788392e+001 186 120 104
4.051626e+000 -1.085345e+000 -1.613254e+001 123 89 51
2.938836e+000 -1.916612e+000 -1.677738e+001 80 49 20
3.402907e+000 -1.906014e+000 -1.698491e+001 70 37 8
-1.493262e+000 -2.690539e+000 -1.663795e+001 145 84 79
-1.493262e+000 -2.690539e+000 -1.663795e+001 145 84 79
3.231490e+000 -2.650053e+000 -1.784489e+001 93 62 31
3.828195e+000 -1.316891e+000 -1.631768e+001 149 115 77
5.000881e+000 -2.013016e+000 -1.528264e+001 181 146 92
2.634462e+000 -9.439303e-001 -1.484763e+001 101 87 67
2.252968e+000 -9.200343e-001 -1.518314e+001 241 209 171
4.058907e+000 -6.860528e-001 -1.571437e+001 89 57 32
4.058907e+000 -6.860528e-001 -1.571437e+001 89 57 32
4.874584e+000 -1.427878e+000 -1.596692e+001 144 111 58
4.843023e+000 -1.523594e+000 -1.599445e+001 179 146 92
4.138488e+000 -7.652398e-001 -1.585672e+001 87 56 27
2.350858e+000 -1.429423e+000 -1.583032e+001 67 51 33
3.338052e+000 -1.484967e+000 -1.638239e+001 95 64 35
3.274043e+000 -1.814414e+000 -1.676323e+001 116 87 57
3.667398e+000 -1.802600e+000 -1.692086e+001 119 88 60
3.876825e+000 -1.771968e+000 -1.697757e+001 130 92 55
3.452234e+000 -2.034660e+000 -1.716990e+001 98 68 42
3.941317e+000 -1.974611e+000 -1.722225e+001 119 85 50
3.941317e+000 -1.974611e+000 -1.722225e+001 119 85 50
8.309999e-001 -2.042187e+000 -1.799647e+001 158 103 78
1.409527e+000 -1.952432e+000 -1.847089e+001 112 85 55
3.086551e+000 -1.738243e+000 -1.908445e+001 80 59 32
2.591941e+000 -1.546630e+000 -1.918875e+001 74 54 34
1.379543e+000 -1.583335e+000 -1.892764e+001 133 112 89
2.915733e+000 -1.286572e+000 -1.945531e+001 119 94 68
5.061367e+000 -1.300058e+000 -1.487583e+001 217 184 130
5.062251e+000 -1.307360e+000 -1.491200e+001 187 156 101
2.328632e+000 -5.043786e-001 -1.462496e+001 226 193 158
4.986279e+000 -2.369012e+000 -1.556156e+001 194 161 107
2.530312e+000 -6.430520e-001 -1.497205e+001 135 117 100
2.065967e+000 -1.274667e+000 -1.540384e+001 122 113 78
2.251096e+000 -1.122611e+000 -1.541157e+001 131 101 68
2.325140e+000 -1.058129e+000 -1.536186e+001 62 40 20
2.865352e+000 -8.236223e-001 -1.545601e+001 159 135 111
2.398167e+000 -1.091851e+000 -1.552335e+001 60 45 26
4.193700e+000 -1.109178e+000 -1.618183e+001 91 60 31
4.190941e+000 -1.116504e+000 -1.618120e+001 91 60 31
1.924956e+000 -1.501294e+000 -1.592884e+001 147 101 61
2.762688e+000 -1.453259e+000 -1.606157e+001 146 119 90
2.750982e+000 -1.512157e+000 -1.613479e+001 155 128 98
3.450837e+000 -1.355066e+000 -1.620622e+001 116 85 59
3.489508e+000 -1.440200e+000 -1.627562e+001 100 66 38
4.119246e+000 -1.284604e+000 -1.641944e+001 98 64 27
1.554633e+000 -1.724077e+000 -1.599601e+001 166 108 91
2.108007e+000 -1.807567e+000 -1.614111e+001 175 144 115
3.309293e+000 -1.599543e+000 -1.646663e+001 72 42 18
4.030115e+000 -1.498691e+000 -1.662495e+001 111 80 52
4.371102e+000 -1.188798e+000 -1.660581e+001 112 81 51
4.230553e+000 -1.432823e+000 -1.661718e+001 79 49 23
2.980975e+000 -1.695252e+000 -1.651687e+001 77 51 26
3.509464e+000 -1.650915e+000 -1.663983e+001 69 42 20
4.244823e+000 -1.488332e+000 -1.670402e+001 79 49 25
2.249395e+000 -1.934420e+000 -1.648854e+001 71 53 35
3.563649e+000 -1.683660e+000 -1.673702e+001 84 54 28
3.658651e+000 -1.673306e+000 -1.678236e+001 85 54 26
3.400468e+000 -1.870180e+000 -1.690633e+001 79 49 23
3.780726e+000 -1.785259e+000 -1.692386e+001 116 82 45
3.977860e+000 -1.659562e+000 -1.693361e+001 79 48 19
3.808456e+000 -1.803431e+000 -1.697253e+001 144 109 72
4.357735e+000 -1.850328e+000 -1.731898e+001 151 113 68
3.360364e+000 -2.228972e+000 -1.732310e+001 103 70 38
3.762838e+000 -2.119428e+000 -1.739200e+001 122 87 55
7.296783e-003 -1.868974e+000 -1.666600e+001 122 69 56
-1.490360e-002 -1.880920e+000 -1.669092e+001 79 43 32
3.211376e+000 -2.295435e+000 -1.733613e+001 119 88 59
3.611362e+000 -2.222160e+000 -1.743331e+001 106 70 41
3.005990e+000 -2.460652e+000 -1.741748e+001 92 63 33
4.014873e+000 -2.292119e+000 -1.766943e+001 111 77 49
1.818179e+000 -2.620628e+000 -1.723328e+001 168 125 86
3.800473e+000 -2.543921e+000 -1.788473e+001 126 92 57
3.768856e+000 -2.582138e+000 -1.791905e+001 89 60 28
3.912504e+000 -2.556380e+000 -1.852841e+001 71 44 23
4.286302e+000 -2.413361e+000 -1.868530e+001 114 90 59
1.523415e+000 -2.509917e+000 -1.807369e+001 99 81 55
1.635100e+000 -2.519914e+000 -1.820868e+001 92 70 47
1.875519e+000 -2.865805e+000 -1.814565e+001 86 74 52
2.151618e+000 -2.894960e+000 -1.817843e+001 87 73 46
2.635241e+000 -2.599659e+000 -1.833188e+001 60 39 18
1.352864e+000 -2.067858e+000 -1.827926e+001 73 58 35
4.011783e+000 -1.210874e+000 -1.960945e+001 72 52 30
1.336067e+000 -1.652833e+000 -1.884045e+001 141 117 91
1.714996e+000 -2.137914e+000 -1.877135e+001 65 57 38
1.797245e+000 -1.683193e+000 -1.908208e+001 79 72 54
2.535804e+000 -7.164625e-001 -1.516707e+001 53 40 25
3.991554e+000 -6.461557e-001 -1.557248e+001 134 101 70
4.448291e+000 -5.952008e-001 -1.567347e+001 137 105 66
4.469294e+000 -5.473424e-001 -1.567025e+001 137 105 66
2.189916e+000 -1.098941e+000 -1.534484e+001 130 96 61
3.920393e+000 -6.992141e-001 -1.565949e+001 127 93 64
3.915880e+000 -9.198937e-001 -1.590241e+001 95 64 35
4.180420e+000 -9.314271e-001 -1.600640e+001 144 111 77
2.204825e+000 -1.503950e+000 -1.580738e+001 115 79 46
3.478082e+000 -1.219327e+000 -1.606865e+001 116 81 49
4.141711e+000 -1.175427e+000 -1.624779e+001 100 70 36
4.046247e+000 -1.240315e+000 -1.625208e+001 132 98 61
4.193683e+000 -1.142497e+000 -1.628175e+001 89 54 22
1.843499e+000 -1.257619e+000 -1.583894e+001 156 96 45
2.330726e+000 -1.639007e+000 -1.609726e+001 60 44 27
4.340073e+000 -1.211867e+000 -1.641730e+001 133 98 63
3.529747e+000 -1.454168e+000 -1.639583e+001 124 93 62
3.690282e+000 -1.543506e+000 -1.654540e+001 113 82 53
1.773062e+000 -1.831015e+000 -1.622727e+001 65 49 31
1.769664e+000 -1.853792e+000 -1.622722e+001 65 49 31
3.642387e+000 -1.559597e+000 -1.656578e+001 80 50 24
2.040346e+000 -2.020263e+000 -1.647113e+001 134 102 71
3.795787e+000 -1.583227e+000 -1.673655e+001 125 92 61
3.916760e+000 -1.632782e+000 -1.680624e+001 76 47 17
3.981879e+000 -1.642117e+000 -1.682044e+001 84 52 24
1.862185e+000 -1.913567e+000 -1.647930e+001 139 84 71
2.119664e+000 -2.056529e+000 -1.656610e+001 45 22 17
4.561479e+000 -1.655919e+000 -1.720347e+001 102 67 27
4.241229e+000 -1.754967e+000 -1.714086e+001 112 77 37
2.251452e+000 -2.156343e+000 -1.684127e+001 43 28 12
3.549110e+000 -2.304340e+000 -1.749883e+001 108 74 39
3.657465e+000 -2.307941e+000 -1.751593e+001 142 106 71
1.840305e+000 -2.519897e+000 -1.711690e+001 188 145 103
1.840305e+000 -2.519897e+000 -1.711690e+001 188 145 103
3.423415e+000 -2.314906e+000 -1.751660e+001 95 61 33
3.563701e+000 -2.376236e+000 -1.757472e+001 128 94 57
3.602197e+000 -2.385500e+000 -1.759278e+001 99 64 32
3.605572e+000 -2.378000e+000 -1.759481e+001 99 64 32
3.645232e+000 -2.387932e+000 -1.759934e+001 110 76 41
3.750952e+000 -2.312689e+000 -1.759810e+001 97 63 28
1.799109e+000 -2.634215e+000 -1.739247e+001 163 122 91
3.055991e+000 -2.701405e+000 -1.786557e+001 82 52 24
1.264286e-001 -1.428148e+000 -1.745134e+001 85 43 31
1.264286e-001 -1.428148e+000 -1.745134e+001 85 43 31
3.403148e+000 -2.690926e+000 -1.802880e+001 105 77 47
2.053625e+000 -2.924326e+000 -1.801586e+001 85 69 50
3.867260e+000 -2.544201e+000 -1.854956e+001 66 44 21
3.563529e+000 -2.270352e+000 -1.876798e+001 67 45 19
1.462630e+000 -2.069367e+000 -1.845107e+001 125 97 75
3.353285e+000 -1.796569e+000 -1.909589e+001 91 67 41
1.371079e+000 -1.714574e+000 -1.879155e+001 150 129 102
1.371297e+000 -1.723401e+000 -1.879120e+001 150 129 102
5.004359e+000 -2.918105e+000 -1.564224e+001 153 121 72
2.058596e+000 1.804744e-001 -1.465313e+001 44 40 37
3.113158e+000 -7.660131e-001 -1.536169e+001 68 43 23
3.650183e+000 -8.435947e-001 -1.569032e+001 111 76 44
2.119995e+000 -1.480326e+000 -1.572984e+001 157 112 74
4.070116e+000 -1.035206e+000 -1.608568e+001 98 67 37
4.310288e+000 -9.730167e-001 -1.610811e+001 142 110 76
1.208681e+000 -1.570385e+000 -1.571521e+001 186 137 109
3.096995e+000 -1.300802e+000 -1.602238e+001 112 81 53
4.396829e+000 -1.100644e+000 -1.627134e+001 118 83 43
4.002804e+000 -1.441981e+000 -1.646441e+001 143 111 72
4.209407e+000 -1.345630e+000 -1.649866e+001 144 111 78
3.718054e+000 -1.597946e+000 -1.665092e+001 120 89 58
4.073038e+000 -1.479184e+000 -1.665102e+001 97 64 36
3.532256e+000 -1.703706e+000 -1.668203e+001 111 81 53
4.404037e+000 -1.653305e+000 -1.692329e+001 142 103 60
2.072135e+000 -2.014318e+000 -1.649215e+001 118 84 54
2.937649e+000 -1.875140e+000 -1.671696e+001 122 89 59
6.387748e-001 -1.379328e+000 -1.655147e+001 193 109 109
3.734573e+000 -2.113203e+000 -1.736326e+001 89 54 23
3.952506e+000 -2.276332e+000 -1.759527e+001 96 62 34
1.758506e+000 -2.595733e+000 -1.715364e+001 183 146 104
1.742401e+000 -2.608578e+000 -1.742355e+001 170 129 97
2.360909e+000 -2.871427e+000 -1.760126e+001 31 21 15
3.198740e+000 -2.723924e+000 -1.792647e+001 119 88 57
2.656797e+000 -2.467781e+000 -1.845612e+001 95 75 50
2.425931e+000 -1.935416e+000 -1.880562e+001 71 53 30
2.551646e+000 -2.084192e+000 -1.873027e+001 94 74 49
2.558137e+000 -1.367049e+000 -1.930168e+001 80 62 38
2.241557e+000 -4.220480e-001 -1.483820e+001 187 148 117
2.233471e+000 -4.570530e-001 -1.484270e+001 187 148 117
2.047658e+000 -6.991004e-001 -1.517782e+001 144 96 60
3.532951e+000 -8.829028e-001 -1.566962e+001 99 68 37
3.233081e+000 -1.146386e+000 -1.588509e+001 136 103 72
3.392840e+000 -1.058963e+000 -1.588454e+001 139 106 73
3.384088e+000 -1.086452e+000 -1.588736e+001 139 106 73
4.107677e+000 -1.011739e+000 -1.602436e+001 136 103 69
4.107677e+000 -1.011739e+000 -1.602436e+001 136 103 69
4.175592e+000 -1.060062e+000 -1.611988e+001 123 91 56
4.175592e+000 -1.060062e+000 -1.611988e+001 123 91 56
3.886460e+000 -1.261406e+000 -1.626470e+001 98 63 31
3.882120e+000 -1.276872e+000 -1.626613e+001 98 63 31
3.534225e+000 -2.062063e+000 -1.721212e+001 129 96 63
3.521666e+000 -2.486115e+000 -1.762058e+001 102 66 32
1.838432e+000 -2.816226e+000 -1.750493e+001 140 102 66
-1.507326e+000 -2.659580e+000 -1.674978e+001 120 64 64
2.208815e+000 -2.835143e+000 -1.815596e+001 67 56 31
3.578786e+000 -2.169547e+000 -1.885752e+001 103 81 56
1.967532e+000 -2.178991e+000 -1.869043e+001 87 76 56
4.625164e+000 -3.612654e-001 -1.537736e+001 168 131 86
4.841392e+000 -4.531097e-001 -1.561355e+001 161 125 71
4.374941e+000 -6.536782e-001 -1.574154e+001 151 117 79
3.909372e+000 -8.616157e-001 -1.586694e+001 96 65 36
4.830419e+000 -3.844626e+000 -1.676009e+001 230 191 126
1.327474e+000 -1.652484e+000 -1.605537e+001 133 63 55
3.395403e+000 -1.836424e+000 -1.687553e+001 89 59 33
1.062445e+000 -2.028342e+000 -1.656310e+001 168 115 97
1.517613e+000 -2.190095e+000 -1.664873e+001 160 92 86
1.327590e+000 -2.208985e+000 -1.675142e+001 136 84 65
4.252735e+000 -2.041344e+000 -1.746722e+001 173 136 91
-1.419603e+000 -2.593489e+000 -1.624597e+001 142 78 69
3.371505e+000 -2.338800e+000 -1.744273e+001 125 92 59
3.371505e+000 -2.338800e+000 -1.744273e+001 125 92 59
1.576385e+000 -2.414466e+000 -1.712191e+001 146 95 68
2.266033e+000 -2.902457e+000 -1.714981e+001 31 26 15
2.745895e+000 -2.677828e+000 -1.757241e+001 84 54 28
1.937325e+000 -2.831257e+000 -1.756290e+001 73 43 24
1.618967e+000 -2.569671e+000 -1.797995e+001 83 56 33
4.596208e+000 -4.700250e-002 -1.506160e+001 148 107 64
4.449872e+000 -2.431868e-001 -1.519324e+001 162 123 81
2.389172e+000 -7.919417e-001 -1.510414e+001 69 48 30
2.942980e+000 -6.148825e-001 -1.510816e+001 93 70 52
4.927892e+000 -3.130450e+000 -1.591269e+001 219 183 125
2.383815e+000 -8.535570e-001 -1.523417e+001 93 71 47
3.727507e+000 -5.920206e-001 -1.541839e+001 119 85 55
3.727507e+000 -5.920206e-001 -1.541839e+001 119 85 55
2.358858e+000 -1.012156e+000 -1.537594e+001 69 50 33
4.871168e+000 -3.682448e+000 -1.658786e+001 219 181 120
1.714242e+000 -1.645006e+000 -1.596271e+001 173 109 97
3.876463e+000 -1.702512e+000 -1.688793e+001 143 107 73
3.785040e+000 -2.072390e+000 -1.727100e+001 135 101 66
1.454710e-001 -1.528956e+000 -1.731925e+001 136 81 69
2.819104e+000 -2.742362e+000 -1.776420e+001 104 73 52
2.987546e+000 -2.731131e+000 -1.802697e+001 73 48 25
3.298419e+000 -1.681146e+000 -1.912050e+001 117 93 67
1.375218e+000 -1.675006e+000 -1.882043e+001 142 120 96
1.523017e+000 -1.895068e+000 -1.631089e+001 125 49 49
1.505181e+000 -2.307103e+000 -1.701176e+001 115 45 33
-1.466602e+000 -2.710912e+000 -1.650054e+001 152 91 86
4.003993e+000 -6.380000e-001 -1.565554e+001 92 60 33
1.888057e+000 -1.902951e+000 -1.637920e+001 102 64 47
1.217221e+000 -2.087183e+000 -1.684445e+001 114 54 48
1.217221e+000 -2.087183e+000 -1.684445e+001 114 54 48
2.297767e+000 -2.854969e+000 -1.755740e+001 26 17 10
2.270261e+000 -2.797600e+000 -1.767444e+001 69 58 40
4.004319e+000 -1.430372e+000 -1.654128e+001 74 40 18
4.782656e+000 -3.577102e+000 -1.709144e+001 131 99 50
4.671911e+000 -2.975961e+000 -1.731317e+001 124 92 42
2.296839e+000 -3.080825e+000 -1.730126e+001 109 90 66
3.266360e+000 -2.481408e+000 -1.756015e+001 59 34 12
1.292926e+000 -2.420939e+000 -1.772600e+001 149 105 80
1.416066e+000 -2.586347e+000 -1.769328e+001 126 90 52
1.740130e+000 -2.868850e+000 -1.764331e+001 137 99 63
3.131131e+000 -2.571746e+000 -1.846959e+001 47 30 10
1.921077e+000 -2.860567e+000 -1.824914e+001 83 72 52
2.678718e+000 -2.460965e+000 -1.851614e+001 61 43 21
1.579512e+000 -2.194144e+000 -1.867067e+001 62 48 31
5.091284e+000 -2.736519e+000 -1.563755e+001 193 157 98
7.910830e-001 -1.394830e+000 -1.577806e+001 132 66 56
3.466799e+000 -1.541473e+000 -1.644851e+001 68 41 20
2.083527e+000 -1.855612e+000 -1.626492e+001 159 135 107
1.932276e+000 -2.016702e+000 -1.632000e+001 58 49 27
3.360625e+000 -1.903094e+000 -1.699084e+001 105 76 44
4.780325e+000 -3.652101e+000 -1.714146e+001 132 101 47
4.780325e+000 -3.652101e+000 -1.714146e+001 132 101 47
2.958986e+000 -2.309842e+000 -1.726555e+001 81 51 25
3.409330e+000 -2.665636e+000 -1.818642e+001 90 65 42
3.544367e+000 -2.316987e+000 -1.875915e+001 61 40 18
2.623302e+000 -6.392736e-001 -1.472109e+001 35 25 13
2.225752e+000 -9.160525e-001 -1.523892e+001 186 152 115
2.453405e+000 -8.354853e-001 -1.532733e+001 55 40 24
2.406700e+000 -1.455776e+000 -1.587580e+001 41 29 13
3.386652e+000 -1.172257e+000 -1.600396e+001 123 90 59
2.390642e+000 -1.559361e+000 -1.603368e+001 42 25 15
3.959369e+000 -1.294105e+000 -1.629733e+001 95 62 30
1.011792e+000 -1.413071e+000 -1.623933e+001 117 57 49
3.591988e+000 -1.763990e+000 -1.686405e+001 105 77 50
3.679140e+000 -2.053506e+000 -1.726597e+001 60 34 11
1.399361e+000 -2.348143e+000 -1.694398e+001 186 130 114
1.377324e+000 -2.365681e+000 -1.711682e+001 135 81 64
3.109379e+000 -2.381772e+000 -1.740721e+001 107 80 51
3.530543e+000 -2.340246e+000 -1.749679e+001 95 64 33
1.483890e+000 -2.158604e+000 -1.847940e+001 150 129 98
4.153625e+000 -1.019254e+000 -1.607049e+001 87 58 28
3.884485e+000 -2.020438e+000 -1.729662e+001 81 48 18
3.648283e+000 -2.189639e+000 -1.739934e+001 114 80 52
1.865632e+000 -2.801213e+000 -1.739861e+001 215 181 144
1.609552e+000 -1.289985e-001 -1.521885e+001 38 31 26
1.218545e+000 -1.550883e+000 -1.597690e+001 152 89 78
1.218545e+000 -1.550883e+000 -1.597690e+001 152 89 78
1.132230e+000 -2.163419e+000 -1.644706e+001 167 114 96
3.747503e+000 -1.232047e+000 -1.618913e+001 127 91 57
4.110468e+000 -1.970238e+000 -1.948721e+001 27 22 18
4.917667e+000 -2.661291e+000 -1.571322e+001 205 177 127
4.945112e+000 -2.530761e+000 -1.569666e+001 197 169 121
4.954824e+000 -8.791590e-001 -1.519490e+001 182 155 102
4.990617e+000 -7.993034e-001 -1.521538e+001 200 172 120
4.938590e+000 -9.732279e-001 -1.524787e+001 201 173 123
2.822532e+000 -8.098150e-001 -1.496901e+001 71 55 39
4.894410e+000 -7.408727e-001 -1.538759e+001 153 123 73
4.852283e+000 -2.842743e+000 -1.609058e+001 189 161 115
4.932793e+000 -2.839474e+000 -1.616062e+001 141 110 64
2.429711e+000 -6.645157e-001 -1.501526e+001 68 54 40
2.519353e+000 -5.263686e-001 -1.505546e+001 62 49 33
2.042212e+000 -7.966083e-001 -1.525511e+001 178 147 116
2.301089e+000 -9.351618e-001 -1.529860e+001 128 95 67
2.786136e+000 -7.012487e-001 -1.523244e+001 43 31 15
4.826119e+000 -4.346757e-001 -1.562796e+001 163 131 77
4.806651e+000 -1.679282e+000 -1.599931e+001 193 163 113
4.814419e+000 -1.608834e+000 -1.603147e+001 145 114 67
4.790000e+000 -3.502489e+000 -1.649953e+001 139 109 62
2.563973e+000 -8.039557e-001 -1.546280e+001 67 55 42
2.700119e+000 -9.350202e-001 -1.552577e+001 60 45 26
2.667695e+000 -1.049956e+000 -1.557747e+001 72 57 36
3.768805e+000 -8.011940e-001 -1.570969e+001 96 65 36
4.209521e+000 -8.656022e-001 -1.593481e+001 123 94 64
4.826279e+000 -4.396394e-001 -1.594579e+001 198 166 125
1.956012e+000 -8.068963e-001 -1.548583e+001 126 98 76
2.375835e+000 -1.255787e+000 -1.567790e+001 47 34 20
2.375835e+000 -1.255787e+000 -1.567790e+001 47 34 20
2.643490e+000 -1.208189e+000 -1.571965e+001 78 63 42
4.226393e+000 -9.951508e-001 -1.604034e+001 123 93 64
4.749985e+000 -1.454138e+000 -1.629859e+001 170 137 86
4.749985e+000 -1.454138e+000 -1.629859e+001 170 137 86
1.661441e+000 -1.310316e+000 -1.583370e+001 115 32 34
1.709455e+000 -1.300885e+000 -1.585074e+001 127 47 48
3.423031e+000 -1.348261e+000 -1.621673e+001 76 52 26
4.692572e+000 -3.610563e+000 -1.699343e+001 141 110 62
4.692572e+000 -3.610563e+000 -1.699343e+001 141 110 62
4.725465e+000 -3.747581e+000 -1.701414e+001 168 137 91
1.155443e+000 -1.346278e+000 -1.577636e+001 129 69 59
1.269771e+000 -1.474379e+000 -1.593129e+001 145 89 74
2.313108e+000 -1.743909e+000 -1.625612e+001 47 34 20
3.919204e+000 -1.524967e+000 -1.655198e+001 108 81 54
4.640625e+000 -1.308724e+000 -1.668254e+001 111 78 35
4.665237e+000 -3.116017e+000 -1.703508e+001 184 154 102
4.655239e+000 -3.218555e+000 -1.708883e+001 179 148 101
4.655239e+000 -3.218555e+000 -1.708883e+001 179 148 101
1.442305e+000 -1.913234e+000 -1.621479e+001 148 100 78
1.745541e+000 -1.671081e+000 -1.620101e+001 155 85 86
1.767365e+000 -1.848439e+000 -1.628061e+001 195 155 132
2.230946e+000 -1.825453e+000 -1.641757e+001 57 38 23
2.347866e+000 -1.818697e+000 -1.635505e+001 35 23 7
2.350545e+000 -1.931219e+000 -1.641359e+001 70 61 37
2.837344e+000 -1.506079e+000 -1.638412e+001 123 96 71
3.355692e+000 -1.641048e+000 -1.652682e+001 92 67 41
3.504337e+000 -1.660463e+000 -1.663953e+001 68 41 20
2.021781e+000 -1.965306e+000 -1.640253e+001 112 77 55
1.983939e+000 -2.006366e+000 -1.651161e+001 120 86 59
2.160444e+000 -1.913954e+000 -1.643111e+001 40 28 13
2.087265e+000 -2.066413e+000 -1.656819e+001 129 100 72
2.175767e+000 -2.019522e+000 -1.660700e+001 57 40 24
2.175767e+000 -2.019522e+000 -1.660700e+001 57 40 24
2.458327e+000 -1.914755e+000 -1.659304e+001 86 69 42
2.635394e+000 -1.981348e+000 -1.668289e+001 132 111 84
3.126476e+000 -1.828323e+000 -1.676673e+001 77 53 29
3.142717e+000 -1.883140e+000 -1.680567e+001 78 52 29
3.839682e+000 -1.661309e+000 -1.695478e+001 120 87 54
4.545001e+000 -1.643984e+000 -1.710046e+001 97 64 31
4.545001e+000 -1.643984e+000 -1.710046e+001 97 64 31
4.626902e+000 -3.102188e+000 -1.727445e+001 135 107 59
5.663689e-001 -7.710934e-001 -1.605921e+001 136 60 60
2.004671e+000 -2.136427e+000 -1.666074e+001 240 213 182
2.405930e+000 -2.090900e+000 -1.674293e+001 82 66 41
2.393637e+000 -2.042455e+000 -1.679978e+001 195 176 135
2.417674e+000 -2.055320e+000 -1.677202e+001 79 63 38
2.461808e+000 -2.074412e+000 -1.681532e+001 77 61 38
3.534117e+000 -1.841995e+000 -1.694226e+001 90 61 35
3.622769e+000 -1.972124e+000 -1.710960e+001 106 75 44
4.590409e+000 -1.579569e+000 -1.714763e+001 115 83 44
1.946682e-001 -1.641243e+000 -1.631747e+001 69 47 36
1.091103e+000 -2.127029e+000 -1.656870e+001 137 89 75
1.091103e+000 -2.127029e+000 -1.656870e+001 137 89 75
1.130815e+000 -2.142818e+000 -1.665791e+001 106 60 49
1.345437e+000 -2.232802e+000 -1.668709e+001 151 97 85
1.556678e+000 -2.179216e+000 -1.664665e+001 173 108 106
2.165054e+000 -2.252048e+000 -1.686072e+001 58 45 31
2.227440e+000 -2.162014e+000 -1.680251e+001 51 35 20
3.512939e+000 -2.109893e+000 -1.724184e+001 122 91 63
4.496357e+000 -1.849482e+000 -1.735399e+001 108 76 36
-1.229612e+000 -2.355922e+000 -1.613536e+001 113 77 62
1.256219e+000 -2.083197e+000 -1.674355e+001 129 81 68
1.497205e+000 -2.229117e+000 -1.687481e+001 178 121 110
1.995396e+000 -2.522707e+000 -1.703836e+001 111 79 46
2.152004e+000 -2.328258e+000 -1.706324e+001 57 42 28
3.469178e+000 -2.262003e+000 -1.738434e+001 96 66 38
4.079696e+000 -2.228421e+000 -1.747432e+001 115 79 45
4.229306e+000 -2.323078e+000 -1.760633e+001 165 130 89
4.229306e+000 -2.323078e+000 -1.760633e+001 165 130 89
4.584685e+000 -3.071837e+000 -1.774896e+001 133 105 57
4.577162e+000 -3.660215e+000 -1.774777e+001 134 106 59
4.536618e+000 -3.722588e+000 -1.779265e+001 142 114 66
4.536618e+000 -3.722588e+000 -1.779265e+001 142 114 66
1.407771e+000 -2.365909e+000 -1.701745e+001 171 112 99
1.755033e+000 -2.486481e+000 -1.705106e+001 204 168 132
1.798775e+000 -2.547290e+000 -1.713288e+001 153 110 75
1.979176e+000 -2.740385e+000 -1.724460e+001 136 111 79
2.281628e+000 -3.055122e+000 -1.729716e+001 69 51 37
2.324200e+000 -3.043219e+000 -1.724079e+001 66 53 37
2.287868e+000 -3.108776e+000 -1.727722e+001 101 88 69
2.969253e+000 -2.393476e+000 -1.732954e+001 94 64 38
3.096186e+000 -2.460509e+000 -1.747464e+001 85 55 31
3.071173e+000 -2.593190e+000 -1.749461e+001 86 55 29
3.380531e+000 -2.410027e+000 -1.750783e+001 95 63 36
3.796573e+000 -2.348047e+000 -1.759278e+001 68 37 8
3.959826e+000 -2.284191e+000 -1.760561e+001 92 61 32
1.487304e+000 -2.501324e+000 -1.724167e+001 127 79 50
1.987767e+000 -2.744076e+000 -1.732545e+001 104 73 47
2.229061e+000 -3.088120e+000 -1.742853e+001 66 54 40
2.286722e+000 -3.112665e+000 -1.741086e+001 40 30 18
3.132322e+000 -2.506147e+000 -1.752502e+001 89 59 30
3.802073e+000 -2.393111e+000 -1.772224e+001 140 107 74
3.977558e+000 -2.387777e+000 -1.774537e+001 147 125 101
4.178669e+000 -2.381151e+000 -1.779442e+001 161 127 89
4.484729e+000 -3.503357e+000 -1.795713e+001 137 106 59
4.480075e+000 -3.678631e+000 -1.799394e+001 140 109 62
4.469805e+000 -3.735438e+000 -1.800316e+001 142 111 64
4.469805e+000 -3.735438e+000 -1.800316e+001 142 111 64
-1.891197e+000 -2.548706e+000 -1.642496e+001 213 165 160
9.643287e-001 -2.357954e+000 -1.712326e+001 194 137 128
1.504421e+000 -2.783205e+000 -1.737140e+001 194 166 128
3.726703e+000 -2.670841e+000 -1.797951e+001 63 36 14
3.935184e+000 -2.619338e+000 -1.790738e+001 90 55 27
1.499735e+000 -2.672117e+000 -1.742712e+001 160 124 76
2.012949e+000 -2.890230e+000 -1.756230e+001 243 227 185
2.006114e+000 -2.913696e+000 -1.759302e+001 252 247 211
2.094914e+000 -3.017379e+000 -1.766162e+001 46 33 17
2.303625e+000 -2.913119e+000 -1.770079e+001 41 28 19
4.441083e+000 -2.531495e+000 -1.816495e+001 157 121 70
7.360688e-001 -1.754460e+000 -1.744300e+001 160 106 96
1.388811e+000 -2.408610e+000 -1.765760e+001 172 136 100
1.408185e+000 -2.483330e+000 -1.766045e+001 139 105 66
2.068878e+000 -2.962097e+000 -1.778748e+001 53 37 22
7.328517e-001 -1.983185e+000 -1.750961e+001 158 106 95
1.439111e+000 -2.726347e+000 -1.781227e+001 151 121 87
1.712178e+000 -2.777428e+000 -1.776372e+001 124 91 61
1.711857e+000 -2.706647e+000 -1.780742e+001 106 75 50
1.751476e+000 -2.861622e+000 -1.779504e+001 148 119 89
4.365319e+000 -3.429121e+000 -1.853850e+001 141 110 63
1.674322e+000 -2.776354e+000 -1.802576e+001 109 86 67
1.674322e+000 -2.776354e+000 -1.802576e+001 109 86 67
1.943887e+000 -2.995764e+000 -1.806135e+001 76 65 45
1.970594e+000 -2.985307e+000 -1.806150e+001 52 41 23
2.920448e+000 -2.753481e+000 -1.824492e+001 92 71 50
8.377076e-001 -2.009663e+000 -1.793075e+001 141 85 68
7.674656e-001 -2.010044e+000 -1.793574e+001 150 78 74
1.562439e+000 -2.555444e+000 -1.800575e+001 167 147 123
1.562439e+000 -2.555444e+000 -1.800575e+001 167 147 123
2.852418e+000 -2.570484e+000 -1.842177e+001 67 44 26
9.351470e-001 -2.044942e+000 -1.808457e+001 139 79 68
1.343414e+000 -2.078472e+000 -1.814164e+001 52 45 28
1.401476e+000 -2.385513e+000 -1.818902e+001 75 69 43
2.781809e+000 -2.374621e+000 -1.855696e+001 56 35 14
3.053936e+000 -2.296434e+000 -1.869581e+001 81 64 46
4.688517e-001 -1.615637e+000 -1.817823e+001 128 69 63
2.810236e+000 -2.079856e+000 -1.880317e+001 83 66 47
2.810236e+000 -2.079856e+000 -1.880317e+001 83 66 47
2.997497e+000 -1.982338e+000 -1.885867e+001 61 43 25
1.312158e+000 -1.581063e+000 -1.859052e+001 89 61 44
1.627638e+000 -2.200412e+000 -1.862128e+001 87 70 51
2.995652e+000 -1.904075e+000 -1.893014e+001 70 49 30
1.429773e+000 -1.929379e+000 -1.865211e+001 103 81 57
4.158350e+000 -3.736248e+000 -1.926399e+001 182 150 94
1.617435e+000 -1.820785e+000 -1.898136e+001 79 70 55
2.501467e+000 -1.396101e+000 -1.926547e+001 93 72 51
2.495962e+000 -1.299450e+000 -1.929871e+001 71 51 27
1.019520e+000 -9.558812e-001 -1.907990e+001 131 117 91
1.195854e+000 -1.399774e+000 -1.903786e+001 182 160 130
1.653321e+000 -1.484166e+000 -1.920556e+001 87 81 62
2.066118e+000 -1.299565e+000 -1.929128e+001 120 100 80
2.463453e+000 -1.297499e+000 -1.941521e+001 63 42 21
4.105684e+000 -3.472827e+000 -1.948944e+001 237 205 146
4.105684e+000 -3.472827e+000 -1.948944e+001 237 205 146
4.101078e+000 -3.430863e+000 -1.950214e+001 198 162 101
4.121524e+000 -3.376429e+000 -1.955790e+001 204 172 112
4.121524e+000 -3.376429e+000 -1.955790e+001 204 172 112
4.109360e+000 -3.464487e+000 -1.951849e+001 190 159 101
1.146024e+000 -1.257088e+000 -1.915763e+001 210 189 160
1.734122e+000 -1.198118e+000 -1.939765e+001 83 76 60
4.060166e+000 -3.427795e+000 -1.966221e+001 196 164 105
5.004844e+000 -2.584486e+000 -1.524503e+001 223 193 141
4.965311e+000 -2.302956e+000 -1.549466e+001 196 167 119
4.984645e+000 -2.442628e+000 -1.551279e+001 197 169 119
4.944343e+000 -2.711766e+000 -1.561378e+001 192 164 115
2.732953e+000 -6.781069e-001 -1.456840e+001 126 113 91
2.426168e+000 -3.232526e-001 -1.456768e+001 146 111 81
2.576093e+000 -5.087966e-001 -1.470639e+001 93 80 64
4.898779e+000 -2.513143e+000 -1.575979e+001 195 167 117
2.194846e+000 -2.205362e-001 -1.467896e+001 129 99 71
2.484708e+000 -4.520682e-001 -1.476135e+001 124 104 80
2.524311e+000 -4.590060e-001 -1.477539e+001 66 48 33
2.506587e+000 -4.198784e-001 -1.487650e+001 35 26 17
4.188914e+000 -2.371733e-001 -1.507965e+001 144 111 76
4.043999e+000 -4.323467e-001 -1.520889e+001 131 98 67
5.063377e+000 5.656570e-001 -1.501181e+001 163 130 86
4.910044e+000 -3.145941e+000 -1.626880e+001 165 137 90
4.910044e+000 -3.145941e+000 -1.626880e+001 165 137 90
4.050178e+000 -4.013059e-001 -1.524096e+001 136 105 76
4.050178e+000 -4.013059e-001 -1.524096e+001 136 105 76
3.866618e+000 -5.648951e-001 -1.542534e+001 104 74 45
4.810429e+000 -1.909628e+000 -1.598581e+001 159 128 79
2.028990e+000 -7.087366e-001 -1.520759e+001 145 99 66
2.141541e+000 -1.076236e+000 -1.528494e+001 104 87 59
2.455120e+000 -8.060173e-001 -1.519434e+001 58 41 21
3.389128e+000 -7.260058e-001 -1.545854e+001 96 66 38
4.429602e+000 -5.326270e-001 -1.566369e+001 111 84 51
4.831122e+000 -1.971119e+000 -1.620348e+001 143 112 67
2.032894e+000 -1.284098e+000 -1.556729e+001 88 75 48
3.927277e+000 -7.354961e-001 -1.569993e+001 84 53 32
3.695410e+000 -1.228191e+000 -1.609534e+001 132 101 69
1.329661e+000 -1.566027e+000 -1.571328e+001 217 190 161
1.550324e+000 -1.513237e+000 -1.578230e+001 208 162 145
1.931363e+000 -1.470662e+000 -1.587835e+001 174 130 70
2.636788e+000 -1.508407e+000 -1.599799e+001 66 50 33
2.592242e+000 -1.566726e+000 -1.608881e+001 44 31 15
3.027243e+000 -1.430760e+000 -1.617285e+001 125 96 69
7.549051e-001 -1.264991e+000 -1.580392e+001 145 74 72
2.422250e+000 -1.632942e+000 -1.620579e+001 72 63 46
2.995294e+000 -1.558523e+000 -1.629692e+001 76 51 27
3.212531e+000 -1.394234e+000 -1.624261e+001 95 65 39
4.358658e+000 -1.304178e+000 -1.648972e+001 100 67 36
4.655416e+000 -1.380246e+000 -1.672133e+001 157 127 77
4.673612e+000 -3.729604e+000 -1.709268e+001 146 115 68
6.393752e-001 -7.728962e-001 -1.575506e+001 95 45 36
2.537983e+000 -1.837340e+000 -1.639847e+001 48 36 14
1.423621e+000 -1.908612e+000 -1.625067e+001 208 155 139
1.409370e+000 -2.011865e+000 -1.630505e+001 135 72 65
2.048299e+000 -1.969704e+000 -1.642158e+001 186 158 134
3.973761e+000 -1.809567e+000 -1.696165e+001 90 59 30
1.455705e+000 -2.133195e+000 -1.659792e+001 112 42 44
2.232815e+000 -2.000154e+000 -1.670356e+001 63 51 37
3.404835e+000 -1.883721e+000 -1.694125e+001 110 80 53
6.896165e-001 -9.657642e-001 -1.636262e+001 184 109 108
7.072721e-001 -1.005217e+000 -1.640394e+001 132 54 52
7.072721e-001 -1.005217e+000 -1.640394e+001 132 54 52
1.064954e+000 -1.835606e+000 -1.652552e+001 164 108 96
1.932336e+000 -2.147002e+000 -1.679629e+001 135 91 62
2.307665e+000 -2.890140e+000 -1.698998e+001 89 76 59
4.526701e+000 -1.805988e+000 -1.739522e+001 105 71 34
-1.202450e+000 -2.421197e+000 -1.617328e+001 141 106 86
-1.206883e+000 -2.412473e+000 -1.617106e+001 141 106 86
2.980250e-002 -1.728685e+000 -1.639056e+001 78 50 37
1.868889e+000 -2.486611e+000 -1.704947e+001 179 141 102
2.334844e+000 -2.940666e+000 -1.718822e+001 96 80 62
2.423568e+000 -2.971096e+000 -1.719707e+001 170 143 114
3.317026e+000 -2.264704e+000 -1.733518e+001 125 94 66
3.466473e+000 -2.136544e+000 -1.729075e+001 122 91 65
-1.731867e+000 -2.368380e+000 -1.617987e+001 169 95 101
-1.492831e+000 -2.549237e+000 -1.625041e+001 172 114 113
1.791276e+000 -2.484689e+000 -1.704346e+001 152 114 77
3.569223e+000 -2.490355e+000 -1.761738e+001 139 106 73
3.923185e+000 -2.352421e+000 -1.764782e+001 132 99 68
1.333102e+000 -2.315009e+000 -1.719029e+001 138 87 66
1.880307e+000 -2.792584e+000 -1.734054e+001 244 230 198
2.088200e+000 -2.636214e+000 -1.732131e+001 48 33 23
1.984542e+000 -2.783580e+000 -1.737505e+001 43 32 20
2.303983e+000 -3.120919e+000 -1.738616e+001 79 67 51
2.335102e+000 -3.005339e+000 -1.749796e+001 67 60 41
3.807964e+000 -2.463560e+000 -1.770036e+001 101 69 35
3.991375e+000 -2.455879e+000 -1.777602e+001 87 57 29
3.991375e+000 -2.455879e+000 -1.777602e+001 87 57 29
3.956227e+000 -2.525642e+000 -1.784850e+001 124 94 63
3.910236e+000 -2.611899e+000 -1.783844e+001 124 94 63
4.010301e+000 -2.501379e+000 -1.783535e+001 99 65 38
4.443863e+000 -2.351372e+000 -1.794527e+001 102 68 31
4.508243e+000 -3.011150e+000 -1.800575e+001 137 106 59
8.386217e-001 -2.348690e+000 -1.719088e+001 180 126 115
1.418593e+000 -2.445150e+000 -1.728452e+001 147 102 78
1.522570e+000 -2.757938e+000 -1.741389e+001 143 107 59
4.004847e+000 -2.620073e+000 -1.805087e+001 88 54 28
7.843758e-001 -2.340827e+000 -1.731119e+001 172 123 109
1.888224e+000 -2.896152e+000 -1.761198e+001 127 98 58
2.048434e+000 -2.858259e+000 -1.758037e+001 50 32 22
2.071678e+000 -2.987755e+000 -1.760698e+001 68 50 33
2.014838e+000 -2.862078e+000 -1.763931e+001 255 247 210
3.442323e+000 -2.667542e+000 -1.805903e+001 56 32 8
-2.737129e-001 -1.663003e+000 -1.721778e+001 76 53 39
-2.737129e-001 -1.663003e+000 -1.721778e+001 76 53 39
1.038245e-001 -1.498464e+000 -1.741072e+001 116 64 58
1.044353e-001 -1.397318e+000 -1.741521e+001 116 64 58
7.729983e-001 -2.315518e+000 -1.751958e+001 175 128 113
1.988353e+000 -2.983119e+000 -1.787909e+001 183 166 122
3.400476e+000 -2.702001e+000 -1.820814e+001 60 35 13
8.245889e-001 -2.204827e+000 -1.776553e+001 192 143 128
8.243918e-001 -2.235535e+000 -1.776930e+001 192 143 128
7.362161e-001 -1.979711e+000 -1.789177e+001 152 73 71
1.388594e+000 -2.266382e+000 -1.798366e+001 42 34 22
1.625249e+000 -2.641416e+000 -1.808127e+001 114 93 72
1.974556e+000 -2.915880e+000 -1.811973e+001 54 46 28
2.005721e+000 -2.890484e+000 -1.814143e+001 97 85 62
2.169452e+000 -2.934548e+000 -1.818465e+001 144 132 106
2.656189e+000 -2.555788e+000 -1.840053e+001 56 35 18
3.144138e+000 -2.438798e+000 -1.857397e+001 70 52 30
8.151738e-001 -2.067845e+000 -1.802225e+001 186 134 113
2.617574e+000 -2.369137e+000 -1.856666e+001 90 73 48
2.984248e+000 -2.302506e+000 -1.867129e+001 81 63 44
3.374326e+000 -2.271178e+000 -1.877442e+001 99 81 57
3.422598e+000 -2.313240e+000 -1.874041e+001 72 50 27
3.417861e+000 -2.327286e+000 -1.873798e+001 72 50 27
1.861554e+000 -2.625023e+000 -1.841581e+001 58 47 29
2.619266e+000 -2.324862e+000 -1.860243e+001 72 50 27
2.796692e+000 -2.205402e+000 -1.870496e+001 87 71 48
3.057676e+000 -2.205690e+000 -1.875003e+001 87 66 46
3.394438e+000 -2.128731e+000 -1.886771e+001 106 88 64
3.790551e+000 -1.995657e+000 -1.903809e+001 65 47 23
1.410260e+000 -1.976235e+000 -1.854403e+001 134 110 86
1.627050e+000 -2.176136e+000 -1.859557e+001 192 166 137
1.613679e+000 -2.007444e+000 -1.862234e+001 50 32 17
2.071515e+000 -2.346406e+000 -1.862331e+001 47 36 16
2.071515e+000 -2.346406e+000 -1.862331e+001 47 36 16
2.541995e+000 -2.022092e+000 -1.877859e+001 67 46 27
3.578520e+000 -1.861340e+000 -1.909826e+001 65 48 30
4.185254e+000 -2.533736e+000 -1.929281e+001 151 120 73
1.187093e+000 -1.397826e+000 -1.869434e+001 70 48 34
1.980042e+000 -1.996183e+000 -1.886672e+001 43 34 17
2.493255e+000 -1.772478e+000 -1.895214e+001 57 39 19
1.085952e+000 -1.187869e+000 -1.883914e+001 46 42 30
1.426381e+000 -1.505298e+000 -1.893631e+001 78 58 39
1.607754e+000 -1.943869e+000 -1.892291e+001 47 38 23
1.360349e+000 -1.461001e+000 -1.901193e+001 131 111 87
1.469989e+000 -1.600468e+000 -1.898881e+001 63 49 36
1.530607e+000 -1.535968e+000 -1.916067e+001 61 52 37
1.631698e+000 -1.742023e+000 -1.904259e+001 56 45 27
2.413710e+000 -1.459434e+000 -1.925668e+001 92 71 51
4.228781e+000 -2.036993e+000 -1.976171e+001 72 64 61
4.232586e+000 -2.294580e+000 -1.976838e+001 81 72 73
1.475947e+000 -1.415915e+000 -1.928670e+001 65 53 38
1.544943e+000 -1.362591e+000 -1.933096e+001 62 50 37
1.608954e+000 -1.590235e+000 -1.921178e+001 86 77 61
1.761559e+000 -1.508220e+000 -1.925188e+001 86 75 53
1.718618e+000 -1.451369e+000 -1.934407e+001 49 40 25
1.746369e+000 -1.300783e+000 -1.938386e+001 49 40 25
1.791841e+000 -1.332284e+000 -1.936975e+001 45 35 22
1.762657e+000 -1.257143e+000 -1.942788e+001 87 80 62
1.484656e+000 -1.273648e+000 -1.937761e+001 61 53 35
3.933170e+000 -8.932257e-001 -2.012919e+001 225 192 143
4.940015e+000 -3.164475e+000 -1.595672e+001 221 189 134
3.248382e+000 -2.456587e-001 -1.478962e+001 103 77 55
2.405927e+000 -5.410236e-001 -1.486960e+001 125 98 69
3.133849e+000 -4.666431e-001 -1.490006e+001 125 103 79
4.574659e+000 -3.858219e-001 -1.523527e+001 174 140 103
3.755953e+000 -4.093878e-001 -1.520937e+001 128 99 68
4.392404e+000 -3.456920e-001 -1.533110e+001 115 84 55
4.814997e+000 -2.783807e-001 -1.544231e+001 107 75 36
4.311720e+000 -5.381831e-001 -1.559829e+001 94 64 36
4.292744e+000 -5.792005e-001 -1.560415e+001 94 64 36
4.164869e+000 -7.170749e-001 -1.571120e+001 88 61 32
3.672328e+000 -8.430147e-001 -1.574399e+001 142 111 80
4.049890e+000 -8.770851e-001 -1.584787e+001 129 102 73
4.181719e+000 -7.754011e-001 -1.581215e+001 92 61 33
4.101079e+000 -8.824859e-001 -1.592170e+001 137 106 78
1.727480e+000 2.471520e-001 -1.520016e+001 217 177 135
3.716989e+000 -1.330753e+000 -1.628187e+001 82 52 25
4.253170e+000 -1.191671e+000 -1.639512e+001 135 104 75
1.356882e+000 -1.600692e+000 -1.595344e+001 128 68 58
1.948459e+000 -1.603049e+000 -1.603609e+001 45 35 23
1.969848e+000 -1.892387e+000 -1.610275e+001 135 124 106
2.028440e+000 -1.844106e+000 -1.608682e+001 71 50 29
2.144604e+000 -1.722408e+000 -1.606038e+001 113 82 51
2.377470e+000 -1.643914e+000 -1.618704e+001 45 35 25
3.082611e+000 -1.178252e+000 -1.620261e+001 94 68 37
3.354764e+000 -1.519265e+000 -1.633589e+001 97 69 45
3.459655e+000 -1.446908e+000 -1.632643e+001 65 39 16
3.459655e+000 -1.446908e+000 -1.632643e+001 65 39 16
4.169406e+000 -1.430668e+000 -1.650324e+001 146 115 86
6.682986e-001 -7.493230e-001 -1.569893e+001 189 142 126
2.030360e+000 -1.907955e+000 -1.625263e+001 107 83 55
2.165151e+000 -1.854778e+000 -1.639668e+001 39 24 19
1.644020e+000 -1.834839e+000 -1.632255e+001 167 89 95
3.766596e+000 -1.739630e+000 -1.680904e+001 135 106 77
4.549509e+000 -1.761760e+000 -1.720298e+001 153 119 67
1.221107e+000 -2.185022e+000 -1.655933e+001 172 117 110
2.039441e+000 -2.257937e+000 -1.689040e+001 122 87 60
2.315014e+000 -2.038544e+000 -1.687133e+001 67 54 32
2.252059e+000 -2.700684e+000 -1.696904e+001 99 84 62
2.391929e+000 -2.826724e+000 -1.692979e+001 146 127 103
2.401453e+000 -2.785062e+000 -1.696880e+001 63 44 26
3.585417e+000 -2.096312e+000 -1.720337e+001 124 93 64
4.511116e+000 -1.870160e+000 -1.745939e+001 102 70 32
-1.455053e+000 -2.482105e+000 -1.617944e+001 172 113 111
-1.473805e+000 -2.325046e+000 -1.612052e+001 143 98 77
-1.288282e+000 -2.528925e+000 -1.624648e+001 141 103 85
1.586598e+000 -2.205345e+000 -1.690165e+001 138 76 61
2.016438e+000 -2.655440e+000 -1.705785e+001 57 45 31
3.624047e+000 -2.156880e+000 -1.736049e+001 98 67 38
2.954037e+000 -2.451890e+000 -1.738245e+001 79 50 26
-1.480237e+000 -2.604823e+000 -1.641952e+001 170 105 110
7.815426e-001 -1.487465e+000 -1.698574e+001 175 105 108
1.792851e+000 -2.588866e+000 -1.720464e+001 158 120 84
-1.624288e+000 -2.688460e+000 -1.671953e+001 123 63 69
-1.632056e+000 -2.658631e+000 -1.671658e+001 123 63 69
-1.392709e+000 -2.642368e+000 -1.679880e+001 76 53 46
1.392224e+000 -2.455072e+000 -1.741798e+001 144 108 77
1.804532e+000 -2.751333e+000 -1.753171e+001 147 110 81
3.443404e+000 -2.832060e+000 -1.794868e+001 125 94 65
7.523238e-001 -2.347611e+000 -1.744634e+001 177 132 114
1.360339e+000 -2.409371e+000 -1.760814e+001 159 121 89
1.445033e+000 -2.604541e+000 -1.767525e+001 171 138 84
1.814716e+000 -2.864883e+000 -1.766828e+001 164 133 104
2.013590e+000 -2.982120e+000 -1.770576e+001 60 40 28
-9.606277e-001 -1.955494e+000 -1.717229e+001 81 53 39
-2.706687e-001 -1.580137e+000 -1.734583e+001 87 66 49
-3.502784e-002 -1.554058e+000 -1.741558e+001 74 49 42
-3.009451e-002 -1.557180e+000 -1.745193e+001 124 85 68
7.302881e-001 -1.557171e+000 -1.751868e+001 129 69 68
7.641822e-001 -1.777717e+000 -1.764782e+001 124 72 65
3.814540e+000 -2.623533e+000 -1.841354e+001 93 69 43
3.957029e+000 -2.584464e+000 -1.850610e+001 67 40 19
8.813942e-001 -2.286407e+000 -1.784671e+001 132 75 64
1.576755e+000 -2.559743e+000 -1.808240e+001 96 74 53
3.194948e+000 -2.595542e+000 -1.843700e+001 47 31 14
7.196054e-001 -2.036029e+000 -1.796367e+001 195 144 125
1.121552e+000 -1.890103e+000 -1.817975e+001 112 70 54
1.857292e+000 -2.790470e+000 -1.825727e+001 67 54 37
1.839064e+000 -2.722318e+000 -1.832378e+001 38 29 11
2.230687e+000 -2.657980e+000 -1.843892e+001 81 66 45
3.291916e+000 -2.416647e+000 -1.865041e+001 64 48 29
1.460657e+000 -2.068806e+000 -1.841314e+001 105 81 57
1.786515e+000 -2.552536e+000 -1.844139e+001 37 27 17
1.786515e+000 -2.552536e+000 -1.844139e+001 37 27 17
2.784984e+000 -2.264861e+000 -1.865582e+001 75 55 33
3.084256e+000 -2.246715e+000 -1.875491e+001 61 44 24
3.200581e+000 -2.194409e+000 -1.877719e+001 56 38 22
3.205980e+000 -2.178326e+000 -1.878026e+001 56 38 22
3.441452e+000 -1.944644e+000 -1.898507e+001 74 56 32
3.525708e+000 -2.077911e+000 -1.888568e+001 71 53 31
3.525708e+000 -2.077911e+000 -1.888568e+001 71 53 31
4.286271e+000 -2.194785e+000 -1.906599e+001 93 73 36
2.934841e+000 -1.704504e+000 -1.902552e+001 57 40 24
3.600012e+000 -1.637933e+000 -1.922698e+001 101 81 56
3.759748e+000 -1.821801e+000 -1.914513e+001 54 37 18
1.646013e+000 -2.095055e+000 -1.878970e+001 47 35 21
2.804369e+000 -1.543223e+000 -1.917000e+001 59 42 24
1.369255e+000 -1.328879e+000 -1.908993e+001 88 66 45
1.592595e+000 -1.714384e+000 -1.901380e+001 62 53 37
2.436302e+000 -1.300709e+000 -1.937972e+001 58 37 18
3.085614e+000 -1.209382e+000 -1.951294e+001 71 51 27
1.595761e+000 -1.528018e+000 -1.918580e+001 55 45 27
1.595761e+000 -1.528018e+000 -1.918580e+001 55 45 27
1.864619e+000 -1.351942e+000 -1.938121e+001 68 54 35
3.537819e+000 -6.089643e-001 -1.994626e+001 98 74 41
3.690926e+000 -1.347411e-001 -1.483548e+001 149 124 97
2.137556e+000 -2.051590e-001 -1.462794e+001 73 68 45
2.401509e+000 -5.868994e-001 -1.477977e+001 117 86 59
3.101018e+000 -5.702195e-001 -1.504425e+001 114 92 69
3.699699e+000 -4.816392e-001 -1.509082e+001 150 123 93
4.118506e+000 -2.265005e-001 -1.502233e+001 114 83 54
4.852856e+000 -3.390811e+000 -1.625409e+001 167 138 90
4.826211e+000 -3.504264e+000 -1.625016e+001 245 215 161
2.704271e+000 -6.121941e-001 -1.498974e+001 60 52 43
2.259082e+000 -1.001876e+000 -1.535067e+001 176 149 121
3.633454e+000 -7.644055e-001 -1.555591e+001 150 117 86
3.082041e+000 -9.548014e-001 -1.560697e+001 84 60 36
3.465838e+000 -1.081321e+000 -1.589727e+001 100 69 41
1.799522e+000 -8.038278e-001 -1.561974e+001 117 60 40
2.163472e+000 -1.509554e+000 -1.584173e+001 195 168 139
2.254149e+000 -1.586480e+000 -1.597573e+001 66 53 34
2.228314e+000 -1.686102e+000 -1.609916e+001 65 55 37
3.228598e+000 -1.565401e+000 -1.643230e+001 81 55 30
4.319909e+000 -1.547076e+000 -1.693043e+001 119 85 50
4.657444e+000 -1.410903e+000 -1.703385e+001 105 73 36
4.657444e+000 -1.410903e+000 -1.703385e+001 105 73 36
1.930719e+000 -1.928159e+000 -1.669176e+001 179 134 115
1.964807e+000 -2.310662e+000 -1.684202e+001 220 196 162
2.104691e+000 -2.201108e+000 -1.682732e+001 78 62 48
2.067587e+000 -2.405486e+000 -1.692957e+001 60 47 30
3.205905e+000 -2.157059e+000 -1.710308e+001 102 71 43
3.473295e+000 -2.001370e+000 -1.711367e+001 79 49 23
-1.333338e+000 -2.419613e+000 -1.614502e+001 147 107 81
-1.308086e+000 -2.360328e+000 -1.616706e+001 110 74 62
-1.031580e+000 -2.316492e+000 -1.620441e+001 97 65 54
1.839573e+000 -2.407067e+000 -1.695824e+001 171 129 104
2.169828e+000 -2.756033e+000 -1.722806e+001 30 21 15
2.906779e+000 -2.410901e+000 -1.734778e+001 68 40 17
3.480706e+000 -2.369387e+000 -1.753280e+001 134 105 73
3.926953e+000 -2.230518e+000 -1.755623e+001 127 94 63
3.886219e+000 -2.313336e+000 -1.755072e+001 127 94 63
-1.409878e+000 -2.693441e+000 -1.646666e+001 129 62 65
-1.440354e+000 -2.547715e+000 -1.645480e+001 129 62 65
3.961343e+000 -2.445593e+000 -1.791788e+001 130 99 68
-1.542729e+000 -2.681322e+000 -1.678818e+001 140 91 89
