ply
format ascii 1.0
element face 0
property list uchar int vertex_indices
element vertex 876
property float x
property float y
property float z
property uchar diffuse_red
property uchar diffuse_green
property uchar diffuse_blue
end_header
3.583663e+000 2.430635e-002 -1.476593e+001 180 142 112
4.389172e+000 1.165763e-001 -1.492499e+001 168 128 93
2.518147e+000 -4.153144e-001 -1.482984e+001 64 49 35
4.434179e+000 -5.504523e-001 -1.566647e+001 107 76 48
4.434028e+000 -5.504511e-001 -1.566640e+001 107 76 48
1.616703e-001 -1.726168e+000 -1.616120e+001 137 98 83
1.544465e+000 -2.184217e+000 -1.687040e+001 142 81 86
1.525873e+000 -2.428455e+000 -1.706380e+001 207 160 150
2.628128e+000 -7.448619e-001 -1.468326e+001 105 94 80
3.856572e+000 -4.718781e-001 -1.543332e+001 156 124 98
4.354181e+000 -9.094429e-001 -1.606994e+001 96 64 44
3.478705e+000 -1.574017e+000 -1.642918e+001 76 53 33
3.680753e+000 -1.848293e+000 -1.713152e+001 102 71 50
1.813049e+000 -2.783025e+000 -1.720744e+001 171 141 121
2.615060e+000 -2.797669e+000 -1.805629e+001 146 131 119
2.314995e+000 -4.796062e-001 -1.464514e+001 235 218 197
4.404978e+000 -4.654418e-001 -1.543460e+001 148 113 85
3.800106e+000 -1.070822e+000 -1.609824e+001 110 83 58
3.787433e+000 -1.378973e+000 -1.647528e+001 85 60 39
1.676658e+000 -2.004134e+000 -1.668067e+001 212 154 153
1.676658e+000 -2.004134e+000 -1.668067e+001 212 154 153
1.367726e+000 -2.229341e+000 -1.668221e+001 188 127 134
1.718258e+000 -2.613240e+000 -1.723468e+001 209 181 159
4.279870e+000 -4.890317e-001 -1.554104e+001 140 110 84
2.272652e+000 -7.901281e-001 -1.512187e+001 221 203 179
3.636379e+000 -1.112991e+000 -1.602504e+001 104 72 47
1.460282e+000 -2.607842e+000 -1.728522e+001 212 183 156
2.348936e+000 -3.326490e-001 -1.458334e+001 249 222 203
2.607580e+000 -1.178457e+000 -1.546872e+001 83 70 56
1.356535e+000 -2.326771e+000 -1.741463e+001 192 150 135
1.656988e+000 -2.528283e+000 -1.727744e+001 215 183 160
1.653814e+000 -2.907540e+000 -1.779650e+001 237 235 234
1.219440e+000 -1.578072e+000 -1.579792e+001 210 162 152
5.201233e-001 -9.843456e-001 -1.579819e+001 181 106 107
-8.475399e-002 -1.686943e+000 -1.687557e+001 111 78 71
1.811381e-001 -9.894266e-001 -1.741437e+001 170 101 111
3.631743e+000 -4.715805e-001 -1.518449e+001 103 71 46
4.181611e+000 -3.901398e-001 -1.536119e+001 99 63 36
4.785134e+000 -4.341798e-001 -1.561443e+001 98 68 28
2.868239e+000 -8.050887e-001 -1.548131e+001 181 158 145
4.048679e+000 -6.778897e-001 -1.569392e+001 122 95 68
4.170340e+000 -6.980354e-001 -1.576079e+001 102 75 48
3.561152e+000 -1.056591e+000 -1.593592e+001 119 87 64
3.559609e+000 -1.058204e+000 -1.593369e+001 119 87 64
2.162846e+000 -1.371177e+000 -1.566182e+001 167 141 118
2.871800e+000 -1.261460e+000 -1.588544e+001 142 117 97
3.554849e+000 -1.204360e+000 -1.609165e+001 145 115 89
3.755371e+000 -1.111411e+000 -1.608805e+001 142 107 79
4.397703e+000 -1.042961e+000 -1.623578e+001 137 102 72
3.731700e+000 -1.253512e+000 -1.620301e+001 146 114 88
1.699249e+000 -1.456304e+000 -1.594868e+001 221 150 158
3.240990e+000 -1.451685e+000 -1.625171e+001 120 94 71
3.453852e+000 -1.361987e+000 -1.622051e+001 124 98 75
3.453852e+000 -1.361987e+000 -1.622051e+001 124 98 75
3.959729e+000 -1.406126e+000 -1.646980e+001 126 100 71
3.345234e+000 -1.558711e+000 -1.640993e+001 119 90 72
3.578859e+000 -1.513670e+000 -1.646804e+001 129 102 80
3.578859e+000 -1.513670e+000 -1.646804e+001 129 102 80
4.022149e+000 -1.457253e+000 -1.659905e+001 127 101 76
4.157760e+000 -1.428754e+000 -1.658588e+001 103 73 47
4.047407e+000 -1.496048e+000 -1.662375e+001 116 88 64
4.236675e+000 -1.397019e+000 -1.657881e+001 123 96 70
1.770649e+000 -1.704081e+000 -1.618807e+001 215 176 169
3.464023e+000 -1.623205e+000 -1.655460e+001 115 87 68
3.490227e+000 -1.628595e+000 -1.656763e+001 99 72 53
3.785927e+000 -1.572859e+000 -1.667316e+001 91 63 41
3.785927e+000 -1.572859e+000 -1.667316e+001 91 63 41
4.006423e+000 -1.575907e+000 -1.672572e+001 109 78 50
2.782546e+000 -1.682206e+000 -1.646079e+001 131 109 88
3.816839e+000 -1.636322e+000 -1.676820e+001 107 77 53
4.011176e+000 -1.631184e+000 -1.681789e+001 92 62 41
-5.295821e-002 -1.811450e+000 -1.635767e+001 152 121 100
1.298926e+000 -1.885925e+000 -1.625923e+001 219 170 152
1.356398e+000 -1.943783e+000 -1.626818e+001 181 126 116
1.466386e+000 -1.913688e+000 -1.615594e+001 168 110 111
1.432610e+000 -1.978937e+000 -1.624902e+001 224 180 165
1.435483e+000 -2.020692e+000 -1.627636e+001 205 143 144
1.475370e+000 -1.989681e+000 -1.624591e+001 169 110 108
3.196034e+000 -1.797456e+000 -1.667136e+001 104 78 56
3.258975e+000 -1.854283e+000 -1.683201e+001 82 56 33
3.680169e+000 -1.811926e+000 -1.694269e+001 126 97 75
3.779131e+000 -1.825114e+000 -1.688632e+001 127 96 68
4.024090e+000 -1.714681e+000 -1.694967e+001 124 96 72
3.984496e+000 -1.785918e+000 -1.707402e+001 108 76 51
-6.326819e-002 -1.835173e+000 -1.637860e+001 108 83 61
-3.039368e-002 -1.821582e+000 -1.637138e+001 103 77 57
-1.837401e-002 -1.842125e+000 -1.644119e+001 83 62 45
3.114626e+000 -1.889114e+000 -1.681142e+001 106 81 61
3.988409e+000 -1.900922e+000 -1.719256e+001 101 71 46
-7.925703e-001 -2.110183e+000 -1.615438e+001 89 56 39
-8.048913e-001 -2.093468e+000 -1.618059e+001 89 56 39
3.462578e+000 -2.049981e+000 -1.719871e+001 107 80 61
-1.695772e+000 -2.287330e+000 -1.612674e+001 137 90 60
-1.515486e+000 -2.227813e+000 -1.603426e+001 165 118 88
-1.134550e+000 -2.289193e+000 -1.608869e+001 80 45 31
3.593817e+000 -2.154167e+000 -1.735193e+001 91 65 42
4.029978e+000 -2.064718e+000 -1.743053e+001 118 92 67
-1.646981e+000 -2.433494e+000 -1.617087e+001 122 59 52
1.585681e+000 -2.294689e+000 -1.700251e+001 191 147 136
2.675622e+000 -2.279807e+000 -1.714278e+001 154 128 108
3.274481e+000 -2.285507e+000 -1.735441e+001 129 98 78
3.444522e+000 -2.245013e+000 -1.739135e+001 92 64 40
3.320216e+000 -2.340824e+000 -1.741227e+001 102 72 48
1.106709e+000 -2.324298e+000 -1.716342e+001 218 147 151
1.036282e+000 -2.416493e+000 -1.716272e+001 181 102 114
1.409278e+000 -2.411452e+000 -1.704272e+001 165 110 107
2.870581e+000 -2.386674e+000 -1.730957e+001 85 58 41
2.870581e+000 -2.386674e+000 -1.730957e+001 85 58 41
2.943758e+000 -2.404342e+000 -1.734247e+001 85 60 40
4.105126e+000 -2.329879e+000 -1.770913e+001 99 67 44
1.562882e+000 -2.482988e+000 -1.715927e+001 200 161 144
1.741095e+000 -2.634668e+000 -1.721090e+001 209 177 154
4.019630e+000 -2.436745e+000 -1.780011e+001 95 71 47
3.554348e+000 -2.600393e+000 -1.783109e+001 108 80 58
3.555900e+000 -2.618907e+000 -1.786472e+001 130 104 81
4.074325e+000 -2.178242e-001 -1.501836e+001 153 117 91
4.108434e+000 -2.081745e-001 -1.501355e+001 92 56 31
4.899332e+000 -2.170621e-001 -1.542926e+001 171 138 84
3.698529e+000 -4.743282e-001 -1.524437e+001 133 102 74
4.239586e+000 -3.709098e-001 -1.530705e+001 120 86 57
3.660479e+000 -5.118559e-001 -1.527160e+001 97 65 42
4.289948e+000 -6.448604e-001 -1.574630e+001 146 117 87
3.894376e+000 -8.038315e-001 -1.580907e+001 122 87 61
3.282369e+000 -9.939799e-001 -1.574980e+001 109 79 51
3.920154e+000 -9.235158e-001 -1.591416e+001 91 58 35
3.925749e+000 -9.106004e-001 -1.593060e+001 91 58 35
4.420356e+000 -8.624818e-001 -1.604083e+001 138 106 80
3.148627e+000 -1.076944e+000 -1.582389e+001 96 65 44
3.495289e+000 -1.193556e+000 -1.608976e+001 114 83 55
4.356139e+000 -1.121339e+000 -1.629505e+001 149 114 84
1.964147e+000 -1.547652e+000 -1.567153e+001 203 173 139
2.160279e+000 -1.397098e+000 -1.576445e+001 236 215 194
3.205269e+000 -1.301274e+000 -1.607253e+001 111 83 59
3.205269e+000 -1.301274e+000 -1.607253e+001 111 83 59
3.672686e+000 -1.229339e+000 -1.613462e+001 102 71 43
3.710981e+000 -1.311966e+000 -1.626271e+001 131 103 79
3.860427e+000 -1.278594e+000 -1.627010e+001 97 66 41
1.741970e+000 -1.508658e+000 -1.594923e+001 223 159 167
3.203594e+000 -1.441062e+000 -1.620789e+001 110 80 56
3.516810e+000 -1.425561e+000 -1.633398e+001 137 110 83
3.805285e+000 -1.408707e+000 -1.643203e+001 119 91 67
3.271192e+000 -1.594271e+000 -1.645462e+001 115 88 67
3.472753e+000 -1.586371e+000 -1.653041e+001 85 56 38
3.987960e+000 -1.589480e+000 -1.675714e+001 130 99 74
1.823979e+000 -1.793231e+000 -1.625290e+001 112 99 84
1.823979e+000 -1.793231e+000 -1.625290e+001 112 99 84
3.190529e+000 -1.684790e+000 -1.656670e+001 118 93 71
3.442266e+000 -1.714317e+000 -1.674352e+001 111 84 63
3.736397e+000 -1.714909e+000 -1.684437e+001 89 61 37
3.944034e+000 -1.670914e+000 -1.683872e+001 126 98 74
-1.271231e+000 -1.737163e+000 -1.598277e+001 125 84 59
1.264925e+000 -1.869210e+000 -1.629595e+001 175 92 102
-1.423982e+000 -1.956659e+000 -1.600504e+001 159 115 84
-1.000877e+000 -2.031988e+000 -1.607975e+001 87 50 32
3.150527e+000 -1.891885e+000 -1.682210e+001 93 66 45
3.567695e+000 -1.883441e+000 -1.698864e+001 125 97 73
1.593031e+000 -2.025388e+000 -1.669953e+001 182 98 114
3.013030e+000 -2.070639e+000 -1.699242e+001 100 72 51
3.503035e+000 -2.045270e+000 -1.724804e+001 92 63 45
3.520078e+000 -2.011358e+000 -1.716445e+001 120 92 71
3.600027e+000 -1.971858e+000 -1.711704e+001 133 105 81
3.631918e+000 -1.975109e+000 -1.711314e+001 108 78 54
3.625642e+000 -1.985308e+000 -1.709143e+001 108 78 54
1.377190e+000 -2.241219e+000 -1.664052e+001 196 129 139
2.707168e+000 -2.130131e+000 -1.702618e+001 145 118 101
2.691284e+000 -2.208239e+000 -1.710574e+001 153 128 108
3.631487e+000 -2.130098e+000 -1.733482e+001 130 100 79
3.534686e+000 -2.242023e+000 -1.739415e+001 125 99 74
3.534686e+000 -2.242023e+000 -1.739415e+001 125 99 74
3.667545e+000 -2.194721e+000 -1.744207e+001 127 100 73
3.769788e+000 -2.257731e+000 -1.752526e+001 128 97 71
4.512174e+000 -2.153483e+000 -1.770946e+001 153 121 74
2.974295e+000 -2.419139e+000 -1.735878e+001 112 87 67
2.980067e+000 -2.408207e+000 -1.737488e+001 112 87 67
3.036286e+000 -2.433453e+000 -1.741355e+001 121 92 74
3.037429e+000 -2.427490e+000 -1.742167e+001 121 92 74
3.329830e+000 -2.408178e+000 -1.750658e+001 100 72 50
3.590291e+000 -2.341518e+000 -1.753878e+001 134 107 78
3.589862e+000 -2.390206e+000 -1.754518e+001 103 73 48
3.571085e+000 -2.403423e+000 -1.759481e+001 128 99 74
3.891425e+000 -2.384184e+000 -1.769517e+001 108 77 57
1.292861e+000 -2.444980e+000 -1.726899e+001 185 128 121
3.498752e+000 -2.474737e+000 -1.763661e+001 97 69 46
4.025728e+000 -2.464619e+000 -1.783058e+001 125 95 69
1.473632e+000 -2.622264e+000 -1.727013e+001 214 185 159
3.245807e+000 -2.642177e+000 -1.776883e+001 88 64 44
4.027240e+000 -2.626050e+000 -1.815459e+001 95 71 47
4.584166e+000 1.892454e-001 -1.497888e+001 189 147 109
3.299445e+000 -2.495253e-001 -1.482036e+001 121 89 64
3.502129e+000 -2.842040e-001 -1.493313e+001 145 111 85
3.499759e+000 -3.408694e-001 -1.495510e+001 107 76 53
3.670063e+000 -2.426025e-001 -1.493071e+001 144 105 75
3.665102e+000 -2.470819e-001 -1.492723e+001 144 105 75
2.369891e+000 -5.655278e-001 -1.476962e+001 140 108 81
3.973147e+000 -3.351018e-001 -1.513018e+001 147 113 83
4.096815e+000 -3.154196e-001 -1.518309e+001 149 115 88
4.062310e+000 -4.110047e-001 -1.534697e+001 141 107 80
1.519870e+000 -2.813691e-001 -1.544991e+001 171 75 84
4.350738e+000 -4.960353e-001 -1.557310e+001 101 65 42
4.868195e+000 -3.745256e-001 -1.574022e+001 157 124 76
1.338695e+000 -4.584462e-001 -1.546633e+001 190 87 108
1.548859e+000 -3.083619e-001 -1.550171e+001 163 73 76
4.487813e+000 -5.423274e-001 -1.567439e+001 150 116 88
3.670152e+000 -7.671893e-001 -1.563707e+001 157 123 96
2.242528e+000 -1.005606e+000 -1.533679e+001 234 212 189
3.423996e+000 -1.007094e+000 -1.581562e+001 119 88 61
1.464227e+000 -1.126312e+000 -1.566216e+001 206 121 135
4.099998e+000 -1.018922e+000 -1.609926e+001 102 71 43
4.666446e+000 -8.105751e-001 -1.631471e+001 155 119 83
4.857232e+000 -5.551558e-001 -1.689064e+001 149 112 76
3.683274e+000 -1.110950e+000 -1.605383e+001 131 101 72
4.074779e+000 -1.080937e+000 -1.615201e+001 140 106 78
3.086052e+000 -1.361821e+000 -1.610647e+001 135 102 83
3.690028e+000 -1.271769e+000 -1.619883e+001 98 66 43
4.738815e+000 -1.111470e+000 -1.648526e+001 168 134 86
3.259160e+000 -1.406826e+000 -1.626186e+001 130 104 77
4.292043e+000 -1.296596e+000 -1.650541e+001 101 68 41
3.964577e+000 -1.442279e+000 -1.655486e+001 120 92 68
3.964577e+000 -1.442279e+000 -1.655486e+001 120 92 68
3.266525e+000 -1.699870e+000 -1.657776e+001 118 91 69
3.266525e+000 -1.699870e+000 -1.657776e+001 118 91 69
3.555551e+000 -1.687613e+000 -1.673847e+001 87 60 39
3.642824e+000 -1.713368e+000 -1.681880e+001 118 90 68
-1.359112e+000 -1.755819e+000 -1.600323e+001 141 94 66
-3.207939e-001 -1.751027e+000 -1.630638e+001 188 153 131
2.060726e+000 -1.930247e+000 -1.635544e+001 120 89 63
3.405849e+000 -1.899064e+000 -1.695627e+001 115 87 65
3.949981e+000 -1.899112e+000 -1.718683e+001 135 105 77
2.900335e-001 -1.244692e+000 -1.790164e+001 165 120 105
3.134315e+000 -2.003986e+000 -1.695648e+001 84 57 36
3.228897e+000 -2.082970e+000 -1.715026e+001 105 77 53
-1.110204e+000 -2.349920e+000 -1.614347e+001 128 90 69
1.610292e+000 -2.198067e+000 -1.671263e+001 167 104 108
1.571506e+000 -2.188469e+000 -1.677841e+001 137 75 78
4.039815e+000 -2.116036e+000 -1.748089e+001 127 96 68
4.535731e+000 -2.015823e+000 -1.757277e+001 153 122 76
1.680154e+000 -2.254806e+000 -1.697378e+001 202 156 141
2.664806e+000 -2.350328e+000 -1.722647e+001 149 122 103
3.088867e+000 -2.265495e+000 -1.728548e+001 136 109 88
3.547602e+000 -2.263636e+000 -1.745605e+001 103 74 50
3.523860e+000 -2.303732e+000 -1.748773e+001 136 106 82
3.708894e+000 -2.198206e+000 -1.745963e+001 106 76 52
-1.259230e+000 -2.486147e+000 -1.620174e+001 129 93 69
1.942000e+000 -2.513570e+000 -1.702539e+001 200 172 148
2.836304e+000 -2.403211e+000 -1.733402e+001 105 78 59
3.152149e+000 -2.358115e+000 -1.737237e+001 123 99 76
3.153405e+000 -2.349470e+000 -1.738433e+001 123 99 76
3.266364e+000 -2.333523e+000 -1.741694e+001 124 95 74
3.266364e+000 -2.333523e+000 -1.741694e+001 124 95 74
3.613107e+000 -2.446748e+000 -1.762972e+001 133 104 80
3.711975e+000 -2.389612e+000 -1.764498e+001 135 105 79
3.956646e+000 -2.333853e+000 -1.768360e+001 126 98 76
3.911359e+000 -2.413503e+000 -1.773513e+001 131 103 79
1.831313e+000 -2.531645e+000 -1.713848e+001 192 157 135
3.030570e+000 -2.662851e+000 -1.769635e+001 122 95 76
4.723860e+000 -1.196424e-001 -1.506489e+001 173 135 96
4.409597e+000 -4.063170e-001 -1.544455e+001 146 111 81
3.268992e+000 -6.337646e-001 -1.535983e+001 83 55 36
3.686288e+000 -6.734815e-001 -1.553009e+001 158 124 96
3.292042e+000 -7.860558e-001 -1.550512e+001 88 60 38
3.401722e+000 -1.164529e+000 -1.601931e+001 150 119 90
3.735899e+000 -1.111885e+000 -1.610588e+001 141 110 81
4.109633e+000 -1.259287e+000 -1.632714e+001 145 111 83
4.246157e+000 -1.240647e+000 -1.642082e+001 139 108 81
2.122420e+000 -1.480554e+000 -1.583398e+001 137 93 57
3.507575e+000 -1.772506e+000 -1.681415e+001 134 108 85
3.944012e+000 -1.787359e+000 -1.699687e+001 147 116 88
4.472726e+000 -1.711217e+000 -1.701317e+001 158 124 91
-6.202414e-001 -1.775819e+000 -1.640351e+001 158 117 99
3.198032e+000 -1.956080e+000 -1.692866e+001 92 65 44
3.406235e+000 -1.937156e+000 -1.699092e+001 95 69 46
3.645945e+000 -1.924336e+000 -1.703548e+001 97 69 45
4.296321e+000 -1.854686e+000 -1.723965e+001 167 132 100
1.723629e+000 -2.031984e+000 -1.664019e+001 142 71 73
4.838726e+000 -1.531481e+000 -1.819128e+001 156 126 78
3.781246e+000 -2.065543e+000 -1.729412e+001 130 99 74
2.989472e+000 -2.288771e+000 -1.726541e+001 123 95 74
-1.399566e+000 -2.565313e+000 -1.629130e+001 134 89 69
2.960310e+000 -2.444894e+000 -1.740307e+001 89 65 49
3.937730e+000 -2.387688e+000 -1.770195e+001 97 69 46
3.263138e+000 -2.479518e+000 -1.755613e+001 85 62 46
3.251081e+000 -2.531743e+000 -1.762945e+001 119 93 69
3.224914e+000 -2.581220e+000 -1.766791e+001 84 59 39
3.381823e+000 -2.453681e+000 -1.758684e+001 93 65 43
3.696512e+000 -2.471280e+000 -1.771579e+001 137 107 81
2.954542e+000 -2.608213e+000 -1.758579e+001 79 59 45
3.681465e+000 -2.608828e+000 -1.788152e+001 140 114 89
3.681465e+000 -2.608828e+000 -1.788152e+001 140 114 89
1.446275e+000 -1.246884e-001 -1.534874e+001 218 120 134
3.497204e+000 -6.721348e-001 -1.539256e+001 114 82 57
3.784198e+000 -1.093588e+000 -1.605927e+001 113 79 52
3.784205e+000 -1.094550e+000 -1.605846e+001 113 79 52
4.186219e+000 -1.162804e+000 -1.627200e+001 113 79 52
1.271243e+000 -1.391108e+000 -1.563690e+001 195 118 124
1.271830e+000 -1.392064e+000 -1.563595e+001 195 118 124
1.720029e+000 -1.413521e+000 -1.590799e+001 191 116 127
3.753720e+000 -1.427811e+000 -1.639411e+001 93 61 44
3.561128e+000 -1.467803e+000 -1.640155e+001 133 107 82
3.032449e+000 -1.713984e+000 -1.655706e+001 121 94 73
3.367973e+000 -1.694763e+000 -1.666592e+001 130 103 82
3.526752e+000 -1.679833e+000 -1.675351e+001 85 60 38
1.471364e+000 -2.293766e+000 -1.689388e+001 210 156 150
-1.361424e+000 -2.589276e+000 -1.634527e+001 112 69 52
2.281739e+000 -4.823382e-001 -1.479450e+001 173 138 110
3.976444e+000 -1.175566e+000 -1.620983e+001 157 123 96
1.173571e+000 -1.396072e+000 -1.565957e+001 162 74 73
4.096117e+000 -1.648666e+000 -1.687874e+001 121 90 65
4.097716e+000 -1.646675e+000 -1.688110e+001 121 90 65
2.926220e+000 -2.115258e+000 -1.700894e+001 133 101 78
3.724402e+000 -2.114414e+000 -1.736580e+001 96 66 42
2.793972e+000 -2.555735e+000 -1.747661e+001 86 58 44
1.708382e+000 -2.636584e+000 -1.723559e+001 216 185 164
4.279958e+000 -4.871761e-001 -1.552900e+001 154 120 92
2.213424e+000 -1.713429e+000 -1.610440e+001 51 40 33
2.990392e+000 -1.876012e+000 -1.673197e+001 125 97 75
3.135997e+000 -1.987552e+000 -1.692657e+001 88 61 40
3.135997e+000 -1.987552e+000 -1.692657e+001 88 61 40
-1.116592e+000 -2.137186e+000 -1.603764e+001 133 91 66
1.961896e+000 -2.318864e+000 -1.687188e+001 228 200 181
2.734493e-001 -1.385475e+000 -1.634430e+001 79 45 42
3.666356e+000 -1.627008e+000 -1.670206e+001 123 96 73
-1.199741e-001 -1.752435e+000 -1.633874e+001 181 149 128
1.493856e+000 -2.359379e+000 -1.702919e+001 143 66 70
4.062297e+000 -6.975911e-001 -1.568949e+001 103 75 51
3.817390e+000 -7.343821e-001 -1.559765e+001 133 104 80
3.604362e+000 -7.900641e-001 -1.560910e+001 123 91 66
4.129888e+000 -8.125081e-001 -1.586145e+001 95 65 41
4.075581e+000 -1.007763e+000 -1.605897e+001 116 86 60
3.564258e+000 -1.231914e+000 -1.612050e+001 92 62 38
4.074323e+000 -1.205071e+000 -1.626335e+001 137 108 82
4.683859e+000 -1.210944e+000 -1.659242e+001 86 57 25
3.450058e+000 -1.524946e+000 -1.642269e+001 116 91 68
4.448516e+000 -2.028827e+000 -1.753215e+001 158 129 94
3.290507e+000 -1.083531e-001 -1.473009e+001 155 121 94
4.092653e+000 -1.469035e-001 -1.491755e+001 163 127 93
4.402309e+000 -5.289794e-001 -1.557160e+001 108 78 52
4.162606e+000 -6.749061e-001 -1.570850e+001 99 71 50
3.468209e+000 -1.079549e+000 -1.587749e+001 107 78 48
1.866764e+000 -1.120222e+000 -1.563096e+001 114 102 75
3.331758e+000 -1.781951e+000 -1.678193e+001 102 78 55
3.331758e+000 -1.781951e+000 -1.678193e+001 102 78 55
3.650897e+000 -1.796368e+000 -1.694920e+001 85 56 38
3.659074e+000 -1.786590e+000 -1.697037e+001 85 56 38
-1.418514e+000 -2.363039e+000 -1.616715e+001 129 87 63
1.776191e+000 -2.609833e+000 -1.724813e+001 177 142 122
3.723657e+000 -5.981447e-001 -1.539248e+001 135 104 78
4.393174e+000 -7.160289e-001 -1.584456e+001 151 119 89
3.472993e+000 -1.672513e+000 -1.668653e+001 112 87 67
4.334964e+000 -1.907408e+000 -1.722214e+001 147 117 83
3.656743e+000 -2.355944e+000 -1.760077e+001 131 103 79
4.211980e+000 2.643121e-002 -1.488609e+001 194 155 119
3.881708e+000 -3.484076e-001 -1.508412e+001 145 112 85
4.143105e+000 -1.064089e+000 -1.612348e+001 140 114 87
3.431460e+000 -1.648639e+000 -1.662585e+001 74 51 35
1.943246e+000 -2.055062e+000 -1.661604e+001 176 138 119
3.290771e+000 -2.072921e+000 -1.719576e+001 132 104 82
4.341001e+000 -2.069044e+000 -1.752929e+001 144 115 83
4.333710e+000 -2.078852e+000 -1.750571e+001 144 115 83
3.906216e+000 -7.640702e-002 -1.481329e+001 180 145 117
4.530564e+000 -2.203219e+000 -1.761725e+001 159 128 81
3.666220e+000 -2.312701e+000 -1.758458e+001 132 104 81
3.511736e+000 -1.693304e+000 -1.675749e+001 90 64 44
2.519945e+000 3.271988e-002 -1.442460e+001 129 111 87
5.029436e+000 3.508611e-001 -1.481047e+001 232 203 145
2.247727e+000 -7.376128e-002 -1.457621e+001 133 100 72
2.592037e+000 -1.818773e-001 -1.451485e+001 82 63 44
3.594864e+000 8.611185e-002 -1.477809e+001 142 106 74
2.442391e+000 -3.104722e-001 -1.457000e+001 153 121 87
2.315590e+000 -5.093734e-001 -1.465797e+001 216 185 153
2.830485e+000 -9.014301e-001 -1.484577e+001 99 77 55
2.289230e+000 -6.918599e-001 -1.491574e+001 233 203 174
4.007713e+000 -4.688875e-001 -1.532204e+001 106 74 44
5.200285e+000 -2.162724e+000 -1.492773e+001 222 187 130
2.260362e+000 -9.539197e-001 -1.524528e+001 173 142 113
4.197405e+000 -6.329300e-001 -1.566880e+001 96 66 42
5.147855e+000 -2.175657e+000 -1.502230e+001 154 122 75
2.207329e+000 -9.753855e-001 -1.535645e+001 117 88 58
4.067934e+000 -6.941262e-001 -1.572712e+001 88 60 36
5.203684e+000 -2.397605e+000 -1.518114e+001 135 101 61
1.873913e+000 -6.525457e-001 -1.553310e+001 154 119 99
1.543219e+000 -8.573541e-001 -1.567007e+001 170 114 100
2.243690e+000 -1.245442e+000 -1.561604e+001 129 98 70
2.652217e+000 -1.095393e+000 -1.563902e+001 71 55 34
5.228771e-001 -8.029607e-001 -1.578222e+001 157 101 86
1.137897e+000 -1.331154e+000 -1.558828e+001 189 110 115
1.553973e+000 -1.135541e+000 -1.568345e+001 166 82 88
1.706077e+000 -1.067350e+000 -1.575285e+001 154 94 82
3.662743e+000 -1.174697e+000 -1.606768e+001 103 73 45
1.200820e+000 -1.393125e+000 -1.567433e+001 135 56 51
1.674046e+000 -1.363521e+000 -1.583215e+001 160 73 81
1.102020e+000 -1.437795e+000 -1.585635e+001 122 59 54
1.177261e+000 -1.485413e+000 -1.572364e+001 203 155 133
1.145629e+000 -1.526701e+000 -1.586927e+001 148 91 80
1.699884e+000 -1.443572e+000 -1.589493e+001 199 121 125
2.759251e+000 -1.483886e+000 -1.613629e+001 156 129 108
3.028182e+000 -1.420191e+000 -1.615086e+001 86 57 33
1.747676e+000 -1.586708e+000 -1.604855e+001 161 92 92
2.582652e+000 -1.580820e+000 -1.615214e+001 58 40 19
3.350165e+000 -1.550569e+000 -1.641490e+001 106 78 56
3.777815e+000 -1.424875e+000 -1.644427e+001 85 57 33
4.682335e+000 -1.314731e+000 -1.663645e+001 140 108 60
1.718697e+000 -1.750581e+000 -1.618221e+001 183 115 116
3.440953e+000 -1.621512e+000 -1.657563e+001 68 42 24
3.624631e+000 -1.569691e+000 -1.657783e+001 77 50 29
3.619612e+000 -1.582628e+000 -1.656696e+001 77 50 29
1.395518e+000 -1.903318e+000 -1.615166e+001 187 138 117
2.339214e+000 -1.828373e+000 -1.636752e+001 42 28 20
3.950037e+000 -1.607891e+000 -1.679350e+001 103 76 49
-1.300828e+000 -1.663501e+000 -1.597393e+001 148 114 87
1.315655e+000 -2.051951e+000 -1.629873e+001 207 147 136
2.148016e+000 -1.923252e+000 -1.645949e+001 39 25 15
-7.410276e-001 -1.807519e+000 -1.625153e+001 89 57 36
2.190443e+000 -1.948027e+000 -1.654863e+001 39 25 19
2.717349e+000 -1.971547e+000 -1.678489e+001 132 104 83
3.227644e+000 -1.868167e+000 -1.682735e+001 103 77 54
3.674177e+000 -1.785464e+000 -1.691722e+001 112 82 58
4.014217e+000 -1.752403e+000 -1.701051e+001 95 64 35
-1.523994e+000 -2.211449e+000 -1.604653e+001 150 107 79
2.384526e+000 -2.059911e+000 -1.683402e+001 94 81 65
1.529674e+000 -2.244090e+000 -1.665290e+001 170 100 101
2.218206e+000 -2.142583e+000 -1.680608e+001 158 143 124
3.710615e+000 -2.010447e+000 -1.718724e+001 102 72 44
3.933749e+000 -1.960387e+000 -1.732122e+001 90 58 31
-1.197259e+000 -2.444886e+000 -1.615083e+001 124 86 65
1.555229e+000 -2.195408e+000 -1.684117e+001 115 60 57
2.573739e+000 -2.256896e+000 -1.712439e+001 160 136 112
3.082084e+000 -2.219886e+000 -1.727296e+001 98 68 44
3.183698e+000 -2.231541e+000 -1.731788e+001 77 51 26
3.438188e+000 -2.309580e+000 -1.748026e+001 114 84 60
3.659530e+000 -2.279427e+000 -1.752642e+001 100 66 38
3.660038e+000 -2.278548e+000 -1.752734e+001 100 66 38
4.084752e+000 -2.225471e+000 -1.765023e+001 89 58 30
1.005492e+000 -2.226118e+000 -1.718028e+001 154 84 82
1.046282e+000 -2.292100e+000 -1.717727e+001 152 62 72
1.309051e+000 -2.320942e+000 -1.725231e+001 194 149 121
1.775038e+000 -2.522989e+000 -1.706596e+001 168 129 98
3.016477e+000 -2.398972e+000 -1.740320e+001 86 59 38
3.084922e+000 -2.408530e+000 -1.745729e+001 78 49 27
3.736840e+000 -2.334392e+000 -1.758068e+001 117 86 56
3.827920e+000 -2.280823e+000 -1.760709e+001 111 81 54
1.688440e+000 -2.578675e+000 -1.723726e+001 225 187 151
1.742962e+000 -2.575890e+000 -1.717465e+001 183 149 116
1.813046e+000 -2.584882e+000 -1.720089e+001 182 142 108
3.952769e+000 -2.419791e+000 -1.775347e+001 89 67 45
1.695662e+000 -2.666452e+000 -1.744600e+001 147 105 81
3.808857e+000 -2.554379e+000 -1.791562e+001 113 82 56
2.272459e+000 -3.094467e+000 -1.731693e+001 58 44 33
2.475543e+000 -1.388496e-001 -1.439688e+001 79 58 37
2.334873e+000 -1.457740e-001 -1.443637e+001 192 159 128
2.313875e+000 -4.239227e-001 -1.458173e+001 172 142 111
2.330435e+000 -4.316382e-001 -1.462755e+001 231 203 174
4.611451e+000 -3.681970e-002 -1.506968e+001 118 80 43
4.087782e+000 -2.592484e-001 -1.506555e+001 115 82 51
5.132362e+000 -1.416656e+000 -1.482804e+001 161 125 77
4.124706e+000 -3.531766e-001 -1.520460e+001 112 77 47
2.234916e+000 -5.067024e-001 -1.496096e+001 170 132 100
4.224413e+000 -4.337080e-001 -1.540178e+001 95 64 36
2.025021e+000 -7.738743e-001 -1.526909e+001 184 149 120
2.881393e+000 -7.269227e-001 -1.538639e+001 127 104 86
3.984286e+000 -6.563158e-001 -1.560929e+001 84 54 30
4.163781e+000 -6.417315e-001 -1.568103e+001 116 86 60
1.868110e+000 -6.272546e-001 -1.537675e+001 139 98 78
2.244025e+000 -9.922978e-001 -1.534479e+001 195 166 134
3.830204e+000 -7.467321e-001 -1.563874e+001 87 58 28
3.830204e+000 -7.467321e-001 -1.563874e+001 87 58 28
4.064326e+000 -8.697453e-001 -1.591341e+001 95 63 38
1.135912e+000 -7.608141e-001 -1.560391e+001 159 90 78
2.014974e+000 -1.288737e+000 -1.557312e+001 71 62 45
6.231835e-001 -9.823519e-001 -1.567424e+001 185 131 117
1.911840e+000 -1.423431e+000 -1.565547e+001 160 122 65
2.014720e+000 -1.418747e+000 -1.567202e+001 172 137 100
2.857122e+000 -1.316086e+000 -1.576355e+001 136 109 82
4.197039e+000 -1.127958e+000 -1.621820e+001 128 96 71
1.043012e+000 -1.450076e+000 -1.559901e+001 201 145 130
8.927061e-001 -1.438330e+000 -1.578482e+001 154 97 88
1.191239e+000 -1.578546e+000 -1.572851e+001 202 155 135
1.391215e+000 -1.647790e+000 -1.579344e+001 182 126 114
2.118616e+000 -1.657311e+000 -1.593835e+001 248 223 204
3.204109e+000 -1.437195e+000 -1.620940e+001 106 72 47
3.467437e+000 -1.334416e+000 -1.620500e+001 116 86 62
1.229788e+000 -1.613533e+000 -1.592530e+001 142 90 76
1.332656e+000 -1.668677e+000 -1.582305e+001 194 152 133
1.272372e+000 -1.619502e+000 -1.593515e+001 148 95 82
1.272469e+000 -1.620770e+000 -1.593450e+001 148 95 82
2.135089e+000 -1.697374e+000 -1.601006e+001 139 105 73
2.084608e+000 -1.702296e+000 -1.603598e+001 140 105 78
3.553039e+000 -1.504727e+000 -1.643830e+001 87 57 33
1.888084e+000 -1.747074e+000 -1.621220e+001 82 73 55
3.628005e+000 -1.557640e+000 -1.654543e+001 99 73 49
4.045610e+000 -1.499706e+000 -1.663186e+001 103 76 49
4.052295e+000 -1.482873e+000 -1.664199e+001 103 76 49
1.465003e+000 -1.924388e+000 -1.613691e+001 152 96 87
1.945063e+000 -1.962343e+000 -1.612316e+001 94 81 62
3.617986e+000 -1.687776e+000 -1.675852e+001 77 51 29
3.853552e+000 -1.589659e+000 -1.687742e+001 130 100 71
1.268053e+000 -1.863128e+000 -1.630226e+001 145 65 68
1.356248e+000 -1.915090e+000 -1.624195e+001 214 168 139
1.356248e+000 -1.915090e+000 -1.624195e+001 214 168 139
1.277755e+000 -1.943403e+000 -1.630787e+001 195 136 122
1.355609e+000 -1.949849e+000 -1.626544e+001 156 99 82
1.391772e+000 -1.976091e+000 -1.626363e+001 213 167 143
1.391772e+000 -1.976091e+000 -1.626363e+001 213 167 143
1.665137e+000 -1.855662e+000 -1.640216e+001 139 67 72
1.727248e+000 -1.898884e+000 -1.641641e+001 161 113 102
2.203345e+000 -1.909979e+000 -1.641953e+001 45 28 18
2.203345e+000 -1.909979e+000 -1.641953e+001 45 28 18
3.162319e+000 -1.809548e+000 -1.666720e+001 72 45 25
3.397014e+000 -1.722521e+000 -1.674407e+001 81 53 29
3.623284e+000 -1.715371e+000 -1.684880e+001 75 47 25
3.991602e+000 -1.646917e+000 -1.689245e+001 93 62 36
3.991436e+000 -1.741391e+000 -1.695338e+001 118 87 58
-8.635934e-001 -1.907506e+000 -1.610369e+001 73 42 24
-8.848819e-001 -1.922522e+000 -1.613198e+001 105 71 51
-8.984782e-001 -1.989441e+000 -1.612894e+001 85 52 37
1.844661e+000 -1.905264e+000 -1.650604e+001 137 88 81
1.844253e+000 -1.914664e+000 -1.649886e+001 137 88 81
3.410075e+000 -1.878470e+000 -1.691577e+001 78 48 24
3.468665e+000 -1.962464e+000 -1.681057e+001 115 85 61
1.102158e+000 -2.195244e+000 -1.647192e+001 184 138 123
2.030991e+000 -2.118427e+000 -1.659469e+001 136 104 76
3.048650e+000 -2.036386e+000 -1.694027e+001 88 58 32
3.484983e+000 -2.030341e+000 -1.700905e+001 83 53 29
1.130634e+000 -2.236693e+000 -1.656556e+001 168 120 110
1.215697e+000 -2.272095e+000 -1.659978e+001 144 85 81
1.407531e+000 -2.255398e+000 -1.669988e+001 159 93 95
1.913402e+000 -2.228190e+000 -1.679582e+001 149 108 82
3.857538e+000 -2.031212e+000 -1.736002e+001 98 67 39
3.982739e+000 -1.933522e+000 -1.729615e+001 87 56 28
-5.805849e-001 -2.023805e+000 -1.660762e+001 52 29 21
6.946061e-001 -1.677830e+000 -1.712764e+001 186 106 112
3.529943e+000 -2.101472e+000 -1.729043e+001 80 52 28
-1.709370e+000 -2.520166e+000 -1.617030e+001 146 65 76
-1.504415e+000 -2.619955e+000 -1.623386e+001 161 94 96
1.582247e+000 -2.312664e+000 -1.714518e+001 104 47 29
1.950636e+000 -2.436822e+000 -1.692483e+001 229 201 172
1.949131e+000 -2.446137e+000 -1.691653e+001 229 201 172
2.009905e+000 -2.417900e+000 -1.697426e+001 145 110 78
3.143557e+000 -2.233427e+000 -1.732920e+001 73 45 23
3.223807e+000 -2.292978e+000 -1.736687e+001 111 83 59
3.247038e+000 -2.300174e+000 -1.740150e+001 89 61 36
3.356502e+000 -2.259957e+000 -1.740949e+001 88 60 36
3.635847e+000 -2.221771e+000 -1.746431e+001 99 68 39
3.697831e+000 -2.258357e+000 -1.746204e+001 120 88 62
3.776061e+000 -2.246138e+000 -1.754098e+001 116 83 52
-1.576111e+000 -2.667951e+000 -1.638576e+001 129 54 66
1.187316e+000 -2.241332e+000 -1.714821e+001 158 93 89
1.271736e+000 -2.287640e+000 -1.721454e+001 182 136 113
1.451444e+000 -2.494889e+000 -1.713020e+001 194 152 135
1.451444e+000 -2.494889e+000 -1.713020e+001 194 152 135
1.612087e+000 -2.331978e+000 -1.715060e+001 212 170 141
1.648882e+000 -2.388043e+000 -1.722402e+001 204 160 108
2.954739e+000 -2.390687e+000 -1.735249e+001 75 48 29
3.304628e+000 -2.431647e+000 -1.754649e+001 105 78 53
3.596442e+000 -2.363616e+000 -1.757377e+001 89 59 33
3.622452e+000 -2.383767e+000 -1.762400e+001 97 63 36
4.053719e+000 -2.408890e+000 -1.769721e+001 101 73 49
1.433397e+000 -2.462920e+000 -1.726740e+001 185 141 116
1.367609e+000 -2.473120e+000 -1.736910e+001 176 131 110
1.610764e+000 -2.503475e+000 -1.721555e+001 209 171 137
1.925209e+000 -2.665712e+000 -1.715055e+001 170 139 110
3.943932e+000 -2.496055e+000 -1.784424e+001 94 63 37
-1.413981e+000 -2.729616e+000 -1.661216e+001 116 71 68
1.859169e+000 -2.831320e+000 -1.734991e+001 250 228 202
1.911876e+000 -2.843526e+000 -1.734803e+001 139 107 80
1.968305e+000 -2.740460e+000 -1.735645e+001 121 91 66
2.271902e+000 -2.946403e+000 -1.721706e+001 145 132 113
3.426827e+000 -2.630410e+000 -1.775844e+001 68 41 18
3.950825e+000 -2.522839e+000 -1.790590e+001 97 66 38
1.880328e+000 -2.867783e+000 -1.742925e+001 124 91 66
1.857129e+000 -2.850329e+000 -1.748711e+001 176 149 120
3.228677e+000 -2.686767e+000 -1.776542e+001 109 79 53
1.656927e+000 -2.820878e+000 -1.774782e+001 145 111 83
1.792691e+000 -2.882376e+000 -1.759757e+001 250 224 200
1.792691e+000 -2.882376e+000 -1.759757e+001 250 224 200
2.080093e+000 -2.973185e+000 -1.765856e+001 65 52 35
2.389278e+000 -2.242974e-001 -1.439928e+001 199 165 137
2.281533e+000 -1.752729e-001 -1.463037e+001 159 124 104
1.927922e+000 6.127634e-002 -1.491814e+001 183 153 117
1.947352e+000 -1.861459e-001 -1.493803e+001 204 160 93
2.234433e+000 -4.543587e-001 -1.485637e+001 183 145 113
2.643813e+000 -8.741550e-001 -1.473535e+001 110 95 72
3.980726e+000 -3.516047e-001 -1.517136e+001 107 71 45
2.292140e+000 -6.892508e-001 -1.497954e+001 253 223 195
4.110628e+000 -3.749003e-001 -1.528259e+001 98 67 38
1.861550e+000 -2.607659e-001 -1.517729e+001 179 126 52
4.836934e+000 -3.249598e-001 -1.567601e+001 86 54 25
5.162752e+000 -2.158821e+000 -1.497406e+001 163 128 80
1.554114e+000 -1.580572e-001 -1.534007e+001 179 85 86
2.217304e+000 -9.087783e-001 -1.524415e+001 219 191 165
2.998805e+000 -7.357461e-001 -1.538395e+001 123 96 75
4.050051e+000 -6.181889e-001 -1.560014e+001 85 55 31
4.214879e+000 -5.636866e-001 -1.560352e+001 90 60 34
1.567822e+000 -3.569918e-001 -1.554760e+001 134 53 50
3.774005e+000 -7.846816e-001 -1.567801e+001 117 87 59
4.021081e+000 -7.204892e-001 -1.569480e+001 106 78 52
4.338110e+000 -7.266361e-001 -1.584436e+001 91 60 29
4.338110e+000 -7.266361e-001 -1.584436e+001 91 60 29
2.513501e+000 -9.619048e-001 -1.554468e+001 81 64 44
3.905655e+000 -8.658916e-001 -1.585721e+001 89 57 29
4.093996e+000 -7.984462e-001 -1.583775e+001 130 96 71
4.464727e+000 -8.468081e-001 -1.602984e+001 118 82 45
3.455120e+000 -1.022389e+000 -1.586970e+001 126 92 65
3.734066e+000 -9.898769e-001 -1.589862e+001 102 68 40
1.168031e+000 -1.212332e+000 -1.559457e+001 196 116 120
1.669961e+000 -1.130028e+000 -1.569620e+001 188 132 117
1.963172e+000 -1.315013e+000 -1.561418e+001 80 68 48
2.155985e+000 -1.397293e+000 -1.568010e+001 219 192 169
9.273875e-001 -1.512400e+000 -1.561837e+001 130 60 58
1.101794e+000 -1.419878e+000 -1.559609e+001 189 129 121
1.223184e+000 -1.519326e+000 -1.562786e+001 206 158 141
1.920219e+000 -1.498182e+000 -1.566293e+001 203 170 124
3.488233e+000 -1.214544e+000 -1.607332e+001 98 69 38
3.472792e+000 -1.239406e+000 -1.610836e+001 134 103 74
4.070833e+000 -1.163543e+000 -1.620978e+001 124 92 61
4.132802e+000 -1.219022e+000 -1.629508e+001 131 98 65
9.769783e-001 -1.438896e+000 -1.582113e+001 129 58 61
1.242158e+000 -1.626538e+000 -1.579957e+001 143 67 69
1.342685e+000 -1.594100e+000 -1.575475e+001 148 80 79
1.501507e+000 -1.594527e+000 -1.588238e+001 127 64 53
4.036680e+000 -1.288787e+000 -1.632331e+001 105 72 44
4.040056e+000 -1.282097e+000 -1.632582e+001 105 72 44
1.152597e+000 -1.528737e+000 -1.592772e+001 141 77 73
1.151322e+000 -1.529742e+000 -1.592714e+001 141 77 73
1.537460e+000 -1.694318e+000 -1.599621e+001 160 106 100
3.398533e+000 -1.499949e+000 -1.637323e+001 114 88 65
3.768941e+000 -1.511343e+000 -1.649575e+001 86 56 28
1.288616e+000 -1.597359e+000 -1.604434e+001 127 60 57
3.270936e+000 -1.595067e+000 -1.645413e+001 100 74 51
1.667167e+000 -1.883192e+000 -1.625820e+001 178 124 114
1.744065e+000 -1.786526e+000 -1.622380e+001 147 86 88
1.763804e+000 -1.827875e+000 -1.623783e+001 52 44 27
1.852325e+000 -1.906419e+000 -1.623931e+001 66 58 40
3.656946e+000 -1.650728e+000 -1.675316e+001 113 81 57
-4.755794e-001 -1.420204e+000 -1.631275e+001 196 190 176
3.644591e+000 -1.713111e+000 -1.681910e+001 101 74 47
3.669377e+000 -1.675493e+000 -1.679862e+001 74 48 23
-1.091118e+000 -1.904899e+000 -1.606341e+001 120 84 60
1.265912e+000 -2.114209e+000 -1.625058e+001 156 94 87
1.780356e+000 -1.959504e+000 -1.649670e+001 189 141 129
1.905257e+000 -2.004540e+000 -1.660898e+001 155 113 96
1.991071e+000 -2.091036e+000 -1.658342e+001 247 226 205
2.115606e+000 -2.002531e+000 -1.659874e+001 42 24 13
3.396537e+000 -1.850519e+000 -1.686318e+001 69 41 17
3.688660e+000 -1.818467e+000 -1.704273e+001 84 52 28
1.671287e+000 -2.130722e+000 -1.668209e+001 180 122 110
1.979193e+000 -2.171694e+000 -1.667704e+001 229 201 180
3.014634e+000 -2.062242e+000 -1.699359e+001 89 60 32
1.977697e+000 -2.206210e+000 -1.673059e+001 243 217 194
3.335620e+000 -2.100969e+000 -1.719798e+001 78 51 29
3.672855e+000 -2.087983e+000 -1.725193e+001 78 50 26
-1.056566e+000 -2.472395e+000 -1.626928e+001 113 78 59
3.186463e+000 -2.145292e+000 -1.719871e+001 85 57 35
4.004419e+000 -2.076810e+000 -1.747349e+001 76 49 27
4.004419e+000 -2.076810e+000 -1.747349e+001 76 49 27
-1.495084e+000 -2.531226e+000 -1.629070e+001 128 68 61
1.597410e+000 -2.312880e+000 -1.704303e+001 133 82 65
1.666148e+000 -2.251501e+000 -1.705246e+001 127 71 54
1.701613e+000 -2.286710e+000 -1.706771e+001 189 148 126
2.027801e+000 -2.468281e+000 -1.698882e+001 134 99 66
2.683216e+000 -2.268558e+000 -1.719276e+001 149 119 95
3.416199e+000 -2.301176e+000 -1.746759e+001 118 88 61
3.947515e+000 -2.232012e+000 -1.759867e+001 116 85 56
3.995175e+000 -2.242702e+000 -1.763776e+001 82 52 25
-1.489571e+000 -2.676380e+000 -1.633023e+001 150 89 88
-1.489571e+000 -2.676380e+000 -1.633023e+001 150 89 88
-1.384252e+000 -2.648940e+000 -1.647638e+001 97 53 41
4.077859e-001 -1.420398e+000 -1.783702e+001 125 67 65
1.225557e+000 -2.298379e+000 -1.721985e+001 138 72 63
1.405456e+000 -2.428096e+000 -1.712229e+001 203 156 140
1.694146e+000 -2.447251e+000 -1.711989e+001 151 110 78
2.658391e+000 -2.405090e+000 -1.726981e+001 146 118 96
3.315638e+000 -2.375748e+000 -1.747702e+001 124 94 68
3.544800e+000 -2.321429e+000 -1.753845e+001 102 71 43
3.852588e+000 -2.294685e+000 -1.762106e+001 82 52 24
3.932193e+000 -2.392604e+000 -1.769069e+001 86 56 32
4.035404e+000 -2.359621e+000 -1.776401e+001 80 52 28
-1.271857e+000 -2.633094e+000 -1.664877e+001 78 46 31
8.116887e-001 -2.383051e+000 -1.723428e+001 176 127 113
1.151809e+000 -2.446615e+000 -1.729234e+001 175 120 115
1.204926e+000 -2.434930e+000 -1.734346e+001 159 106 97
1.387008e+000 -2.458016e+000 -1.732632e+001 145 97 79
3.348476e+000 -2.623434e+000 -1.776306e+001 73 48 23
1.695884e+000 -2.831883e+000 -1.774433e+001 122 88 62
1.833604e+000 -2.869024e+000 -1.764871e+001 150 123 96
1.865525e+000 -2.911724e+000 -1.765673e+001 124 95 71
2.292100e+000 -2.950487e+000 -1.771928e+001 47 41 29
1.811758e+000 -2.873317e+000 -1.785158e+001 124 98 80
2.313447e+000 -9.168335e-002 -1.442666e+001 140 107 76
2.270116e+000 -2.024445e-001 -1.452324e+001 159 125 100
4.227234e+000 1.989992e-001 -1.493815e+001 143 103 67
2.326134e+000 -2.977284e-001 -1.450881e+001 136 103 78
2.258927e+000 -3.488861e-001 -1.469766e+001 161 128 100
3.569605e+000 -3.636406e-001 -1.500325e+001 114 80 53
3.690145e+000 -5.150582e-001 -1.527610e+001 90 58 33
4.202234e+000 -4.250871e-001 -1.535725e+001 94 62 36
4.371702e+000 -3.542532e-001 -1.545240e+001 88 54 27
5.184518e+000 -2.005747e+000 -1.481703e+001 158 126 79
2.233747e+000 -7.302318e-001 -1.508129e+001 137 100 71
2.189300e+000 -9.018792e-001 -1.518757e+001 147 113 85
5.164690e+000 -2.263891e+000 -1.500963e+001 220 184 130
2.313779e+000 -1.139844e+000 -1.547098e+001 79 56 37
2.313779e+000 -1.139844e+000 -1.547098e+001 79 56 37
4.240475e+000 -7.894235e-001 -1.589514e+001 87 56 35
1.035593e+000 -1.078872e+000 -1.548523e+001 155 77 73
1.271139e+000 -7.390675e-001 -1.561609e+001 140 59 55
1.867484e+000 -1.053439e+000 -1.561968e+001 106 95 67
2.209337e+000 -1.161107e+000 -1.552162e+001 199 173 149
3.172084e+000 -1.028117e+000 -1.578459e+001 83 53 28
3.524269e+000 -9.624128e-001 -1.589868e+001 88 54 30
4.267041e+000 -9.550202e-001 -1.606957e+001 89 57 32
4.336220e+000 -9.481212e-001 -1.612258e+001 142 107 80
7.515453e-001 -1.190265e+000 -1.548102e+001 206 146 135
1.169461e+000 -1.200192e+000 -1.557301e+001 191 112 117
1.479292e+000 -1.158888e+000 -1.568261e+001 185 100 106
4.218475e+000 -1.112275e+000 -1.617767e+001 86 56 32
9.071210e-001 -1.468331e+000 -1.559566e+001 203 144 136
9.917834e-001 -1.491858e+000 -1.564011e+001 145 86 75
1.554131e+000 -1.439090e+000 -1.576117e+001 192 137 127
7.979349e-001 -1.421329e+000 -1.576354e+001 158 101 90
1.772555e+000 -1.536740e+000 -1.596060e+001 138 68 56
1.943023e+000 -1.615102e+000 -1.580066e+001 166 133 105
4.508480e+000 -1.334267e+000 -1.645289e+001 149 113 71
1.428413e+000 -1.942985e+000 -1.619734e+001 189 144 121
3.568628e+000 -1.658537e+000 -1.669478e+001 104 76 54
-1.045987e+000 -1.611946e+000 -1.614118e+001 151 109 69
1.673575e+000 -1.894962e+000 -1.643333e+001 126 51 61
4.301789e+000 -1.637060e+000 -1.700389e+001 121 85 51
-1.543397e+000 -1.992400e+000 -1.602197e+001 129 88 62
3.599924e+000 -1.836511e+000 -1.698558e+001 109 78 57
3.739452e+000 -1.833895e+000 -1.708283e+001 135 102 71
1.679740e+000 -2.006503e+000 -1.661609e+001 198 136 128
3.410579e+000 -2.063172e+000 -1.719189e+001 79 53 30
3.873846e+000 -2.064083e+000 -1.727525e+001 98 66 41
4.275508e+000 -2.004886e+000 -1.739109e+001 163 128 90
-1.829290e+000 -2.362513e+000 -1.621103e+001 185 124 119
-1.651212e+000 -2.433399e+000 -1.616268e+001 113 57 47
-1.264302e+000 -2.484438e+000 -1.620486e+001 119 82 64
1.855006e+000 -2.259159e+000 -1.699098e+001 166 125 103
3.473968e+000 -2.144086e+000 -1.730779e+001 112 81 55
3.725715e+000 -2.122970e+000 -1.738629e+001 83 52 26
-1.496772e+000 -2.657257e+000 -1.628746e+001 133 62 66
-1.511560e+000 -2.630895e+000 -1.630977e+001 133 62 66
-1.458630e+000 -2.630317e+000 -1.637136e+001 142 80 84
-1.411305e+000 -2.692390e+000 -1.642266e+001 151 88 93
9.136533e-001 -2.394217e+000 -1.714233e+001 204 150 138
1.527617e+000 -2.425676e+000 -1.710086e+001 193 140 126
1.378886e+000 -2.411122e+000 -1.721492e+001 147 98 82
3.255158e+000 -2.376334e+000 -1.744361e+001 95 67 43
1.107538e+000 -2.394947e+000 -1.737904e+001 118 52 54
3.584163e+000 -2.480774e+000 -1.769051e+001 86 54 30
4.279573e+000 -2.463099e+000 -1.780848e+001 143 109 71
1.242364e+000 -2.409971e+000 -1.752545e+001 167 114 100
1.339473e+000 -2.403737e+000 -1.764507e+001 153 116 89
2.255241e+000 -2.919953e+000 -1.718293e+001 38 29 24
3.258288e+000 -2.649550e+000 -1.774301e+001 67 42 20
3.803524e+000 -2.626874e+000 -1.791173e+001 115 84 56
1.799091e+000 -2.803678e+000 -1.741154e+001 160 125 97
3.571380e+000 -2.625706e+000 -1.792420e+001 94 64 40
3.577508e+000 -2.705022e+000 -1.819368e+001 86 60 35
2.347949e+000 -3.175918e-001 -1.457218e+001 245 217 195
2.337104e+000 -3.824799e-001 -1.454162e+001 245 217 195
3.630533e+000 -1.156785e-001 -1.483654e+001 102 67 35
3.694883e+000 -1.146086e-001 -1.488495e+001 160 124 92
2.226136e+000 -3.904750e-001 -1.480201e+001 184 147 118
4.121014e+000 -2.051304e-001 -1.501583e+001 105 69 42
2.741541e+000 -9.201673e-001 -1.472924e+001 86 69 51
4.141380e+000 -2.920872e-001 -1.512656e+001 102 67 39
5.170592e+000 -2.060422e+000 -1.487310e+001 164 132 83
2.260235e+000 -8.304041e-001 -1.510180e+001 230 206 181
2.354629e+000 -8.250427e-001 -1.525921e+001 102 71 45
2.320003e+000 -9.781365e-001 -1.535575e+001 56 38 21
3.331429e+000 -8.397551e-001 -1.564080e+001 98 68 44
3.793770e+000 -8.073284e-001 -1.571934e+001 79 47 22
2.101704e+000 -1.264705e+000 -1.542487e+001 62 53 27
3.576193e+000 -8.917007e-001 -1.578167e+001 106 74 44
1.826366e+000 -7.771620e-001 -1.565493e+001 148 103 84
1.410975e+000 -1.111510e+000 -1.563703e+001 152 71 77
9.993537e-001 -1.461298e+000 -1.559086e+001 200 142 131
1.746073e+000 -1.411535e+000 -1.575738e+001 175 112 97
2.141481e+000 -1.539759e+000 -1.588170e+001 228 197 177
3.116873e+000 -1.372782e+000 -1.610796e+001 129 98 70
3.121135e+000 -1.513570e+000 -1.630210e+001 78 53 29
3.274749e+000 -1.451992e+000 -1.629079e+001 71 46 26
6.213167e-001 -1.096843e+000 -1.640110e+001 175 96 100
6.190425e-001 -1.088223e+000 -1.640704e+001 175 96 100
3.552693e+000 -1.583434e+000 -1.657699e+001 117 91 68
3.970610e+000 -1.486666e+000 -1.661783e+001 78 50 28
1.267498e+000 -1.812372e+000 -1.618909e+001 167 116 94
1.906645e+000 -1.981670e+000 -1.621081e+001 118 109 80
-3.539124e-001 -1.581643e+000 -1.626818e+001 192 158 131
1.615382e-001 -1.548558e+000 -1.633466e+001 127 85 70
1.886418e+000 -2.016637e+000 -1.632560e+001 60 57 42
2.136016e+000 -1.901075e+000 -1.641509e+001 39 23 15
2.474912e-002 -1.832036e+000 -1.649299e+001 127 81 66
3.030603e+000 -2.134655e+000 -1.708974e+001 110 80 54
4.577257e+000 -1.916273e+000 -1.743779e+001 153 119 70
3.303228e+000 -2.118729e+000 -1.722708e+001 84 56 34
-1.565658e-001 -1.762149e+000 -1.725471e+001 133 90 82
1.761288e+000 -2.498330e+000 -1.702808e+001 208 178 149
1.891807e+000 -2.496394e+000 -1.709307e+001 148 108 77
1.090498e+000 -2.434457e+000 -1.723824e+001 175 126 117
1.223142e+000 -2.425391e+000 -1.727137e+001 151 87 85
1.480313e+000 -2.506830e+000 -1.726674e+001 134 85 60
1.480861e+000 -2.503723e+000 -1.726817e+001 134 85 60
3.777078e+000 -2.478672e+000 -1.780981e+001 101 71 43
4.513752e+000 -2.357665e+000 -1.791111e+001 153 120 70
1.414633e+000 -2.561502e+000 -1.748264e+001 126 89 60
1.628729e+000 -2.622623e+000 -1.742170e+001 160 119 89
1.831025e+000 -2.736676e+000 -1.738259e+001 147 113 84
3.306183e+000 -2.582957e+000 -1.772828e+001 109 81 55
3.908819e+000 -2.533225e+000 -1.792057e+001 123 93 68
1.449188e+000 -2.645069e+000 -1.755750e+001 124 89 47
2.923850e+000 -2.723043e+000 -1.782635e+001 90 64 39
3.790225e+000 -2.608461e+000 -1.803463e+001 77 51 28
2.472540e+000 -2.431238e-001 -1.454019e+001 52 28 16
2.737049e+000 -6.695831e-001 -1.457101e+001 145 123 97
4.548311e+000 3.147639e-002 -1.501887e+001 175 132 93
2.317289e+000 -4.647350e-001 -1.464568e+001 205 174 145
2.329919e+000 -5.403094e-001 -1.485081e+001 210 184 154
4.395756e+000 -6.274940e-001 -1.573604e+001 152 117 87
3.733999e+000 -9.561543e-001 -1.585658e+001 108 74 46
1.459311e+000 -9.637287e-001 -1.563970e+001 213 160 146
3.220956e+000 -1.092848e+000 -1.581495e+001 125 94 66
3.386745e+000 -1.086431e+000 -1.587994e+001 131 96 68
4.045257e+000 -1.033661e+000 -1.604060e+001 102 71 43
4.426218e+000 -9.386245e-001 -1.609011e+001 106 70 42
1.329423e+000 -1.214306e+000 -1.562818e+001 184 105 108
1.756440e+000 -1.070722e+000 -1.571729e+001 178 137 119
1.908075e+000 -1.353351e+000 -1.563606e+001 181 153 117
3.237102e+000 -1.123445e+000 -1.588114e+001 129 98 70
3.623602e+000 -1.130089e+000 -1.600777e+001 95 63 38
3.268301e+000 -1.372333e+000 -1.619299e+001 131 100 72
3.832608e+000 -1.335031e+000 -1.631975e+001 146 114 86
3.755013e+000 -1.426749e+000 -1.639490e+001 65 39 18
4.072242e+000 -1.395683e+000 -1.648659e+001 139 106 78
1.998691e+000 -1.780631e+000 -1.607291e+001 67 58 40
2.017707e+000 -1.910379e+000 -1.609277e+001 95 64 44
-4.068696e-002 -1.781010e+000 -1.689868e+001 134 87 77
1.471755e+000 -2.280436e+000 -1.690684e+001 193 141 126
3.086354e+000 -2.122655e+000 -1.717050e+001 75 47 25
-5.996033e-001 -1.913901e+000 -1.695673e+001 192 185 169
3.940229e+000 -2.209286e+000 -1.757108e+001 118 85 58
1.768736e+000 -2.567105e+000 -1.713073e+001 142 97 64
3.658348e+000 -2.333553e+000 -1.756167e+001 122 91 62
-1.138129e+000 -2.619364e+000 -1.664853e+001 70 42 28
1.334705e+000 -2.418937e+000 -1.728144e+001 209 166 134
1.333661e+000 -2.414484e+000 -1.728402e+001 209 166 134
1.606627e+000 -2.781040e+000 -1.752385e+001 145 110 78
1.683039e+000 -2.808941e+000 -1.746913e+001 165 130 103
4.048887e+000 -2.670178e+000 -1.827276e+001 107 79 53
4.099586e+000 -2.553592e+000 -1.866005e+001 138 117 91
2.063619e+000 -1.743313e-001 -1.480234e+001 204 174 140
3.805739e+000 -2.146928e-001 -1.495826e+001 158 125 94
4.516852e+000 -1.411596e-001 -1.518259e+001 157 119 82
4.053871e+000 -3.212812e-001 -1.514883e+001 93 60 35
1.451927e+000 -4.364900e-001 -1.548494e+001 171 87 91
1.861868e+000 -1.366283e+000 -1.576514e+001 159 109 60
2.861166e+000 4.437669e-002 -1.668967e+001 148 125 94
1.221358e+000 -1.568065e+000 -1.567753e+001 188 141 124
1.625392e+000 -1.437106e+000 -1.584204e+001 124 45 51
1.624808e+000 -1.442066e+000 -1.583987e+001 124 45 51
4.071399e+000 -1.399791e+000 -1.648921e+001 138 104 76
1.814411e+000 -1.779902e+000 -1.621556e+001 47 39 25
2.084957e+000 -1.925754e+000 -1.624342e+001 141 115 93
2.054478e+000 -2.031613e+000 -1.641484e+001 137 110 85
-1.019231e+000 -1.839741e+000 -1.609648e+001 171 139 116
2.103299e+000 -2.161102e+000 -1.667855e+001 59 42 32
7.783159e-001 -1.471635e+000 -1.705029e+001 180 104 109
1.986437e+000 -2.172621e+000 -1.673323e+001 205 173 150
2.085409e+000 -2.271128e+000 -1.684211e+001 57 43 35
3.575160e+000 -2.057192e+000 -1.723768e+001 117 87 59
2.064573e+000 -2.415635e+000 -1.693745e+001 59 40 31
-1.639126e+000 -2.573425e+000 -1.626247e+001 137 59 72
1.953432e+000 -2.450797e+000 -1.697921e+001 203 175 147
4.166483e+000 -2.163609e+000 -1.763791e+001 102 68 39
1.925555e+000 -2.612086e+000 -1.710616e+001 215 186 158
