ply
format ascii 1.0
element face 0
property list uchar int vertex_indices
element vertex 893
property float x
property float y
property float z
property uchar diffuse_red
property uchar diffuse_green
property uchar diffuse_blue
end_header
3.702168e+000 2.536501e+000 -1.457941e+001 81 54 25
4.139213e+000 2.655140e+000 -1.472394e+001 98 63 35
5.737183e+000 2.366415e+000 -1.473563e+001 108 67 35
5.737183e+000 2.366415e+000 -1.473563e+001 108 67 35
2.890503e+000 1.831432e+000 -1.362107e+001 132 113 80
5.205191e+000 1.992451e+000 -1.429915e+001 145 107 70
5.952630e+000 1.793259e+000 -1.423282e+001 128 93 61
1.437868e+000 1.172281e+000 -1.369795e+001 67 60 32
2.114566e+000 1.186201e+000 -1.311444e+001 126 93 58
2.122625e+000 1.030565e+000 -1.315702e+001 117 82 49
7.852750e-001 1.172356e+000 -1.487250e+001 156 107 68
1.436793e+000 9.542019e-001 -1.380450e+001 94 84 58
1.544710e+000 8.218331e-001 -1.331210e+001 112 102 74
1.578614e+000 9.829704e-001 -1.309897e+001 73 65 38
1.587701e+000 8.868613e-001 -1.305324e+001 141 122 89
6.375610e+000 8.134250e-001 -1.412952e+001 89 55 27
1.345088e+000 6.524803e-001 -1.399243e+001 156 137 105
2.876824e+000 2.847177e-001 -1.352891e+001 51 39 27
-7.975995e-001 1.178223e-001 -1.519567e+001 171 108 93
4.339919e+000 -1.946591e-001 -1.445949e+001 71 44 23
9.693051e-001 -4.544008e-001 -1.450876e+001 186 152 117
6.141942e+000 -5.574579e-001 -1.555014e+001 93 64 40
5.353605e+000 -6.784813e-001 -1.554886e+001 62 43 19
5.601306e+000 -1.314166e+000 -1.630426e+001 67 45 22
4.666562e+000 -2.044086e+000 -1.681062e+001 50 28 6
-2.486265e-001 -2.215132e+000 -1.572074e+001 185 144 126
8.416659e-001 -2.180518e+000 -1.635209e+001 92 39 35
8.416659e-001 -2.180518e+000 -1.635209e+001 92 39 35
1.030718e+000 -2.306063e+000 -1.623840e+001 159 116 98
4.449269e+000 -2.450679e+000 -1.733758e+001 73 52 30
1.257236e+000 -3.756556e+000 -1.801642e+001 122 88 62
1.365021e+000 -3.930902e+000 -1.816506e+001 41 31 20
1.493909e+000 4.245473e+000 -1.554112e+001 56 37 24
4.139211e+000 3.968249e+000 -1.574803e+001 135 102 71
4.897876e+000 4.086047e+000 -1.596977e+001 102 65 37
4.972294e+000 3.623749e+000 -1.564075e+001 137 104 71
5.235812e+000 3.727918e+000 -1.577468e+001 88 57 28
2.592233e+000 2.755013e+000 -1.452173e+001 69 56 39
8.263491e-001 3.133881e+000 -1.615639e+001 81 63 39
1.642947e+000 2.100676e+000 -1.379321e+001 137 104 71
6.845368e+000 2.190793e+000 -1.481351e+001 110 75 38
1.038448e+000 2.071396e+000 -1.485644e+001 203 164 120
1.713756e+000 1.856336e+000 -1.362144e+001 136 102 67
4.060368e+000 1.926459e+000 -1.408746e+001 87 55 30
4.045548e+000 1.919704e+000 -1.404458e+001 87 55 30
4.114338e+000 1.776034e+000 -1.400102e+001 89 57 34
1.401168e+000 1.571303e+000 -1.406733e+001 155 125 95
1.400718e+000 1.572489e+000 -1.407911e+001 155 125 95
1.831950e+000 1.251817e+000 -1.315460e+001 132 96 65
1.827292e+000 1.029238e+000 -1.301892e+001 198 163 122
4.376072e-001 1.319939e+000 -1.512511e+001 187 118 92
2.123335e+000 7.830121e-001 -1.307436e+001 138 107 76
4.000252e+000 9.832175e-001 -1.359128e+001 81 50 22
1.168198e+000 6.074747e-001 -1.437809e+001 135 86 41
1.197088e+000 -4.825134e-003 -1.437923e+001 121 78 36
4.414106e+000 -1.189058e-001 -1.434961e+001 107 80 53
5.921617e+000 -3.576714e-002 -1.479633e+001 103 75 49
-6.383555e-001 -9.622117e-002 -1.526527e+001 155 93 82
2.362138e+000 -3.383359e-001 -1.424510e+001 30 20 12
4.373887e+000 -4.057446e-001 -1.484407e+001 72 43 25
5.636012e+000 -6.763399e-001 -1.558388e+001 61 42 18
1.622331e+000 -1.432150e+000 -1.517702e+001 91 67 41
1.737835e+000 -1.189225e+000 -1.502093e+001 186 160 133
5.057482e+000 -1.660174e+000 -1.649225e+001 93 63 39
5.058693e+000 -1.660275e+000 -1.649349e+001 93 63 39
1.554611e+000 -1.949911e+000 -1.572150e+001 207 177 151
1.546727e+000 -1.943865e+000 -1.567367e+001 207 177 151
-5.187943e+000 -2.124951e+000 -1.643673e+001 147 107 83
3.847268e+000 -2.167870e+000 -1.674268e+001 65 43 22
6.229772e-001 -3.218573e+000 -1.759004e+001 170 112 99
3.631592e+000 -3.781481e+000 -1.887997e+001 70 47 23
7.809328e-001 -4.124942e+000 -1.843451e+001 186 147 116
1.573698e+000 3.943480e+000 -1.526354e+001 59 38 21
4.526708e+000 4.037749e+000 -1.590542e+001 134 99 70
4.321662e+000 3.562035e+000 -1.558824e+001 120 89 60
5.102714e+000 3.335726e+000 -1.543628e+001 95 61 33
5.832788e+000 3.427557e+000 -1.570125e+001 92 61 33
4.761577e+000 2.544616e+000 -1.476033e+001 128 95 65
7.523436e-001 2.540161e+000 -1.576034e+001 193 160 117
3.514387e+000 2.310799e+000 -1.430852e+001 89 59 34
1.784946e+000 1.593727e+000 -1.329128e+001 141 103 67
1.320452e+000 1.546194e+000 -1.428255e+001 56 45 27
6.113164e+000 1.173091e+000 -1.406587e+001 79 45 21
6.214787e+000 -6.619233e-001 -1.569984e+001 74 44 18
5.079459e+000 -2.020841e+000 -1.686716e+001 109 83 56
5.082628e+000 -2.026117e+000 -1.690290e+001 109 83 56
3.898224e-001 -2.304243e+000 -1.620367e+001 104 38 38
9.703766e-001 -2.193579e+000 -1.640058e+001 161 108 90
8.486969e-001 -2.431323e+000 -1.654879e+001 136 92 81
7.782191e-001 -3.256946e+000 -1.769084e+001 106 45 40
8.238364e-001 -3.674964e+000 -1.835173e+001 108 59 42
5.569781e+000 -3.808134e+000 -1.933869e+001 88 58 33
1.647042e+000 -4.657002e+000 -1.846915e+001 80 66 55
1.908506e+000 4.758071e+000 -1.617036e+001 214 198 180
5.922219e+000 3.737853e+000 -1.590544e+001 89 56 25
1.726776e+000 2.997587e+000 -1.460174e+001 58 37 23
5.597525e+000 2.656455e+000 -1.499243e+001 137 99 63
1.693993e+000 1.662591e+000 -1.378953e+001 173 138 108
2.156470e+000 1.083134e+000 -1.282585e+001 58 39 22
-7.098595e-001 8.109233e-001 -1.542821e+001 218 160 140
2.744139e+000 1.186248e-001 -1.342708e+001 24 17 11
5.728641e+000 -3.879921e-001 -1.525592e+001 97 73 47
6.386811e+000 -5.373020e-001 -1.555749e+001 124 93 64
-2.767967e-001 -7.840304e-001 -1.559760e+001 166 106 95
4.532847e+000 -8.291398e-001 -1.537503e+001 106 79 52
5.696394e+000 -8.207052e-001 -1.568271e+001 90 66 42
8.182016e-001 -1.266899e+000 -1.574319e+001 146 107 89
-5.204154e+000 -1.997499e+000 -1.667820e+001 121 79 55
1.419398e+000 -4.015523e+000 -1.845623e+001 54 45 38
2.667367e+000 -4.214026e+000 -1.896563e+001 139 111 89
5.720196e+000 -4.396501e+000 -1.999891e+001 125 98 66
2.412311e+000 3.123547e+000 -1.478047e+001 145 121 87
4.454713e+000 2.178252e+000 -1.435797e+001 126 91 59
6.295050e+000 1.882931e+000 -1.434414e+001 97 61 29
1.114746e-001 1.268494e+000 -1.529958e+001 208 136 124
2.156525e+000 9.172832e-001 -1.307291e+001 57 33 21
-7.272205e-001 4.370300e-001 -1.517463e+001 183 103 96
6.290247e+000 -2.185458e-002 -1.474436e+001 91 60 32
6.453333e+000 -1.478671e-001 -1.490132e+001 118 88 60
6.376336e-001 -7.166179e-001 -1.599276e+001 98 40 38
4.589304e-001 -1.070367e+000 -1.574418e+001 94 35 27
4.488020e+000 -1.327381e+000 -1.602141e+001 108 80 52
1.867615e-001 -1.576537e+000 -1.597215e+001 106 41 39
3.508866e+000 -2.067310e+000 -1.654167e+001 101 75 50
-5.530472e+000 -2.026594e+000 -1.657010e+001 161 117 88
-3.104746e-001 -2.076601e+000 -1.571336e+001 159 114 94
3.448021e+000 -3.173156e+000 -1.799957e+001 73 51 30
2.577668e+000 3.406098e+000 -1.487835e+001 75 62 46
2.191649e+000 2.750758e+000 -1.421733e+001 71 58 41
2.721419e+000 2.780194e+000 -1.436512e+001 87 70 45
2.394252e+000 2.258342e+000 -1.397217e+001 75 62 40
5.121700e+000 7.381896e-001 -1.394500e+001 73 42 20
5.251886e+000 2.048275e-001 -1.431208e+001 103 74 49
5.242769e+000 2.040673e-001 -1.429676e+001 103 74 49
5.078522e+000 -1.456682e+000 -1.630446e+001 104 74 48
1.343960e+000 -1.788996e+000 -1.549321e+001 72 67 48
1.341600e+000 -1.787903e+000 -1.547099e+001 72 67 48
6.539011e+000 -2.080283e+000 -1.740691e+001 99 68 38
5.613485e-001 -2.776161e+000 -1.695881e+001 173 114 108
3.423744e-001 -2.997371e+000 -1.757271e+001 97 32 36
2.207067e+000 -4.150107e+000 -1.892112e+001 46 31 24
1.602282e+000 4.685107e+000 -1.639348e+001 97 76 57
3.968470e+000 3.686452e+000 -1.557796e+001 106 76 47
4.341495e+000 4.448100e-001 -1.386545e+001 82 54 32
1.358666e+000 3.474052e-001 -1.378426e+001 184 155 119
4.505110e+000 -3.552749e-002 -1.422873e+001 112 82 55
-1.329445e+000 -4.815865e-001 -1.566546e+001 191 135 112
-5.940002e-001 -7.743449e-001 -1.559520e+001 130 62 53
2.954747e+000 -2.336839e+000 -1.681841e+001 127 101 76
2.954747e+000 -2.336839e+000 -1.681841e+001 127 101 76
3.323684e+000 -2.518227e+000 -1.720454e+001 66 43 27
5.877187e+000 -3.872708e+000 -1.957418e+001 131 100 69
-4.565679e+000 -2.914329e+000 -1.678826e+001 93 67 54
5.674095e+000 4.364035e+000 -1.658424e+001 98 65 30
5.417697e+000 2.451769e+000 -1.480451e+001 152 109 74
1.028571e+000 -2.556287e-001 -1.442960e+001 199 161 114
1.510071e+000 8.279405e-001 -1.396811e+001 56 48 28
6.083102e+000 -4.945092e+000 -2.056176e+001 164 135 91
5.528639e+000 -1.136889e+000 -1.599806e+001 77 51 31
5.929796e+000 2.509481e+000 -1.536162e+001 121 82 47
1.561184e+000 4.547289e+000 -1.584757e+001 73 58 36
1.496864e+000 4.486078e+000 -1.586553e+001 77 51 36
2.610035e+000 4.335536e+000 -1.591224e+001 129 105 80
3.942583e+000 4.546196e+000 -1.626222e+001 106 71 41
5.358483e+000 4.640138e+000 -1.670713e+001 98 59 25
1.242713e+000 4.054401e+000 -1.541870e+001 204 171 138
5.049745e+000 4.232843e+000 -1.616441e+001 137 101 69
1.046272e+000 3.762948e+000 -1.526812e+001 161 134 103
1.058935e+000 3.651965e+000 -1.503463e+001 78 67 35
1.061000e+000 3.663775e+000 -1.509413e+001 78 67 35
1.181225e+000 3.484449e+000 -1.493442e+001 173 140 108
1.550073e+000 3.601959e+000 -1.498385e+001 145 113 80
1.852414e+000 3.389767e+000 -1.488319e+001 69 53 29
2.056978e+000 3.434398e+000 -1.506434e+001 50 40 20
2.951019e+000 3.501710e+000 -1.524667e+001 140 109 81
3.829027e+000 3.678141e+000 -1.556279e+001 88 56 34
1.061792e+000 3.338049e+000 -1.506665e+001 90 75 45
2.392163e+000 3.302558e+000 -1.488354e+001 74 58 28
2.701099e+000 3.331617e+000 -1.499252e+001 70 53 33
4.010702e+000 3.487575e+000 -1.547724e+001 85 55 29
5.309342e+000 3.512635e+000 -1.566100e+001 88 53 25
5.342995e+000 3.484483e+000 -1.560357e+001 125 91 61
7.441786e-001 3.262848e+000 -1.586908e+001 189 159 126
1.481408e+000 2.931225e+000 -1.447299e+001 209 175 139
2.058266e+000 2.970868e+000 -1.450425e+001 120 103 77
2.335899e+000 2.966414e+000 -1.478008e+001 28 15 2
2.561634e+000 3.020269e+000 -1.463420e+001 136 114 81
4.432168e+000 2.947168e+000 -1.510398e+001 125 92 59
4.432828e+000 2.947171e+000 -1.510403e+001 125 92 59
6.640672e+000 2.944249e+000 -1.559072e+001 114 85 65
2.351225e-001 2.974638e+000 -1.718623e+001 198 159 126
7.469977e-001 2.764127e+000 -1.562976e+001 65 59 31
1.535178e+000 2.596387e+000 -1.429223e+001 138 104 69
1.504518e+000 2.529557e+000 -1.440254e+001 132 97 62
1.638273e+000 2.451964e+000 -1.400470e+001 229 196 162
1.883157e+000 2.630402e+000 -1.443463e+001 62 41 22
1.883157e+000 2.630402e+000 -1.443463e+001 62 41 22
1.842293e+000 2.374079e+000 -1.388946e+001 143 113 74
2.562398e+000 2.596187e+000 -1.427349e+001 84 62 40
3.198999e+000 2.540310e+000 -1.461920e+001 137 107 78
5.361559e+000 2.474928e+000 -1.407034e+001 112 73 40
6.541071e+000 2.886957e+000 -1.547098e+001 118 84 57
2.163567e-002 2.808744e+000 -1.742962e+001 145 105 69
2.714797e+000 2.373358e+000 -1.411710e+001 176 150 105
2.855488e+000 2.144702e+000 -1.389714e+001 67 49 29
3.220987e+000 2.445450e+000 -1.452014e+001 139 108 79
4.077855e+000 2.361632e+000 -1.448961e+001 98 64 37
4.275864e+000 2.326313e+000 -1.446718e+001 76 42 17
5.684269e+000 2.284233e+000 -1.465541e+001 150 110 75
6.943655e+000 2.308631e+000 -1.519851e+001 95 62 29
4.107387e+000 1.880003e+000 -1.403184e+001 110 78 53
-2.713203e-001 2.282967e+000 -1.753322e+001 206 167 128
4.144201e-001 2.065567e+000 -1.588181e+001 160 116 79
4.169919e-001 2.071532e+000 -1.594777e+001 160 116 79
7.314245e-001 1.761512e+000 -1.494868e+001 185 147 102
1.597519e+000 1.807015e+000 -1.389004e+001 124 95 71
1.729730e+000 1.746438e+000 -1.333691e+001 175 141 106
2.238629e+000 1.595712e+000 -1.340935e+001 65 48 23
2.529000e+000 1.595000e+000 -1.351153e+001 79 64 41
2.864849e+000 1.552425e+000 -1.333943e+001 159 136 108
2.685291e+000 1.251983e+000 -1.350539e+001 54 42 29
4.766262e-001 1.196941e+000 -1.485087e+001 182 119 84
1.306004e+000 1.247777e+000 -1.439541e+001 182 144 111
1.476975e+000 1.153035e+000 -1.346635e+001 105 94 71
1.510772e+000 1.004783e+000 -1.338053e+001 97 90 62
1.510772e+000 1.004783e+000 -1.338053e+001 97 90 62
2.304642e+000 9.782514e-001 -1.317462e+001 75 53 32
2.496463e+000 1.164852e+000 -1.314288e+001 40 27 12
1.340546e+000 9.225248e-001 -1.399932e+001 139 111 83
2.338913e+000 9.369720e-001 -1.319934e+001 225 198 144
6.994299e+000 1.015252e+000 -1.438905e+001 76 42 14
7.191423e+000 7.935329e-001 -1.342867e+001 151 112 60
1.392996e+000 6.329398e-001 -1.386605e+001 85 69 47
2.435458e+000 5.275431e-001 -1.317336e+001 58 42 27
2.901185e+000 5.032556e-001 -1.323994e+001 57 38 24
1.194609e+000 3.650279e-001 -1.404847e+001 177 137 76
2.509414e+000 4.233458e-001 -1.318366e+001 116 99 81
2.586931e+000 4.089001e-001 -1.332187e+001 46 31 15
3.935575e+000 2.071923e-001 -1.374548e+001 75 47 28
2.799966e+000 -1.335660e-002 -1.342415e+001 57 47 33
4.072061e+000 1.098592e-001 -1.400980e+001 55 31 12
2.354997e+000 -1.257136e-001 -1.352219e+001 78 62 46
1.732312e+000 -6.305051e-001 -1.447216e+001 119 85 60
2.166536e+000 -6.160827e-001 -1.459005e+001 50 34 21
5.677523e+000 -4.583189e-001 -1.533707e+001 93 69 43
2.254965e+000 -8.713924e-001 -1.493289e+001 40 28 16
-7.951142e-001 -1.152448e+000 -1.535625e+001 134 67 51
-7.414921e-001 -1.134729e+000 -1.532034e+001 198 140 120
1.217770e+000 -1.039809e+000 -1.513096e+001 54 38 23
1.780198e+000 -1.241699e+000 -1.502977e+001 105 77 53
2.137609e+000 -1.107452e+000 -1.512320e+001 113 95 68
4.656170e+000 -1.157485e+000 -1.591774e+001 104 77 52
5.150819e+000 -1.335414e+000 -1.623505e+001 102 80 58
5.331003e+000 -1.139921e+000 -1.600107e+001 65 40 18
2.035306e+000 -1.387013e+000 -1.541557e+001 43 30 13
7.170087e+000 -1.396905e+000 -1.396281e+001 104 78 37
-5.658271e+000 -1.726349e+000 -1.666481e+001 145 106 77
2.180890e+000 -1.684257e+000 -1.582775e+001 102 88 64
2.452133e+000 -1.953281e+000 -1.603422e+001 53 41 20
4.746578e+000 -1.931532e+000 -1.676199e+001 61 36 14
1.197100e+000 -1.976667e+000 -1.555698e+001 131 96 65
1.962371e+000 -1.979536e+000 -1.599834e+001 45 32 15
4.771061e+000 -2.213785e+000 -1.706241e+001 63 38 17
3.352204e-002 -2.600521e+000 -1.632515e+001 163 102 97
1.367154e+000 -2.328669e+000 -1.590393e+001 122 88 61
1.860541e+000 -2.511987e+000 -1.658430e+001 52 40 18
4.047724e+000 -2.534401e+000 -1.722155e+001 89 66 48
8.559309e-001 -2.950613e+000 -1.683574e+001 54 45 28
1.742352e+000 -2.963161e+000 -1.708043e+001 62 47 25
1.801089e+000 -2.740538e+000 -1.684026e+001 63 47 31
2.206399e+000 -2.810206e+000 -1.712889e+001 78 62 44
2.298395e+000 -2.855544e+000 -1.712518e+001 40 24 9
7.088797e+000 -2.455853e+000 -1.450968e+001 108 79 39
7.088797e+000 -2.455853e+000 -1.450968e+001 108 79 39
7.319153e+000 -2.168895e+000 -1.323599e+001 115 83 42
-2.607349e-001 -3.156801e+000 -1.693502e+001 185 124 111
4.745454e+000 -3.383506e+000 -1.870698e+001 83 57 32
4.089523e-001 -3.727066e+000 -1.824823e+001 119 68 49
7.233261e+000 -2.787567e+000 -1.308290e+001 126 94 53
6.952294e+000 -3.823065e+000 -1.586699e+001 113 85 45
7.194850e+000 -3.302336e+000 -1.367172e+001 123 94 53
8.776485e-001 4.296290e+000 -1.613904e+001 80 72 44
1.326637e+000 4.308591e+000 -1.545553e+001 144 107 80
2.232266e+000 4.392847e+000 -1.583467e+001 82 66 44
3.593347e+000 4.530493e+000 -1.616026e+001 168 132 98
4.366763e+000 4.549296e+000 -1.640626e+001 100 64 30
4.218549e+000 4.425593e+000 -1.620420e+001 100 63 34
5.111802e+000 4.482773e+000 -1.642942e+001 104 65 32
5.738489e+000 4.462195e+000 -1.656830e+001 125 89 57
6.488268e+000 4.606512e+000 -1.696273e+001 125 86 45
7.097965e+000 3.753850e+000 -1.357322e+001 187 146 88
1.201947e+000 4.094264e+000 -1.564321e+001 145 112 84
1.091126e+000 4.093508e+000 -1.606087e+001 121 92 65
1.318396e+000 3.800292e+000 -1.515942e+001 233 201 168
2.268742e+000 3.929667e+000 -1.533164e+001 78 62 47
5.675341e+000 4.125460e+000 -1.622923e+001 98 64 36
1.262152e+000 3.451756e+000 -1.488372e+001 138 108 70
2.583443e+000 3.731284e+000 -1.518955e+001 66 49 29
2.625755e+000 3.644322e+000 -1.520383e+001 60 43 25
2.447296e+000 3.432327e+000 -1.499471e+001 62 44 22
2.661213e+000 3.425723e+000 -1.499146e+001 63 48 29
3.842767e+000 3.722364e+000 -1.544226e+001 116 84 59
3.691386e+000 3.515901e+000 -1.543588e+001 84 54 31
4.108835e+000 3.691841e+000 -1.567068e+001 85 56 35
1.123914e+000 3.325583e+000 -1.517657e+001 117 97 69
4.643652e+000 3.294972e+000 -1.546330e+001 80 46 19
6.096546e+000 3.495021e+000 -1.585417e+001 116 80 48
7.083479e+000 2.935732e+000 -1.367713e+001 148 111 58
1.981311e+000 2.867201e+000 -1.444444e+001 75 57 37
2.351691e+000 2.827910e+000 -1.460444e+001 28 16 2
4.798569e+000 3.110244e+000 -1.523128e+001 90 55 29
5.392034e+000 2.974394e+000 -1.538211e+001 111 75 41
8.876321e-001 2.859965e+000 -1.535010e+001 92 77 51
1.690560e+000 2.551390e+000 -1.407335e+001 166 131 95
1.586990e+000 2.486640e+000 -1.408706e+001 186 154 116
1.872334e+000 2.462078e+000 -1.407317e+001 55 38 20
1.997362e+000 2.678751e+000 -1.420145e+001 33 28 18
2.227427e+000 2.344182e+000 -1.374654e+001 66 51 32
2.872530e+000 2.693798e+000 -1.456602e+001 79 62 36
2.873101e+000 2.601268e+000 -1.439520e+001 77 57 33
4.610510e+000 2.595853e+000 -1.478458e+001 126 92 64
5.692607e+000 2.714170e+000 -1.507915e+001 136 97 64
-3.461385e-001 3.003678e+000 -1.788378e+001 216 203 188
2.456314e-001 2.717567e+000 -1.677008e+001 172 147 112
1.683432e+000 2.230984e+000 -1.376352e+001 189 157 119
4.171832e+000 2.414266e+000 -1.455882e+001 86 52 25
2.009757e+000 1.953511e+000 -1.356397e+001 53 36 22
2.235732e+000 1.868377e+000 -1.348280e+001 80 59 35
2.772079e+000 1.875618e+000 -1.367258e+001 69 52 31
3.940420e+000 2.053106e+000 -1.407116e+001 148 113 81
5.398025e+000 1.906058e+000 -1.427714e+001 114 71 37
5.398025e+000 1.906058e+000 -1.427714e+001 114 71 37
1.250675e-001 2.007758e+000 -1.609852e+001 179 114 87
1.938158e+000 1.627177e+000 -1.326122e+001 115 77 40
4.401857e+000 1.657426e+000 -1.393063e+001 94 63 34
4.415172e-001 1.462046e+000 -1.523902e+001 205 149 116
2.072195e+000 1.302271e+000 -1.313454e+001 143 105 69
2.634435e+000 1.324772e+000 -1.335625e+001 57 46 27
1.138953e+000 1.117366e+000 -1.457874e+001 131 88 53
1.588651e+000 1.223461e+000 -1.361020e+001 139 103 71
1.554510e+000 1.055360e+000 -1.320134e+001 128 114 87
2.949541e+000 1.073745e+000 -1.326372e+001 63 46 26
-9.246393e-001 1.069047e+000 -1.614134e+001 155 79 66
1.033991e+000 1.037310e+000 -1.473933e+001 161 117 78
1.179675e+000 9.714330e-001 -1.432140e+001 153 111 73
1.494190e+000 7.701868e-001 -1.351793e+001 111 101 75
-9.554321e-001 6.668591e-001 -1.553377e+001 175 98 86
6.199673e-001 7.720659e-001 -1.491437e+001 175 109 93
1.186713e+000 7.501695e-001 -1.409565e+001 150 118 84
1.174011e+000 2.387482e-001 -1.441005e+001 135 94 45
1.838363e+000 2.536301e-001 -1.351185e+001 117 84 58
1.905458e+000 4.510398e-001 -1.319666e+001 156 124 95
1.970046e+000 4.451540e-001 -1.313679e+001 155 124 93
1.946653e+000 2.164958e-001 -1.352443e+001 126 92 64
2.907446e+000 3.557169e-001 -1.347232e+001 39 25 19
2.999306e+000 3.357008e-001 -1.332659e+001 52 36 21
6.203204e+000 3.642232e-001 -1.435329e+001 64 35 11
7.462113e-001 1.839561e-001 -1.492418e+001 95 56 40
1.824786e+000 -2.636217e-002 -1.365940e+001 166 131 100
2.144280e+000 1.203390e-001 -1.361010e+001 107 73 46
2.693680e+000 3.990428e-002 -1.348579e+001 62 50 34
2.821943e+000 4.690358e-002 -1.350217e+001 23 14 6
2.643019e+000 -1.312528e-001 -1.329553e+001 67 56 39
2.842970e+000 -1.674148e-001 -1.329234e+001 81 66 45
5.689328e+000 -2.373348e-001 -1.487136e+001 100 75 51
-1.178219e+000 -4.234300e-001 -1.564878e+001 163 113 85
-1.289802e+000 -6.535362e-001 -1.561179e+001 159 98 83
4.381030e-001 -5.664110e-001 -1.595342e+001 138 70 71
2.858489e+000 -4.772509e-001 -1.330228e+001 79 63 47
4.791549e+000 -5.170735e-001 -1.513087e+001 58 34 11
-3.054370e+000 -9.598496e-001 -1.735860e+001 183 135 112
1.856085e+000 -7.932224e-001 -1.449435e+001 115 81 54
2.007397e+000 -8.078529e-001 -1.471057e+001 49 36 18
4.246584e+000 -6.819837e-001 -1.527667e+001 68 41 22
5.063402e+000 -8.074639e-001 -1.562658e+001 93 69 44
5.063402e+000 -8.074639e-001 -1.562658e+001 93 69 44
5.701890e+000 -1.006788e+000 -1.602080e+001 63 38 17
-9.121746e-001 -1.011104e+000 -1.548126e+001 195 132 115
1.165682e+000 -1.174227e+000 -1.509857e+001 60 51 32
1.807506e+000 -1.158034e+000 -1.495122e+001 91 66 39
2.161411e+000 -9.695099e-001 -1.512462e+001 74 63 45
3.605487e+000 -1.289517e+000 -1.581258e+001 56 38 18
5.276786e+000 -1.313171e+000 -1.619266e+001 87 63 39
-1.209640e+000 -1.465861e+000 -1.545915e+001 165 91 88
1.416495e+000 -1.661741e+000 -1.515561e+001 54 42 20
2.506744e+000 -1.677456e+000 -1.578333e+001 61 46 27
2.624071e+000 -1.639935e+000 -1.574306e+001 37 24 13
2.585410e+000 -1.819618e+000 -1.581236e+001 89 71 50
4.672717e+000 -2.043623e+000 -1.680544e+001 50 28 6
-4.971497e+000 -2.100340e+000 -1.652338e+001 104 64 39
1.989176e+000 -2.080402e+000 -1.616470e+001 80 68 48
1.976161e+000 -2.171068e+000 -1.620348e+001 43 30 13
5.092547e+000 -2.187334e+000 -1.713812e+001 70 46 22
-5.791070e-002 -2.268200e+000 -1.567738e+001 115 66 52
-2.014721e-001 -2.578026e+000 -1.656410e+001 159 106 92
1.995954e+000 -2.487704e+000 -1.656834e+001 37 27 17
1.834922e+000 -2.660888e+000 -1.676170e+001 47 33 18
4.053027e+000 -2.410927e+000 -1.704224e+001 88 66 47
4.932661e+000 -2.579320e+000 -1.786360e+001 72 47 25
4.932661e+000 -2.579320e+000 -1.786360e+001 72 47 25
-4.507425e+000 -2.714617e+000 -1.663253e+001 97 64 45
1.071604e+000 -2.856786e+000 -1.630124e+001 65 56 39
1.800671e+000 -2.894151e+000 -1.707926e+001 51 38 24
8.969244e-001 -3.446999e+000 -1.790296e+001 115 68 54
2.192765e+000 -3.460198e+000 -1.797899e+001 156 136 112
2.192765e+000 -3.460198e+000 -1.797899e+001 156 136 112
-6.159840e+000 -3.431501e+000 -1.670740e+001 180 110 110
2.077301e-001 -3.648758e+000 -1.784861e+001 167 108 100
6.601973e-001 -4.049633e+000 -1.847815e+001 146 105 77
-5.824130e+000 -4.046685e+000 -1.708860e+001 149 78 84
5.909605e-001 -4.126750e+000 -1.863056e+001 182 141 109
7.087227e+000 -4.341158e+000 -1.459675e+001 169 140 98
1.250870e+000 4.671190e+000 -1.600099e+001 164 132 101
8.156979e-001 4.432194e+000 -1.618927e+001 91 83 54
9.930501e-001 4.036035e+000 -1.591510e+001 169 139 108
1.141907e+000 4.129798e+000 -1.588407e+001 176 145 116
1.244105e+000 3.812668e+000 -1.513082e+001 137 105 73
1.490706e+000 3.904877e+000 -1.526746e+001 143 115 78
2.538752e+000 4.096540e+000 -1.553658e+001 74 58 35
9.087609e-001 3.566837e+000 -1.555484e+001 188 157 123
1.319371e+000 3.513867e+000 -1.494795e+001 247 219 184
2.623793e+000 3.528460e+000 -1.502833e+001 66 50 29
4.073263e+000 3.570615e+000 -1.551765e+001 118 89 59
4.414805e+000 3.843703e+000 -1.574153e+001 124 89 62
4.530923e+000 3.622514e+000 -1.561721e+001 125 94 66
1.353948e+000 3.316450e+000 -1.492420e+001 126 93 61
1.989725e+000 3.184844e+000 -1.467260e+001 123 103 75
2.587849e+000 3.169536e+000 -1.487714e+001 69 56 32
1.547515e+000 2.995370e+000 -1.459936e+001 120 81 50
1.657114e+000 2.674104e+000 -1.411570e+001 128 93 61
2.081827e+000 2.875795e+000 -1.446770e+001 134 114 78
1.836148e+000 2.695585e+000 -1.443726e+001 56 34 21
2.229753e+000 2.500595e+000 -1.413689e+001 56 42 26
2.663162e+000 2.585089e+000 -1.432689e+001 150 126 88
2.777597e+000 2.391734e+000 -1.405594e+001 67 50 30
5.750216e+000 2.718518e+000 -1.506491e+001 111 72 39
2.435565e-001 2.578838e+000 -1.642110e+001 73 65 26
1.740998e+000 2.103088e+000 -1.364016e+001 216 180 145
2.328275e+000 2.105602e+000 -1.374423e+001 62 46 28
3.871085e+000 2.128674e+000 -1.418621e+001 105 70 42
4.178680e+000 2.254178e+000 -1.431881e+001 123 89 61
5.097083e+000 2.302640e+000 -1.463136e+001 115 79 46
5.101550e+000 2.303736e+000 -1.464352e+001 115 79 46
1.998790e+000 1.889993e+000 -1.362999e+001 144 110 69
4.241724e+000 2.068340e+000 -1.427913e+001 79 48 22
5.290100e+000 2.068331e+000 -1.436449e+001 120 81 46
2.039547e+000 1.538544e+000 -1.325443e+001 143 104 68
2.280937e+000 1.741882e+000 -1.335457e+001 77 61 38
2.816329e+000 1.745587e+000 -1.354589e+001 81 63 43
6.725490e+000 1.867561e+000 -1.457734e+001 142 103 62
1.579501e+000 1.313859e+000 -1.385070e+001 175 137 106
1.513071e+000 1.086673e+000 -1.345887e+001 65 59 34
3.005936e+000 1.027978e+000 -1.322329e+001 138 120 96
3.005936e+000 1.027978e+000 -1.322329e+001 138 120 96
-5.624662e-001 1.010287e+000 -1.550637e+001 210 132 124
1.555543e+000 7.392159e-001 -1.340829e+001 71 60 38
1.555543e+000 7.392159e-001 -1.340829e+001 71 60 38
2.350486e+000 7.195744e-001 -1.317173e+001 38 24 13
2.614657e+000 8.597478e-001 -1.321642e+001 66 49 32
3.024395e+000 8.533604e-001 -1.320636e+001 56 37 21
3.024395e+000 8.533604e-001 -1.320636e+001 56 37 21
-8.764620e-001 7.950225e-001 -1.572326e+001 164 94 80
1.147864e+000 5.210118e-001 -1.433302e+001 185 144 81
2.018329e+000 6.501416e-001 -1.290665e+001 125 91 64
2.340205e+000 5.696577e-001 -1.315812e+001 61 44 24
3.200972e+000 6.386996e-001 -1.346208e+001 60 40 16
2.108219e+000 3.694252e-001 -1.326949e+001 112 84 54
2.641134e+000 2.386892e-001 -1.336725e+001 67 53 36
2.965408e+000 3.608516e-001 -1.341526e+001 114 94 68
5.033895e+000 2.544448e-001 -1.414052e+001 98 67 46
5.405415e+000 2.099560e-001 -1.425931e+001 61 34 15
1.867020e+000 1.776964e-001 -1.344155e+001 207 174 141
6.384800e+000 7.561862e-003 -1.481565e+001 79 48 20
8.179788e-001 -1.127910e-001 -1.492618e+001 179 140 109
1.862278e+000 -1.336933e-001 -1.361195e+001 195 161 129
2.924266e+000 -1.896659e-001 -1.335540e+001 38 25 14
3.561472e+000 -2.877633e-001 -1.432563e+001 58 37 20
5.879025e+000 -2.095850e-001 -1.497024e+001 76 51 28
1.834738e+000 -5.498063e-001 -1.421260e+001 213 182 153
1.968284e+000 -3.586001e-001 -1.402962e+001 114 83 55
5.985106e+000 -4.828824e-001 -1.545439e+001 94 68 44
-9.853483e-001 -7.582462e-001 -1.541371e+001 189 124 112
5.377006e+000 -9.776707e-001 -1.580930e+001 92 67 44
6.007602e+000 -1.006781e+000 -1.624578e+001 57 31 14
1.461465e+000 -1.114764e+000 -1.491738e+001 81 73 50
5.132652e+000 -1.176319e+000 -1.594019e+001 98 73 50
1.097069e+000 -1.332768e+000 -1.560212e+001 36 27 12
5.721234e+000 -1.411248e+000 -1.648064e+001 91 66 44
-6.184354e+000 -1.818091e+000 -1.695300e+001 178 137 110
3.547669e+000 -1.921537e+000 -1.625257e+001 103 75 53
4.932994e+000 -1.897501e+000 -1.678652e+001 70 43 22
-8.580619e-001 -1.935218e+000 -1.549256e+001 177 119 107
1.601544e+000 -2.194715e+000 -1.597440e+001 111 77 50
4.631890e+000 -2.459165e+000 -1.746352e+001 61 39 18
1.133093e+000 -2.382209e+000 -1.599143e+001 145 114 90
3.995625e+000 -2.707324e+000 -1.756522e+001 97 71 51
4.438425e+000 -2.442906e+000 -1.729591e+001 73 52 30
6.635272e-001 -2.742775e+000 -1.674841e+001 122 53 56
-1.003088e-001 -3.135686e+000 -1.687340e+001 168 115 101
6.345795e-001 -3.600870e+000 -1.819119e+001 163 110 92
1.042625e+000 -3.027890e+000 -1.677321e+001 100 82 63
5.404297e+000 -3.694339e+000 -1.927126e+001 92 68 44
9.606531e-001 -3.670139e+000 -1.831130e+001 138 100 77
1.122399e+000 -4.020199e+000 -1.812619e+001 203 172 144
3.634095e+000 -4.674181e+000 -1.979227e+001 101 79 55
4.252050e+000 -4.318407e+000 -1.958938e+001 79 54 32
1.027502e+000 -4.544497e+000 -1.872476e+001 200 168 140
1.421815e+000 4.643515e+000 -1.607525e+001 91 71 51
2.582702e+000 4.844013e+000 -1.672259e+001 214 198 179
4.819146e+000 4.355031e+000 -1.621727e+001 107 73 38
5.657672e+000 4.655386e+000 -1.686596e+001 135 97 61
7.203569e-001 4.221390e+000 -1.627660e+001 57 49 26
1.143946e+000 3.860813e+000 -1.534281e+001 167 137 108
4.900219e+000 4.086459e+000 -1.598134e+001 102 65 37
4.659943e+000 3.978832e+000 -1.586920e+001 101 67 40
4.628204e+000 3.953807e+000 -1.577113e+001 101 67 40
5.333467e+000 4.174556e+000 -1.618228e+001 125 90 60
6.752972e-001 3.964745e+000 -1.632136e+001 90 80 55
1.414728e+000 3.236297e+000 -1.473925e+001 214 180 144
3.472970e+000 3.363948e+000 -1.528806e+001 81 53 29
4.022773e+000 3.307737e+000 -1.529288e+001 90 59 31
1.367471e+000 2.846156e+000 -1.497854e+001 157 126 98
4.604871e+000 2.864073e+000 -1.498389e+001 99 64 36
3.747447e+000 2.672725e+000 -1.473822e+001 114 80 53
3.623526e+000 2.542393e+000 -1.475863e+001 106 79 50
4.284299e+000 2.487347e+000 -1.464917e+001 130 95 66
4.838622e+000 2.782547e+000 -1.494641e+001 99 63 37
4.959367e+000 2.529188e+000 -1.486049e+001 100 64 34
5.771006e-002 2.953085e+000 -1.765296e+001 191 151 117
1.397517e+000 2.288703e+000 -1.425940e+001 82 70 42
1.547189e+000 2.341517e+000 -1.409093e+001 139 105 72
1.791574e+000 2.234920e+000 -1.375252e+001 136 98 61
4.261611e+000 2.192142e+000 -1.434443e+001 95 61 33
-4.392708e-001 2.515844e+000 -1.780141e+001 201 159 109
5.156928e+000 2.028249e+000 -1.439285e+001 110 69 37
5.117863e+000 1.855568e+000 -1.419467e+001 146 108 71
2.912854e+000 1.294440e+000 -1.315981e+001 128 110 80
1.832136e+000 1.031129e+000 -1.308294e+001 198 163 122
1.892834e+000 5.336914e-001 -1.327398e+001 112 82 57
2.136874e+000 4.449645e-001 -1.308994e+001 107 76 47
2.930455e+000 2.798657e-001 -1.342890e+001 36 23 14
1.774986e+000 2.768671e-002 -1.363963e+001 126 90 62
2.140340e+000 1.851810e-001 -1.338472e+001 33 20 12
2.718509e+000 -1.135855e-001 -1.332119e+001 34 23 17
2.723882e+000 -1.157086e-001 -1.333258e+001 34 23 17
-1.017742e+000 -5.523855e-001 -1.562164e+001 168 102 87
5.941055e+000 -3.978061e-001 -1.517978e+001 64 42 19
1.215607e+000 -1.136010e+000 -1.490974e+001 81 73 52
1.215607e+000 -1.136010e+000 -1.490974e+001 81 73 52
5.825660e+000 -1.332332e+000 -1.630967e+001 96 72 48
2.699771e-001 -1.402870e+000 -1.576076e+001 149 75 76
2.660022e+000 -1.328017e+000 -1.544126e+001 39 24 11
5.439082e+000 -1.384037e+000 -1.632821e+001 68 43 21
6.088385e+000 -1.687719e+000 -1.691420e+001 89 59 33
-5.860177e+000 -1.822495e+000 -1.665024e+001 140 104 80
-5.832088e-001 -1.930075e+000 -1.552753e+001 187 135 117
1.259553e+000 -2.171846e+000 -1.569746e+001 130 95 67
8.613648e-001 -2.597989e+000 -1.666199e+001 70 53 41
1.458717e+000 -2.462111e+000 -1.623616e+001 164 134 108
3.120073e+000 -2.581676e+000 -1.701798e+001 68 42 25
2.442092e+000 -2.733110e+000 -1.701289e+001 47 33 19
2.588051e+000 -3.113895e+000 -1.774584e+001 121 96 76
7.897113e-001 -3.459642e+000 -1.798564e+001 174 128 104
1.061802e+000 -3.654367e+000 -1.801954e+001 134 94 69
1.065774e+000 -3.994141e+000 -1.850296e+001 138 99 73
3.456640e+000 -3.794768e+000 -1.874837e+001 101 75 56
2.505498e+000 -4.254658e+000 -1.891887e+001 98 72 53
3.840825e+000 -4.329512e+000 -1.949833e+001 74 49 27
1.206576e+000 4.400113e+000 -1.563151e+001 242 209 176
3.099633e+000 4.641670e+000 -1.642848e+001 125 90 60
5.634770e+000 4.606516e+000 -1.643100e+001 134 95 59
6.013963e+000 4.444000e+000 -1.642136e+001 199 157 117
6.054310e+000 4.248216e+000 -1.629339e+001 168 129 94
6.553641e+000 4.182465e+000 -1.657317e+001 66 40 25
4.766161e+000 3.849557e+000 -1.578078e+001 132 97 70
5.907519e-001 3.423160e+000 -1.616067e+001 128 112 78
4.695215e+000 3.466550e+000 -1.553028e+001 139 107 78
5.290320e+000 3.401813e+000 -1.554689e+001 135 100 70
3.425869e+000 2.735734e+000 -1.475546e+001 79 51 29
2.022719e+000 2.193561e+000 -1.395686e+001 77 61 38
6.958212e+000 2.215703e+000 -1.504102e+001 110 75 38
4.479495e-001 1.953270e+000 -1.574393e+001 192 148 111
4.818369e+000 1.763494e+000 -1.405898e+001 95 60 28
1.605904e+000 1.428991e+000 -1.402207e+001 118 82 56
1.583890e+000 1.423565e+000 -1.394101e+001 118 82 56
1.053270e+000 1.169950e+000 -1.471350e+001 168 122 79
-4.215172e-001 1.078043e+000 -1.554246e+001 184 98 93
6.825227e+000 9.992046e-001 -1.423367e+001 131 93 57
2.442314e+000 6.320948e-001 -1.326004e+001 134 112 76
2.253616e+000 3.019079e-001 -1.332786e+001 52 38 24
4.449227e-002 -1.167320e-003 -1.530024e+001 132 56 58
1.200033e+000 1.245897e-001 -1.436417e+001 178 132 48
2.714259e+000 -9.639855e-004 -1.355353e+001 62 48 31
3.357434e+000 5.139101e-002 -1.379736e+001 83 61 41
4.236115e+000 1.688152e-001 -1.401778e+001 71 44 23
3.456723e+000 -1.636201e-001 -1.404657e+001 105 85 63
1.187544e+000 -5.231922e-001 -1.468298e+001 93 62 42
6.594168e-002 -8.128713e-001 -1.555791e+001 151 88 81
2.524809e+000 -1.169701e+000 -1.545853e+001 79 68 47
4.711310e-001 -1.347699e+000 -1.572399e+001 152 104 82
6.332464e-001 -1.485945e+000 -1.611182e+001 105 45 36
-2.315252e-001 -1.721602e+000 -1.575978e+001 100 26 29
4.088307e-001 -2.274153e+000 -1.612743e+001 107 43 37
3.699674e+000 -2.208255e+000 -1.677187e+001 69 45 27
-4.132553e+000 -2.504423e+000 -1.651116e+001 85 50 37
1.298063e-001 -3.008683e+000 -1.674952e+001 171 124 109
1.336605e+000 -2.699691e+000 -1.658580e+001 85 58 37
1.417059e+000 -2.872665e+000 -1.668691e+001 118 95 72
6.027885e-001 -3.527965e+000 -1.841263e+001 109 42 40
2.530481e+000 -3.341497e+000 -1.795653e+001 126 100 79
4.653466e+000 -3.572244e+000 -1.883549e+001 76 51 28
4.174693e+000 -4.630407e+000 -1.997054e+001 88 57 38
4.943262e+000 -4.575725e+000 -2.011938e+001 93 63 39
5.649373e+000 -6.738578e+000 -2.247843e+001 178 150 103
5.703590e+000 -7.130186e+000 -2.199383e+001 175 148 105
1.327243e+000 4.065605e+000 -1.524185e+001 196 163 130
6.679673e-001 4.137839e+000 -1.661789e+001 114 103 75
1.674900e+000 3.345952e+000 -1.487084e+001 43 29 20
4.800930e+000 2.949724e+000 -1.512675e+001 132 98 70
8.034611e-001 2.706751e+000 -1.561926e+001 75 67 44
-1.412328e-001 2.969707e+000 -1.789155e+001 157 109 69
2.153298e+000 2.251316e+000 -1.396975e+001 203 179 146
-1.983520e-001 2.552156e+000 -1.758210e+001 47 28 23
3.566563e+000 2.103939e+000 -1.407365e+001 95 63 40
6.325148e+000 2.106975e+000 -1.462957e+001 112 74 38
5.358084e-001 1.467404e+000 -1.526944e+001 200 155 113
3.056497e+000 1.380348e+000 -1.328300e+001 45 32 16
3.140443e+000 9.928794e-001 -1.325709e+001 67 49 25
5.281563e+000 1.232571e+000 -1.385476e+001 87 53 26
5.281563e+000 1.232571e+000 -1.385476e+001 87 53 26
-2.189059e-001 1.105740e+000 -1.540597e+001 209 141 128
1.589146e+000 2.677697e-001 -1.377754e+001 134 91 61
3.501613e+000 7.650630e-002 -1.378618e+001 118 92 67
6.511060e+000 6.321476e-002 -1.466318e+001 121 90 62
6.562475e+000 6.205783e-002 -1.477707e+001 121 90 62
8.997829e-001 -2.760540e-001 -1.474869e+001 196 158 121
3.592734e+000 -2.918056e-001 -1.431204e+001 60 39 20
6.424118e+000 -1.451469e-001 -1.484320e+001 118 88 60
2.418085e+000 -6.359824e-001 -1.472711e+001 20 12 12
5.057381e+000 -5.809363e-001 -1.521628e+001 103 77 50
1.333219e+000 -9.308558e-001 -1.515537e+001 116 85 60
1.253572e+000 -1.320947e+000 -1.514373e+001 77 70 47
-5.501151e+000 -1.807334e+000 -1.657914e+001 135 94 66
3.978260e+000 -1.848680e+000 -1.644912e+001 106 78 57
4.841790e+000 -1.743128e+000 -1.669417e+001 107 77 51
-5.828379e+000 -2.232619e+000 -1.665782e+001 129 91 70
5.109775e+000 -2.241485e+000 -1.709180e+001 83 60 38
5.236332e+000 -2.694685e+000 -1.807296e+001 74 49 27
1.494895e+000 -3.448329e+000 -1.771813e+001 43 32 20
3.152894e+000 -3.352634e+000 -1.797332e+001 104 76 54
5.688579e-001 -3.707879e+000 -1.831781e+001 160 114 92
1.442901e+000 -3.700209e+000 -1.802742e+001 46 36 25
3.309208e+000 -4.603854e+000 -1.959189e+001 88 63 41
4.834675e+000 -4.740728e+000 -2.004999e+001 187 156 110
5.646723e+000 -4.978172e+000 -2.098861e+001 160 131 92
1.746275e+000 -4.862768e+000 -1.852225e+001 102 90 74
2.353469e+000 4.397994e+000 -1.561177e+001 75 61 42
1.614720e+000 3.734764e+000 -1.512968e+001 50 36 22
4.388286e+000 3.089636e+000 -1.520985e+001 147 112 79
4.373354e+000 3.081870e+000 -1.516249e+001 147 112 79
5.316131e+000 3.114776e+000 -1.534778e+001 92 58 31
2.561517e-001 2.494429e+000 -1.633929e+001 101 83 50
2.561517e-001 2.494429e+000 -1.633929e+001 101 83 50
2.834167e+000 2.336593e+000 -1.396637e+001 82 64 40
6.861741e+000 1.969959e+000 -1.423458e+001 164 121 67
2.084824e+000 1.674698e+000 -1.335417e+001 54 32 18
3.880362e+000 1.728347e+000 -1.382727e+001 127 95 65
5.533984e+000 1.251749e+000 -1.403765e+001 124 88 58
2.168929e+000 5.570829e-001 -1.304714e+001 39 23 14
2.505317e+000 4.003138e-001 -1.334004e+001 63 48 25
3.298717e+000 2.268693e-001 -1.379488e+001 104 79 58
4.394474e+000 -3.086366e-001 -1.421077e+001 80 55 33
6.323956e+000 -3.765746e-001 -1.553597e+001 72 44 22
-3.322628e-001 -1.062231e+000 -1.544336e+001 167 97 91
6.711062e+000 -1.097612e+000 -1.647299e+001 91 62 30
2.728884e+000 -1.346887e+000 -1.561968e+001 60 44 29
6.561019e+000 -1.419659e+000 -1.661090e+001 89 60 27
5.955504e+000 -1.886919e+000 -1.697858e+001 74 48 25
2.548575e+000 3.745006e+000 -1.525054e+001 77 57 42
2.154061e+000 3.113269e+000 -1.461151e+001 57 43 29
2.349550e+000 2.549697e+000 -1.429356e+001 64 48 31
4.749286e-001 2.659825e+000 -1.649112e+001 77 65 39
3.798635e+000 2.389424e+000 -1.449872e+001 130 99 70
4.043007e+000 2.152590e+000 -1.425609e+001 127 92 64
3.634253e+000 1.895711e+000 -1.386030e+001 79 48 27
5.244912e+000 9.694878e-001 -1.388950e+001 70 39 18
2.660032e+000 5.734033e-001 -1.326428e+001 22 14 7
2.713826e+000 5.733230e-001 -1.350114e+001 22 14 7
3.147009e+000 5.183862e-001 -1.361468e+001 59 41 27
6.444831e+000 -6.176536e-001 -1.567110e+001 115 87 57
1.177865e+000 -1.547519e+000 -1.563243e+001 43 34 21
-4.098359e-002 -2.026713e+000 -1.561140e+001 122 54 55
4.956241e+000 -2.857006e+000 -1.791051e+001 111 85 58
6.201751e+000 -4.219532e+000 -1.995814e+001 108 78 43
1.929208e-001 3.024888e+000 -1.733938e+001 186 148 112
4.603998e+000 2.007454e+000 -1.427171e+001 143 107 71
3.094113e+000 7.832597e-001 -1.324017e+001 52 33 16
5.907853e+000 4.542328e-001 -1.413075e+001 90 58 33
4.495118e+000 -3.429949e-002 -1.420412e+001 112 82 55
5.365733e+000 -4.019918e-001 -1.496133e+001 88 65 41
5.917448e+000 -1.140597e+000 -1.611602e+001 69 44 24
3.842764e+000 -4.528105e+000 -1.986747e+001 89 64 42
1.101155e+000 3.249045e+000 -1.545805e+001 56 45 25
6.894936e+000 2.653518e+000 -1.527015e+001 24 18 18
5.023297e+000 1.591444e+000 -1.395529e+001 131 95 59
4.673319e+000 6.241213e-001 -1.382218e+001 120 85 57
4.673319e+000 6.241213e-001 -1.382218e+001 120 85 57
3.821138e+000 6.609492e-003 -1.411408e+001 64 41 23
5.437096e+000 2.457063e+000 -1.487148e+001 152 109 74
8.362940e-001 2.118166e+000 -1.563517e+001 187 144 99
4.011285e+000 -1.309299e-001 -1.460455e+001 62 40 22
1.327784e+000 -2.137395e+000 -1.578389e+001 131 97 67
-4.063813e+000 -2.871947e+000 -1.756972e+001 63 42 37
3.507368e+000 -4.325415e+000 -1.976338e+001 74 49 29
5.717775e+000 -6.126550e+000 -2.096108e+001 162 136 91
2.061308e+000 4.119394e+000 -1.582738e+001 69 56 38
2.510960e+000 2.766055e-001 -1.279522e+001 50 38 18
-3.985014e+000 -2.552005e+000 -1.379908e+001 85 54 41
2.688640e+000 4.807379e+000 -1.663192e+001 172 146 116
2.392547e+000 4.267747e+000 -1.561422e+001 65 51 32
4.452801e+000 4.126215e+000 -1.599423e+001 103 68 38
4.958282e+000 3.910295e+000 -1.590149e+001 96 64 38
6.585055e+000 4.348947e+000 -1.666815e+001 146 102 67
2.597894e+000 3.482097e+000 -1.506447e+001 81 68 48
3.792907e+000 3.611658e+000 -1.549011e+001 109 77 56
6.843007e-001 3.524447e+000 -1.613793e+001 197 161 127
5.515392e+000 3.499118e+000 -1.570589e+001 117 82 54
5.490215e+000 3.492771e+000 -1.564182e+001 117 82 54
2.311533e+000 3.075962e+000 -1.485088e+001 37 23 12
2.565707e+000 3.023825e+000 -1.464980e+001 136 114 81
2.489894e+000 2.919380e+000 -1.457935e+001 75 53 30
4.554674e+000 2.849574e+000 -1.497094e+001 97 63 35
2.236918e+000 2.622032e+000 -1.432655e+001 63 46 31
3.444376e-001 2.448498e+000 -1.619790e+001 93 73 39
3.999346e-001 2.429500e+000 -1.614610e+001 171 137 91
2.240861e+000 2.186221e+000 -1.388980e+001 64 47 26
3.140076e+000 2.412509e+000 -1.436517e+001 159 129 101
5.254917e+000 2.504336e+000 -1.484982e+001 124 85 49
3.261035e+000 1.828629e+000 -1.378831e+001 170 139 110
2.025397e+000 1.635915e+000 -1.344664e+001 169 129 94
2.370667e+000 1.625427e+000 -1.338710e+001 151 129 101
2.328971e+000 1.593104e+000 -1.340279e+001 70 55 29
2.755223e+000 1.718852e+000 -1.353059e+001 247 232 181
4.613900e+000 1.627802e+000 -1.388941e+001 123 92 61
1.543071e+000 1.387601e+000 -1.396938e+001 128 93 65
2.804048e+000 1.232958e+000 -1.333461e+001 146 129 102
2.804048e+000 1.232958e+000 -1.333461e+001 146 129 102
1.469652e+000 1.055221e+000 -1.372688e+001 102 95 67
2.365032e+000 9.033430e-001 -1.316191e+001 58 39 23
1.921413e+000 5.155625e-001 -1.316773e+001 124 93 64
4.931636e+000 4.864172e-001 -1.390999e+001 62 38 13
-1.252512e+000 -3.737517e-001 -1.566750e+001 163 113 85
4.526179e+000 -2.227767e-001 -1.453107e+001 101 77 51
3.799049e+000 -8.438171e-001 -1.523332e+001 51 28 11
4.946908e+000 -7.703540e-001 -1.548565e+001 70 46 22
5.384261e+000 -8.944240e-001 -1.582775e+001 54 32 11
7.335919e-001 -1.095938e+000 -1.601614e+001 94 40 28
5.506392e+000 -1.217171e+000 -1.613211e+001 71 50 26
3.684036e+000 -1.642476e+000 -1.630705e+001 61 36 14
3.684036e+000 -1.642476e+000 -1.630705e+001 61 36 14
1.583931e+000 -1.807982e+000 -1.543375e+001 151 124 97
2.022362e+000 -1.611260e+000 -1.569280e+001 41 28 14
2.127972e+000 -1.659331e+000 -1.578562e+001 37 24 12
4.716651e+000 -1.850704e+000 -1.667117e+001 97 72 49
-5.809899e+000 -2.284508e+000 -1.664435e+001 115 77 55
-3.386454e+000 -2.221611e+000 -1.733697e+001 162 125 98
4.817832e+000 -2.110496e+000 -1.697732e+001 60 34 12
9.673968e-001 -2.698667e+000 -1.678731e+001 46 33 20
1.847975e+000 -2.579689e+000 -1.664085e+001 49 37 20
3.708481e+000 -2.431836e+000 -1.714975e+001 67 45 24
8.001751e-001 -3.112044e+000 -1.741798e+001 110 40 39
2.194594e+000 -2.929245e+000 -1.734814e+001 71 56 36
-9.042594e-001 -3.541209e+000 -1.881554e+001 133 72 66
-1.451052e-002 -3.143624e+000 -1.691885e+001 169 109 98
1.134736e+000 -3.753169e+000 -1.803698e+001 215 180 152
1.134736e+000 -3.753169e+000 -1.803698e+001 215 180 152
4.064317e+000 -4.010483e+000 -1.903130e+001 81 54 35
4.339800e+000 4.529653e+000 -1.632056e+001 100 64 30
3.671454e+000 3.504337e+000 -1.539268e+001 84 54 31
4.079740e+000 3.665867e+000 -1.555164e+001 85 56 35
1.143136e+000 3.272122e+000 -1.520084e+001 75 58 33
6.299188e+000 3.513464e+000 -1.578571e+001 115 85 58
2.833514e+000 2.770808e+000 -1.454034e+001 81 60 39
4.004772e+000 2.958712e+000 -1.499973e+001 98 67 39
4.321681e+000 2.567261e+000 -1.470666e+001 101 67 39
6.018231e+000 1.554648e+000 -1.412386e+001 101 64 32
6.018231e+000 1.554648e+000 -1.412386e+001 101 64 32
5.948804e+000 1.233460e+000 -1.404606e+001 88 53 26
2.029584e+000 9.009656e-001 -1.309637e+001 113 76 49
3.949386e+000 7.549740e-001 -1.363997e+001 70 39 18
-6.820386e-001 5.164423e-001 -1.521976e+001 170 94 86
1.493492e+000 3.974257e-001 -1.375767e+001 148 119 88
1.592216e+000 -1.371310e-001 -1.406746e+001 151 112 80
3.547757e+000 -2.135333e-001 -1.410482e+001 61 40 23
5.897924e+000 -4.254442e-001 -1.535570e+001 72 46 23
5.608010e+000 -7.684443e-001 -1.567735e+001 92 70 47
1.359093e+000 -1.060484e+000 -1.511226e+001 40 31 14
7.885798e-001 -1.455215e+000 -1.597232e+001 115 60 46
1.084621e+000 -1.495700e+000 -1.584863e+001 53 41 25
1.036690e+000 -1.948113e+000 -1.595742e+001 119 81 45
1.118678e+000 -1.928931e+000 -1.538938e+001 162 129 94
4.440412e+000 -3.610019e+000 -1.885625e+001 76 49 28
8.151776e-001 -3.979264e+000 -1.821834e+001 143 99 72
2.308832e+000 -3.972488e+000 -1.870249e+001 65 46 29
7.654568e-001 -4.183752e+000 -1.822626e+001 152 113 82
2.110661e+000 4.819081e+000 -1.634914e+001 162 141 116
3.665569e+000 4.200807e+000 -1.580978e+001 121 86 59
6.429223e+000 4.443919e+000 -1.665307e+001 119 77 42
6.429223e+000 4.443919e+000 -1.665307e+001 119 77 42
2.559995e+000 3.883950e+000 -1.531798e+001 74 59 40
5.606321e+000 3.754452e+000 -1.584351e+001 97 63 36
3.690376e+000 3.430520e+000 -1.536009e+001 113 83 55
3.699061e+000 3.438392e+000 -1.538129e+001 113 83 55
4.087091e+000 3.432993e+000 -1.546702e+001 91 62 34
1.739542e+000 2.101472e+000 -1.363110e+001 216 180 145
1.613004e-002 2.226952e+000 -1.684888e+001 194 157 121
3.775679e+000 1.965078e+000 -1.403346e+001 78 48 24
4.525157e+000 1.949400e+000 -1.417900e+001 140 104 70
4.517920e+000 1.948324e+000 -1.417107e+001 140 104 70
9.900153e-001 -1.944413e-001 -1.457965e+001 157 115 73
4.130354e+000 -1.001241e-001 -1.436776e+001 70 48 25
5.347060e+000 -3.901389e-001 -1.492746e+001 87 65 41
5.549602e+000 -4.094971e-001 -1.523159e+001 65 42 20
5.549602e+000 -4.094971e-001 -1.523159e+001 65 42 20
5.607191e+000 -1.314239e+000 -1.632134e+001 67 45 22
5.760791e+000 -1.333926e+000 -1.640307e+001 64 42 19
5.508316e+000 -1.571485e+000 -1.656710e+001 63 36 17
5.070041e+000 -1.887282e+000 -1.673151e+001 78 51 29
5.070205e+000 -1.887134e+000 -1.673057e+001 78 51 29
-4.980025e+000 -2.041501e+000 -1.661618e+001 156 115 90
1.943904e-001 -2.204303e+000 -1.595761e+001 145 66 69
4.221545e+000 -2.043692e+000 -1.668319e+001 70 45 26
4.638882e+000 -2.462552e+000 -1.749217e+001 61 39 18
4.787226e+000 -2.573831e+000 -1.768314e+001 96 72 48
-5.690124e+000 -2.772079e+000 -1.658958e+001 126 83 58
4.545775e+000 -3.156548e+000 -1.832022e+001 73 49 25
1.428835e+000 4.812595e+000 -1.624897e+001 218 201 183
2.046235e+000 2.602567e+000 -1.414396e+001 40 27 18
5.493363e+000 2.714484e+000 -1.504297e+001 114 79 41
4.665274e+000 2.440566e+000 -1.468563e+001 103 67 39
1.995637e+000 1.374102e+000 -1.315757e+001 135 99 63
5.675708e+000 1.372086e+000 -1.404308e+001 97 61 29
4.024734e+000 1.086860e+000 -1.360136e+001 108 74 47
7.190853e-001 6.178283e-001 -1.458571e+001 191 154 115
5.917056e+000 5.761308e-001 -1.413194e+001 81 51 27
5.511428e+000 -1.278641e-001 -1.469932e+001 112 82 58
4.797666e+000 -5.992444e-001 -1.517637e+001 104 77 52
-2.891607e+000 -1.140835e+000 -1.643755e+001 201 160 122
5.439573e+000 -1.384127e+000 -1.632969e+001 68 43 21
1.370896e+000 -1.761032e+000 -1.529979e+001 56 49 32
4.799239e+000 -1.848705e+000 -1.674394e+001 101 74 49
-5.804336e+000 -2.307008e+000 -1.636320e+001 157 113 84
5.218561e+000 -3.650782e+000 -1.904040e+001 69 44 22
2.861131e+000 -4.126097e+000 -1.898098e+001 72 45 28
3.848573e-001 -4.283858e+000 -1.887804e+001 174 135 106
5.003941e+000 4.612699e+000 -1.659290e+001 168 126 88
5.470096e+000 3.601171e+000 -1.588306e+001 86 55 26
3.974906e+000 1.621391e+000 -1.380733e+001 93 59 31
1.144627e+000 3.576153e-001 -1.424071e+001 126 82 22
5.254213e+000 4.630929e-001 -1.402401e+001 109 77 53
3.880047e+000 -1.590271e+000 -1.611983e+001 80 52 30
2.172386e+000 -2.367517e+000 -1.661799e+001 23 14 11
1.288338e-001 -3.004668e+000 -1.672339e+001 171 124 109
1.360940e+000 3.843351e+000 -1.512664e+001 199 166 131
-2.059194e-001 2.236225e+000 -1.719024e+001 195 155 119
2.376947e+000 -2.952790e+000 -1.727452e+001 51 39 22
2.319826e+000 3.498990e+000 -1.497558e+001 106 83 58
3.376185e+000 3.287142e+000 -1.532205e+001 88 57 35
9.921169e-001 1.994873e+000 -1.476796e+001 198 159 116
3.066290e+000 1.383158e+000 -1.330093e+001 44 30 13
5.941758e-001 5.598801e-001 -1.502861e+001 151 72 67
2.664185e+000 -1.969160e+000 -1.634982e+001 44 28 12
6.021540e+000 4.530702e+000 -1.647830e+001 183 140 101
2.031417e+000 3.643950e+000 -1.500411e+001 61 49 32
-4.035823e-001 -1.507143e+000 -1.553919e+001 149 77 80
4.511872e+000 -7.016034e-001 -1.524813e+001 96 69 44
1.200378e+000 -1.523265e+000 -1.531875e+001 55 41 27
5.667714e+000 8.668851e-001 -1.392718e+001 111 75 43
1.332705e+000 -1.002089e-001 -1.374439e+001 177 138 98
4.905337e+000 3.985453e+000 -1.591243e+001 100 65 35
4.613749e+000 1.624795e+000 -1.388424e+001 123 92 61
1.249257e+000 1.443549e+000 -1.452254e+001 125 86 55
1.220385e+000 8.724968e-001 -1.414629e+001 145 108 74
1.581309e+000 8.171179e-001 -1.312272e+001 93 84 53
4.502961e+000 8.692829e-001 -1.369913e+001 109 76 46
1.943666e+000 2.890591e-001 -1.318906e+001 150 115 87
-1.337001e+000 -3.156250e-001 -1.578360e+001 172 123 93
4.431195e+000 -2.081351e-001 -1.444127e+001 64 38 15
3.774477e-001 -5.522391e-001 -1.602158e+001 143 73 76
1.287913e-001 -5.595780e-001 -1.601064e+001 150 90 79
2.197425e+000 -5.510366e-001 -1.452097e+001 44 31 22
5.348984e+000 -4.872352e-001 -1.517416e+001 85 60 36
1.687445e+000 -8.690330e-001 -1.463385e+001 121 89 64
