ply
format ascii 1.0
element face 0
property list uchar int vertex_indices
element vertex 891
property float x
property float y
property float z
property uchar diffuse_red
property uchar diffuse_green
property uchar diffuse_blue
end_header
2.532495e+000 2.734907e-001 -1.277932e+001 50 38 18
-3.987304e+000 -2.587082e+000 -1.373849e+001 85 54 41
2.670704e+000 4.797958e+000 -1.663263e+001 172 146 116
2.382761e+000 4.263622e+000 -1.561421e+001 65 51 32
4.447462e+000 4.127190e+000 -1.601504e+001 103 68 38
4.949380e+000 3.909202e+000 -1.590186e+001 96 64 38
6.575503e+000 4.349394e+000 -1.668448e+001 146 102 67
2.594466e+000 3.479678e+000 -1.506189e+001 81 68 48
3.789915e+000 3.610615e+000 -1.549547e+001 109 77 56
6.690912e-001 3.510332e+000 -1.612605e+001 197 161 127
5.514839e+000 3.500907e+000 -1.571677e+001 117 82 54
5.486898e+000 3.492146e+000 -1.563920e+001 117 82 54
2.310058e+000 3.072997e+000 -1.484657e+001 37 23 12
2.566626e+000 3.022609e+000 -1.464662e+001 136 114 81
2.491299e+000 2.918009e+000 -1.457534e+001 75 53 30
4.559703e+000 2.851299e+000 -1.497596e+001 97 63 35
2.240150e+000 2.620491e+000 -1.432082e+001 63 46 31
3.310592e-001 2.430566e+000 -1.617897e+001 93 73 39
3.884641e-001 2.412077e+000 -1.612863e+001 171 137 91
2.248294e+000 2.185431e+000 -1.388166e+001 64 47 26
3.147193e+000 2.412582e+000 -1.436389e+001 159 129 101
5.263658e+000 2.507470e+000 -1.485533e+001 124 85 49
3.276428e+000 1.829740e+000 -1.379003e+001 170 139 110
2.036529e+000 1.634610e+000 -1.343484e+001 169 129 94
2.383711e+000 1.625327e+000 -1.337698e+001 151 129 101
2.341793e+000 1.592665e+000 -1.339226e+001 70 55 29
2.768691e+000 1.719524e+000 -1.352369e+001 247 232 181
4.631615e+000 1.631282e+000 -1.388940e+001 123 92 61
1.549391e+000 1.381373e+000 -1.395411e+001 128 93 65
2.820340e+000 1.232607e+000 -1.332491e+001 146 129 102
2.820340e+000 1.232607e+000 -1.332491e+001 146 129 102
1.478141e+000 1.048643e+000 -1.370962e+001 102 95 67
2.381539e+000 9.011403e-001 -1.314830e+001 58 39 23
1.936934e+000 5.104209e-001 -1.315005e+001 124 93 64
4.953691e+000 4.863572e-001 -1.390801e+001 62 38 13
-1.258093e+000 -3.998574e-001 -1.562749e+001 163 113 85
4.542852e+000 -2.288375e-001 -1.452402e+001 101 77 51
3.808478e+000 -8.557798e-001 -1.521697e+001 51 28 11
4.956964e+000 -7.798469e-001 -1.547535e+001 70 46 22
5.392389e+000 -9.040193e-001 -1.581796e+001 54 32 11
7.312911e-001 -1.118799e+000 -1.597836e+001 94 40 28
5.512536e+000 -1.227885e+000 -1.612027e+001 71 50 26
3.685821e+000 -1.658939e+000 -1.628124e+001 61 36 14
3.685821e+000 -1.658939e+000 -1.628124e+001 61 36 14
1.588849e+000 -1.828448e+000 -1.539976e+001 151 124 97
2.025848e+000 -1.630685e+000 -1.566068e+001 41 28 14
2.131117e+000 -1.678756e+000 -1.575339e+001 37 24 12
4.717395e+000 -1.865572e+000 -1.664878e+001 97 72 49
-5.822708e+000 -2.329744e+000 -1.657478e+001 115 77 55
-3.395880e+000 -2.260393e+000 -1.727056e+001 162 125 98
4.816548e+000 -2.125966e+000 -1.695264e+001 60 34 12
9.650867e-001 -2.724052e+000 -1.673825e+001 46 33 20
1.847070e+000 -2.602575e+000 -1.659846e+001 49 37 20
3.704993e+000 -2.450479e+000 -1.711504e+001 67 45 24
7.949336e-001 -3.138831e+000 -1.736222e+001 110 40 39
2.189802e+000 -2.952189e+000 -1.730094e+001 71 56 36
-9.146646e-001 -3.573655e+000 -1.874044e+001 133 72 66
-1.691185e-002 -3.172013e+000 -1.686154e+001 169 109 98
1.127599e+000 -3.779269e+000 -1.797510e+001 215 180 152
1.127599e+000 -3.779269e+000 -1.797510e+001 215 180 152
4.048155e+000 -4.028852e+000 -1.897421e+001 81 54 35
4.328269e+000 4.526456e+000 -1.632861e+001 100 64 30
3.668583e+000 3.502906e+000 -1.539535e+001 84 54 31
4.076260e+000 3.665008e+000 -1.555667e+001 85 56 35
1.135379e+000 3.264531e+000 -1.519195e+001 75 58 33
6.299205e+000 3.516779e+000 -1.579832e+001 115 85 58
2.836760e+000 2.770083e+000 -1.453731e+001 81 60 39
4.007149e+000 2.958845e+000 -1.500106e+001 98 67 39
4.328115e+000 2.568537e+000 -1.470667e+001 101 67 39
6.040667e+000 1.560835e+000 -1.413280e+001 101 64 32
6.040667e+000 1.560835e+000 -1.413280e+001 101 64 32
5.972616e+000 1.238574e+000 -1.405363e+001 88 53 26
2.039798e+000 8.959199e-001 -1.304979e+001 113 76 49
3.969377e+000 7.543988e-001 -1.363473e+001 70 39 18
-6.874088e-001 4.957761e-001 -1.519137e+001 170 94 86
1.503667e+000 3.880484e-001 -1.373768e+001 148 119 88
1.601961e+000 -1.491754e-001 -1.404466e+001 151 112 80
3.564563e+000 -2.207043e-001 -1.409282e+001 61 40 23
5.911776e+000 -4.312465e-001 -1.535394e+001 72 46 23
5.617507e+000 -7.766554e-001 -1.566876e+001 92 70 47
1.363815e+000 -1.079208e+000 -1.508214e+001 40 31 14
7.875812e-001 -1.478355e+000 -1.593316e+001 115 60 46
1.084994e+000 -1.517796e+000 -1.581128e+001 53 41 25
1.037509e+000 -1.971299e+000 -1.591732e+001 119 81 45
1.123190e+000 -1.950812e+000 -1.535260e+001 162 129 94
4.425245e+000 -3.628489e+000 -1.880775e+001 76 49 28
8.074680e-001 -4.006211e+000 -1.815239e+001 143 99 72
2.296991e+000 -3.995436e+000 -1.863953e+001 65 46 29
7.583007e-001 -4.210820e+000 -1.815957e+001 152 113 82
2.093650e+000 4.810322e+000 -1.634847e+001 162 141 116
3.656884e+000 4.197911e+000 -1.581177e+001 121 86 59
6.418382e+000 4.443837e+000 -1.666746e+001 119 77 42
6.418382e+000 4.443837e+000 -1.666746e+001 119 77 42
2.553806e+000 3.881216e+000 -1.531773e+001 74 59 40
5.604130e+000 3.756417e+000 -1.585609e+001 97 63 36
3.684386e+000 3.428418e+000 -1.535585e+001 113 83 55
3.694211e+000 3.434702e+000 -1.537369e+001 113 83 55
4.082660e+000 3.432090e+000 -1.546647e+001 91 62 34
1.747026e+000 2.100394e+000 -1.362013e+001 216 180 145
-7.665296e-004 2.204046e+000 -1.682462e+001 194 157 121
3.790168e+000 1.967392e+000 -1.403515e+001 78 48 24
4.539663e+000 1.952493e+000 -1.418150e+001 140 104 70
4.532046e+000 1.951314e+000 -1.417211e+001 140 104 70
9.948031e-001 -2.102503e-001 -1.455464e+001 157 115 73
4.146770e+000 -1.062703e-001 -1.435926e+001 70 48 25
5.363436e+000 -3.959025e-001 -1.492409e+001 87 65 41
5.563560e+000 -4.157756e-001 -1.522830e+001 65 42 20
5.563560e+000 -4.157756e-001 -1.522830e+001 65 42 20
5.612390e+000 -1.325411e+000 -1.631020e+001 67 45 22
5.765317e+000 -1.344975e+000 -1.639177e+001 64 42 19
5.511099e+000 -1.583879e+000 -1.655206e+001 63 36 17
5.066838e+000 -1.901083e+000 -1.670284e+001 78 51 29
5.067006e+000 -1.900834e+000 -1.670307e+001 78 51 29
-4.991913e+000 -2.083847e+000 -1.655091e+001 156 115 90
1.939042e-001 -2.223652e+000 -1.588893e+001 145 66 69
4.221831e+000 -2.060026e+000 -1.665670e+001 70 45 26
4.633202e+000 -2.479393e+000 -1.746058e+001 61 39 18
4.780110e+000 -2.590588e+000 -1.765046e+001 96 72 48
-5.701414e+000 -2.817804e+000 -1.651910e+001 126 83 58
4.536292e+000 -3.176056e+000 -1.828601e+001 73 49 25
1.411088e+000 4.802759e+000 -1.624550e+001 218 201 183
2.050082e+000 2.601445e+000 -1.413680e+001 40 27 18
5.500162e+000 2.718024e+000 -1.504958e+001 114 79 41
4.673840e+000 2.442973e+000 -1.468846e+001 103 67 39
2.009569e+000 1.373079e+000 -1.314599e+001 135 99 63
5.696361e+000 1.376645e+000 -1.404549e+001 97 61 29
4.044308e+000 1.087899e+000 -1.359670e+001 108 74 47
7.207488e-001 6.038625e-001 -1.456198e+001 191 154 115
5.942500e+000 5.788175e-001 -1.413925e+001 81 51 27
5.528910e+000 -1.315063e-001 -1.469513e+001 112 82 58
4.809902e+000 -6.077760e-001 -1.516718e+001 104 77 52
-2.901351e+000 -1.175008e+000 -1.638146e+001 201 160 122
5.444205e+000 -1.395877e+000 -1.631644e+001 68 43 21
1.376098e+000 -1.781691e+000 -1.526536e+001 56 49 32
4.799529e+000 -1.863541e+000 -1.672184e+001 101 74 49
-5.813929e+000 -2.350118e+000 -1.628519e+001 157 113 84
5.200594e+000 -3.666857e+000 -1.899202e+001 69 44 22
2.843570e+000 -4.145006e+000 -1.890174e+001 72 45 28
3.749611e-001 -4.312128e+000 -1.880434e+001 174 135 106
4.991229e+000 4.609651e+000 -1.660371e+001 168 126 88
5.467535e+000 3.601972e+000 -1.589395e+001 86 55 26
3.991158e+000 1.623557e+000 -1.380511e+001 93 59 31
1.150769e+000 3.453140e-001 -1.422168e+001 126 82 22
5.278235e+000 4.636041e-001 -1.402610e+001 109 77 53
3.884612e+000 -1.606124e+000 -1.609934e+001 80 52 30
2.171421e+000 -2.389295e+000 -1.657829e+001 23 14 11
1.268954e-001 -3.032786e+000 -1.667046e+001 171 124 109
1.352733e+000 3.838575e+000 -1.512102e+001 199 166 131
-2.249228e-001 2.210860e+000 -1.716340e+001 195 155 119
2.372819e+000 -2.975112e+000 -1.722845e+001 51 39 22
2.316391e+000 3.496653e+000 -1.497299e+001 106 83 58
3.373661e+000 3.284740e+000 -1.532270e+001 88 57 35
9.899351e-001 1.985262e+000 -1.475271e+001 198 159 116
3.083620e+000 1.384351e+000 -1.329329e+001 44 30 13
5.934623e-001 5.435714e-001 -1.500696e+001 151 72 67
2.664700e+000 -1.988728e+000 -1.631597e+001 44 28 12
6.011360e+000 4.530810e+000 -1.649148e+001 183 140 101
2.026544e+000 3.641135e+000 -1.500084e+001 61 49 32
-4.070892e-001 -1.531607e+000 -1.548280e+001 149 77 80
4.523174e+000 -7.114537e-001 -1.523738e+001 96 69 44
1.204470e+000 -1.543928e+000 -1.528454e+001 55 41 27
5.692483e+000 8.702952e-001 -1.393212e+001 111 75 43
1.343550e+000 -1.116766e-001 -1.372078e+001 177 138 98
4.896428e+000 3.982223e+000 -1.591002e+001 100 65 35
4.631676e+000 1.628266e+000 -1.388423e+001 123 92 61
1.251074e+000 1.434355e+000 -1.450969e+001 125 86 55
1.225981e+000 8.628538e-001 -1.413083e+001 145 108 74
1.595490e+000 8.129221e-001 -1.311033e+001 93 84 53
4.524456e+000 8.704876e-001 -1.369698e+001 109 76 46
1.960022e+000 2.829396e-001 -1.317363e+001 150 115 87
-1.343746e+000 -3.421477e-001 -1.574442e+001 172 123 93
4.447897e+000 -2.140895e-001 -1.443300e+001 64 38 15
3.733242e-001 -5.753039e-001 -1.598703e+001 143 73 76
1.243575e-001 -5.832986e-001 -1.597496e+001 150 90 79
2.207183e+000 -5.644035e-001 -1.450073e+001 44 31 22
5.362576e+000 -4.939742e-001 -1.516802e+001 85 60 36
1.695651e+000 -8.850599e-001 -1.460880e+001 121 89 64
2.779891e+000 -6.719634e-001 -1.348963e+001 61 49 36
4.687045e+000 -9.864439e-001 -1.558451e+001 55 30 8
5.245577e+000 -1.175178e+000 -1.598270e+001 97 72 49
5.335862e+000 -1.148718e+000 -1.598238e+001 65 40 18
1.483466e+000 -1.285497e+000 -1.482699e+001 84 72 47
3.582152e+000 -1.595305e+000 -1.602818e+001 57 35 14
3.609788e+000 -1.603718e+000 -1.614341e+001 57 35 14
5.385706e+000 -1.558907e+000 -1.646014e+001 87 63 39
3.512008e+000 -1.913879e+000 -1.634969e+001 68 43 21
4.008287e+000 -2.012984e+000 -1.650951e+001 93 68 46
4.176695e+000 -1.986135e+000 -1.662491e+001 89 64 42
5.368468e+000 -2.065703e+000 -1.700939e+001 85 57 33
5.807427e+000 -1.805034e+000 -1.683731e+001 68 42 19
5.789779e+000 -2.014896e+000 -1.706798e+001 76 48 26
7.651596e-001 -2.149242e+000 -1.615609e+001 153 94 88
1.669204e+000 -2.110796e+000 -1.584130e+001 117 86 58
4.751877e+000 -2.287406e+000 -1.705581e+001 92 68 44
5.240140e+000 -2.186987e+000 -1.707825e+001 100 76 50
-1.378294e-001 -2.656987e+000 -1.659595e+001 132 74 63
9.657537e-001 -2.725575e+000 -1.675279e+001 46 33 20
3.683482e+000 -2.686102e+000 -1.732005e+001 66 44 23
3.774245e+000 -2.546687e+000 -1.710777e+001 67 45 24
-4.103775e-001 -3.065992e+000 -1.706829e+001 132 64 57
5.053959e+000 -3.163098e+000 -1.841828e+001 89 63 40
1.053453e+000 -3.203640e+000 -1.690259e+001 56 49 29
1.399463e+000 -3.604899e+000 -1.787943e+001 100 72 50
4.534051e-001 -4.089063e+000 -1.867829e+001 142 97 65
1.321236e+000 -3.663487e+000 -1.780531e+001 117 86 61
1.287595e+000 -4.246230e+000 -1.839665e+001 59 41 21
7.079315e+000 -3.292848e+000 -1.502781e+001 114 85 43
6.383046e+000 4.360813e+000 -1.665230e+001 151 114 85
1.339284e+000 3.713618e+000 -1.507615e+001 161 127 94
2.059697e+000 3.044728e+000 -1.457898e+001 112 97 74
2.580445e+000 3.279469e+000 -1.488400e+001 68 53 34
9.600399e-001 3.040058e+000 -1.540601e+001 82 68 41
2.102830e+000 2.940141e+000 -1.439891e+001 64 48 32
8.231526e-001 1.941700e+000 -1.489456e+001 214 173 129
3.024409e-001 1.846916e+000 -1.602415e+001 201 149 112
1.708100e+000 1.517698e+000 -1.357483e+001 180 145 114
4.348409e+000 7.637732e-001 -1.376484e+001 83 51 26
4.354412e+000 7.648505e-001 -1.376813e+001 83 51 26
4.936177e+000 3.895915e-001 -1.400561e+001 64 41 20
1.683699e+000 -1.484277e-001 -1.425985e+001 112 75 46
2.330058e+000 -5.718611e-001 -1.455472e+001 30 21 12
5.667528e+000 -5.124754e-001 -1.541808e+001 60 38 15
4.243511e+000 -6.912881e-001 -1.523062e+001 68 41 22
4.848990e+000 -6.955698e-001 -1.526174e+001 81 55 30
5.577198e+000 -9.988716e-001 -1.591880e+001 87 65 42
9.073436e-001 -1.180681e+000 -1.565261e+001 71 56 34
2.088168e+000 -1.273256e+000 -1.530102e+001 93 80 61
4.792806e+000 -1.187259e+000 -1.586096e+001 78 54 28
3.880681e+000 -2.306174e+000 -1.696574e+001 87 65 44
5.723537e+000 -2.187429e+000 -1.715675e+001 74 49 27
1.944987e+000 -2.751664e+000 -1.696720e+001 60 43 28
3.344557e+000 -2.447311e+000 -1.695515e+001 81 59 36
4.005827e+000 -2.854688e+000 -1.766728e+001 77 52 30
4.005425e+000 -2.854312e+000 -1.767490e+001 77 52 30
1.606194e-002 -2.788150e+000 -1.649248e+001 128 71 63
5.989778e-001 -2.884790e+000 -1.682388e+001 161 107 95
3.663050e+000 -3.018981e+000 -1.776786e+001 87 63 41
4.615570e+000 -3.323797e+000 -1.846781e+001 105 79 54
9.894124e-001 -3.235957e+000 -1.689681e+001 147 102 81
4.294064e+000 4.405687e+000 -1.616034e+001 155 121 86
1.761259e+000 3.905649e+000 -1.520801e+001 69 54 36
4.072774e+000 3.415973e+000 -1.542855e+001 91 62 34
5.586012e+000 2.686006e+000 -1.508286e+001 146 107 73
1.135102e-001 2.681418e+000 -1.708321e+001 175 132 97
2.196978e+000 2.378529e+000 -1.404068e+001 122 99 66
2.846205e+000 2.082835e+000 -1.372204e+001 67 48 31
2.911242e+000 1.832621e+000 -1.363347e+001 132 113 80
4.653008e+000 1.920950e+000 -1.415180e+001 117 78 45
6.494832e+000 1.341140e+000 -1.415061e+001 113 74 41
-1.314541e-001 1.163990e+000 -1.525704e+001 209 140 125
-5.503889e-001 9.865325e-001 -1.544711e+001 210 132 124
7.781575e-001 8.514395e-001 -1.480261e+001 137 77 49
1.073154e+000 9.547102e-001 -1.452582e+001 132 86 52
7.201724e-001 6.047183e-001 -1.465878e+001 192 155 115
5.405615e+000 -1.682714e-001 -1.464893e+001 75 51 27
5.956781e+000 -4.884821e-001 -1.535679e+001 94 68 44
1.508233e+000 -7.796702e-001 -1.501554e+001 104 71 52
5.983189e+000 -9.437939e-001 -1.595082e+001 96 72 46
-6.371307e-001 -1.261958e+000 -1.529450e+001 133 62 58
5.482145e+000 -1.316853e+000 -1.621939e+001 95 71 48
-5.141747e+000 -1.618502e+000 -1.720864e+001 196 154 121
9.528085e-001 -1.355075e+000 -1.568627e+001 58 47 25
5.701595e+000 -1.936149e+000 -1.693099e+001 100 72 48
5.174982e+000 -2.360462e+000 -1.737453e+001 66 41 20
-1.260812e-001 -3.074068e+000 -1.692534e+001 146 85 74
-1.260812e-001 -3.074068e+000 -1.692534e+001 146 85 74
6.681995e-001 -3.032778e+000 -1.720174e+001 128 64 61
4.340892e+000 -3.500115e+000 -1.861327e+001 99 73 51
4.400002e+000 -4.353224e+000 -1.954121e+001 84 58 33
4.201717e+000 3.621285e+000 -1.552512e+001 92 60 33
4.434812e+000 2.409975e+000 -1.448043e+001 91 57 31
5.109048e+000 2.309489e+000 -1.463731e+001 116 80 47
6.011042e+000 1.076462e+000 -1.405130e+001 80 47 19
5.051949e+000 7.965284e-001 -1.381960e+001 77 47 23
-8.336308e-001 5.398286e-001 -1.538063e+001 202 124 114
2.570651e+000 5.998460e-001 -1.327191e+001 42 25 15
4.242510e+000 -1.347214e-001 -1.430620e+001 94 68 45
4.298777e+000 -4.647535e-001 -1.483049e+001 68 44 23
3.610195e+000 -1.313807e+000 -1.572812e+001 63 42 23
6.072623e+000 -1.476940e+000 -1.654081e+001 84 54 28
2.371897e+000 -1.974936e+000 -1.605792e+001 68 55 33
4.535920e+000 -1.845191e+000 -1.662531e+001 108 81 56
6.008431e+000 -1.951214e+000 -1.707429e+001 76 52 25
3.876244e+000 -3.185965e+000 -1.812300e+001 100 73 53
3.590429e+000 -3.474388e+000 -1.844055e+001 98 72 49
4.420572e-001 -3.990156e+000 -1.857339e+001 134 83 62
1.869068e+000 3.655691e+000 -1.511067e+001 64 49 30
1.290269e+000 3.160250e+000 -1.517955e+001 105 79 56
4.224657e+000 2.564774e+000 -1.468795e+001 128 94 67
1.902707e+000 1.549905e+000 -1.330368e+001 200 166 128
-8.907258e-001 1.372897e+000 -1.658803e+001 203 124 119
5.813529e+000 -5.459498e-001 -1.542617e+001 66 41 19
4.304498e+000 -8.303050e-001 -1.528039e+001 74 47 26
2.447201e+000 -1.436165e+000 -1.549526e+001 91 80 62
5.717920e-001 -1.915261e+000 -1.594197e+001 100 39 38
5.445343e+000 3.339616e+000 -1.552675e+001 121 90 57
1.545008e+000 1.625903e+000 -1.403888e+001 41 28 16
8.025540e-001 1.268010e+000 -1.479789e+001 189 146 103
6.549435e+000 1.279728e+000 -1.406524e+001 153 116 74
6.226465e+000 2.471890e-001 -1.444074e+001 109 78 49
4.295986e+000 -1.577645e+000 -1.625154e+001 111 83 59
5.643648e+000 3.118820e+000 -1.531007e+001 131 90 60
4.038607e+000 -9.160302e-001 -1.524850e+001 102 74 52
-1.106281e+000 -1.142967e+000 -1.545320e+001 135 86 75
2.013810e+000 -1.360068e+000 -1.564777e+001 57 41 26
3.445965e+000 -3.191988e+000 -1.792371e+001 73 51 30
3.322697e-002 9.826883e-001 -1.511472e+001 178 89 88
3.926120e+000 -3.299568e+000 -1.832819e+001 95 69 45
-2.565459e-002 1.532201e+000 -1.563282e+001 187 102 95
2.739142e+000 1.332130e+000 -1.379901e+001 53 42 28
-1.278048e+000 6.077618e-001 -1.594819e+001 158 99 67
-8.951589e-001 -1.249976e+000 -1.530375e+001 186 128 108
3.076741e+000 -4.693835e+000 -2.008315e+001 94 69 49
-1.123706e+000 1.515141e-001 -1.541113e+001 205 160 129
-1.547689e+000 -1.019744e+000 -1.610000e+001 115 52 45
4.003047e+000 3.871729e+000 -1.614335e+001 117 84 59
4.304063e+000 4.328764e+000 -1.613934e+001 99 65 35
1.668019e+000 2.289290e+000 -1.381731e+001 178 142 106
3.746138e+000 2.498072e+000 -1.454603e+001 123 92 63
1.031503e+000 1.349660e+000 -1.463312e+001 192 150 104
5.574375e-001 1.064740e+000 -1.489967e+001 201 150 108
1.441835e+000 5.523074e-001 -1.383671e+001 78 67 41
5.173545e+000 8.619988e-001 -1.382415e+001 84 52 29
5.492685e+000 1.910172e-001 -1.425794e+001 73 45 20
5.741175e+000 -5.196591e-001 -1.538285e+001 45 18 0
5.058554e+000 -1.193614e+000 -1.599313e+001 64 37 15
5.201400e+000 -1.115563e+000 -1.593672e+001 64 37 16
5.640958e+000 -1.174124e+000 -1.606953e+001 71 45 22
-5.991179e+000 -2.032455e+000 -1.670215e+001 133 98 76
-7.670594e-001 -1.820258e+000 -1.549737e+001 166 106 96
4.593046e+000 -1.791234e+000 -1.645579e+001 64 39 16
4.639281e+000 -1.973396e+000 -1.666360e+001 90 65 43
-5.834014e+000 -2.337174e+000 -1.663341e+001 109 71 52
-5.264661e+000 -3.156248e+000 -1.649371e+001 121 80 58
-8.809681e-001 -3.778981e+000 -1.870799e+001 170 111 102
-6.098617e+000 -3.754721e+000 -1.674199e+001 188 118 118
7.249420e-001 -4.040351e+000 -1.835132e+001 171 128 101
5.256235e+000 4.185502e+000 -1.614886e+001 129 94 62
5.254432e+000 4.184118e+000 -1.614269e+001 129 94 62
4.446801e+000 3.616785e+000 -1.561973e+001 99 65 38
5.312817e+000 2.885408e+000 -1.518083e+001 115 76 46
4.245428e+000 2.394973e+000 -1.451203e+001 97 63 38
5.816969e+000 2.588764e+000 -1.500952e+001 132 96 60
4.688131e+000 2.172377e+000 -1.442337e+001 128 91 58
2.967461e+000 1.444546e+000 -1.334779e+001 132 116 90
-5.184698e-001 6.947480e-001 -1.519632e+001 165 73 74
4.999606e+000 -1.962922e-002 -1.441620e+001 96 69 43
-9.948027e-001 -1.305095e+000 -1.530314e+001 196 138 119
1.728908e+000 -1.281459e+000 -1.501558e+001 171 143 116
5.237245e+000 -1.375772e+000 -1.623921e+001 70 44 21
5.822623e+000 -1.453705e+000 -1.650802e+001 60 34 12
-6.000085e+000 -2.114890e+000 -1.668198e+001 112 76 54
-6.025828e+000 -2.118004e+000 -1.675882e+001 112 76 54
5.242278e+000 -2.011405e+000 -1.689132e+001 107 81 54
8.792901e-001 -2.565762e+000 -1.663619e+001 73 52 34
5.256828e+000 -3.751258e+000 -1.909940e+001 68 43 21
5.001423e+000 3.164269e+000 -1.532473e+001 127 93 65
4.887659e+000 2.358372e+000 -1.460481e+001 125 89 57
5.683366e+000 2.388598e+000 -1.480621e+001 147 109 71
2.215915e+000 2.037576e+000 -1.365259e+001 76 60 44
5.335354e+000 1.196933e+000 -1.392068e+001 87 53 25
5.613315e+000 -2.482791e-001 -1.489745e+001 59 33 8
5.758217e+000 -2.221400e-001 -1.490738e+001 109 82 53
4.503583e+000 -1.707063e+000 -1.634899e+001 102 76 53
5.529336e+000 -1.762176e+000 -1.659371e+001 79 53 29
5.525451e+000 -1.507642e+000 -1.640521e+001 98 74 50
5.539947e+000 -1.509980e+000 -1.643053e+001 98 74 50
2.961298e+000 -1.944062e+000 -1.620118e+001 114 88 64
-6.640670e+000 -3.373792e+000 -1.719960e+001 206 141 134
5.401527e+000 3.570686e+000 -1.569167e+001 87 53 29
5.259027e+000 3.244660e+000 -1.544329e+001 97 65 37
2.221569e+000 2.160135e+000 -1.391206e+001 73 56 38
5.601949e+000 1.562744e+000 -1.408063e+001 112 73 40
5.748603e+000 1.199797e+000 -1.401149e+001 89 54 26
-1.521898e+000 2.607803e-002 -1.587120e+001 145 92 61
4.083278e+000 -4.588367e-001 -1.474278e+001 61 38 18
-6.669736e+000 -3.003632e+000 -1.734862e+001 255 255 253
3.743669e+000 4.389447e+000 -1.606787e+001 152 119 81
4.763953e+000 2.545610e+000 -1.474735e+001 129 96 65
1.892729e+000 1.537150e+000 -1.322751e+001 204 169 131
4.471379e+000 4.157488e-001 -1.388490e+001 76 44 21
3.221257e+000 -2.349471e+000 -1.682551e+001 65 41 20
3.368578e+000 3.977101e+000 -1.573983e+001 129 95 68
2.339559e-001 -7.573123e-001 -1.576371e+001 116 48 45
7.192464e-001 -2.119733e+000 -1.630045e+001 168 106 99
5.721089e+000 -3.990111e+000 -1.945476e+001 139 106 75
7.069148e+000 1.538582e+000 -1.409230e+001 163 122 66
5.647520e+000 -7.782993e-002 -1.468519e+001 108 78 50
4.854714e+000 -3.250310e+000 -1.844465e+001 116 87 61
6.686388e+000 1.389503e+000 -1.422837e+001 151 109 69
2.577906e+000 -3.942746e+000 -1.875930e+001 132 104 80
8.192480e-001 4.166991e+000 -1.590114e+001 165 141 107
2.058333e+000 4.234675e+000 -1.571350e+001 39 27 13
2.667962e+000 2.626494e+000 -1.427701e+001 169 147 110
1.349597e+000 8.406963e-001 -1.392875e+001 136 117 91
5.190515e+000 7.093384e-001 -1.393018e+001 75 43 18
1.467001e-001 -5.335085e-001 -1.588271e+001 115 55 47
-1.916079e-001 -8.679060e-001 -1.555770e+001 170 110 99
4.667442e+000 -1.542226e+000 -1.624220e+001 75 47 23
1.568497e+000 -4.946861e+000 -1.857780e+001 67 55 39
1.577795e+000 -4.960714e+000 -1.862739e+001 67 55 39
5.267178e+000 2.320330e+000 -1.457136e+001 160 119 81
-4.507390e-001 9.100361e-001 -1.526556e+001 203 123 114
5.067681e+000 -8.724073e-001 -1.558937e+001 76 50 27
-6.061550e+000 -2.508054e+000 -1.667254e+001 160 116 87
4.635277e+000 -1.972960e+000 -1.666820e+001 91 67 42
3.952961e+000 -3.456964e+000 -1.844718e+001 105 79 56
4.355609e+000 -3.510383e+000 -1.868902e+001 99 73 50
1.048276e+000 -4.246289e+000 -1.828356e+001 148 113 81
4.232967e+000 3.146570e+000 -1.524846e+001 109 74 42
4.005232e+000 1.801713e+000 -1.390580e+001 126 91 63
-1.158880e+000 -7.584016e-001 -1.550735e+001 160 94 82
5.543708e+000 -1.410724e+000 -1.629432e+001 70 44 21
5.705690e+000 -1.327856e+000 -1.626147e+001 67 41 20
4.903865e+000 -2.481418e+000 -1.740719e+001 99 73 48
2.602137e+000 2.894090e+000 -1.462606e+001 143 120 76
4.793072e+000 2.183262e+000 -1.446086e+001 102 66 35
4.523126e+000 1.854132e+000 -1.405693e+001 113 74 44
5.687347e+000 -6.076102e-001 -1.545248e+001 97 72 48
4.747043e+000 1.637514e+000 -1.390303e+001 136 100 66
-8.395898e-001 -1.323439e+000 -1.523949e+001 186 129 111
5.271072e+000 2.646546e-001 -1.418826e+001 111 79 56
1.298167e-001 -1.177291e+000 -1.570165e+001 129 58 54
6.002426e+000 3.238974e+000 -1.557647e+001 107 71 41
3.924335e+000 3.827787e+000 -1.571091e+001 85 54 29
5.197408e+000 3.593018e+000 -1.569934e+001 93 60 29
1.293150e+000 3.219864e+000 -1.513431e+001 123 96 72
-5.114848e-001 2.366424e+000 -1.796814e+001 124 80 46
5.969849e+000 1.701317e+000 -1.421808e+001 96 60 29
7.672291e-001 7.264705e-002 -1.498784e+001 156 114 89
6.945599e+000 -1.220468e+000 -1.554977e+001 101 73 34
3.677988e+000 -1.704479e+000 -1.616897e+001 89 65 42
6.691480e+000 -5.578932e+000 -1.769601e+001 143 114 68
4.195102e+000 3.061933e+000 -1.515514e+001 100 67 36
4.570806e+000 1.707076e+000 -1.398328e+001 124 90 59
4.604372e+000 1.661698e+000 -1.394850e+001 79 47 22
4.683974e+000 1.645589e+000 -1.390686e+001 136 101 71
7.172280e+000 7.023024e-001 -1.386204e+001 168 131 79
-6.021293e-001 -1.873707e+000 -1.547206e+001 153 77 75
5.225932e+000 -2.647471e+000 -1.776345e+001 65 43 20
4.883447e+000 2.178443e+000 -1.444063e+001 148 112 76
5.010750e+000 2.300701e+000 -1.459412e+001 134 98 66
4.467477e+000 1.820437e+000 -1.405885e+001 106 71 41
5.592418e+000 1.576837e+000 -1.410265e+001 105 69 37
-4.526632e+000 -1.855551e+000 -1.689589e+001 145 100 65
5.335638e+000 6.908650e-001 -1.391314e+001 116 85 57
-4.656119e+000 -2.027532e+000 -1.678526e+001 147 101 63
5.818638e+000 4.423205e+000 -1.649308e+001 104 69 36
1.303683e+000 4.041931e+000 -1.547542e+001 165 132 99
4.452065e+000 4.064552e+000 -1.593608e+001 140 105 75
5.458194e+000 4.205305e+000 -1.628281e+001 89 55 27
3.569408e+000 3.533649e+000 -1.538888e+001 111 80 54
4.556893e+000 3.734729e+000 -1.573689e+001 98 63 36
2.034069e+000 3.275712e+000 -1.473901e+001 65 49 33
5.373319e+000 3.150132e+000 -1.540275e+001 86 52 24
5.179093e+000 2.683616e+000 -1.498036e+001 137 96 64
3.906662e+000 2.219690e+000 -1.428099e+001 110 73 45
5.188797e+000 2.243678e+000 -1.458594e+001 137 99 63
6.262281e+000 2.076346e+000 -1.453759e+001 93 54 23
5.492851e+000 1.797833e+000 -1.420427e+001 108 70 34
1.859599e+000 1.120882e+000 -1.313778e+001 182 149 110
5.826119e+000 1.428783e+000 -1.404784e+001 104 65 33
5.241074e+000 8.969588e-001 -1.388226e+001 94 64 40
1.201858e+000 4.075575e-001 -1.423226e+001 184 140 79
-9.017875e-001 -1.839704e+000 -1.548396e+001 148 81 74
5.708031e+000 4.658641e+000 -1.672805e+001 108 68 32
1.868881e+000 4.059275e+000 -1.536580e+001 53 43 26
5.129323e+000 4.095650e+000 -1.607128e+001 124 89 59
6.179769e+000 4.094911e+000 -1.616542e+001 129 94 66
6.706454e+000 4.343040e+000 -1.648601e+001 94 70 46
1.488566e+000 3.434026e+000 -1.487947e+001 144 108 75
4.016187e+000 3.690110e+000 -1.560597e+001 107 77 53
6.565279e-001 3.429291e+000 -1.605563e+001 116 81 49
5.422170e+000 3.465419e+000 -1.565179e+001 96 62 34
1.788290e+000 2.573650e+000 -1.411740e+001 150 114 80
5.898436e+000 2.647877e+000 -1.510703e+001 107 71 39
1.368905e+000 2.314789e+000 -1.431177e+001 87 77 48
3.241136e+000 2.269546e+000 -1.428612e+001 142 111 83
4.226688e+000 2.335487e+000 -1.447247e+001 118 83 55
5.185516e+000 2.462656e+000 -1.475323e+001 146 107 68
5.425874e+000 2.086375e-001 -1.425799e+001 63 37 14
3.859835e-001 -1.997452e+000 -1.577857e+001 195 140 131
3.297243e+000 -2.296569e+000 -1.672904e+001 97 72 52
-3.874716e-001 -3.043401e+000 -1.697148e+001 136 70 62
5.003781e+000 4.181100e+000 -1.622242e+001 101 66 36
4.989324e+000 3.863841e+000 -1.584519e+001 144 109 77
4.467356e+000 2.423130e+000 -1.464696e+001 88 54 27
4.467356e+000 2.423130e+000 -1.464696e+001 88 54 27
5.137030e+000 1.946187e+000 -1.433491e+001 111 72 39
5.945040e+000 5.686098e-001 -1.414071e+001 85 52 27
-3.790445e-002 -8.452915e-001 -1.557340e+001 156 94 83
4.286275e+000 3.884558e+000 -1.577749e+001 89 57 32
4.854246e+000 2.445737e+000 -1.467698e+001 103 68 40
2.850617e-001 1.829791e+000 -1.598896e+001 206 156 119
4.017146e+000 1.076569e+000 -1.360320e+001 112 78 51
5.601063e+000 7.676684e-001 -1.403129e+001 103 69 41
3.933204e+000 -9.259983e-001 -1.529479e+001 103 77 52
4.322693e+000 -1.533849e+000 -1.614166e+001 111 84 59
-5.188758e+000 -2.150182e+000 -1.630975e+001 149 108 86
7.294585e-001 -2.370352e+000 -1.645948e+001 131 67 67
5.801086e+000 4.133278e+000 -1.629180e+001 127 89 58
3.796549e+000 3.501611e+000 -1.543192e+001 86 56 30
8.247325e-001 1.248418e+000 -1.476525e+001 194 150 105
2.577297e+000 1.271738e-001 -1.335557e+001 35 22 14
5.000090e+000 -1.826797e-001 -1.460172e+001 118 88 62
-3.283066e+000 -1.403323e+000 -1.702042e+001 127 92 65
6.037430e+000 -1.469455e+000 -1.647909e+001 82 56 28
5.019098e-002 2.487201e+000 -1.710694e+001 176 138 101
2.173243e+000 2.241155e+000 -1.394434e+001 226 208 168
4.222928e+000 2.558643e+000 -1.465065e+001 127 94 63
5.823540e+000 2.023020e+000 -1.447941e+001 108 69 36
5.823540e+000 2.023020e+000 -1.447941e+001 108 69 36
-9.768825e-001 1.208154e+000 -1.614725e+001 173 97 74
6.312433e+000 3.611173e-001 -1.436591e+001 79 47 22
3.750982e+000 2.190379e-001 -1.383866e+001 73 48 25
-7.899749e-003 -1.596950e+000 -1.559064e+001 148 76 79
-4.650307e+000 -2.060900e+000 -1.662148e+001 142 96 61
5.600101e-001 -2.089391e+000 -1.622153e+001 102 43 41
3.142335e+000 4.645471e+000 -1.661813e+001 121 87 59
4.789320e+000 3.650327e+000 -1.562358e+001 107 72 42
5.706920e+000 3.156310e+000 -1.546893e+001 132 92 62
6.196811e+000 1.681160e+000 -1.423723e+001 129 91 54
1.952613e+000 1.227105e+000 -1.309465e+001 218 188 152
4.509456e+000 1.186466e+000 -1.370437e+001 124 90 55
4.046358e+000 2.154682e+000 -1.424255e+001 126 92 57
-1.038483e+000 -7.130699e-001 -1.542680e+001 197 135 120
-4.599549e+000 -1.982000e+000 -1.683224e+001 155 107 69
4.219952e+000 1.417167e+000 -1.377813e+001 121 86 54
4.864339e+000 1.148759e+000 -1.374006e+001 128 90 54
6.888603e+000 2.817512e+000 -1.522623e+001 25 17 14
6.931149e+000 4.997130e-001 -1.564322e+001 115 80 48
4.547539e+000 4.609682e+000 -1.653427e+001 122 83 50
3.598399e+000 4.433237e+000 -1.619030e+001 130 94 62
4.370057e+000 3.673783e+000 -1.568769e+001 84 50 23
1.646214e+000 3.175330e+000 -1.465354e+001 128 97 63
5.981198e+000 3.250448e+000 -1.561774e+001 93 59 31
3.760166e+000 2.016511e+000 -1.407921e+001 105 73 47
5.215823e+000 2.220825e+000 -1.451748e+001 109 69 34
5.215823e+000 2.220825e+000 -1.451748e+001 109 69 34
1.048490e+000 1.815583e+000 -1.442840e+001 169 140 98
6.249045e+000 2.000902e+000 -1.453245e+001 133 93 58
4.655087e+000 1.595952e+000 -1.385601e+001 101 66 38
6.041676e+000 1.613451e+000 -1.422903e+001 104 67 33
6.041676e+000 1.613451e+000 -1.422903e+001 104 67 33
3.495040e+000 1.177218e+000 -1.347064e+001 163 128 100
1.938468e+000 5.648755e-001 -1.314093e+001 164 130 101
7.713103e-001 -2.003788e+000 -1.608956e+001 165 100 94
7.247652e+000 -1.424291e+000 -1.367049e+001 115 84 41
4.444227e+000 4.649776e+000 -1.658616e+001 157 122 84
3.541575e+000 3.459674e+000 -1.537195e+001 83 51 26
4.057766e+000 3.406088e+000 -1.540148e+001 92 58 31
4.308983e+000 3.188541e+000 -1.526738e+001 109 74 44
5.195517e+000 2.837001e+000 -1.504516e+001 133 98 64
5.356914e+000 1.296137e+000 -1.401321e+001 91 56 26
1.447857e+000 5.465910e-001 -1.383456e+001 74 61 40
-7.971752e-001 -1.111753e+000 -1.527393e+001 143 75 59
7.768447e-001 -2.703484e+000 -1.672993e+001 121 67 67
1.249686e+000 4.171177e+000 -1.563270e+001 142 107 77
6.531552e+000 4.249980e+000 -1.666482e+001 81 49 24
4.226705e+000 3.629798e+000 -1.561304e+001 92 63 33
3.981809e+000 1.986670e+000 -1.406999e+001 97 64 35
2.554068e+000 5.456183e-001 -1.322736e+001 41 27 16
5.927852e+000 6.849452e-001 -1.402226e+001 94 62 30
5.269541e-001 -9.928285e-001 -1.583283e+001 131 68 61
-9.237514e-001 -1.416723e+000 -1.521265e+001 174 109 97
8.497695e-001 -2.610077e+000 -1.660265e+001 73 54 39
2.908038e-001 -4.050983e+000 -1.850564e+001 172 125 105
2.077614e+000 2.614244e+000 -1.426258e+001 43 32 22
4.918555e+000 2.164293e+000 -1.454699e+001 150 111 78
-5.610596e+000 -2.261077e+000 -1.648108e+001 104 65 50
1.668964e+000 1.797860e+000 -1.384436e+001 175 142 110
-1.499019e+000 -2.892431e-001 -1.581660e+001 166 116 89
4.673302e+000 -1.264371e+000 -1.590270e+001 68 42 19
-4.684014e+000 -2.113701e+000 -1.669306e+001 132 89 52
5.097190e+000 3.146377e+000 -1.533474e+001 129 94 65
3.570146e-001 6.640523e-002 -1.535089e+001 140 70 68
6.162525e+000 -4.071901e-002 -1.480962e+001 115 86 54
5.965312e+000 -1.523998e+000 -1.650600e+001 91 62 36
-3.537954e-001 -1.908873e+000 -1.563034e+001 134 69 60
5.675016e+000 3.145801e+000 -1.541087e+001 132 96 64
3.779333e+000 7.489209e-001 -1.356706e+001 58 35 23
4.837541e+000 -3.234362e+000 -1.837786e+001 117 87 61
5.160990e+000 2.042845e+000 -1.438213e+001 105 69 33
1.780679e+000 1.926228e+000 -1.365839e+001 187 149 111
1.704286e+000 3.891716e+000 -1.529214e+001 215 195 157
6.621894e+000 4.357487e+000 -1.658936e+001 82 53 27
1.778930e+000 3.165528e+000 -1.476480e+001 125 105 84
2.452072e+000 3.151566e+000 -1.482427e+001 88 67 38
1.203025e+000 3.143622e+000 -1.518310e+001 91 68 44
5.220506e+000 2.264064e+000 -1.455894e+001 120 81 42
7.242403e+000 1.953470e+000 -1.326680e+001 155 117 62
1.649746e+000 1.744561e+000 -1.395653e+001 141 112 81
1.757465e+000 1.773799e+000 -1.347158e+001 179 145 107
1.882560e+000 1.780466e+000 -1.333542e+001 179 145 107
2.819133e+000 1.466188e+000 -1.341222e+001 98 78 53
2.963879e+000 1.083874e+000 -1.328011e+001 57 40 23
1.473466e+000 1.031553e+000 -1.372898e+001 105 96 67
1.524344e+000 9.919304e-001 -1.336372e+001 104 96 68
6.516781e+000 9.928666e-001 -1.415359e+001 95 60 30
3.032387e+000 7.468172e-001 -1.320455e+001 60 43 23
7.186997e+000 7.169179e-001 -1.392451e+001 176 138 90
1.133724e+000 5.715493e-001 -1.430330e+001 148 101 48
1.268157e+000 5.804598e-001 -1.414640e+001 138 102 67
1.989416e+000 4.555022e-001 -1.313109e+001 161 128 97
2.540072e+000 4.238781e-001 -1.320222e+001 118 103 82
-9.817069e-001 3.919994e-001 -1.547757e+001 203 149 120
6.927496e-001 3.073202e-001 -1.490212e+001 117 61 48
2.663895e+000 7.900823e-002 -1.343322e+001 65 52 35
5.383195e+000 1.297685e-001 -1.432978e+001 74 52 27
8.002460e-001 1.476811e-001 -1.489113e+001 163 124 90
4.526095e+000 -2.422062e-001 -1.448801e+001 96 70 47
4.577716e+000 -2.711091e-001 -1.454873e+001 69 45 21
1.768162e+000 -6.308914e-001 -1.429297e+001 157 126 97
2.109110e+000 -4.289995e-001 -1.430718e+001 44 31 14
2.179880e+000 -6.287791e-001 -1.457805e+001 48 35 18
4.992752e+000 -4.246354e-001 -1.500108e+001 66 41 17
-1.074212e+000 -7.947817e-001 -1.543331e+001 167 94 85
1.263154e+000 -6.535415e-001 -1.480573e+001 98 67 46
5.067015e+000 -7.832355e-001 -1.545855e+001 92 66 45
1.770702e+000 -1.605123e+000 -1.530332e+001 107 83 59
2.145155e+000 -1.896010e+000 -1.552765e+001 22 13 13
2.501261e+000 -1.995641e+000 -1.591873e+001 94 78 59
2.552047e+000 -2.030946e+000 -1.599867e+001 57 39 21
5.200001e+000 -2.124845e+000 -1.700461e+001 79 52 27
-4.743734e+000 -2.091567e+000 -1.664707e+001 152 106 69
3.137049e+000 -2.441460e+000 -1.681017e+001 73 46 25
3.384500e+000 -2.343950e+000 -1.680785e+001 72 51 30
3.709248e+000 -2.156782e+000 -1.658644e+001 100 75 52
3.753476e+000 -2.486628e+000 -1.706591e+001 85 63 42
4.290434e+000 -2.302388e+000 -1.695689e+001 96 74 51
4.281170e+000 -2.303692e+000 -1.692051e+001 96 74 51
4.456067e+000 -2.360902e+000 -1.715422e+001 99 74 52
5.092074e+000 -2.206366e+000 -1.710761e+001 65 40 18
1.765102e+000 -2.590122e+000 -1.670304e+001 45 31 15
1.861037e+000 -2.540208e+000 -1.652737e+001 61 45 27
4.049039e+000 -2.566988e+000 -1.724352e+001 96 72 49
-4.630723e+000 -2.880328e+000 -1.655507e+001 92 56 41
-1.177911e-001 -2.907387e+000 -1.682787e+001 145 87 76
1.925357e-001 -2.843045e+000 -1.643200e+001 132 77 70
-1.095917e-001 -3.092603e+000 -1.683074e+001 145 83 72
1.419319e+000 -3.170551e+000 -1.714899e+001 140 111 85
1.476264e+000 -3.221121e+000 -1.731795e+001 50 30 14
1.678491e+000 -3.254677e+000 -1.749304e+001 70 55 36
4.141503e+000 -3.284192e+000 -1.817404e+001 104 77 56
4.140014e+000 -3.284017e+000 -1.818544e+001 104 77 56
4.691549e+000 -3.374387e+000 -1.854115e+001 88 62 37
4.691549e+000 -3.374387e+000 -1.854115e+001 88 62 37
9.208669e-002 -3.738063e+000 -1.804889e+001 140 77 72
4.845522e-001 -4.163106e+000 -1.868019e+001 188 148 113
1.090296e+000 -3.982611e+000 -1.807961e+001 146 112 84
1.491330e+000 -4.065197e+000 -1.846012e+001 35 25 23
3.458784e+000 -4.331791e+000 -1.919693e+001 74 47 27
4.102302e+000 -4.084559e+000 -1.913625e+001 81 57 31
4.454231e+000 -4.153171e+000 -1.931281e+001 89 61 37
6.964784e+000 -3.832299e+000 -1.586405e+001 119 90 50
1.848400e+000 -4.473246e+000 -1.835300e+001 41 29 21
2.968530e+000 -4.457268e+000 -1.922083e+001 77 49 28
2.968530e+000 -4.457268e+000 -1.922083e+001 77 49 28
6.386261e+000 -4.893247e+000 -1.958713e+001 174 147 102
7.234628e+000 -4.021290e+000 -1.430704e+001 157 128 89
6.904334e+000 -5.150448e+000 -1.607948e+001 141 112 68
2.433992e+000 3.781718e+000 -1.525002e+001 72 55 37
4.915951e+000 3.887097e+000 -1.584248e+001 110 75 43
2.313029e+000 3.401146e+000 -1.504364e+001 65 44 22
1.537389e+000 2.966431e+000 -1.449562e+001 128 89 53
4.126495e+000 3.099191e+000 -1.513197e+001 142 105 75
5.023916e+000 2.479240e+000 -1.485527e+001 142 106 70
2.693751e+000 2.217257e+000 -1.397586e+001 65 45 42
1.953163e+000 1.632782e+000 -1.325438e+001 126 88 49
4.469139e+000 2.006492e+000 -1.423172e+001 117 82 44
4.786594e+000 1.529128e+000 -1.385579e+001 107 73 39
1.511985e+000 6.012358e-001 -1.359600e+001 84 70 44
1.954211e+000 5.454934e-001 -1.306393e+001 171 140 109
2.057125e+000 4.961243e-001 -1.295128e+001 121 87 61
2.550596e+000 5.514285e-001 -1.321550e+001 43 29 18
1.156788e+000 5.071376e-001 -1.427856e+001 200 160 95
2.453240e+000 4.171834e-001 -1.329448e+001 122 105 85
2.453240e+000 4.171834e-001 -1.329448e+001 122 105 85
2.903621e+000 3.414989e-001 -1.336254e+001 42 28 18
1.310300e+000 2.213588e-001 -1.399500e+001 166 119 42
2.029087e+000 1.781384e-001 -1.335928e+001 112 76 51
4.110199e+000 1.046960e-001 -1.404990e+001 58 35 17
6.360757e+000 3.331596e-001 -1.439263e+001 61 34 13
6.369874e+000 3.352943e-001 -1.440819e+001 61 34 13
5.153204e+000 -3.445653e-002 -1.447182e+001 94 69 43
5.678227e+000 -1.415554e-001 -1.477785e+001 86 60 35
1.592620e+000 -2.437086e-001 -1.409328e+001 153 117 84
2.173410e+000 -2.752578e-001 -1.401176e+001 38 28 20
2.897187e+000 -4.257757e-001 -1.320721e+001 87 73 54
4.441475e+000 -2.181272e-001 -1.441745e+001 70 47 23
5.407233e+000 -2.490180e-001 -1.493736e+001 51 26 6
1.308062e+000 -6.348707e-001 -1.478790e+001 135 100 70
4.776182e+000 -5.224680e-001 -1.504881e+001 66 39 18
1.335024e+000 -7.460568e-001 -1.481066e+001 148 116 92
5.612232e+000 -7.793890e-001 -1.564174e+001 95 73 50
2.131078e+000 -1.059870e+000 -1.505921e+001 38 26 13
2.200623e+000 -1.148535e+000 -1.511742e+001 53 38 19
4.248539e+000 -1.035877e+000 -1.550912e+001 63 37 14
4.111650e-001 -1.421895e+000 -1.558351e+001 146 69 71
2.154133e+000 -1.396029e+000 -1.540835e+001 49 34 15
2.229229e+000 -1.378372e+000 -1.546003e+001 122 106 76
5.172012e+000 -1.265841e+000 -1.610404e+001 51 28 10
-1.203951e+000 -1.485684e+000 -1.537482e+001 169 91 87
7.579628e-001 -1.553433e+000 -1.609990e+001 138 78 67
1.442300e+000 -1.494043e+000 -1.490726e+001 74 64 37
2.667387e+000 -1.583240e+000 -1.577243e+001 120 106 73
2.499347e+000 -1.695160e+000 -1.573409e+001 62 48 30
5.251477e+000 -1.618422e+000 -1.648370e+001 67 39 15
4.189732e+000 -2.058332e+000 -1.667202e+001 68 46 23
-5.769873e+000 -2.105455e+000 -1.660386e+001 164 120 91
-5.748976e+000 -2.171402e+000 -1.656888e+001 139 97 74
-6.463540e-002 -2.330880e+000 -1.575846e+001 133 77 63
1.470251e+000 -2.156480e+000 -1.571171e+001 106 67 41
3.691364e+000 -2.442668e+000 -1.702024e+001 64 42 21
3.745842e+000 -2.381593e+000 -1.692641e+001 96 71 50
4.019355e+000 -2.305687e+000 -1.690213e+001 91 66 44
6.731798e-001 -2.703654e+000 -1.669986e+001 123 61 60
1.995413e+000 -2.508143e+000 -1.648406e+001 38 25 16
5.119823e+000 -2.744153e+000 -1.783702e+001 99 73 51
5.184426e+000 -2.803015e+000 -1.791133e+001 77 50 27
1.366851e+000 -2.958173e+000 -1.681999e+001 152 126 103
1.366851e+000 -2.958173e+000 -1.681999e+001 152 126 103
4.100315e+000 -3.214525e+000 -1.816646e+001 80 53 32
1.215501e+000 -3.066991e+000 -1.674092e+001 65 50 29
2.254798e+000 -3.489189e+000 -1.786172e+001 58 42 26
4.607938e+000 -3.456508e+000 -1.864164e+001 76 50 26
-4.119402e+000 -3.394967e+000 -1.702895e+001 75 53 40
4.040673e+000 -3.833941e+000 -1.885510e+001 102 76 50
4.474296e+000 -3.928989e+000 -1.907904e+001 107 81 58
-6.091876e+000 -3.661734e+000 -1.674475e+001 163 93 95
9.786335e-002 -3.977479e+000 -1.843964e+001 180 129 113
1.117109e+000 -4.062976e+000 -1.809138e+001 227 196 167
1.951939e+000 -3.967396e+000 -1.849676e+001 48 36 24
3.898015e+000 -4.114768e+000 -1.921095e+001 104 77 56
1.235269e+000 4.660159e+000 -1.599054e+001 182 151 120
2.220497e+000 4.708425e+000 -1.606813e+001 64 48 23
6.719254e+000 4.502758e+000 -1.627600e+001 72 49 35
1.356557e+000 3.355943e+000 -1.505964e+001 130 96 62
6.509897e-001 3.437877e+000 -1.606991e+001 141 104 69
5.176737e+000 2.677209e+000 -1.498932e+001 151 112 76
5.398673e+000 1.903229e+000 -1.423313e+001 117 81 45
5.398673e+000 1.903229e+000 -1.423313e+001 117 81 45
6.052058e+000 1.847137e+000 -1.429914e+001 115 76 46
2.621194e+000 1.365075e+000 -1.335947e+001 73 60 38
8.900254e-001 1.375935e+000 -1.483390e+001 176 133 89
4.399516e+000 8.224428e-001 -1.374841e+001 81 48 26
2.058772e+000 6.546552e-001 -1.305361e+001 129 95 68
1.608119e+000 5.404673e-001 -1.340402e+001 107 91 66
1.916382e+000 4.384481e-001 -1.315664e+001 158 125 90
2.988411e+000 3.661349e-001 -1.338183e+001 139 118 86
2.116801e+000 9.013227e-002 -1.341645e+001 110 79 47
2.664697e+000 2.166625e-001 -1.334338e+001 65 52 34
4.510629e+000 1.185123e-001 -1.410750e+001 85 57 33
6.402015e+000 8.124147e-003 -1.482856e+001 79 49 25
1.620478e+000 -4.113604e-001 -1.445956e+001 105 70 48
1.845568e+000 -5.531982e-001 -1.420357e+001 196 167 137
2.239212e+000 -4.549097e-001 -1.428135e+001 47 33 20
5.690572e+000 -4.526200e-001 -1.531827e+001 97 70 49
-1.300865e+000 -6.801799e-001 -1.559528e+001 169 103 92
2.258874e+000 -7.457508e-001 -1.461158e+001 35 26 11
5.376051e+000 -9.968707e-001 -1.578384e+001 95 69 47
5.389486e+000 -9.926372e-001 -1.581859e+001 95 69 47
5.978597e+000 -1.008356e+000 -1.610545e+001 59 36 15
5.273695e+000 -1.318957e+000 -1.612724e+001 92 67 45
5.670369e+000 -1.409861e+000 -1.633587e+001 86 65 42
5.755115e+000 -1.275979e+000 -1.622064e+001 60 38 15
9.755487e-001 -1.622434e+000 -1.571763e+001 119 79 58
1.431267e+000 -1.679245e+000 -1.513646e+001 55 44 22
5.677932e+000 -1.575751e+000 -1.652528e+001 62 37 15
3.321023e+000 -2.295337e+000 -1.679371e+001 101 77 54
3.540215e+000 -2.383402e+000 -1.688541e+001 96 71 50
4.612049e+000 -2.476368e+000 -1.735857e+001 62 37 17
-3.236720e+000 -2.505439e+000 -1.709638e+001 103 74 52
3.988683e+000 -2.804609e+000 -1.785703e+001 105 80 58
4.003714e+000 -2.956945e+000 -1.778942e+001 103 79 53
4.021723e+000 -2.960144e+000 -1.784451e+001 103 79 53
1.689344e+000 -3.394560e+000 -1.784109e+001 48 34 23
2.059948e-001 -3.729073e+000 -1.805829e+001 169 112 101
9.733683e-001 -3.652350e+000 -1.814776e+001 148 109 88
-6.047231e+000 -3.570561e+000 -1.669563e+001 182 119 110
-6.036197e+000 -3.807948e+000 -1.671976e+001 163 84 90
1.886620e-001 -4.031192e+000 -1.844994e+001 148 78 74
4.983143e+000 -4.117076e+000 -1.943228e+001 109 81 56
8.502560e-001 -4.258851e+000 -1.850281e+001 141 103 70
3.843259e+000 -4.535387e+000 -1.960072e+001 105 81 57
4.921346e+000 4.118920e+000 -1.604980e+001 111 75 43
3.505860e+000 3.251240e+000 -1.514707e+001 115 84 55
4.668311e+000 3.474314e+000 -1.553540e+001 153 117 88
5.292537e+000 3.409890e+000 -1.555284e+001 142 109 78
4.612768e+000 2.882195e+000 -1.500930e+001 102 66 36
4.609094e+000 2.879646e+000 -1.500087e+001 102 66 36
4.893366e+000 2.813615e+000 -1.502736e+001 103 68 36
2.747405e+000 2.130668e+000 -1.390232e+001 70 51 34
6.979529e+000 2.462229e+000 -1.513111e+001 171 130 78
1.642192e+000 1.580080e+000 -1.380330e+001 159 128 99
5.331121e+000 1.503484e+000 -1.401509e+001 100 64 32
2.509793e+000 8.787057e-001 -1.304088e+001 53 37 21
3.037579e+000 4.085612e-001 -1.328211e+001 48 32 15
2.110879e+000 2.608043e-001 -1.321277e+001 118 86 58
2.986442e+000 5.837408e-002 -1.360228e+001 40 25 18
9.723904e-001 -6.275686e-002 -1.467724e+001 191 149 100
2.831517e+000 -3.764986e-001 -1.313316e+001 55 41 28
5.979695e+000 -4.008596e-001 -1.527225e+001 62 38 14
-1.516831e+000 -4.542702e-001 -1.570185e+001 217 158 140
2.065999e+000 -5.068220e-001 -1.416157e+001 48 40 27
1.782357e+000 -1.095024e+000 -1.477785e+001 139 109 81
-3.318184e-001 -1.523053e+000 -1.527062e+001 164 90 89
-3.633061e-001 -1.647513e+000 -1.506772e+001 158 86 87
2.735391e+000 -1.573672e+000 -1.558239e+001 63 46 26
-3.589676e+000 -1.981367e+000 -1.718658e+001 184 140 113
2.674864e+000 -2.120158e+000 -1.626705e+001 65 49 28
-5.937117e+000 -2.395395e+000 -1.663482e+001 164 120 90
-4.411714e+000 -2.340043e+000 -1.661549e+001 197 160 132
1.325070e+000 -2.427904e+000 -1.599853e+001 107 76 48
3.975362e+000 -2.714216e+000 -1.746251e+001 101 76 54
4.517687e+000 -3.163213e+000 -1.816550e+001 80 53 30
1.057255e+000 -3.705186e+000 -1.807740e+001 136 96 71
-5.972288e+000 -3.589951e+000 -1.680380e+001 122 68 61
2.476658e-001 -4.220662e+000 -1.870449e+001 159 117 92
7.678200e-001 -4.139512e+000 -1.827324e+001 188 149 118
3.781863e+000 -4.307011e+000 -1.924520e+001 78 51 30
6.625550e+000 4.244319e+000 -1.673078e+001 76 52 27
6.007612e+000 4.091322e+000 -1.632719e+001 115 76 43
4.120244e+000 3.195107e+000 -1.523308e+001 133 99 67
5.764666e+000 3.552110e+000 -1.576383e+001 123 89 56
5.111248e+000 3.143152e+000 -1.531139e+001 142 107 79
4.547452e+000 1.613744e+000 -1.389208e+001 83 49 24
4.485402e+000 1.493587e+000 -1.385212e+001 131 95 59
6.512016e+000 1.195176e+000 -1.418830e+001 99 63 31
1.927645e+000 2.549595e-001 -1.335404e+001 108 78 52
4.286050e+000 1.766195e-001 -1.399528e+001 69 44 23
6.494943e+000 9.668761e-002 -1.456131e+001 116 86 58
7.309609e-001 1.693649e-001 -1.498915e+001 84 44 32
1.303844e+000 6.277039e-002 -1.399816e+001 161 110 36
2.839635e+000 -1.999625e-001 -1.330381e+001 76 62 35
1.792137e+000 -2.351784e-001 -1.380441e+001 118 84 56
1.879041e+000 -3.423485e-001 -1.390157e+001 170 139 111
5.108713e+000 -1.745872e-001 -1.460299e+001 104 74 48
1.774038e+000 -4.257640e-001 -1.418884e+001 120 85 58
2.704391e+000 -7.323332e-001 -1.350078e+001 32 22 14
4.333693e+000 -6.916280e-001 -1.504117e+001 103 79 55
-1.178221e+000 -1.356736e+000 -1.529065e+001 206 147 133
1.406070e-001 -1.372262e+000 -1.566879e+001 130 58 56
1.406070e-001 -1.372262e+000 -1.566879e+001 130 58 56
5.712324e-001 -1.916258e+000 -1.601567e+001 111 43 44
3.711358e+000 -2.228757e+000 -1.670884e+001 62 39 16
1.311379e+000 -2.705638e+000 -1.633743e+001 90 63 41
1.692495e+000 -2.407947e+000 -1.612360e+001 79 67 50
1.405421e+000 -2.945474e+000 -1.694683e+001 134 109 87
1.454855e+000 -3.462602e+000 -1.759188e+001 60 51 36
5.760283e+000 -3.656367e+000 -1.913192e+001 133 102 71
2.110163e-001 -3.892598e+000 -1.823940e+001 133 60 58
2.121401e-001 -3.896870e+000 -1.828096e+001 133 60 58
5.495592e-001 -4.166054e+000 -1.859576e+001 188 148 118
2.832549e+000 -4.407640e+000 -1.913903e+001 73 48 27
2.551891e+000 -4.924312e+000 -1.990794e+001 119 97 73
4.278430e+000 2.750872e+000 -1.481659e+001 117 82 50
3.340839e+000 2.136428e+000 -1.394904e+001 191 158 125
5.554957e-001 1.155813e+000 -1.495111e+001 206 157 112
1.970215e-001 7.690033e-001 -1.500916e+001 156 75 69
1.365124e+000 5.413884e-001 -1.397686e+001 182 158 124
2.157365e+000 1.812991e-001 -1.333998e+001 38 25 16
3.729761e+000 2.310460e-001 -1.382651e+001 69 47 24
6.220608e+000 -5.949521e-002 -1.495875e+001 104 77 50
5.417363e-001 -9.392055e-001 -1.574332e+001 123 66 55
5.181281e+000 -2.216323e+000 -1.718972e+001 64 39 15
1.634873e+000 -2.615683e+000 -1.622183e+001 72 57 41
3.139895e+000 -2.626812e+000 -1.704200e+001 67 41 24
-5.996422e+000 -3.509201e+000 -1.676707e+001 126 78 66
3.808843e+000 2.373884e+000 -1.442760e+001 152 116 81
5.974996e+000 2.361724e+000 -1.480007e+001 161 122 83
2.294704e-001 2.524448e+000 -1.659120e+001 101 85 49
3.396022e+000 -3.694261e-001 -1.426503e+001 104 82 59
4.558068e+000 -3.320927e-001 -1.471996e+001 69 47 26
2.785019e+000 -5.733780e-001 -1.355032e+001 71 59 43
5.129027e+000 -5.563567e-001 -1.522947e+001 102 78 50
4.799912e+000 -1.721457e+000 -1.644689e+001 106 79 52
3.924456e+000 -1.867102e+000 -1.635601e+001 113 87 61
3.076818e+000 -3.364598e+000 -1.753579e+001 112 82 58
5.337533e+000 -4.624104e+000 -2.026565e+001 100 72 45
2.468281e+000 4.237384e+000 -1.575206e+001 90 75 54
1.803285e+000 1.943151e+000 -1.347160e+001 220 186 148
4.803844e+000 2.325969e+000 -1.453411e+001 125 89 55
2.578590e+000 1.669757e+000 -1.354293e+001 74 61 40
4.186796e+000 8.362761e-001 -1.369526e+001 106 75 46
-7.647712e-001 1.326272e-001 -1.534897e+001 177 109 100
5.086410e+000 -1.468739e+000 -1.632938e+001 103 76 49
5.709768e-001 -2.808844e+000 -1.685132e+001 165 110 101
4.966278e+000 -2.893231e+000 -1.792375e+001 115 88 61
-4.301398e+000 -3.148028e+000 -1.678582e+001 112 75 57
-1.966022e-002 -3.374625e+000 -1.717326e+001 130 57 62
