ply
format ascii 1.0
element face 0
property list uchar int vertex_indices
element vertex 882
property float x
property float y
property float z
property uchar diffuse_red
property uchar diffuse_green
property uchar diffuse_blue
end_header
4.207736e+000 4.054130e-001 -1.498300e+001 144 108 72
4.027041e+000 2.568660e-001 -1.497464e+001 125 88 59
1.832463e+000 9.055670e-001 -1.524225e+001 153 128 103
1.856042e+000 3.936770e-001 -1.498721e+001 187 168 132
1.882032e+000 3.802654e-001 -1.508516e+001 201 167 129
2.015079e+000 1.412560e-001 -1.481709e+001 73 67 45
2.059485e+000 1.129900e-001 -1.481194e+001 108 101 78
2.117176e+000 -1.172798e-001 -1.475629e+001 89 74 51
4.649850e+000 2.658650e-002 -1.521922e+001 112 71 41
5.050659e+000 4.138978e-001 -1.537772e+001 126 90 50
5.321531e+000 -1.046291e+000 -1.469153e+001 171 139 85
1.666329e+000 9.618735e-001 -1.543378e+001 216 191 169
2.285560e+000 -4.629174e-001 -1.488701e+001 148 112 87
1.687843e+000 2.256273e-002 -1.517397e+001 196 158 113
2.596817e+000 -3.796296e-001 -1.506906e+001 34 25 18
2.516237e+000 -5.114973e-001 -1.505752e+001 55 38 30
5.333713e+000 -1.727922e+000 -1.478282e+001 229 197 140
2.195602e+000 -5.494358e-001 -1.515500e+001 141 104 78
2.544262e+000 -6.136607e-001 -1.519847e+001 44 31 25
2.641989e+000 -5.295811e-001 -1.510276e+001 26 18 13
2.486017e+000 -5.940651e-001 -1.523524e+001 53 39 26
2.528892e+000 -7.459556e-001 -1.526210e+001 49 36 26
2.492431e+000 -7.415166e-001 -1.528748e+001 108 87 68
2.507833e+000 -7.864454e-001 -1.529465e+001 46 34 22
4.058534e+000 -4.789744e-001 -1.568376e+001 127 97 73
4.611272e+000 -2.360435e-001 -1.588471e+001 132 98 70
2.699824e+000 -7.687241e-001 -1.540058e+001 59 42 25
5.326639e+000 -1.927279e+000 -1.527199e+001 164 132 83
1.162742e+000 -9.100511e-001 -1.544894e+001 176 109 100
1.343312e+000 -9.081564e-001 -1.555643e+001 127 62 54
1.928092e+000 -8.178502e-001 -1.561832e+001 150 121 101
2.717515e+000 -1.049122e+000 -1.560611e+001 67 49 27
5.231043e-001 -1.039313e+000 -1.555958e+001 206 154 133
6.128805e-001 -9.182720e-001 -1.559744e+001 179 117 107
1.136370e+000 -1.034291e+000 -1.556989e+001 196 119 123
1.368653e+000 -1.098974e+000 -1.554067e+001 174 97 103
1.637212e+000 -1.071449e+000 -1.569720e+001 142 72 70
1.942536e+000 -1.089988e+000 -1.566025e+001 85 74 54
2.506614e+000 -1.080768e+000 -1.585199e+001 75 60 39
3.387021e+000 -1.121228e+000 -1.597801e+001 87 55 30
4.379445e+000 -1.005681e+000 -1.615583e+001 123 92 63
1.602854e+000 -1.292815e+000 -1.568859e+001 137 55 57
1.795605e+000 -1.225415e+000 -1.586859e+001 180 117 101
2.277958e+000 -1.262430e+000 -1.581318e+001 42 24 10
2.479705e+000 -1.208859e+000 -1.581164e+001 76 63 47
8.138434e-001 -1.526765e+000 -1.553046e+001 196 135 134
1.034749e+000 -1.515456e+000 -1.560262e+001 150 91 85
5.077052e+000 -2.599302e+000 -1.548922e+001 162 130 85
1.535702e+000 -1.521531e+000 -1.582733e+001 202 160 142
1.556987e+000 -1.671968e+000 -1.571713e+001 119 49 51
2.592714e+000 -1.551981e+000 -1.610958e+001 48 34 21
3.804131e+000 -1.657947e+000 -1.668612e+001 89 63 38
-1.516661e+000 -1.910908e+000 -1.592106e+001 109 71 52
-1.004307e+000 -1.839319e+000 -1.596505e+001 110 73 49
1.186677e+000 -2.144516e+000 -1.623834e+001 191 128 121
-1.520616e+000 -2.185057e+000 -1.587370e+001 140 101 72
-1.710480e+000 -2.204643e+000 -1.598478e+001 150 107 75
-1.751008e+000 -2.362438e+000 -1.611435e+001 133 86 69
-4.706440e-001 -1.968800e+000 -1.667299e+001 105 70 50
-1.611866e+000 -2.543449e+000 -1.606146e+001 162 87 94
-2.085333e-001 -1.977516e+000 -1.699882e+001 70 52 40
4.718563e+000 -3.732782e+000 -1.600771e+001 176 144 96
4.881480e+000 1.381467e+000 -1.537876e+001 124 111 117
5.392072e+000 -6.677863e-001 -1.447741e+001 253 222 168
3.003473e+000 1.876235e-001 -1.462259e+001 62 50 32
1.986157e+000 4.381066e-001 -1.489557e+001 112 100 74
1.839761e+000 4.504759e-001 -1.497376e+001 84 77 48
1.991848e+000 2.680798e-001 -1.491233e+001 188 168 141
2.762790e+000 -8.570498e-001 -1.482342e+001 78 61 46
2.881317e+000 -7.675780e-001 -1.498915e+001 56 39 28
2.443645e+000 -5.143476e-001 -1.511273e+001 40 26 21
2.376172e+000 -6.807228e-001 -1.506401e+001 115 83 53
2.712679e+000 -8.091002e-001 -1.494889e+001 55 46 39
2.532119e+000 -7.000320e-001 -1.521752e+001 45 32 26
2.946172e+000 -4.733747e-001 -1.551955e+001 119 97 83
1.940915e+000 -3.806548e-001 -1.561093e+001 115 80 60
2.316208e+000 -9.760315e-001 -1.537146e+001 45 26 13
2.243807e+000 -1.014274e+000 -1.542255e+001 205 181 155
2.484287e+000 -9.291334e-001 -1.551917e+001 38 24 15
2.771503e+000 -8.065336e-001 -1.562418e+001 59 40 35
2.771503e+000 -8.065336e-001 -1.562418e+001 59 40 35
5.486685e-001 -6.614372e-001 -1.565222e+001 169 121 99
1.240309e+000 -8.771067e-001 -1.558122e+001 206 145 137
1.956024e+000 -9.892986e-001 -1.549552e+001 67 64 45
2.006073e+000 -1.126278e+000 -1.544027e+001 101 95 73
2.730855e+000 -1.031890e+000 -1.570064e+001 64 46 31
3.289789e+000 -9.897771e-001 -1.571345e+001 127 97 70
3.298034e+000 -9.738738e-001 -1.572602e+001 127 97 70
3.687914e+000 -7.244658e-001 -1.594887e+001 117 86 58
3.687914e+000 -7.244658e-001 -1.594887e+001 117 86 58
1.295021e-001 -7.875334e-001 -1.565552e+001 231 203 179
9.875691e-001 -1.134943e+000 -1.542998e+001 212 156 147
1.228577e+000 -1.284105e+000 -1.535203e+001 173 98 100
1.532010e+000 -9.818342e-001 -1.565063e+001 153 71 78
1.839536e+000 -1.060372e+000 -1.571863e+001 73 58 37
2.726559e+000 -1.119467e+000 -1.589094e+001 63 45 27
4.313285e+000 -9.673833e-001 -1.623189e+001 75 47 23
1.134969e-001 -1.018357e+000 -1.572225e+001 231 201 175
2.472467e+000 -1.264642e+000 -1.583137e+001 78 61 44
2.760239e+000 -1.262518e+000 -1.595109e+001 74 52 31
6.433720e-001 -1.012157e+000 -1.595192e+001 154 83 89
8.121748e-001 -1.401544e+000 -1.577690e+001 161 104 95
2.242383e+000 -1.458827e+000 -1.588578e+001 42 26 18
1.296372e+000 -1.654509e+000 -1.574586e+001 189 146 129
1.297711e+000 -1.664125e+000 -1.573819e+001 189 146 129
1.918765e+000 -1.454656e+000 -1.596540e+001 147 103 66
3.560921e+000 -1.353231e+000 -1.630038e+001 132 102 76
1.921001e+000 -1.793976e+000 -1.605869e+001 93 80 64
2.202802e+000 -1.608780e+000 -1.606802e+001 120 88 57
2.197810e+000 -1.679952e+000 -1.614461e+001 36 21 13
2.325863e+000 -1.650541e+000 -1.610149e+001 41 27 14
2.182806e+000 -1.805282e+000 -1.628242e+001 36 19 12
2.565716e+000 -1.705425e+000 -1.625848e+001 55 39 31
-7.553633e-001 -1.771769e+000 -1.601111e+001 195 163 140
1.145992e+000 -1.669338e+000 -1.631068e+001 118 58 57
2.303162e+000 -1.777848e+000 -1.642260e+001 42 29 21
-1.593945e+000 -1.941674e+000 -1.596414e+001 189 152 126
-1.670837e+000 -2.033123e+000 -1.596610e+001 141 100 70
-1.561240e+000 -2.247500e+000 -1.594722e+001 136 92 63
-1.488088e+000 -2.797852e+000 -1.656975e+001 141 85 88
2.387869e+000 7.053719e-002 -1.441915e+001 220 190 162
2.870164e+000 3.725424e-001 -1.461310e+001 77 62 45
3.319203e+000 4.275427e-001 -1.476347e+001 130 100 70
4.222398e+000 6.382681e-001 -1.504684e+001 166 132 99
1.949184e+000 9.197649e-001 -1.501868e+001 195 171 139
2.013353e+000 5.937224e-001 -1.485634e+001 106 102 72
4.031830e+000 1.847139e-001 -1.495018e+001 124 86 60
4.503882e+000 2.337232e-001 -1.509230e+001 169 129 93
2.413154e+000 -2.590294e-001 -1.470847e+001 143 108 76
2.025113e+000 -9.977038e-002 -1.498863e+001 177 136 93
1.683302e+000 -1.493798e-001 -1.513308e+001 228 190 157
1.928627e+000 -2.246876e-001 -1.500522e+001 168 120 46
2.670978e+000 -6.018758e-001 -1.503351e+001 83 70 61
1.889336e+000 -5.508573e-001 -1.506074e+001 206 171 133
4.349295e+000 -2.633546e-001 -1.558129e+001 80 48 23
4.959169e+000 -1.573843e-001 -1.579688e+001 145 112 64
2.102862e+000 -6.242600e-001 -1.521149e+001 167 131 109
8.115347e-001 -3.693896e-001 -1.544905e+001 197 140 119
8.526308e-001 -6.336715e-001 -1.533990e+001 225 184 164
8.526308e-001 -6.336715e-001 -1.533990e+001 225 184 164
2.029625e+000 -9.338985e-001 -1.532709e+001 162 130 103
4.273809e+000 -6.878415e-001 -1.598230e+001 80 50 26
1.812230e+000 -6.856682e-001 -1.585934e+001 156 106 88
1.812230e+000 -6.856682e-001 -1.585934e+001 156 106 88
8.471803e-001 -1.023547e+000 -1.549708e+001 183 97 104
6.012985e-001 -1.231495e+000 -1.591082e+001 160 86 93
1.777144e+000 -1.548653e+000 -1.594684e+001 131 64 59
3.723840e+000 -1.458318e+000 -1.656466e+001 112 85 60
4.992044e+000 -2.857960e+000 -1.549713e+001 189 157 108
4.982537e+000 -2.950195e+000 -1.545340e+001 137 108 67
-2.834886e-001 -1.544104e+000 -1.604863e+001 227 198 174
-9.146231e-001 -1.636755e+000 -1.609008e+001 159 116 79
2.130616e+000 -1.950903e+000 -1.635728e+001 39 22 18
4.903700e+000 -3.454698e+000 -1.602118e+001 135 103 66
-1.397591e+000 -2.728207e+000 -1.630908e+001 120 54 63
-1.165878e+000 -2.773817e+000 -1.652471e+001 102 75 56
2.141239e+000 6.663536e-001 -1.472004e+001 228 208 176
3.311604e+000 1.633423e-001 -1.475222e+001 85 59 38
3.475712e+000 2.971784e-001 -1.475975e+001 136 100 68
1.958830e+000 2.944181e-002 -1.482891e+001 176 149 120
2.506294e+000 -2.282923e-001 -1.476815e+001 56 36 23
2.311731e+000 -3.175415e-001 -1.490312e+001 152 117 87
4.013767e+000 -2.530685e-001 -1.532923e+001 140 106 75
1.399205e+000 -1.378289e-001 -1.528189e+001 189 100 104
1.399205e+000 -1.378289e-001 -1.528189e+001 189 100 104
2.665627e+000 -7.589013e-001 -1.533114e+001 85 55 29
8.914242e-001 -1.122751e+000 -1.547083e+001 210 154 142
6.168692e-001 -9.640223e-001 -1.574302e+001 94 50 41
3.645540e+000 -1.326300e+000 -1.624372e+001 133 103 77
5.141042e+000 -2.614687e+000 -1.543948e+001 151 121 81
1.389254e+000 -1.695421e+000 -1.602378e+001 117 53 50
2.535367e+000 -1.604956e+000 -1.615015e+001 75 57 42
1.442172e+000 -1.897558e+000 -1.603035e+001 153 94 90
5.053318e+000 -2.944181e+000 -1.561220e+001 127 98 62
2.057192e-001 -1.707076e+000 -1.644152e+001 130 83 74
1.884890e+000 -2.031083e+000 -1.629929e+001 62 58 41
9.536780e-001 -1.926725e+000 -1.649140e+001 167 106 106
8.619432e-001 -1.689681e+000 -1.672027e+001 148 82 84
8.619432e-001 -1.689681e+000 -1.672027e+001 148 82 84
4.563362e+000 9.504520e-001 -1.516708e+001 117 106 112
2.864430e+000 9.252183e-002 -1.466151e+001 108 92 65
3.553608e+000 2.920926e-001 -1.485190e+001 157 123 91
4.341394e+000 2.668061e-001 -1.495928e+001 181 141 105
4.184838e+000 3.496865e-001 -1.506514e+001 174 137 106
2.609730e+000 -3.848778e-001 -1.479540e+001 89 73 58
4.620508e+000 1.133228e-001 -1.533497e+001 162 124 88
4.181937e+000 2.010659e-001 -1.534001e+001 146 113 86
5.538910e+000 -1.612223e+000 -1.510022e+001 130 100 62
2.663092e+000 -7.932669e-001 -1.554925e+001 113 90 68
2.223094e+000 -1.128921e+000 -1.554400e+001 181 155 134
2.223094e+000 -1.128921e+000 -1.554400e+001 181 155 134
6.948225e-001 -9.182014e-001 -1.559482e+001 168 103 93
2.608075e+000 -1.119543e+000 -1.570257e+001 92 67 42
5.179099e+000 -2.477161e+000 -1.525803e+001 137 107 68
1.185122e+000 -1.451335e+000 -1.561551e+001 143 59 57
2.571832e+000 -1.387384e+000 -1.583421e+001 105 88 58
2.652976e+000 -1.681649e+000 -1.642132e+001 61 42 28
-1.727300e+000 -1.869223e+000 -1.603569e+001 142 98 69
4.970335e+000 -3.326837e+000 -1.601119e+001 128 102 63
-1.734962e+000 -2.553449e+000 -1.618297e+001 198 117 124
4.714640e+000 -3.698633e+000 -1.595151e+001 181 153 105
4.796443e+000 -3.672356e+000 -1.621473e+001 187 156 108
-1.341742e+000 -2.733481e+000 -1.642613e+001 89 39 38
-1.363480e+000 -2.788002e+000 -1.659536e+001 62 38 26
2.406534e+000 -5.194517e-002 -1.449185e+001 213 182 154
2.774232e+000 2.288287e-001 -1.465243e+001 36 27 18
4.080196e+000 3.460603e-001 -1.499305e+001 140 101 70
3.719351e+000 1.328915e-001 -1.487707e+001 167 131 99
4.339318e+000 2.207388e-001 -1.508475e+001 168 130 94
1.711356e+000 -5.402310e-001 -1.506539e+001 202 162 113
6.411738e-001 -5.991279e-001 -1.559958e+001 224 188 164
1.177550e+000 -9.577293e-001 -1.555271e+001 211 147 145
3.747325e+000 -8.878424e-001 -1.591833e+001 107 75 47
7.498507e-001 -1.378725e+000 -1.557228e+001 193 134 133
2.090933e+000 -1.927836e+000 -1.597399e+001 144 117 96
-8.272697e-001 -1.837155e+000 -1.600517e+001 191 163 141
-1.553644e+000 -2.474558e+000 -1.621856e+001 156 96 90
2.195075e+000 2.196307e-001 -1.461307e+001 80 73 47
2.195075e+000 2.196307e-001 -1.461307e+001 80 73 47
3.022703e+000 3.877061e-001 -1.474143e+001 74 62 43
3.354877e+000 2.865401e-001 -1.478601e+001 112 81 57
4.689791e+000 5.209347e-001 -1.511610e+001 146 103 69
2.931958e+000 -3.178210e-001 -1.464082e+001 68 51 35
4.816093e+000 2.412414e-001 -1.515828e+001 178 139 98
1.889323e+000 -2.144557e-001 -1.506916e+001 180 130 43
2.636591e+000 -4.950334e-001 -1.517890e+001 23 17 14
1.354755e+000 -3.347514e-001 -1.530333e+001 205 129 133
2.089395e+000 -9.873506e-001 -1.538036e+001 82 77 51
1.636492e+000 -1.226959e+000 -1.577273e+001 137 61 60
2.678489e+000 -1.381114e+000 -1.575206e+001 71 54 36
2.643275e+000 -1.599835e+000 -1.585307e+001 64 49 30
2.661849e+000 -1.567507e+000 -1.613456e+001 64 48 32
2.575937e+000 -1.970276e+000 -1.605367e+001 61 45 32
2.576456e+000 -1.955978e+000 -1.634764e+001 56 39 29
8.697202e-001 -1.477240e+000 -1.669729e+001 174 99 108
-2.031589e-001 -1.931918e+000 -1.708002e+001 84 67 49
2.122525e+000 -6.208679e-002 -1.470244e+001 81 77 52
3.887768e+000 3.634125e-001 -1.505229e+001 159 124 90
3.124386e+000 -2.138590e-001 -1.477953e+001 158 126 101
2.784810e+000 -7.885274e-001 -1.507111e+001 50 37 27
1.070598e+000 -1.466222e+000 -1.577304e+001 125 58 59
1.070598e+000 -1.466222e+000 -1.577304e+001 125 58 59
1.087639e+000 -1.494986e+000 -1.620775e+001 165 101 102
1.087639e+000 -1.494986e+000 -1.620775e+001 165 101 102
2.383896e+000 7.690363e-001 -1.469728e+001 186 153 119
6.300231e-001 -1.336396e+000 -1.638474e+001 173 100 104
-1.165811e+000 -1.878270e+000 -1.592102e+001 89 50 33
2.521724e+000 -5.673712e-001 -1.483264e+001 40 32 29
3.380853e+000 -1.660709e-001 -1.508463e+001 91 65 43
3.380853e+000 -1.660709e-001 -1.508463e+001 91 65 43
2.234512e+000 -7.949233e-001 -1.524754e+001 167 137 109
4.104670e+000 -5.615404e-001 -1.579989e+001 86 56 33
-2.677638e-001 -2.004153e+000 -1.647457e+001 171 136 116
8.202935e-001 -8.466792e-001 -1.536861e+001 216 180 156
2.530968e+000 -9.803090e-001 -1.491622e+001 27 21 17
2.004626e+000 -1.468016e+000 -1.582413e+001 157 122 92
1.615589e+000 -3.760749e-001 -1.567872e+001 118 55 46
3.820689e+000 -8.186943e-001 -1.648194e+001 107 75 51
3.320802e+000 -1.620910e+000 -1.652209e+001 98 73 51
3.118966e-001 -1.717748e+000 -1.647640e+001 129 76 72
-1.109439e+000 -1.995315e+000 -1.662058e+001 92 59 42
-3.527532e+001 1.283122e+002 -1.427011e+002 207 202 196
-3.327795e+001 1.172854e+002 -1.357058e+002 67 94 79
-3.407896e+001 1.301859e+002 -1.515927e+002 213 207 204
5.280783e+000 -1.523449e+000 -1.422618e+001 224 191 134
5.300732e+000 -1.765504e+000 -1.456759e+001 135 103 60
5.294409e+000 -1.921407e+000 -1.459277e+001 134 102 61
4.075085e+000 -4.828880e-001 -1.536030e+001 87 55 30
3.864338e+000 -5.943785e-001 -1.548235e+001 103 68 40
3.864338e+000 -5.943785e-001 -1.548235e+001 103 68 40
4.095927e+000 -5.977521e-001 -1.554478e+001 89 59 34
2.685593e+000 -8.522551e-001 -1.534706e+001 74 57 41
4.078332e+000 -7.207041e-001 -1.574191e+001 113 81 56
4.078332e+000 -7.207041e-001 -1.574191e+001 113 81 56
4.120339e+000 -8.127557e-001 -1.586906e+001 90 58 33
5.003515e+000 -2.093414e+000 -1.553453e+001 151 119 72
2.553096e+000 -1.325401e+000 -1.583277e+001 249 235 200
5.177255e-001 -8.325453e-001 -1.580716e+001 193 139 121
1.222119e+000 -1.614513e+000 -1.574162e+001 131 70 59
1.889140e+000 -1.617457e+000 -1.610619e+001 74 60 44
6.853312e-001 -1.111505e+000 -1.641685e+001 130 54 56
4.226337e+000 -1.445861e+000 -1.669288e+001 74 47 26
3.399811e+000 -1.710560e+000 -1.670355e+001 81 55 33
3.782201e+000 -1.574026e+000 -1.667623e+001 86 56 28
3.782201e+000 -1.574026e+000 -1.667623e+001 86 56 28
1.410273e+000 -2.009959e+000 -1.627167e+001 173 110 103
1.694516e+000 -1.941197e+000 -1.634611e+001 149 105 93
3.785857e+000 -1.780077e+000 -1.691486e+001 115 82 51
-3.238632e-003 -1.817444e+000 -1.635782e+001 91 64 44
3.509088e+000 -1.846534e+000 -1.697159e+001 109 79 55
1.646544e+000 -2.042929e+000 -1.669822e+001 153 72 77
2.067791e+000 -2.138752e+000 -1.664433e+001 107 75 50
-6.019748e-001 -1.617393e+000 -1.723158e+001 179 171 159
1.259363e+000 -2.268713e+000 -1.702710e+001 131 68 66
1.286870e+000 -2.297573e+000 -1.702093e+001 190 134 123
3.337348e+000 -2.282875e+000 -1.741333e+001 106 76 50
1.282403e+000 -2.315569e+000 -1.722716e+001 158 102 82
2.973180e+000 -2.373839e+000 -1.734314e+001 85 57 34
1.513539e+000 -2.550648e+000 -1.721367e+001 141 105 78
5.264524e+000 -1.771908e+000 -1.458565e+001 230 196 136
1.932969e+000 -3.146605e-001 -1.494623e+001 174 126 58
3.558377e+000 -4.266516e-001 -1.506823e+001 111 76 50
2.790130e+000 -9.612061e-001 -1.485280e+001 54 38 25
8.331841e-001 -3.242322e-001 -1.548161e+001 196 137 113
3.869902e+000 -7.652983e-001 -1.571232e+001 91 60 35
2.880990e+000 -1.173708e+000 -1.568953e+001 135 107 82
1.241663e+000 -1.602658e+000 -1.592653e+001 142 90 76
1.335307e+000 -1.647057e+000 -1.595590e+001 133 71 62
1.279125e+000 -1.824490e+000 -1.623154e+001 139 83 70
3.765708e+000 -1.661463e+000 -1.680568e+001 96 66 38
3.159643e+000 -2.307109e+000 -1.733931e+001 86 58 34
1.451709e+000 -2.440414e+000 -1.710487e+001 170 94 95
3.775394e+000 -2.435262e+000 -1.772759e+001 127 96 65
3.765218e+000 -2.522932e+000 -1.782872e+001 122 91 63
3.488613e+000 -3.108652e-001 -1.492466e+001 127 93 64
3.645262e+000 -2.900059e-001 -1.493143e+001 124 85 55
2.754468e+000 -8.648285e-001 -1.535329e+001 65 46 29
3.813504e+000 -6.815931e-001 -1.555342e+001 118 81 54
3.466557e+000 -1.061898e+000 -1.591173e+001 96 64 36
1.172967e+000 -1.555504e+000 -1.596390e+001 175 115 107
4.278516e+000 -1.648322e+000 -1.690512e+001 124 87 54
3.264622e+000 -1.867895e+000 -1.691840e+001 80 55 30
3.956412e+000 -1.839620e+000 -1.711522e+001 119 90 60
3.961230e+000 -1.830748e+000 -1.712087e+001 119 90 60
3.936465e+000 -1.900830e+000 -1.717754e+001 127 94 64
-1.090239e+000 -2.290909e+000 -1.606680e+001 81 47 35
1.652492e+000 -2.115919e+000 -1.672729e+001 128 47 57
4.359692e+000 -1.912604e+000 -1.743948e+001 141 108 67
3.164204e+000 -2.366052e+000 -1.743118e+001 79 51 29
1.547357e+000 -2.541811e+000 -1.719975e+001 188 152 126
3.217237e+000 -2.511533e+000 -1.756274e+001 107 76 54
3.313481e+000 -2.552547e+000 -1.775420e+001 108 77 56
2.254568e+000 -1.307023e-001 -1.445541e+001 160 126 98
4.085714e+000 -9.789336e-002 -1.494243e+001 126 88 53
2.732593e+000 -7.831635e-001 -1.462325e+001 45 35 26
1.910733e+000 -1.512159e+000 -1.592324e+001 148 100 60
3.345601e+000 -1.413670e+000 -1.625620e+001 107 81 56
3.251176e+000 -1.552020e+000 -1.637592e+001 115 87 65
3.462212e+000 -1.452420e+000 -1.632185e+001 61 38 22
3.463371e+000 -1.447953e+000 -1.632457e+001 61 38 22
1.926511e+000 -1.776367e+000 -1.608606e+001 93 80 62
2.533100e+000 -1.999409e+000 -1.665296e+001 47 33 18
1.678684e+000 -2.041254e+000 -1.658898e+001 198 136 128
-1.428147e+000 -2.733525e+000 -1.646250e+001 115 46 49
1.123874e+000 -2.421255e+000 -1.761344e+001 178 136 120
4.297724e+000 -4.702587e-001 -1.544395e+001 87 53 26
1.871785e+000 -6.060586e-001 -1.552098e+001 142 110 89
2.428080e+000 -1.112533e+000 -1.561214e+001 55 39 23
4.182950e+000 -9.692408e-001 -1.607231e+001 94 64 38
2.274016e+000 -1.356967e+000 -1.572225e+001 56 38 17
2.274016e+000 -1.356967e+000 -1.572225e+001 56 38 17
4.285506e+000 -1.020068e+000 -1.618411e+001 79 48 22
4.263797e+000 -1.221740e+000 -1.635836e+001 78 47 24
4.386480e+000 -1.182964e+000 -1.638032e+001 111 77 42
3.480668e+000 -1.380019e+000 -1.623799e+001 85 53 30
1.885991e+000 -1.664142e+000 -1.615520e+001 50 43 27
3.542432e+000 -1.578402e+000 -1.657598e+001 117 91 68
1.906238e+000 -1.969989e+000 -1.620829e+001 118 109 80
4.470096e+000 -1.724436e+000 -1.718940e+001 154 120 83
-1.033162e-001 -1.719405e+000 -1.735273e+001 89 53 44
-1.450713e+000 -2.718251e+000 -1.641760e+001 156 87 92
7.451121e-001 -2.365384e+000 -1.732551e+001 168 123 110
2.916447e+000 -2.723859e+000 -1.780214e+001 90 64 39
3.998706e+000 -2.550994e+000 -1.857102e+001 86 64 40
2.697673e+000 -8.769358e-001 -1.468594e+001 206 182 144
2.699192e+000 -8.652448e-001 -1.468867e+001 206 182 144
5.260856e+000 -1.993917e+000 -1.471307e+001 138 105 60
2.291299e+000 -7.340418e-001 -1.495761e+001 239 209 183
3.721724e+000 -5.431733e-001 -1.534054e+001 99 68 40
3.502050e+000 -1.548823e+000 -1.648586e+001 70 43 22
3.359576e+000 -1.670632e+000 -1.669423e+001 114 86 64
3.507180e+000 -1.689983e+000 -1.674301e+001 76 50 28
4.188582e+000 -1.613430e+000 -1.687956e+001 90 62 33
3.332523e+000 -1.817812e+000 -1.682867e+001 122 95 68
1.170919e+000 -2.064579e+000 -1.699218e+001 158 94 95
2.824343e+000 -2.727611e+000 -1.778972e+001 107 81 56
1.520168e+000 -2.843011e+000 -1.750000e+001 181 152 122
1.519267e+000 -2.849883e+000 -1.749395e+001 181 152 122
2.956260e+000 -2.748115e+000 -1.787112e+001 110 84 61
2.963291e+000 -2.732852e+000 -1.788405e+001 110 84 61
4.038340e+000 -3.381593e-001 -1.515938e+001 93 60 35
2.232663e+000 -9.779197e-001 -1.521174e+001 191 161 132
1.168125e+000 -9.604319e-001 -1.556550e+001 205 136 131
1.525044e+000 -1.807104e+000 -1.614418e+001 117 44 48
1.651348e+000 -2.577144e+000 -1.734302e+001 124 76 52
1.675525e+000 -2.779152e+000 -1.763096e+001 125 88 61
3.257957e+000 -3.296523e-001 -1.489257e+001 96 68 44
2.084193e+000 -1.103873e+000 -1.530313e+001 85 79 52
2.749317e+000 -9.289245e-001 -1.536543e+001 92 71 46
2.732247e+000 -1.026578e+000 -1.547000e+001 69 51 29
2.742626e+000 -9.979242e-001 -1.548272e+001 69 51 29
1.681646e+000 -9.327439e-001 -1.567852e+001 108 59 44
2.067370e+000 -1.332174e+000 -1.558161e+001 87 79 56
2.947627e+000 -2.503903e+000 -1.747586e+001 123 93 69
1.805609e+000 -2.842799e+000 -1.760447e+001 211 184 157
1.390972e+000 -2.305649e+000 -1.694480e+001 183 119 117
2.641080e+000 -2.671354e+000 -1.749252e+001 108 84 62
2.617257e+000 -2.603934e+000 -1.802902e+001 97 80 60
1.112003e+000 -1.887175e+000 -1.660551e+001 179 125 113
4.059776e+000 -1.916506e+000 -1.713875e+001 101 68 40
2.155400e+000 -2.462233e+000 -1.708314e+001 34 24 17
3.440249e+000 -4.169837e-001 -1.503016e+001 90 61 37
4.335668e+000 -6.067379e-001 -1.568655e+001 112 79 51
2.662426e+000 -1.251589e+000 -1.574906e+001 117 100 82
2.769774e+000 -1.394130e+000 -1.601723e+001 137 112 91
3.901089e+000 -1.396418e+000 -1.646426e+001 71 43 21
3.202079e+000 -1.759043e+000 -1.670149e+001 86 62 40
3.612645e+000 -1.728460e+000 -1.683687e+001 78 52 29
4.139277e+000 -1.825439e+000 -1.717072e+001 87 56 28
3.327051e+000 -2.229337e+000 -1.733768e+001 118 90 66
3.748035e+000 -2.171289e+000 -1.745923e+001 116 86 60
3.562705e+000 -2.287814e+000 -1.751788e+001 102 74 47
4.160304e+000 -2.291161e+000 -1.770422e+001 105 72 40
3.135577e+000 -2.444322e+000 -1.751286e+001 101 74 53
3.582263e+000 -2.598009e+000 -1.786170e+001 84 56 32
4.036274e+000 -3.180889e-001 -1.511211e+001 132 96 69
3.556261e+000 -5.715047e-001 -1.533012e+001 84 53 31
1.350057e+000 -4.796678e-001 -1.546486e+001 164 74 84
3.473745e+000 -1.428926e+000 -1.632001e+001 57 34 13
4.592898e+000 -1.335333e+000 -1.662341e+001 150 117 81
3.151689e+000 -1.546405e+000 -1.634546e+001 103 76 57
3.732574e+000 -1.528339e+000 -1.655804e+001 81 54 32
2.775221e+000 -1.738029e+000 -1.653471e+001 118 91 73
1.822433e+000 -1.938783e+000 -1.651705e+001 103 55 45
-1.289642e+000 -2.464886e+000 -1.613704e+001 129 89 64
3.836721e+000 -2.040697e+000 -1.734567e+001 99 68 43
2.882707e+000 -2.454289e+000 -1.738512e+001 106 81 61
3.798343e+000 -2.345891e+000 -1.763796e+001 123 92 67
3.835809e+000 -2.419523e+000 -1.771700e+001 99 70 46
3.836351e+000 -2.418652e+000 -1.771793e+001 99 70 46
3.925573e+000 -3.644764e-001 -1.512937e+001 133 97 70
3.752866e+000 -5.411735e-001 -1.535400e+001 100 69 41
3.310497e+000 -1.119419e+000 -1.592697e+001 106 75 50
4.313922e+000 -1.320366e+000 -1.649742e+001 136 102 74
3.767625e+000 -1.727439e+000 -1.682055e+001 127 97 71
3.988892e+000 -2.123643e+000 -1.750893e+001 74 46 22
4.243031e-001 -1.588121e+000 -1.829771e+001 160 156 148
3.657993e+000 -2.551701e+000 -1.783702e+001 97 68 45
4.392682e+000 -1.121404e+000 -1.627447e+001 122 85 57
3.498602e+000 -1.768588e+000 -1.680903e+001 116 92 66
4.597675e+000 -1.701038e+000 -1.723043e+001 145 113 66
3.991217e+000 -1.818318e+000 -1.710752e+001 115 85 57
3.307123e+000 -2.503714e+000 -1.761990e+001 88 61 40
3.688347e+000 -2.454648e+000 -1.771211e+001 126 96 70
3.681410e+000 -2.660558e+000 -1.801101e+001 115 87 66
3.751768e+000 -3.640786e-001 -1.506513e+001 153 119 91
1.707041e+000 -2.594134e+000 -1.722225e+001 202 169 141
4.099681e+000 -2.328128e+000 -1.778585e+001 91 65 40
1.745960e+000 -5.005144e-001 -1.535193e+001 161 120 100
3.077389e+000 -8.989088e-001 -1.558764e+001 63 36 17
1.781718e+000 -1.549583e+000 -1.599510e+001 133 66 65
1.781718e+000 -1.549583e+000 -1.599510e+001 133 66 65
3.440417e+000 -1.525756e+000 -1.641952e+001 105 79 58
1.799231e+000 -1.947922e+000 -1.630204e+001 45 35 23
1.815688e+000 -1.930013e+000 -1.647102e+001 116 50 54
3.114211e+000 -2.041828e+000 -1.703497e+001 83 56 35
3.114211e+000 -2.041828e+000 -1.703497e+001 83 56 35
3.511364e+000 -2.333948e+000 -1.751415e+001 90 60 35
3.532823e+000 -2.384104e+000 -1.756409e+001 94 64 40
3.829497e+000 -2.296400e+000 -1.760947e+001 68 40 19
3.830499e+000 -2.295419e+000 -1.761094e+001 68 40 19
3.573354e+000 -2.478884e+000 -1.768612e+001 72 42 17
4.301667e+000 -1.483783e+000 -1.674627e+001 104 70 44
3.842117e+000 -1.586591e+000 -1.670013e+001 114 87 61
2.931665e+000 -1.927958e+000 -1.678428e+001 68 46 25
2.982019e+000 -2.233287e+000 -1.720821e+001 85 58 37
3.961445e+000 -2.512819e+000 -1.786055e+001 111 81 57
2.920709e+000 -2.760857e+000 -1.793255e+001 84 65 43
3.768155e+000 -1.548396e+000 -1.660803e+001 112 86 63
3.481260e-001 -1.554885e+000 -1.823613e+001 155 155 148
3.479133e+000 -2.508889e+000 -1.764191e+001 123 94 70
4.523158e+000 -5.549882e-001 -1.571592e+001 115 80 52
4.120594e+000 -1.793942e+000 -1.713455e+001 97 63 36
3.445604e+000 -2.663855e+000 -1.808263e+001 75 52 31
3.444872e+000 -2.665757e+000 -1.808114e+001 75 52 31
3.970818e+000 -8.843736e-001 -1.588833e+001 103 71 46
4.483712e+000 -1.590900e+000 -1.633562e+001 93 61 22
1.367197e+000 -1.953675e+000 -1.625453e+001 156 99 82
3.945143e+000 -1.921217e+000 -1.722041e+001 94 63 34
3.365963e+000 -2.202843e+000 -1.734225e+001 85 58 31
3.728143e+000 -4.064208e-001 -1.511405e+001 144 110 82
3.452837e+000 -1.595110e+000 -1.651935e+001 77 52 30
4.422637e+000 -1.632801e+000 -1.694479e+001 138 105 66
2.694372e+000 -2.177095e+000 -1.711468e+001 138 108 82
1.738075e+000 -2.638344e+000 -1.745065e+001 168 131 105
3.231504e+000 -2.661884e-001 -1.478830e+001 99 68 40
3.654811e+000 -8.019253e-001 -1.562560e+001 139 105 77
4.188614e+000 -9.258065e-001 -1.601110e+001 133 102 74
3.501108e+000 -1.271405e+000 -1.614142e+001 138 104 76
3.588264e+000 -1.833042e+000 -1.697688e+001 109 78 57
3.519646e+000 -1.923374e+000 -1.706289e+001 89 59 36
1.885605e+000 -2.079396e+000 -1.676563e+001 174 121 112
-1.032112e+000 -2.444412e+000 -1.621407e+001 81 52 36
4.329009e+000 -2.046278e+000 -1.750727e+001 149 111 74
2.937325e+000 -2.707589e+000 -1.773406e+001 110 84 59
2.938726e+000 -2.707704e+000 -1.773524e+001 110 84 59
4.525225e+000 -3.813675e-001 -1.542640e+001 100 65 32
2.729152e+000 -8.706524e-001 -1.538270e+001 64 46 27
4.521503e+000 -2.238984e+000 -1.774639e+001 147 114 63
3.267730e+000 1.421928e+000 -1.705922e+001 67 48 31
3.861015e+000 -2.626038e+000 -1.908015e+001 37 36 34
2.479765e+000 -4.787768e-001 -1.490849e+001 52 35 18
2.717136e+000 -7.445719e-001 -1.525662e+001 84 61 31
2.713387e+000 -7.607448e-001 -1.527885e+001 75 47 24
3.940499e+000 -7.279180e-001 -1.569395e+001 75 45 21
4.195552e+000 -8.808875e-001 -1.597160e+001 95 65 37
4.195552e+000 -8.808875e-001 -1.597160e+001 95 65 37
4.956741e+000 -2.286267e+000 -1.576996e+001 140 109 63
1.112325e+000 -1.463638e+000 -1.566577e+001 122 63 48
3.074083e+000 -1.360192e+000 -1.610203e+001 108 81 54
4.023573e+000 -1.263585e+000 -1.628732e+001 122 87 57
4.833204e+000 -2.507657e+000 -1.635386e+001 146 115 68
2.073005e+000 -1.872106e+000 -1.627044e+001 179 151 127
4.011227e+000 -1.740219e+000 -1.696805e+001 90 59 31
-3.022550e-001 -1.756467e+000 -1.633562e+001 86 61 38
3.533655e+000 -1.849808e+000 -1.698035e+001 78 48 22
3.524717e+000 -1.899144e+000 -1.706108e+001 72 40 15
3.524717e+000 -1.899144e+000 -1.706108e+001 72 40 15
3.760882e+000 -1.875177e+000 -1.705964e+001 111 79 45
1.321626e+000 -2.303404e+000 -1.664006e+001 135 83 70
1.539718e+000 -2.195953e+000 -1.673259e+001 132 86 70
1.539718e+000 -2.195953e+000 -1.673259e+001 132 86 70
3.185281e+000 -2.114092e+000 -1.721092e+001 71 41 17
3.590668e+000 -2.222269e+000 -1.741676e+001 106 75 46
1.387678e+000 -2.366735e+000 -1.694833e+001 213 156 147
1.984788e+000 -2.526666e+000 -1.704532e+001 100 64 36
3.088844e+000 -2.356782e+000 -1.736147e+001 81 54 27
3.942481e+000 -2.409686e+000 -1.775748e+001 86 61 38
5.902328e-001 -1.776383e+000 -1.796545e+001 139 74 71
7.176092e-001 -1.988983e+000 -1.790200e+001 145 71 70
7.331139e-001 -2.062993e+000 -1.801311e+001 131 72 68
2.334101e+000 -4.341762e-001 -1.462360e+001 231 200 166
3.491612e+000 -3.083678e-001 -1.492403e+001 119 83 57
4.726775e+000 -8.118854e-002 -1.509072e+001 153 114 72
2.679468e+000 -9.332318e-001 -1.481277e+001 162 138 107
2.540211e+000 -5.829772e-001 -1.496950e+001 121 110 93
2.385922e+000 -6.880452e-001 -1.511370e+001 59 32 11
1.385647e+000 -4.079214e-001 -1.544546e+001 179 92 95
2.681518e+000 -9.785484e-001 -1.553493e+001 65 45 20
3.284426e+000 -9.959114e-001 -1.571160e+001 123 93 63
4.036146e+000 -8.039085e-001 -1.583026e+001 81 53 29
3.507814e+000 -9.809534e-001 -1.587819e+001 77 45 20
3.458707e+000 -1.011081e+000 -1.588889e+001 119 88 60
3.735537e+000 -9.567362e-001 -1.591190e+001 94 62 35
4.752691e+000 -7.458083e-001 -1.612818e+001 110 77 36
1.928049e+000 -1.441742e+000 -1.564377e+001 151 113 61
1.928049e+000 -1.441742e+000 -1.564377e+001 151 113 61
2.160120e+000 -1.391409e+000 -1.567785e+001 239 219 195
4.066290e+000 -1.203238e+000 -1.625190e+001 120 87 55
7.761051e-001 -1.394805e+000 -1.578177e+001 132 65 54
1.027583e+000 -1.453801e+000 -1.577007e+001 136 83 70
1.531129e+000 -1.547264e+000 -1.580121e+001 199 150 133
1.557714e+000 -1.571614e+000 -1.581325e+001 117 40 38
1.160606e+000 -1.530747e+000 -1.585221e+001 130 74 61
1.273349e+000 -1.599701e+000 -1.589238e+001 169 119 104
2.104947e+000 -1.772936e+000 -1.614197e+001 162 135 112
3.312981e+000 -1.568770e+000 -1.637827e+001 88 56 31
3.970855e+000 -1.434318e+000 -1.655201e+001 105 75 49
4.204123e+000 -1.496158e+000 -1.667417e+001 68 40 18
3.859052e+000 -1.552329e+000 -1.671654e+001 113 83 56
4.055488e+000 -1.517195e+000 -1.666816e+001 87 57 33
2.509984e-001 -1.455029e+000 -1.628787e+001 57 34 27
1.672463e+000 -1.865290e+000 -1.636243e+001 129 57 60
1.806640e+000 -1.917344e+000 -1.626812e+001 46 42 22
3.634617e+000 -1.678287e+000 -1.673718e+001 112 81 55
1.846366e+000 -1.932410e+000 -1.648070e+001 136 86 75
1.846347e+000 -1.929871e+000 -1.648214e+001 136 86 75
2.726614e+000 -1.916276e+000 -1.671489e+001 121 93 71
3.390555e+000 -1.852810e+000 -1.685915e+001 57 28 4
3.548570e+000 -1.799874e+000 -1.695268e+001 73 46 23
3.548570e+000 -1.799874e+000 -1.695268e+001 73 46 23
-3.360797e-001 -1.712318e+000 -1.639690e+001 81 56 36
1.906664e+000 -2.000605e+000 -1.662108e+001 148 110 91
1.223832e+000 -2.289208e+000 -1.657819e+001 134 76 72
1.965509e+000 -2.175729e+000 -1.669164e+001 170 129 101
3.232513e+000 -2.107067e+000 -1.721696e+001 74 44 20
3.448863e+000 -2.050639e+000 -1.718170e+001 92 65 42
3.517721e+000 -2.101237e+000 -1.724818e+001 105 74 49
3.682267e+000 -2.155130e+000 -1.740334e+001 112 81 53
2.970389e+000 -2.384621e+000 -1.733958e+001 75 47 24
3.198630e+000 -2.319793e+000 -1.737611e+001 79 52 25
3.199799e+000 -2.316336e+000 -1.737812e+001 79 52 25
3.659168e+000 -2.315933e+000 -1.752407e+001 132 99 68
1.180154e+000 -2.352601e+000 -1.717914e+001 187 119 111
3.014375e+000 -2.447009e+000 -1.743291e+001 76 48 26
3.730802e+000 -2.316698e+000 -1.757785e+001 114 80 51
4.013526e+000 -2.300259e+000 -1.768511e+001 106 75 47
1.928078e+000 -2.728247e+000 -1.721653e+001 146 111 79
-1.652778e+000 -2.685891e+000 -1.671720e+001 111 52 56
-1.652778e+000 -2.685891e+000 -1.671720e+001 111 52 56
-1.480935e+000 -2.704722e+000 -1.665858e+001 107 51 52
3.798359e+000 -2.557850e+000 -1.791268e+001 114 83 52
4.217425e+000 -2.589950e+000 -1.790918e+001 109 75 37
3.846666e+000 -2.633835e+000 -1.806260e+001 77 51 24
1.795730e+000 -2.883631e+000 -1.757845e+001 217 187 153
3.418567e+000 -2.686493e+000 -1.811159e+001 66 43 19
3.421855e+000 -2.679017e+000 -1.811497e+001 66 43 19
2.322076e+000 -5.783589e-001 -1.484475e+001 224 199 169
2.679725e+000 -9.098613e-001 -1.475160e+001 162 137 96
2.678658e+000 -6.864211e-001 -1.502522e+001 57 47 37
2.533076e+000 -6.633142e-001 -1.508882e+001 38 27 18
2.259354e+000 -8.646713e-001 -1.514939e+001 153 118 86
2.540816e+000 -8.290434e-001 -1.540699e+001 77 59 34
2.202335e+000 -1.198846e+000 -1.549931e+001 201 176 150
4.128508e+000 -9.312301e-001 -1.597469e+001 106 72 45
4.131675e+000 -9.222348e-001 -1.597750e+001 106 72 45
4.411411e+000 -8.337477e-001 -1.600646e+001 120 87 54
3.164714e+000 -1.240741e+000 -1.589977e+001 83 53 27
3.604937e+000 -1.132237e+000 -1.602921e+001 71 39 14
4.168951e+000 -1.089720e+000 -1.615694e+001 109 78 50
4.168951e+000 -1.089720e+000 -1.615694e+001 109 78 50
4.648020e+000 -9.574810e-001 -1.626155e+001 147 111 72
7.539093e-001 -1.369879e+000 -1.566654e+001 134 67 61
1.275873e+000 -1.538850e+000 -1.563340e+001 136 62 59
2.160228e+000 -1.460921e+000 -1.572597e+001 195 168 138
1.489023e+000 -1.668054e+000 -1.583523e+001 123 61 51
1.689887e+000 -1.378500e+000 -1.586241e+001 126 45 53
2.127700e+000 -1.611239e+000 -1.589559e+001 144 109 77
4.116225e+000 -1.296705e+000 -1.638597e+001 126 93 62
4.226366e+000 -1.221801e+000 -1.635735e+001 91 57 29
4.220385e+000 -1.234851e+000 -1.635247e+001 91 57 29
1.279582e+000 -1.609354e+000 -1.592826e+001 140 85 66
2.422236e+000 -1.577869e+000 -1.607019e+001 76 56 29
2.315584e+000 -1.675030e+000 -1.609737e+001 67 50 35
3.145906e+000 -1.511872e+000 -1.631528e+001 69 43 20
6.051381e-001 -1.003150e+000 -1.639235e+001 126 57 54
3.647058e+000 -1.563933e+000 -1.657619e+001 71 45 22
3.643872e+000 -1.571510e+000 -1.657296e+001 71 45 22
3.655507e+000 -1.678486e+000 -1.679017e+001 66 40 17
1.788276e+000 -1.936832e+000 -1.649473e+001 185 131 121
4.424471e+000 -1.679076e+000 -1.712489e+001 133 95 58
1.992679e+000 -2.095183e+000 -1.656797e+001 243 228 202
3.482626e+000 -1.892197e+000 -1.691462e+001 105 75 47
1.605480e+000 -2.229852e+000 -1.677536e+001 132 75 70
3.617602e+000 -2.085811e+000 -1.727702e+001 107 77 51
1.667993e+000 -2.267126e+000 -1.702283e+001 112 60 40
3.326372e+000 -2.246258e+000 -1.735262e+001 112 85 55
3.624929e+000 -2.118914e+000 -1.733266e+001 111 81 52
3.625317e+000 -2.118952e+000 -1.733309e+001 111 81 52
3.529556e+000 -2.226318e+000 -1.740887e+001 111 81 53
3.530638e+000 -2.222307e+000 -1.740979e+001 111 81 53
1.295037e+000 -2.282428e+000 -1.715067e+001 118 61 53
1.232577e+000 -2.311665e+000 -1.719150e+001 135 65 58
3.611303e+000 -2.408711e+000 -1.764618e+001 125 94 63
3.718277e+000 -2.410109e+000 -1.767252e+001 104 71 37
1.395936e+000 -2.473857e+000 -1.729444e+001 131 80 60
1.961194e+000 -2.764480e+000 -1.744352e+001 154 120 82
3.023756e+000 -2.656562e+000 -1.768165e+001 101 75 50
3.386747e+000 -2.622954e+000 -1.779113e+001 105 74 50
3.689530e+000 -2.551848e+000 -1.777899e+001 121 87 58
4.477458e+000 -2.439922e+000 -1.809178e+001 136 103 52
1.857209e+000 -2.832244e+000 -1.739592e+001 224 199 168
1.828035e+000 -2.821430e+000 -1.751783e+001 133 99 70
7.476940e-001 -2.047819e+000 -1.798625e+001 178 132 107
1.880574e+000 -2.891740e+000 -1.761761e+001 120 89 62
2.353773e+000 -1.659306e-001 -1.445608e+001 171 136 105
2.381293e+000 -4.524353e-001 -1.459481e+001 129 93 62
2.733125e+000 -7.712193e-001 -1.462257e+001 39 29 20
2.626505e+000 -6.963112e-001 -1.477213e+001 84 72 55
4.880721e+000 -7.369417e-002 -1.525411e+001 120 82 43
4.880721e+000 -7.369417e-002 -1.525411e+001 120 82 43
2.268071e+000 -8.180549e-001 -1.511187e+001 233 202 173
2.247461e+000 -1.122662e+000 -1.541317e+001 116 89 59
4.215544e+000 -8.036708e-001 -1.589691e+001 81 49 26
4.101474e+000 -8.916984e-001 -1.593005e+001 129 98 70
4.268666e+000 -9.058957e-001 -1.603198e+001 113 82 54
4.770335e+000 -8.138981e-001 -1.606906e+001 155 121 70
4.088235e+000 -1.001643e+000 -1.610069e+001 85 57 28
4.052822e+000 -1.089550e+000 -1.613817e+001 118 88 54
1.907370e+000 -1.453632e+000 -1.573865e+001 127 84 33
2.121142e+000 -1.455277e+000 -1.576202e+001 127 89 54
1.948749e+000 -1.614484e+000 -1.578202e+001 156 124 89
3.135650e+000 -1.750035e+000 -1.663311e+001 80 53 32
4.587134e+000 -1.556153e+000 -1.704074e+001 85 55 21
8.395481e-001 -1.276050e+000 -1.657339e+001 164 87 92
3.594587e+000 -1.772549e+000 -1.687089e+001 108 82 55
3.645669e+000 -1.759720e+000 -1.687507e+001 69 42 19
1.945703e+000 -2.088506e+000 -1.666663e+001 134 90 65
3.658839e+000 -2.003540e+000 -1.708502e+001 129 94 62
-1.429060e+000 -2.601877e+000 -1.621959e+001 126 66 62
1.465124e+000 -2.212850e+000 -1.686791e+001 87 38 31
1.472247e+000 -2.273838e+000 -1.688819e+001 186 139 114
3.977447e+000 -2.153143e+000 -1.749708e+001 81 50 24
2.780961e+000 -2.379015e+000 -1.727685e+001 81 54 27
4.294810e+000 -2.196069e+000 -1.759495e+001 141 104 62
4.294810e+000 -2.196069e+000 -1.759495e+001 141 104 62
-1.361456e+000 -2.684337e+000 -1.639695e+001 140 82 81
1.789619e+000 -2.568233e+000 -1.713263e+001 134 84 51
1.558919e+000 -2.740252e+000 -1.736250e+001 146 110 76
3.132800e+000 -2.659820e+000 -1.777408e+001 105 78 51
1.173578e+000 -2.387992e+000 -1.774023e+001 139 102 83
1.910342e+000 -2.892696e+000 -1.765426e+001 64 48 32
3.663982e+000 -2.672270e+000 -1.813606e+001 79 53 30
3.910733e+000 -2.598976e+000 -1.814942e+001 75 47 23
2.970861e+000 -2.748492e+000 -1.804707e+001 73 48 26
4.018524e+000 -1.600444e+000 -2.010328e+001 84 64 38
2.733565e+000 -6.578175e-001 -1.458136e+001 145 128 100
2.583539e+000 -6.094272e-001 -1.468400e+001 85 69 53
2.613003e+000 -6.294892e-001 -1.472985e+001 35 26 19
2.616893e+000 -8.122291e-001 -1.485526e+001 85 77 58
4.654185e+000 -2.267437e-001 -1.520954e+001 166 128 91
2.547507e+000 -5.286616e-001 -1.505716e+001 43 29 19
4.301646e+000 -4.647566e-001 -1.544378e+001 77 47 17
3.771006e+000 -1.110272e+000 -1.605576e+001 97 63 35
4.339668e+000 -1.370818e+000 -1.656651e+001 104 69 37
4.684348e+000 -1.332778e+000 -1.661397e+001 145 112 61
1.284690e+000 -2.249604e+000 -1.658912e+001 157 105 94
3.568602e+000 -2.101291e+000 -1.730848e+001 76 48 26
1.938343e+000 -2.465023e+000 -1.696467e+001 239 218 185
1.938343e+000 -2.465023e+000 -1.696467e+001 239 218 185
1.112989e+000 -2.084668e+000 -1.705354e+001 124 65 61
1.762724e+000 -2.473638e+000 -1.702082e+001 202 167 135
2.264372e+000 -2.866708e+000 -1.708743e+001 223 198 160
2.265137e+000 -2.861730e+000 -1.708997e+001 223 198 160
1.092655e+000 -2.470623e+000 -1.718480e+001 164 115 100
2.002666e+000 -2.630557e+000 -1.723268e+001 41 22 13
1.756819e+000 -2.682860e+000 -1.746119e+001 167 131 104
1.756819e+000 -2.682860e+000 -1.746119e+001 167 131 104
3.479221e+000 -2.614437e+000 -1.787636e+001 116 83 52
3.930548e+000 -2.621530e+000 -1.814786e+001 74 48 25
4.441442e+000 -2.606568e+000 -1.826055e+001 136 105 55
3.568701e+000 -2.691970e+000 -1.819457e+001 74 52 28
4.570943e+000 -8.663682e-002 -1.509279e+001 114 76 40
4.570943e+000 -8.663682e-002 -1.509279e+001 114 76 40
2.389328e+000 -6.757268e-001 -1.510677e+001 53 27 9
1.533623e+000 -2.552479e-001 -1.543368e+001 165 70 76
2.620952e+000 -1.065501e+000 -1.566399e+001 100 81 49
3.385440e+000 -1.078026e+000 -1.588590e+001 125 94 65
2.243009e+000 -1.559450e+000 -1.599932e+001 53 36 22
4.090601e+000 -1.288432e+000 -1.635638e+001 124 91 59
4.085599e+000 -1.289972e+000 -1.635605e+001 124 91 59
1.704774e+000 -1.571414e+000 -1.598810e+001 172 109 104
5.863333e-001 -9.810599e-001 -1.614186e+001 152 77 81
2.116218e+000 -1.769383e+000 -1.612691e+001 140 109 84
2.017234e+000 -1.882565e+000 -1.609444e+001 88 57 37
2.214150e+000 -1.690245e+000 -1.611113e+001 44 27 19
2.084633e+000 -1.865947e+000 -1.626599e+001 143 116 92
2.836839e+000 -2.088704e+000 -1.697598e+001 94 63 35
3.052937e+000 -2.152379e+000 -1.714380e+001 66 38 17
1.762081e+000 -2.576530e+000 -1.710407e+001 144 99 61
-1.484990e+000 -2.750961e+000 -1.650619e+001 146 88 87
-1.086701e+000 -2.639356e+000 -1.660554e+001 74 46 32
1.339229e+000 -2.407061e+000 -1.726537e+001 199 154 121
2.960344e+000 -2.636552e+000 -1.765699e+001 102 75 50
2.985361e+000 -2.702298e+000 -1.776220e+001 109 82 53
3.285209e+000 -2.680980e+000 -1.787713e+001 116 86 58
4.635502e+000 -3.692752e-001 -1.539019e+001 157 119 82
2.964217e+000 -5.238560e-001 -1.513626e+001 83 65 45
2.370421e+000 -8.378884e-001 -1.522821e+001 104 80 54
3.500677e+000 -1.143030e+000 -1.598295e+001 132 101 70
1.173981e+000 -1.439611e+000 -1.563327e+001 134 54 50
8.340152e-001 -1.276949e+000 -1.653977e+001 167 89 92
6.536896e-001 -1.498157e+000 -1.723319e+001 108 53 50
1.089063e+000 -1.949688e+000 -1.698918e+001 150 91 86
1.763013e+000 -2.323298e+000 -1.699724e+001 94 47 31
1.283723e+000 -2.302532e+000 -1.711388e+001 118 61 54
1.283642e+000 -2.289846e+000 -1.711915e+001 118 61 54
1.923470e+000 -2.609206e+000 -1.708928e+001 221 190 161
1.873542e+000 -2.789468e+000 -1.738479e+001 168 134 106
4.026799e+000 -2.673410e+000 -1.826697e+001 105 76 48
4.931479e+000 1.162639e-001 -1.500008e+001 177 140 88
2.642139e+000 -8.966319e-001 -1.521129e+001 188 165 142
3.941441e+000 -6.155399e-001 -1.553166e+001 133 100 69
2.064700e+000 -8.525998e-001 -1.525594e+001 156 121 93
1.405360e+000 -7.357497e-001 -1.557752e+001 125 49 44
1.942840e+000 -1.413496e+000 -1.564202e+001 168 133 86
1.653460e+000 -1.775682e+000 -1.621470e+001 203 143 135
-1.490571e+000 -2.521541e+000 -1.618801e+001 152 94 88
-1.354788e+000 -2.675665e+000 -1.649142e+001 98 48 47
2.546704e+000 -7.102334e-001 -1.479348e+001 35 28 19
2.690724e+000 -8.535918e-001 -1.475684e+001 221 193 153
2.834465e+000 -5.140468e-001 -1.516689e+001 36 26 20
4.079390e+000 -4.441619e-001 -1.536284e+001 76 45 18
1.050650e+000 -1.601010e+000 -1.646871e+001 115 60 55
1.395989e+000 -2.179868e+000 -1.683857e+001 82 33 28
2.374723e+000 -2.900477e+000 -1.715312e+001 51 39 25
3.596194e+000 -2.655325e+000 -1.803457e+001 104 77 48
3.010238e+000 -6.598884e-001 -1.508567e+001 87 65 46
2.956967e+000 -8.604452e-001 -1.551321e+001 148 120 96
2.646266e+000 -2.443534e+000 -1.723946e+001 145 115 87
2.646266e+000 -2.443534e+000 -1.723946e+001 145 115 87
4.007441e+000 -7.486317e-001 -1.567763e+001 99 71 46
2.073157e+000 -2.890928e+000 -1.715268e+001 46 37 31
4.008720e+000 -1.471821e+000 -1.657406e+001 112 85 57
6.099547e-001 -1.470696e+000 -1.660192e+001 183 103 109
1.363064e+000 -2.376596e+000 -1.711857e+001 150 98 85
2.479145e+000 -1.407995e+000 -1.550533e+001 32 22 20
1.999931e+000 -2.655330e+000 -1.722267e+001 40 28 17
3.395089e+000 -1.839701e+000 -1.688407e+001 84 58 33
3.107758e+000 -8.395635e-001 -1.546269e+001 64 38 24
5.768816e-001 -1.538888e+000 -1.656403e+001 142 65 71
2.777264e+000 -1.440389e+000 -1.605885e+001 132 107 85
3.259663e+000 -1.749077e+000 -1.669063e+001 99 73 48
2.213875e+000 -2.259090e+000 -1.692140e+001 47 29 19
3.297468e+000 -2.464198e+000 -1.757180e+001 86 63 39
2.769014e+000 -2.721219e+000 -1.820322e+001 54 35 18
4.007677e+000 -4.254189e-001 -1.529549e+001 102 68 40
2.264326e+000 -9.610495e-001 -1.524246e+001 169 138 107
2.229178e+000 -1.159151e+000 -1.544526e+001 149 122 95
3.559317e+000 -9.051453e-001 -1.575829e+001 97 63 36
3.564968e+000 -8.895146e-001 -1.576268e+001 97 63 36
3.646381e+000 -1.565624e+000 -1.661574e+001 101 75 52
3.074622e+000 -2.330697e+000 -1.734397e+001 105 75 49
4.011384e+000 -2.304801e+000 -1.768194e+001 106 75 47
1.362081e+000 -2.403580e+000 -1.749769e+001 102 57 38
2.678292e+000 -9.110105e-001 -1.475067e+001 162 137 96
2.058907e+000 -1.253543e+000 -1.540207e+001 115 109 80
2.025214e+000 -2.133524e+000 -1.659378e+001 128 94 64
6.241511e-001 -1.936490e+000 -1.790510e+001 180 115 111
3.984919e+000 -9.222520e-001 -1.597612e+001 80 50 23
1.908404e+000 -1.356476e+000 -1.562422e+001 175 146 109
4.326925e+000 -9.428929e-001 -1.612442e+001 128 97 68
3.609401e+000 -1.247938e+000 -1.610911e+001 136 105 77
4.379288e+000 -1.114595e+000 -1.619804e+001 106 71 35
1.805077e+000 -1.922270e+000 -1.629262e+001 43 41 23
8.403706e-001 -1.272498e+000 -1.657302e+001 164 87 92
3.980589e+000 -1.835233e+000 -1.709893e+001 116 82 54
1.189721e+000 -2.290578e+000 -1.656356e+001 159 105 98
1.001505e+000 -1.900381e+000 -1.706105e+001 132 77 67
3.064723e+000 -2.663392e+000 -1.773688e+001 81 53 29
1.865938e+000 -2.816966e+000 -1.748744e+001 157 126 97
3.249199e+000 -2.685716e+000 -1.789141e+001 122 92 64
4.124510e+000 -1.795342e-001 -1.503472e+001 92 59 29
2.211784e+000 -5.130814e-001 -1.478293e+001 179 141 111
2.023531e+000 -4.223154e-001 -1.488251e+001 158 115 72
2.023531e+000 -4.223154e-001 -1.488251e+001 158 115 72
1.343437e+000 -1.875446e+000 -1.619017e+001 144 93 75
1.347814e+000 -2.029044e+000 -1.627512e+001 178 120 109
1.473237e+000 -2.420560e+000 -1.706660e+001 123 47 45
1.160651e+000 -2.460658e+000 -1.726329e+001 163 110 98
-1.529493e+000 -2.696789e+000 -1.666279e+001 142 91 86
7.855981e-001 -2.441421e+000 -1.737421e+001 133 68 61
4.094586e+000 -2.469380e+000 -1.883708e+001 37 32 26
4.669045e+000 3.375968e-001 -1.499780e+001 144 104 66
2.124835e+000 -1.712191e+000 -1.614787e+001 140 109 84
3.347407e+000 -1.718817e+000 -1.666143e+001 107 79 55
1.759640e+000 -2.188068e+000 -1.686576e+001 201 156 123
2.701613e+000 -2.426598e+000 -1.723166e+001 159 130 100
3.600487e+000 -2.574157e+000 -1.785016e+001 90 58 33
4.276155e+000 7.745309e-002 -1.494490e+001 164 122 86
1.896813e+000 -7.715188e-001 -1.550122e+001 128 91 72
5.423700e-001 -1.098254e+000 -1.633767e+001 118 53 51
1.731882e+000 -2.686065e+000 -1.748023e+001 154 117 90
4.069232e+000 -3.426171e-001 -1.531211e+001 127 93 58
4.227562e+000 -3.757179e-001 -1.532178e+001 108 72 36
4.862848e+000 -3.015253e-001 -1.552998e+001 146 110 58
4.330245e+000 -6.123464e-001 -1.568781e+001 106 73 36
5.088479e+000 -2.909743e+000 -1.570694e+001 131 97 49
4.320944e+000 -8.118431e-001 -1.591951e+001 96 64 28
4.868357e+000 -1.575265e+000 -1.599812e+001 167 134 80
5.055870e+000 -3.017689e+000 -1.584314e+001 128 94 48
1.682381e+000 -1.374040e+000 -1.583320e+001 156 73 69
3.962827e+000 -1.152068e+000 -1.617777e+001 141 106 65
3.942486e+000 -1.273990e+000 -1.630262e+001 91 57 22
2.742192e+000 -1.539168e+000 -1.620996e+001 135 109 78
4.290155e+000 -1.396379e+000 -1.653791e+001 115 82 49
5.426409e-001 -8.800841e-001 -1.597833e+001 169 91 79
3.146643e+000 -1.516630e+000 -1.631478e+001 67 38 8
3.251523e+000 -1.591577e+000 -1.644871e+001 99 72 42
4.244894e+000 -1.407266e+000 -1.662864e+001 68 40 10
2.773056e+000 -1.739915e+000 -1.653621e+001 118 87 57
1.422226e+000 -1.952632e+000 -1.622235e+001 146 96 61
3.159590e+000 -1.789490e+000 -1.668800e+001 63 36 8
3.621843e+000 -1.719268e+000 -1.684382e+001 67 36 8
3.819761e+000 -1.715436e+000 -1.680944e+001 105 71 36
2.703213e+000 -2.020866e+000 -1.664041e+001 122 92 58
3.408203e+000 -1.859602e+000 -1.691746e+001 67 36 8
4.577795e+000 -1.632074e+000 -1.721881e+001 89 55 17
3.950446e+000 -1.864676e+000 -1.714689e+001 87 52 20
3.951397e+000 -1.869499e+000 -1.714512e+001 87 52 20
3.187395e+000 -2.109324e+000 -1.721177e+001 76 42 14
3.681256e+000 -2.312545e+000 -1.756455e+001 111 74 38
-3.247544e-001 -1.825250e+000 -1.730821e+001 80 57 33
1.430778e+000 -2.653687e+000 -1.767674e+001 165 124 69
3.017518e+000 -2.725454e+000 -1.801024e+001 72 46 19
7.266474e-001 -2.073399e+000 -1.804867e+001 192 136 111
7.986281e-001 -2.134230e+000 -1.802013e+001 183 128 98
8.224189e-001 -2.098464e+000 -1.805444e+001 144 90 65
3.962543e+000 -2.588572e+000 -1.852350e+001 76 51 21
3.857798e+000 -2.558118e+000 -1.860333e+001 98 76 45
2.451755e+000 -4.887491e-001 -1.467078e+001 53 31 8
2.498243e+000 -5.234324e-001 -1.478659e+001 56 38 24
