ply
format ascii 1.0
element face 0
property list uchar int vertex_indices
element vertex 894
property float x
property float y
property float z
property uchar diffuse_red
property uchar diffuse_green
property uchar diffuse_blue
end_header
1.476384e+000 3.207321e+000 -1.468878e+001 178 142 105
3.269175e+000 3.607451e+000 -1.542457e+001 97 66 38
6.889887e+000 2.593933e+000 -1.540744e+001 21 16 13
6.889887e+000 2.593933e+000 -1.540744e+001 21 16 13
2.787906e+000 1.651712e+000 -1.345934e+001 152 129 96
3.062842e+000 1.743224e+000 -1.367153e+001 65 47 27
3.807682e-001 1.064596e+000 -1.491052e+001 169 84 79
4.014842e+000 -5.484872e-001 -1.494450e+001 98 73 51
6.040932e+000 -8.214298e-001 -1.575429e+001 89 57 32
5.492956e-001 -2.066803e+000 -1.633263e+001 97 43 41
4.728295e+000 -2.087337e+000 -1.687719e+001 62 37 17
4.952253e+000 -2.057862e+000 -1.694462e+001 105 79 52
-4.116995e+000 -2.411371e+000 -1.691056e+001 79 46 31
3.405603e+000 -2.849606e+000 -1.761810e+001 96 72 48
3.163434e+000 -4.408731e+000 -1.930285e+001 106 79 58
1.656078e+000 2.423833e+000 -1.387365e+001 211 178 145
2.317993e+000 1.034446e+000 -1.276538e+001 116 95 64
4.939906e+000 1.025993e+000 -1.382608e+001 120 88 57
2.019158e+000 4.809617e-001 -1.312056e+001 181 152 122
1.700861e+000 -1.578255e-001 -1.387224e+001 132 97 68
6.110458e+000 -2.191553e+000 -1.731024e+001 131 100 69
-1.751592e-002 -1.997187e+000 -1.558288e+001 122 54 55
1.212458e+000 -3.440846e+000 -1.746859e+001 166 135 107
1.368169e+000 1.955429e+000 -1.442147e+001 84 71 44
4.315960e+000 3.968129e+000 -1.586921e+001 121 87 60
4.659781e+000 4.087692e+000 -1.605617e+001 104 68 42
5.120573e+000 4.270871e+000 -1.628480e+001 109 73 41
5.293845e+000 4.237599e+000 -1.626474e+001 96 61 31
5.745849e+000 4.470902e+000 -1.659120e+001 111 75 43
1.962605e+000 3.774080e+000 -1.519363e+001 105 87 59
3.866311e+000 3.724481e+000 -1.558758e+001 116 84 59
4.119524e+000 3.726841e+000 -1.566888e+001 125 93 69
6.185618e+000 3.584237e+000 -1.580142e+001 113 73 49
2.446226e+000 3.338949e+000 -1.492295e+001 226 211 173
2.446226e+000 3.338949e+000 -1.492295e+001 226 211 173
5.184414e+000 3.513715e+000 -1.567823e+001 115 82 54
5.150706e+000 3.280490e+000 -1.549971e+001 97 63 36
5.150706e+000 3.280490e+000 -1.549971e+001 97 63 36
5.305057e+000 3.452173e+000 -1.560447e+001 125 91 61
1.573447e+000 2.763523e+000 -1.430578e+001 177 139 105
1.665622e+000 2.804898e+000 -1.436156e+001 140 103 67
5.327512e+000 3.059806e+000 -1.536702e+001 116 82 54
3.116933e+000 2.397413e+000 -1.429321e+001 159 129 101
3.465903e+000 2.658594e+000 -1.466433e+001 100 74 47
4.147271e+000 2.410511e+000 -1.454903e+001 86 52 25
5.750261e+000 2.561566e+000 -1.498267e+001 134 98 64
2.703520e+000 1.947639e+000 -1.371246e+001 253 236 170
2.741916e+000 1.999089e+000 -1.377502e+001 67 45 24
3.655776e+000 2.001385e+000 -1.405214e+001 103 71 46
4.102164e+000 2.337229e+000 -1.444365e+001 132 100 72
1.074915e+000 1.945049e+000 -1.451298e+001 193 157 116
2.319253e+000 1.704464e+000 -1.339102e+001 166 148 115
4.056750e+000 1.840135e+000 -1.400161e+001 87 54 29
5.857250e+000 1.790635e+000 -1.431129e+001 103 64 31
2.874650e-001 2.068490e+000 -1.617808e+001 195 152 113
4.516461e+000 1.573824e+000 -1.388019e+001 67 37 13
1.337951e-001 1.401866e+000 -1.543539e+001 210 138 126
7.468292e-001 -1.268361e+000 -1.578526e+001 124 68 57
2.007052e+000 -1.668135e+000 -1.569656e+001 37 23 8
-1.213185e-001 -2.622227e+000 -1.663943e+001 132 74 63
1.327973e+000 4.023066e+000 -1.542043e+001 166 134 98
1.738579e+000 4.167136e+000 -1.555749e+001 70 54 32
4.219936e+000 4.402004e+000 -1.627022e+001 100 63 34
4.028883e+000 3.939588e+000 -1.576283e+001 110 77 46
4.310751e+000 4.392283e+000 -1.623955e+001 155 121 86
4.973641e+000 4.339729e+000 -1.629266e+001 145 106 73
4.972711e+000 4.230138e+000 -1.621199e+001 103 66 37
5.119722e+000 4.364996e+000 -1.636066e+001 145 109 73
4.395392e+000 3.815648e+000 -1.575414e+001 124 89 62
5.486013e+000 3.981379e+000 -1.608852e+001 86 54 21
1.591694e+000 3.236545e+000 -1.468345e+001 184 151 113
4.875563e+000 3.354350e+000 -1.547617e+001 104 68 42
1.740691e+000 2.817823e+000 -1.442545e+001 142 105 76
2.690780e+000 2.674074e+000 -1.427128e+001 62 47 26
4.420273e+000 2.868032e+000 -1.498312e+001 104 69 39
5.018059e+000 2.920682e+000 -1.524206e+001 122 87 59
5.018059e+000 2.920682e+000 -1.524206e+001 122 87 59
1.608986e+000 2.498751e+000 -1.410169e+001 186 154 116
2.634294e+000 2.330239e+000 -1.397859e+001 76 64 42
4.291069e+000 2.557757e+000 -1.468673e+001 101 67 39
4.105834e+000 2.548369e+000 -1.473432e+001 99 64 38
4.006146e+000 2.432283e+000 -1.448558e+001 111 80 52
4.585366e+000 2.590776e+000 -1.479994e+001 126 92 64
4.386225e+000 2.475780e+000 -1.462898e+001 118 83 55
5.235877e+000 2.696687e+000 -1.508721e+001 103 67 33
4.999290e+000 2.409112e+000 -1.472285e+001 102 66 32
1.876453e+000 2.026394e+000 -1.350881e+001 148 110 73
4.889064e+000 2.288725e+000 -1.459481e+001 108 69 36
4.824568e-001 2.369786e+000 -1.598480e+001 153 118 78
4.321232e+000 1.956933e+000 -1.412831e+001 97 62 34
5.203562e+000 1.923139e+000 -1.425498e+001 122 81 50
6.206692e+000 1.749423e+000 -1.428727e+001 127 89 53
7.473076e-001 1.848692e+000 -1.494109e+001 211 173 128
1.937598e+000 1.483669e+000 -1.316606e+001 175 140 102
2.945757e+000 1.471485e+000 -1.335068e+001 128 111 85
4.607508e+000 1.553662e+000 -1.387931e+001 118 83 55
1.266610e+000 1.454910e+000 -1.444175e+001 125 86 55
1.304170e+000 5.319525e-001 -1.408020e+001 141 100 50
6.297787e+000 4.751773e-001 -1.431329e+001 78 46 21
-1.036969e+000 5.927107e-001 -1.583172e+001 158 100 78
1.239067e+000 2.836827e-001 -1.422963e+001 180 133 59
-2.100645e-001 -8.048938e-001 -1.560353e+001 173 115 101
4.221232e-001 -6.671085e-001 -1.583315e+001 168 110 97
4.221232e-001 -6.671085e-001 -1.583315e+001 168 110 97
5.539765e-001 -5.234084e-001 -1.597191e+001 135 66 69
1.904410e+000 -6.929713e-001 -1.446283e+001 103 72 43
5.536240e+000 -7.868726e-001 -1.570887e+001 52 30 8
1.563845e+000 -1.092929e+000 -1.491571e+001 98 81 56
2.143919e+000 -1.005940e+000 -1.509860e+001 39 25 17
5.518933e+000 -9.994883e-001 -1.592372e+001 88 65 43
5.923197e+000 -1.225878e+000 -1.634423e+001 55 31 9
-5.400220e+000 -1.649866e+000 -1.735738e+001 92 70 60
-5.400220e+000 -1.649866e+000 -1.735738e+001 92 70 60
2.080832e+000 -1.978997e+000 -1.598253e+001 38 25 10
1.112613e+000 -2.082167e+000 -1.560131e+001 178 146 105
3.789079e+000 -2.197034e+000 -1.679686e+001 66 43 22
-6.112100e+000 -2.393826e+000 -1.673476e+001 141 94 64
1.822588e+000 -3.202846e+000 -1.749494e+001 51 35 18
1.297768e+000 -3.565182e+000 -1.774615e+001 126 92 65
3.515877e+000 -3.817426e+000 -1.882489e+001 99 75 51
4.981027e+000 4.038691e+000 -1.601621e+001 131 98 70
5.549330e+000 4.116765e+000 -1.623687e+001 124 91 60
5.549330e+000 4.116765e+000 -1.623687e+001 124 91 60
1.867343e+000 3.551175e+000 -1.500196e+001 65 48 28
4.373833e+000 3.665095e+000 -1.565936e+001 86 54 26
5.300069e+000 3.969881e+000 -1.603461e+001 89 55 27
5.429084e+000 3.871445e+000 -1.599024e+001 124 93 64
5.611282e+000 3.841125e+000 -1.602053e+001 117 84 53
2.452056e+000 3.260741e+000 -1.486974e+001 47 33 20
3.460545e+000 3.346428e+000 -1.527841e+001 81 53 29
4.668180e+000 3.225298e+000 -1.534834e+001 137 104 73
2.169253e+000 2.805010e+000 -1.443155e+001 47 35 19
2.515288e+000 2.948826e+000 -1.461105e+001 69 50 35
2.566906e+000 2.625424e+000 -1.424494e+001 77 60 37
3.953748e+000 2.844983e+000 -1.489010e+001 127 96 67
4.617016e+000 3.092767e+000 -1.524829e+001 97 63 35
3.153509e+000 2.629240e+000 -1.456482e+001 141 111 83
3.693497e+000 2.536950e+000 -1.459398e+001 81 54 25
4.125398e+000 2.651736e+000 -1.474373e+001 98 63 35
5.695395e+000 2.359894e+000 -1.476115e+001 108 67 35
5.695395e+000 2.359894e+000 -1.476115e+001 108 67 35
2.898298e+000 1.856645e+000 -1.366135e+001 132 113 80
5.170424e+000 1.996848e+000 -1.432180e+001 145 107 70
5.889284e+000 1.797009e+000 -1.423968e+001 128 93 61
1.457949e+000 1.205260e+000 -1.367857e+001 67 60 32
2.123723e+000 1.223582e+000 -1.310304e+001 126 93 58
2.141927e+000 1.073386e+000 -1.318906e+001 117 82 49
8.100386e-001 1.193973e+000 -1.484941e+001 156 107 68
1.456435e+000 9.892604e-001 -1.378228e+001 94 84 58
1.563133e+000 8.644989e-001 -1.329091e+001 112 102 74
1.596952e+000 1.025306e+000 -1.308123e+001 73 65 38
1.605726e+000 9.313804e-001 -1.303486e+001 141 122 89
6.297951e+000 8.317893e-001 -1.411662e+001 89 55 27
1.367176e+000 6.901450e-001 -1.397759e+001 156 137 105
2.872545e+000 3.302605e-001 -1.350733e+001 51 39 27
-7.720210e-001 1.495184e-001 -1.518445e+001 171 108 93
4.318197e+000 -1.594015e-001 -1.443981e+001 71 44 23
9.915408e-001 -4.109274e-001 -1.447364e+001 186 152 117
6.107026e+000 -5.398009e-001 -1.554323e+001 93 64 40
5.331274e+000 -6.587211e-001 -1.553838e+001 62 43 19
5.588003e+000 -1.305401e+000 -1.630059e+001 67 45 22
4.669288e+000 -2.044475e+000 -1.681224e+001 50 28 6
-2.272986e-001 -2.183486e+000 -1.568103e+001 185 144 126
8.560194e-001 -2.166932e+000 -1.633498e+001 92 39 35
8.560194e-001 -2.166932e+000 -1.633498e+001 92 39 35
1.044771e+000 -2.289524e+000 -1.621723e+001 159 116 98
4.459785e+000 -2.464797e+000 -1.735227e+001 73 52 30
1.264968e+000 -3.795918e+000 -1.804073e+001 122 88 62
1.372261e+000 -3.975884e+000 -1.819087e+001 41 31 20
1.514383e+000 4.229481e+000 -1.556593e+001 56 37 24
4.127243e+000 3.943608e+000 -1.577970e+001 135 102 71
4.874268e+000 4.049195e+000 -1.598221e+001 102 65 37
4.955034e+000 3.601095e+000 -1.568161e+001 137 104 71
5.216150e+000 3.702361e+000 -1.581903e+001 88 57 28
2.598358e+000 2.755968e+000 -1.452977e+001 69 56 39
8.483355e-001 3.128331e+000 -1.616433e+001 81 63 39
1.661111e+000 2.118052e+000 -1.378690e+001 137 104 71
6.780127e+000 2.181022e+000 -1.484485e+001 110 75 38
1.061908e+000 2.082680e+000 -1.484423e+001 203 164 120
1.730614e+000 1.878685e+000 -1.361304e+001 136 102 67
4.029735e+000 1.932834e+000 -1.405785e+001 87 55 30
4.026888e+000 1.931424e+000 -1.405366e+001 87 55 30
4.093114e+000 1.789314e+000 -1.400246e+001 89 57 34
1.417607e+000 1.589695e+000 -1.400650e+001 155 125 95
1.417607e+000 1.589695e+000 -1.400650e+001 155 125 95
1.846144e+000 1.288263e+000 -1.314180e+001 132 96 65
1.841349e+000 1.071119e+000 -1.300430e+001 198 163 122
4.629432e-001 1.337255e+000 -1.509107e+001 187 118 92
2.131622e+000 8.278742e-001 -1.305752e+001 138 107 76
3.981520e+000 1.014455e+000 -1.359343e+001 81 50 22
1.189874e+000 6.407547e-001 -1.435192e+001 135 86 41
1.217687e+000 3.550514e-002 -1.434804e+001 121 78 36
4.389813e+000 -8.298193e-002 -1.433030e+001 107 80 53
5.876405e+000 -1.089425e-002 -1.478771e+001 103 75 49
-6.062157e-001 -6.535264e-002 -1.523171e+001 155 93 82
2.367859e+000 -2.941808e-001 -1.421536e+001 30 20 12
4.355940e+000 -3.745237e-001 -1.482484e+001 72 43 25
5.609832e+000 -6.575569e-001 -1.557410e+001 61 42 18
1.636058e+000 -1.394564e+000 -1.514406e+001 91 67 41
1.750872e+000 -1.150251e+000 -1.498837e+001 186 160 133
5.052574e+000 -1.653826e+000 -1.648818e+001 93 63 39
5.053795e+000 -1.653956e+000 -1.648945e+001 93 63 39
1.567939e+000 -1.921979e+000 -1.569347e+001 207 177 151
1.567939e+000 -1.921979e+000 -1.569347e+001 207 177 151
-5.164942e+000 -2.100774e+000 -1.638170e+001 147 107 83
3.853895e+000 -2.166408e+000 -1.674180e+001 65 43 22
6.301691e-001 -3.241326e+000 -1.760228e+001 170 112 99
3.656322e+000 -3.849573e+000 -1.894693e+001 70 47 23
7.835885e-001 -4.180608e+000 -1.847077e+001 186 147 116
1.593478e+000 3.930668e+000 -1.528319e+001 59 38 21
4.504808e+000 4.001652e+000 -1.590832e+001 134 99 70
4.323976e+000 3.550356e+000 -1.565339e+001 120 89 60
5.081033e+000 3.318290e+000 -1.547939e+001 95 61 33
5.803225e+000 3.402456e+000 -1.574495e+001 92 61 33
4.739862e+000 2.539810e+000 -1.478222e+001 128 95 65
7.754404e-001 2.541514e+000 -1.575792e+001 193 160 117
3.506203e+000 2.316349e+000 -1.431750e+001 89 59 34
1.800435e+000 1.623075e+000 -1.328196e+001 141 103 67
1.339581e+000 1.570340e+000 -1.428218e+001 56 45 27
6.043703e+000 1.187583e+000 -1.406258e+001 79 45 21
6.181463e+000 -6.461145e-001 -1.569368e+001 74 44 18
5.079623e+000 -2.022440e+000 -1.686881e+001 109 83 56
5.083534e+000 -2.028689e+000 -1.690640e+001 109 83 56
4.055591e-001 -2.286005e+000 -1.617910e+001 104 38 38
9.839473e-001 -2.181104e+000 -1.638183e+001 161 108 90
8.619559e-001 -2.422882e+000 -1.653557e+001 136 92 81
7.856252e-001 -3.283409e+000 -1.770856e+001 106 45 40
8.281621e-001 -3.725039e+000 -1.839260e+001 108 59 42
5.607961e+000 -3.887895e+000 -1.941990e+001 88 58 33
1.654220e+000 -4.716219e+000 -1.849609e+001 80 66 55
1.925152e+000 4.735793e+000 -1.620810e+001 214 198 180
5.880240e+000 3.700890e+000 -1.592434e+001 89 56 25
1.744766e+000 2.994761e+000 -1.459422e+001 58 37 23
5.572227e+000 2.649616e+000 -1.505042e+001 137 99 63
1.710759e+000 1.686583e+000 -1.377747e+001 173 138 108
2.164247e+000 1.125323e+000 -1.281567e+001 58 39 22
-6.754181e-001 8.327485e-001 -1.539258e+001 218 160 140
2.741496e+000 1.685724e-001 -1.340295e+001 24 17 11
5.695125e+000 -3.662087e-001 -1.524534e+001 97 73 47
6.347353e+000 -5.202530e-001 -1.555116e+001 124 93 64
-2.512059e-001 -7.582447e-001 -1.560903e+001 166 106 95
4.518979e+000 -8.037784e-001 -1.535812e+001 106 79 52
5.676954e+000 -8.030679e-001 -1.567956e+001 90 66 42
8.362724e-001 -1.241256e+000 -1.571892e+001 146 107 89
-5.207240e+000 -1.988686e+000 -1.669525e+001 121 79 55
1.427000e+000 -4.071478e+000 -1.849705e+001 54 45 38
2.685164e+000 -4.289651e+000 -1.903193e+001 139 111 89
5.769333e+000 -4.504482e+000 -2.010678e+001 125 98 66
2.421898e+000 3.119541e+000 -1.479425e+001 145 121 87
4.407604e+000 2.174884e+000 -1.432322e+001 126 91 59
6.247303e+000 1.886769e+000 -1.439678e+001 97 61 29
1.400699e-001 1.286084e+000 -1.527707e+001 208 136 124
2.164493e+000 9.597622e-001 -1.305822e+001 57 33 21
-6.815879e-001 4.634395e-001 -1.505429e+001 183 103 96
6.237154e+000 2.998421e-003 -1.474060e+001 91 60 32
6.399753e+000 -1.241442e-001 -1.489740e+001 118 88 60
6.562386e-001 -6.976392e-001 -1.597592e+001 98 40 38
4.790304e-001 -1.044913e+000 -1.571942e+001 94 35 27
4.498867e+000 -1.315822e+000 -1.605466e+001 108 80 52
2.057681e-001 -1.553803e+000 -1.594699e+001 106 41 39
3.515440e+000 -2.060829e+000 -1.653612e+001 101 75 50
-5.521622e+000 -2.010151e+000 -1.655201e+001 161 117 88
-2.891786e-001 -2.058095e+000 -1.575995e+001 159 114 94
3.472720e+000 -3.213981e+000 -1.805919e+001 73 51 30
2.585564e+000 3.397337e+000 -1.489649e+001 75 62 46
2.202738e+000 2.754453e+000 -1.422309e+001 71 58 41
2.725465e+000 2.781246e+000 -1.437517e+001 87 70 45
2.401462e+000 2.270143e+000 -1.397301e+001 75 62 40
5.079802e+000 7.656576e-001 -1.394182e+001 73 42 20
5.203569e+000 2.347107e-001 -1.428813e+001 103 74 49
5.203569e+000 2.347107e-001 -1.428813e+001 103 74 49
5.071053e+000 -1.447039e+000 -1.629938e+001 104 74 48
1.358766e+000 -1.755921e+000 -1.545928e+001 72 67 48
1.356644e+000 -1.754468e+000 -1.543872e+001 72 67 48
6.561215e+000 -2.103177e+000 -1.748898e+001 99 68 38
5.721869e-001 -2.778797e+000 -1.695266e+001 173 114 108
3.489580e-001 -3.018495e+000 -1.758668e+001 97 32 36
2.220316e+000 -4.223075e+000 -1.898149e+001 46 31 24
1.620802e+000 4.664902e+000 -1.643000e+001 97 76 57
3.957709e+000 3.665049e+000 -1.559414e+001 106 76 47
4.319834e+000 4.803285e-001 -1.386790e+001 82 54 32
1.378734e+000 3.916585e-001 -1.375544e+001 184 155 119
4.477879e+000 9.930411e-004 -1.421053e+001 112 82 55
-1.297969e+000 -4.518930e-001 -1.559596e+001 191 135 112
-5.649103e-001 -7.476354e-001 -1.560326e+001 130 62 53
2.965135e+000 -2.337099e+000 -1.681828e+001 127 101 76
2.965135e+000 -2.337099e+000 -1.681828e+001 127 101 76
3.335740e+000 -2.529099e+000 -1.721536e+001 66 43 27
5.920739e+000 -3.960503e+000 -1.966659e+001 131 100 69
-4.553687e+000 -2.899286e+000 -1.672992e+001 93 67 54
5.657064e+000 4.327981e+000 -1.664280e+001 98 65 30
5.383020e+000 2.445083e+000 -1.482876e+001 152 109 74
1.050641e+000 -2.130012e-001 -1.439563e+001 199 161 114
1.528319e+000 8.627275e-001 -1.394503e+001 56 48 28
6.142592e+000 -5.078559e+000 -2.069039e+001 164 135 91
5.510770e+000 -1.122580e+000 -1.598939e+001 77 51 31
5.898525e+000 2.498976e+000 -1.540555e+001 121 82 47
1.579869e+000 4.524614e+000 -1.586356e+001 73 58 36
1.516016e+000 4.464251e+000 -1.588003e+001 77 51 36
2.620080e+000 4.313837e+000 -1.594127e+001 129 105 80
3.941400e+000 4.517021e+000 -1.630745e+001 106 71 41
5.349570e+000 4.605701e+000 -1.677619e+001 98 59 25
1.264936e+000 4.038521e+000 -1.542476e+001 204 171 138
5.037397e+000 4.202771e+000 -1.621912e+001 137 101 69
1.070672e+000 3.751453e+000 -1.526920e+001 161 134 103
1.083820e+000 3.642268e+000 -1.503413e+001 78 67 35
1.085702e+000 3.653923e+000 -1.509433e+001 78 67 35
1.204799e+000 3.476940e+000 -1.493321e+001 173 140 108
1.569441e+000 3.591915e+000 -1.498779e+001 145 113 80
1.868142e+000 3.382077e+000 -1.488770e+001 69 53 29
2.070495e+000 3.425215e+000 -1.507158e+001 50 40 20
2.955127e+000 3.488927e+000 -1.526437e+001 140 109 81
3.816631e+000 3.657611e+000 -1.557830e+001 88 56 34
1.086078e+000 3.332281e+000 -1.506257e+001 90 75 45
2.401609e+000 3.294834e+000 -1.489279e+001 74 58 28
2.707125e+000 3.322329e+000 -1.500589e+001 70 53 33
4.010488e+000 3.473262e+000 -1.551523e+001 85 55 29
5.297863e+000 3.494010e+000 -1.573047e+001 88 53 25
5.300458e+000 3.451459e+000 -1.558922e+001 125 91 61
7.679507e-001 3.255155e+000 -1.586000e+001 189 159 126
1.501749e+000 2.932362e+000 -1.446972e+001 209 175 139
2.071159e+000 2.969905e+000 -1.450692e+001 120 103 77
2.345473e+000 2.963512e+000 -1.478397e+001 28 15 2
2.568198e+000 3.016723e+000 -1.464190e+001 136 114 81
4.370111e+000 2.912028e+000 -1.497253e+001 125 92 59
4.370111e+000 2.912028e+000 -1.497253e+001 125 92 59
6.600376e+000 2.922939e+000 -1.564519e+001 114 85 65
2.583793e-001 2.979640e+000 -1.729685e+001 198 159 126
7.713529e-001 2.763274e+000 -1.561942e+001 65 59 31
1.554724e+000 2.603149e+000 -1.428646e+001 138 104 69
1.524075e+000 2.536478e+000 -1.439386e+001 132 97 62
1.656663e+000 2.462387e+000 -1.399990e+001 229 196 162
1.897841e+000 2.634825e+000 -1.443033e+001 62 41 22
1.897841e+000 2.634825e+000 -1.443033e+001 62 41 22
1.873023e+000 2.400456e+000 -1.399555e+001 143 113 74
2.567934e+000 2.600495e+000 -1.427734e+001 84 62 40
3.197273e+000 2.541803e+000 -1.462780e+001 137 107 78
5.321680e+000 2.473671e+000 -1.410713e+001 112 73 40
6.500171e+000 2.867260e+000 -1.552258e+001 118 84 57
3.954653e-002 2.799715e+000 -1.743368e+001 145 105 69
2.717598e+000 2.381497e+000 -1.412023e+001 176 150 105
2.844640e+000 2.152600e+000 -1.385277e+001 67 49 29
3.218485e+000 2.448749e+000 -1.452863e+001 139 108 79
4.062682e+000 2.363525e+000 -1.450382e+001 98 64 37
4.263189e+000 2.330605e+000 -1.450437e+001 76 42 17
5.617710e+000 2.270407e+000 -1.462061e+001 150 110 75
6.884224e+000 2.294088e+000 -1.523346e+001 95 62 29
4.096443e+000 1.894112e+000 -1.406585e+001 110 78 53
-2.548727e-001 2.274243e+000 -1.752318e+001 206 167 128
4.391341e-001 2.070456e+000 -1.586725e+001 160 116 79
4.391341e-001 2.070456e+000 -1.586725e+001 160 116 79
7.571959e-001 1.775646e+000 -1.492302e+001 185 147 102
1.615885e+000 1.828199e+000 -1.387877e+001 124 95 71
1.746550e+000 1.773030e+000 -1.332989e+001 175 141 106
2.247043e+000 1.623052e+000 -1.340512e+001 65 48 23
2.532624e+000 1.620569e+000 -1.350798e+001 79 64 41
2.861886e+000 1.579334e+000 -1.333785e+001 159 136 108
2.686513e+000 1.282961e+000 -1.350135e+001 54 42 29
5.047679e-001 1.219050e+000 -1.481954e+001 182 119 84
1.332156e+000 1.274426e+000 -1.442677e+001 182 144 111
1.497064e+000 1.188738e+000 -1.345076e+001 105 94 71
1.530219e+000 1.043722e+000 -1.336396e+001 97 90 62
1.530219e+000 1.043722e+000 -1.336396e+001 97 90 62
2.310613e+000 1.018099e+000 -1.316413e+001 75 53 32
2.499140e+000 1.201364e+000 -1.313594e+001 40 27 12
1.365215e+000 9.563396e-001 -1.400927e+001 139 111 83
2.344346e+000 9.771606e-001 -1.318870e+001 225 198 144
6.925112e+000 1.027721e+000 -1.442444e+001 76 42 14
7.095874e+000 8.200090e-001 -1.347733e+001 151 112 60
1.413167e+000 6.718729e-001 -1.384435e+001 85 69 47
2.438718e+000 5.747167e-001 -1.315893e+001 58 42 27
2.897612e+000 5.489636e-001 -1.323292e+001 57 38 24
1.216557e+000 4.055277e-001 -1.402085e+001 177 137 76
2.511151e+000 4.719755e-001 -1.316778e+001 116 99 81
2.587963e+000 4.556893e-001 -1.330660e+001 46 31 15
3.917477e+000 2.481424e-001 -1.374041e+001 75 47 28
2.797060e+000 3.822886e-002 -1.340377e+001 57 47 33
4.054042e+000 1.479864e-001 -1.400425e+001 55 31 12
2.359933e+000 -7.316570e-002 -1.349950e+001 78 62 46
1.746317e+000 -5.865608e-001 -1.444361e+001 119 85 60
2.176010e+000 -5.752916e-001 -1.456579e+001 50 34 21
5.651780e+000 -4.383351e-001 -1.534209e+001 93 69 43
2.264125e+000 -8.349398e-001 -1.491083e+001 40 28 16
-7.646437e-001 -1.116064e+000 -1.531522e+001 134 67 51
-7.137711e-001 -1.104455e+000 -1.533048e+001 198 140 120
1.235632e+000 -1.003983e+000 -1.510358e+001 54 38 23
1.793004e+000 -1.203271e+000 -1.500082e+001 105 77 53
2.147854e+000 -1.072653e+000 -1.510002e+001 113 95 68
4.649768e+000 -1.141964e+000 -1.591549e+001 104 77 52
5.142025e+000 -1.325333e+000 -1.623254e+001 102 80 58
5.319054e+000 -1.126940e+000 -1.600360e+001 65 40 18
2.046564e+000 -1.356383e+000 -1.539388e+001 43 30 13
7.089324e+000 -1.341481e+000 -1.398441e+001 104 78 37
-5.640717e+000 -1.706990e+000 -1.661920e+001 145 106 77
2.191641e+000 -1.661596e+000 -1.581156e+001 102 88 64
2.460978e+000 -1.934361e+000 -1.601695e+001 53 41 20
4.748476e+000 -1.931499e+000 -1.676621e+001 61 36 14
1.210671e+000 -1.942495e+000 -1.551329e+001 131 96 65
1.973380e+000 -1.958937e+000 -1.597731e+001 45 32 15
4.776453e+000 -2.220824e+000 -1.707169e+001 63 38 17
4.895478e-002 -2.584319e+000 -1.629774e+001 163 102 97
1.380790e+000 -2.304214e+000 -1.587766e+001 122 88 61
1.872175e+000 -2.505573e+000 -1.657462e+001 52 40 18
4.057564e+000 -2.545932e+000 -1.723240e+001 89 66 48
8.673203e-001 -2.950012e+000 -1.682381e+001 54 45 28
1.753655e+000 -2.970754e+000 -1.708038e+001 62 47 25
1.812791e+000 -2.741369e+000 -1.683660e+001 63 47 31
2.218269e+000 -2.819448e+000 -1.713431e+001 78 62 44
2.310080e+000 -2.864669e+000 -1.712951e+001 40 24 9
7.021572e+000 -2.398255e+000 -1.451918e+001 108 79 39
7.021572e+000 -2.398255e+000 -1.451918e+001 108 79 39
7.220596e+000 -2.085749e+000 -1.327709e+001 115 83 42
-2.511611e-001 -3.154810e+000 -1.690408e+001 185 124 111
4.769439e+000 -3.439257e+000 -1.875662e+001 83 57 32
4.110068e-001 -3.772079e+000 -1.827628e+001 119 68 49
7.135618e+000 -2.690837e+000 -1.312961e+001 126 94 53
6.862232e+000 -3.756328e+000 -1.574962e+001 113 85 45
7.109581e+000 -3.212500e+000 -1.370242e+001 123 94 53
9.008763e-001 4.277864e+000 -1.614568e+001 80 72 44
1.348268e+000 4.289435e+000 -1.546605e+001 144 107 80
2.244755e+000 4.370313e+000 -1.585610e+001 82 66 44
3.595232e+000 4.503141e+000 -1.620286e+001 168 132 98
4.333307e+000 4.499432e+000 -1.637114e+001 100 64 30
4.214379e+000 4.396563e+000 -1.625035e+001 100 63 34
5.099405e+000 4.446875e+000 -1.647679e+001 104 65 32
5.660567e+000 4.390111e+000 -1.647528e+001 125 89 57
6.468134e+000 4.564738e+000 -1.704271e+001 125 86 45
7.000200e+000 3.717310e+000 -1.366842e+001 187 146 88
1.223974e+000 4.077832e+000 -1.564992e+001 145 112 84
1.112788e+000 4.077115e+000 -1.606851e+001 121 92 65
1.340207e+000 3.787805e+000 -1.516314e+001 233 201 168
2.280200e+000 3.912839e+000 -1.534637e+001 78 62 47
5.644763e+000 4.089130e+000 -1.626863e+001 98 64 36
1.284877e+000 3.444617e+000 -1.488296e+001 138 108 70
2.591305e+000 3.716523e+000 -1.520588e+001 66 49 29
2.643124e+000 3.644026e+000 -1.528410e+001 60 43 25
2.450582e+000 3.419950e+000 -1.498923e+001 62 44 22
2.667627e+000 3.415209e+000 -1.500493e+001 63 48 29
3.838403e+000 3.703954e+000 -1.547527e+001 116 84 59
3.689042e+000 3.502629e+000 -1.547733e+001 84 54 31
4.103269e+000 3.672606e+000 -1.570597e+001 85 56 35
1.147079e+000 3.319285e+000 -1.517210e+001 117 97 69
4.622829e+000 3.275539e+000 -1.547620e+001 80 46 19
6.097002e+000 3.480538e+000 -1.597577e+001 116 80 48
6.993575e+000 2.918233e+000 -1.375596e+001 148 111 58
1.995099e+000 2.868141e+000 -1.444476e+001 75 57 37
2.360825e+000 2.827774e+000 -1.460836e+001 28 16 2
4.784480e+000 3.098378e+000 -1.527831e+001 90 55 29
5.367355e+000 2.958881e+000 -1.541957e+001 111 75 41
9.116900e-001 2.858394e+000 -1.533578e+001 92 77 51
1.698610e+000 2.555257e+000 -1.403229e+001 166 131 95
1.606015e+000 2.496126e+000 -1.408154e+001 186 154 116
1.887258e+000 2.471302e+000 -1.406979e+001 55 38 20
2.010748e+000 2.683680e+000 -1.420121e+001 33 28 18
2.236886e+000 2.356463e+000 -1.374720e+001 66 51 32
2.874849e+000 2.694352e+000 -1.457304e+001 79 62 36
2.874740e+000 2.604012e+000 -1.440190e+001 77 57 33
4.602245e+000 2.596468e+000 -1.484936e+001 126 92 64
5.606307e+000 2.683510e+000 -1.498423e+001 136 97 64
-3.307729e-001 2.992432e+000 -1.789297e+001 216 203 188
2.670648e-001 2.712095e+000 -1.676579e+001 172 147 112
1.701173e+000 2.246349e+000 -1.375820e+001 189 157 119
4.152625e+000 2.413755e+000 -1.456615e+001 86 52 25
2.022091e+000 1.974008e+000 -1.355927e+001 53 36 22
2.244412e+000 1.890437e+000 -1.348044e+001 80 59 35
2.772289e+000 1.894567e+000 -1.367259e+001 69 52 31
3.923949e+000 2.062801e+000 -1.408109e+001 148 113 81
5.397981e+000 1.918536e+000 -1.439230e+001 114 71 37
5.397981e+000 1.918536e+000 -1.439230e+001 114 71 37
1.503066e-001 2.012045e+000 -1.608294e+001 179 114 87
1.949687e+000 1.656026e+000 -1.325515e+001 115 77 40
4.370589e+000 1.671157e+000 -1.391562e+001 94 63 34
4.682770e-001 1.477319e+000 -1.520931e+001 205 149 116
2.065687e+000 1.333950e+000 -1.303592e+001 143 105 69
2.635347e+000 1.355983e+000 -1.335017e+001 57 46 27
1.161279e+000 1.142273e+000 -1.455890e+001 131 88 53
1.606896e+000 1.256270e+000 -1.359526e+001 139 103 71
1.573502e+000 1.095366e+000 -1.318671e+001 128 114 87
2.944516e+000 1.109400e+000 -1.325819e+001 63 46 26
-8.953326e-001 1.080810e+000 -1.610248e+001 155 79 66
1.056909e+000 1.061575e+000 -1.471876e+001 161 117 78
1.202042e+000 1.000897e+000 -1.430046e+001 153 111 73
1.513563e+000 8.112386e-001 -1.349922e+001 111 101 75
-9.208584e-001 6.894602e-001 -1.549910e+001 175 98 86
6.481698e-001 7.979205e-001 -1.491372e+001 175 109 93
1.211036e+000 7.851475e-001 -1.410233e+001 150 118 84
1.195440e+000 2.756795e-001 -1.438496e+001 135 94 45
1.851627e+000 3.018363e-001 -1.348915e+001 117 84 58
1.917928e+000 5.003256e-001 -1.317883e+001 156 124 95
1.981255e+000 4.952171e-001 -1.311897e+001 155 124 93
1.958786e+000 2.647760e-001 -1.350552e+001 126 92 64
2.903535e+000 4.005859e-001 -1.345752e+001 39 25 19
2.994206e+000 3.827090e-001 -1.331753e+001 52 36 21
6.145323e+000 3.892210e-001 -1.435154e+001 64 35 11
7.759993e-001 2.120136e-001 -1.497211e+001 95 56 40
1.838210e+000 2.366624e-002 -1.363503e+001 166 131 100
2.153043e+000 1.683532e-001 -1.358921e+001 107 73 46
2.692991e+000 8.991396e-002 -1.346583e+001 62 50 34
2.819150e+000 9.630942e-002 -1.348272e+001 23 14 6
2.642098e+000 -7.548136e-002 -1.327317e+001 67 56 39
2.850219e+000 -1.149562e-001 -1.331872e+001 81 66 45
5.655532e+000 -2.116340e-001 -1.487497e+001 100 75 51
-1.145182e+000 -3.929909e-001 -1.557299e+001 163 113 85
-1.257790e+000 -6.234255e-001 -1.557250e+001 159 98 83
4.584879e-001 -5.497564e-001 -1.596786e+001 138 70 71
2.853240e+000 -4.164208e-001 -1.327618e+001 79 63 47
4.774737e+000 -4.914728e-001 -1.512718e+001 58 34 11
-3.042761e+000 -9.562314e-001 -1.731288e+001 183 135 112
1.868702e+000 -7.483845e-001 -1.446628e+001 115 81 54
2.018528e+000 -7.671721e-001 -1.468462e+001 49 36 18
4.236633e+000 -6.563575e-001 -1.526533e+001 68 41 22
5.046820e+000 -7.881732e-001 -1.561815e+001 93 69 44
5.046820e+000 -7.881732e-001 -1.561815e+001 93 69 44
5.682253e+000 -9.941413e-001 -1.601569e+001 63 38 17
-8.819110e-001 -9.776322e-001 -1.544153e+001 195 132 115
1.183420e+000 -1.136358e+000 -1.506538e+001 60 51 32
1.820420e+000 -1.118836e+000 -1.492396e+001 91 66 39
2.171578e+000 -9.357512e-001 -1.510268e+001 74 63 45
3.606912e+000 -1.269863e+000 -1.580335e+001 56 38 18
5.268380e+000 -1.303325e+000 -1.619716e+001 87 63 39
-1.178020e+000 -1.427984e+000 -1.540393e+001 165 91 88
1.431896e+000 -1.622707e+000 -1.512410e+001 54 42 20
2.515365e+000 -1.654131e+000 -1.576688e+001 61 46 27
2.631808e+000 -1.615976e+000 -1.572642e+001 37 24 13
2.593571e+000 -1.796548e+000 -1.579580e+001 89 71 50
4.677428e+000 -2.048622e+000 -1.683523e+001 50 28 6
-4.870497e+000 -2.032553e+000 -1.620009e+001 104 64 39
2.000823e+000 -2.064223e+000 -1.615077e+001 80 68 48
1.987754e+000 -2.155613e+000 -1.618933e+001 43 30 13
5.097958e+000 -2.196871e+000 -1.715298e+001 70 46 22
-3.688011e-002 -2.235436e+000 -1.563698e+001 115 66 52
-1.874764e-001 -2.567535e+000 -1.654037e+001 159 106 92
2.007519e+000 -2.481297e+000 -1.656029e+001 37 27 17
1.846552e+000 -2.659331e+000 -1.675576e+001 47 33 18
4.061798e+000 -2.417857e+000 -1.705089e+001 88 66 47
4.948809e+000 -2.608290e+000 -1.789721e+001 72 47 25
4.948809e+000 -2.608290e+000 -1.789721e+001 72 47 25
-4.452630e+000 -2.664396e+000 -1.643138e+001 97 64 45
1.084023e+000 -2.840562e+000 -1.627248e+001 65 56 39
1.812189e+000 -2.901768e+000 -1.708072e+001 51 38 24
9.026055e-001 -3.476536e+000 -1.790678e+001 115 68 54
2.205326e+000 -3.496716e+000 -1.800647e+001 156 136 112
2.205326e+000 -3.496716e+000 -1.800647e+001 156 136 112
-6.132048e+000 -3.402105e+000 -1.660706e+001 180 110 110
2.110860e-001 -3.679525e+000 -1.785770e+001 167 108 100
6.623157e-001 -4.105584e+000 -1.851556e+001 146 105 77
-5.820307e+000 -4.035738e+000 -1.701230e+001 149 78 84
5.914512e-001 -4.187047e+000 -1.866855e+001 182 141 109
7.020086e+000 -4.263626e+000 -1.460757e+001 169 140 98
1.272104e+000 4.648059e+000 -1.601618e+001 164 132 101
8.394458e-001 4.412662e+000 -1.619779e+001 91 83 54
1.015994e+000 4.020734e+000 -1.592108e+001 169 139 108
1.156965e+000 4.099872e+000 -1.583266e+001 176 145 116
1.266784e+000 3.800159e+000 -1.513352e+001 137 105 73
1.510792e+000 3.891012e+000 -1.527621e+001 143 115 78
2.547863e+000 4.076849e+000 -1.555721e+001 74 58 35
9.331175e-001 3.557217e+000 -1.555239e+001 188 157 123
1.341361e+000 3.505619e+000 -1.494857e+001 247 219 184
2.631113e+000 3.516939e+000 -1.504358e+001 66 50 29
4.068846e+000 3.553956e+000 -1.555446e+001 118 89 59
4.405587e+000 3.820862e+000 -1.578102e+001 124 89 62
4.523331e+000 3.606409e+000 -1.567322e+001 125 94 66
1.375360e+000 3.310818e+000 -1.492308e+001 126 93 61
2.003678e+000 3.180306e+000 -1.467592e+001 123 103 75
2.594784e+000 3.162994e+000 -1.488628e+001 69 56 32
1.565286e+000 2.992945e+000 -1.458478e+001 120 81 50
1.675339e+000 2.680420e+000 -1.411280e+001 128 93 61
2.094287e+000 2.876269e+000 -1.446944e+001 134 114 78
1.851579e+000 2.699323e+000 -1.443432e+001 56 34 21
2.239696e+000 2.507982e+000 -1.413673e+001 56 42 26
2.667530e+000 2.589054e+000 -1.433189e+001 150 126 88
2.779383e+000 2.399849e+000 -1.406046e+001 67 50 30
5.713884e+000 2.705477e+000 -1.509788e+001 111 72 39
2.669656e-001 2.576299e+000 -1.641169e+001 73 65 26
1.757780e+000 2.121240e+000 -1.363458e+001 216 180 145
2.335957e+000 2.121495e+000 -1.374312e+001 62 46 28
3.784999e+000 2.108965e+000 -1.394519e+001 105 70 42
4.160241e+000 2.258296e+000 -1.433207e+001 123 89 61
5.071614e+000 2.302367e+000 -1.466961e+001 115 79 46
5.071614e+000 2.302367e+000 -1.466961e+001 115 79 46
2.011264e+000 1.911037e+000 -1.362413e+001 144 110 69
4.212735e+000 2.073083e+000 -1.426689e+001 79 48 22
5.277786e+000 2.077568e+000 -1.445686e+001 120 81 46
2.059015e+000 1.571401e+000 -1.329327e+001 143 104 68
2.288390e+000 1.766962e+000 -1.335118e+001 77 61 38
2.815267e+000 1.767586e+000 -1.354544e+001 81 63 43
6.665223e+000 1.866334e+000 -1.461848e+001 142 103 62
1.597704e+000 1.342838e+000 -1.383542e+001 175 137 106
1.532569e+000 1.123437e+000 -1.344330e+001 65 59 34
2.999474e+000 1.064708e+000 -1.321711e+001 138 120 96
2.999474e+000 1.064708e+000 -1.321711e+001 138 120 96
-5.226517e-001 1.028581e+000 -1.542632e+001 210 132 124
1.573985e+000 7.819530e-001 -1.338977e+001 71 60 38
1.573985e+000 7.819530e-001 -1.338977e+001 71 60 38
2.355522e+000 7.637348e-001 -1.315936e+001 38 24 13
2.615285e+000 9.003890e-001 -1.320685e+001 66 49 32
3.018734e+000 8.934294e-001 -1.320408e+001 56 37 21
3.018734e+000 8.934294e-001 -1.320408e+001 56 37 21
-8.441227e-001 8.141549e-001 -1.569194e+001 164 94 80
1.169737e+000 5.558098e-001 -1.430506e+001 185 144 81
2.028730e+000 6.995688e-001 -1.289300e+001 125 91 64
2.345063e+000 6.165461e-001 -1.314329e+001 61 44 24
3.191985e+000 6.785865e-001 -1.345139e+001 60 40 16
2.117110e+000 4.186268e-001 -1.325084e+001 112 84 54
2.628320e+000 2.897237e-001 -1.329267e+001 67 53 36
2.960026e+000 4.063312e-001 -1.340019e+001 114 94 68
5.051201e+000 2.830826e-001 -1.427395e+001 98 67 46
5.364708e+000 2.402878e-001 -1.425695e+001 61 34 15
1.879659e+000 2.283737e-001 -1.340676e+001 207 174 141
6.327560e+000 3.091645e-002 -1.480532e+001 79 48 20
8.386554e-001 -7.737369e-002 -1.486824e+001 179 140 109
1.874954e+000 -8.147045e-002 -1.358649e+001 195 161 129
2.918610e+000 -1.344546e-001 -1.333344e+001 38 25 14
3.553431e+000 -2.486387e-001 -1.431316e+001 58 37 20
5.837225e+000 -1.852263e-001 -1.495960e+001 76 51 28
1.847675e+000 -5.023362e-001 -1.418458e+001 213 182 153
1.979508e+000 -3.104337e-001 -1.400291e+001 114 83 55
5.950729e+000 -4.640570e-001 -1.544669e+001 94 68 44
-9.532206e-001 -7.246626e-001 -1.537380e+001 189 124 112
5.361984e+000 -9.619485e-001 -1.581149e+001 92 67 44
5.987808e+000 -9.988310e-001 -1.624497e+001 57 31 14
1.477239e+000 -1.074399e+000 -1.488607e+001 81 73 50
5.121881e+000 -1.161684e+000 -1.594045e+001 98 73 50
1.114226e+000 -1.304656e+000 -1.557837e+001 36 27 12
5.708977e+000 -1.405922e+000 -1.647978e+001 91 66 44
-6.126077e+000 -1.782510e+000 -1.677588e+001 178 137 110
3.552266e+000 -1.909308e+000 -1.624573e+001 103 75 53
4.933854e+000 -1.898087e+000 -1.679144e+001 70 43 22
-8.303251e-001 -1.896710e+000 -1.543909e+001 177 119 107
1.614396e+000 -2.172889e+000 -1.595274e+001 111 77 50
4.643149e+000 -2.476942e+000 -1.748345e+001 61 39 18
1.147621e+000 -2.359939e+000 -1.596736e+001 145 114 90
4.009540e+000 -2.728816e+000 -1.758765e+001 97 71 51
4.448373e+000 -2.456335e+000 -1.731108e+001 73 52 30
6.756726e-001 -2.739279e+000 -1.673534e+001 122 53 56
-8.991870e-002 -3.134432e+000 -1.685301e+001 168 115 101
6.385501e-001 -3.643106e+000 -1.821813e+001 163 110 92
1.054126e+000 -3.026073e+000 -1.676057e+001 100 82 63
5.421814e+000 -3.758505e+000 -1.929954e+001 92 68 44
9.647318e-001 -3.713371e+000 -1.832705e+001 138 100 77
1.128426e+000 -4.063027e+000 -1.814544e+001 203 172 144
3.659217e+000 -4.776446e+000 -1.986917e+001 101 79 55
4.284018e+000 -4.412226e+000 -1.967364e+001 79 54 32
1.030024e+000 -4.610945e+000 -1.875986e+001 200 168 140
1.441971e+000 4.621991e+000 -1.609786e+001 91 71 51
2.593126e+000 4.815961e+000 -1.675583e+001 214 198 179
4.822786e+000 4.334961e+000 -1.631393e+001 107 73 38
5.644902e+000 4.617458e+000 -1.693399e+001 135 97 61
7.440839e-001 4.204082e+000 -1.628204e+001 57 49 26
1.167171e+000 3.847670e+000 -1.534563e+001 167 137 108
4.885068e+000 4.056845e+000 -1.602085e+001 102 65 37
4.648865e+000 3.953209e+000 -1.591334e+001 101 67 40
4.617783e+000 3.929625e+000 -1.581687e+001 101 67 40
5.338916e+000 4.153456e+000 -1.628545e+001 125 90 60
6.987304e-001 3.949915e+000 -1.632398e+001 90 80 55
1.431775e+000 3.226730e+000 -1.470605e+001 214 180 144
3.463223e+000 3.348018e+000 -1.528804e+001 81 53 29
4.040859e+000 3.308386e+000 -1.540649e+001 90 59 31
1.388045e+000 2.846313e+000 -1.497292e+001 157 126 98
4.569644e+000 2.846884e+000 -1.495602e+001 99 64 36
3.739117e+000 2.670099e+000 -1.475402e+001 114 80 53
3.617004e+000 2.541790e+000 -1.477183e+001 106 79 50
4.267490e+000 2.485857e+000 -1.466697e+001 130 95 66
4.817169e+000 2.773890e+000 -1.497509e+001 99 63 37
4.900720e+000 2.512055e+000 -1.479515e+001 100 64 34
7.421899e-002 2.942197e+000 -1.766111e+001 191 151 117
1.418583e+000 2.300426e+000 -1.424928e+001 82 70 42
1.561546e+000 2.346860e+000 -1.402849e+001 139 105 72
1.807664e+000 2.250026e+000 -1.374818e+001 136 98 61
4.279689e+000 2.208426e+000 -1.447275e+001 95 61 33
-4.242204e-001 2.506647e+000 -1.780755e+001 201 159 109
5.204222e+000 2.049961e+000 -1.462116e+001 110 69 37
5.092890e+000 1.865706e+000 -1.424167e+001 146 108 71
2.908065e+000 1.327440e+000 -1.315676e+001 128 110 80
1.846724e+000 1.072341e+000 -1.307283e+001 198 163 122
1.905588e+000 5.806479e-001 -1.325618e+001 112 82 57
2.145169e+000 4.952872e-001 -1.307361e+001 107 76 47
2.936764e+000 3.246961e-001 -1.346617e+001 36 23 14
1.789349e+000 7.736963e-002 -1.361645e+001 126 90 62
2.148689e+000 2.355890e-001 -1.336398e+001 33 20 12
2.726997e+000 -6.244949e-002 -1.333794e+001 34 23 17
2.723357e+000 -6.125295e-002 -1.331829e+001 34 23 17
-9.783261e-001 -5.196009e-001 -1.551553e+001 168 102 87
5.901742e+000 -3.748881e-001 -1.516862e+001 64 42 19
1.233760e+000 -1.095000e+000 -1.487841e+001 81 73 52
1.233760e+000 -1.095000e+000 -1.487841e+001 81 73 52
5.862534e+000 -1.341150e+000 -1.642791e+001 96 72 48
3.007451e-001 -1.388287e+000 -1.580810e+001 149 75 76
2.666714e+000 -1.299190e+000 -1.542300e+001 39 24 11
5.428262e+000 -1.375737e+000 -1.632641e+001 68 43 21
6.078903e+000 -1.690767e+000 -1.691836e+001 89 59 33
-5.829037e+000 -1.797223e+000 -1.656834e+001 140 104 80
-5.568388e-001 -1.888343e+000 -1.545275e+001 187 135 117
1.274299e+000 -2.142621e+000 -1.566832e+001 130 95 67
8.732617e-001 -2.590785e+000 -1.663995e+001 70 53 41
1.471423e+000 -2.446062e+000 -1.621638e+001 164 134 108
3.131040e+000 -2.587987e+000 -1.702392e+001 68 42 25
2.453603e+000 -2.739046e+000 -1.701557e+001 47 33 19
2.601816e+000 -3.141984e+000 -1.776987e+001 121 96 76
7.957239e-001 -3.494877e+000 -1.800722e+001 174 128 104
1.068698e+000 -3.692083e+000 -1.804113e+001 134 94 69
1.070497e+000 -4.049110e+000 -1.853749e+001 138 99 73
3.475552e+000 -3.855111e+000 -1.879320e+001 101 75 56
2.520892e+000 -4.327533e+000 -1.897675e+001 98 72 53
3.869293e+000 -4.421351e+000 -1.958027e+001 74 49 27
1.229032e+000 4.380157e+000 -1.564235e+001 242 209 176
3.106250e+000 4.614506e+000 -1.646627e+001 125 90 60
5.618174e+000 4.569459e+000 -1.649971e+001 134 95 59
5.951928e+000 4.384126e+000 -1.639443e+001 199 157 117
6.004203e+000 4.200467e+000 -1.630611e+001 168 129 94
6.524299e+000 4.141856e+000 -1.662361e+001 66 40 25
4.746098e+000 3.820199e+000 -1.579735e+001 132 97 70
6.147083e-001 3.413793e+000 -1.615586e+001 128 112 78
4.655519e+000 3.436944e+000 -1.550498e+001 139 107 78
5.262444e+000 3.379175e+000 -1.557726e+001 135 100 70
3.422175e+000 2.733319e+000 -1.477007e+001 79 51 29
2.035231e+000 2.207297e+000 -1.395265e+001 77 61 38
6.901782e+000 2.205065e+000 -1.508880e+001 110 75 38
4.729969e-001 1.960114e+000 -1.572774e+001 192 148 111
4.784348e+000 1.774362e+000 -1.406658e+001 95 60 28
1.623359e+000 1.454350e+000 -1.400463e+001 118 82 56
1.622690e+000 1.453770e+000 -1.401620e+001 118 82 56
1.069944e+000 1.191484e+000 -1.463779e+001 168 122 79
-3.900415e-001 1.096169e+000 -1.551481e+001 184 98 93
6.789978e+000 1.014982e+000 -1.433173e+001 131 93 57
2.445725e+000 6.764042e-001 -1.324602e+001 134 112 76
2.260172e+000 3.510471e-001 -1.330946e+001 52 38 24
7.164332e-002 2.154470e-002 -1.540344e+001 132 56 58
1.224566e+000 1.611472e-001 -1.440417e+001 178 132 48
2.713510e+000 4.857508e-002 -1.353333e+001 62 48 31
3.348845e+000 9.502217e-002 -1.378595e+001 83 61 41
4.212443e+000 2.059645e-001 -1.400397e+001 71 44 23
3.446640e+000 -1.209374e-001 -1.402768e+001 105 85 63
1.207374e+000 -4.830768e-001 -1.465531e+001 93 62 42
7.832583e-002 -7.729136e-001 -1.543202e+001 151 88 81
2.532689e+000 -1.141904e+000 -1.544106e+001 79 68 47
4.946646e-001 -1.317545e+000 -1.567218e+001 152 104 82
6.504043e-001 -1.467191e+000 -1.609255e+001 105 45 36
-2.142990e-001 -1.680275e+000 -1.565632e+001 100 26 29
4.247957e-001 -2.252721e+000 -1.609332e+001 107 43 37
3.715955e+000 -2.213945e+000 -1.680535e+001 69 45 27
-4.113366e+000 -2.483527e+000 -1.645592e+001 85 50 37
1.414070e-001 -3.004152e+000 -1.672860e+001 171 124 109
1.348696e+000 -2.692478e+000 -1.657118e+001 85 58 37
1.428652e+000 -2.868428e+000 -1.667384e+001 118 95 72
6.057806e-001 -3.577117e+000 -1.845183e+001 109 42 40
2.544389e+000 -3.376794e+000 -1.798514e+001 126 100 79
4.678216e+000 -3.633009e+000 -1.888723e+001 76 51 28
4.205758e+000 -4.737483e+000 -2.005536e+001 88 57 38
4.984694e+000 -4.688182e+000 -2.022049e+001 93 63 39
5.713851e+000 -6.960014e+000 -2.264181e+001 178 150 103
5.758877e+000 -7.334824e+000 -2.212121e+001 175 148 105
1.349066e+000 4.049538e+000 -1.524875e+001 196 163 130
6.902799e-001 4.121216e+000 -1.662483e+001 114 103 75
1.689371e+000 3.333072e+000 -1.483202e+001 43 29 20
4.831802e+000 2.957670e+000 -1.529419e+001 132 98 70
8.273216e-001 2.706469e+000 -1.560942e+001 75 67 44
-1.262029e-001 2.958088e+000 -1.790281e+001 157 109 69
2.164002e+000 2.263769e+000 -1.396708e+001 203 179 146
-1.816727e-001 2.543722e+000 -1.758647e+001 47 28 23
3.556212e+000 2.114022e+000 -1.408129e+001 95 63 40
6.207299e+000 2.087078e+000 -1.451147e+001 112 74 38
5.615227e-001 1.482120e+000 -1.524075e+001 200 155 113
3.049672e+000 1.410238e+000 -1.328092e+001 45 32 16
3.131492e+000 1.029487e+000 -1.325050e+001 67 49 25
5.240309e+000 1.253150e+000 -1.387328e+001 87 53 26
5.240309e+000 1.253150e+000 -1.387328e+001 87 53 26
-1.869942e-001 1.123461e+000 -1.532617e+001 209 141 128
1.634150e+000 3.054160e-001 -1.394389e+001 134 91 61
3.488845e+000 1.198761e-001 -1.376896e+001 118 92 67
6.458652e+000 8.689545e-002 -1.467892e+001 121 90 62
6.499414e+000 8.496623e-002 -1.476664e+001 121 90 62
9.220603e-001 -2.383856e-001 -1.471516e+001 196 158 121
3.582782e+000 -2.521741e-001 -1.429430e+001 60 39 20
6.376854e+000 -1.214836e-001 -1.485543e+001 118 88 60
2.425041e+000 -5.978854e-001 -1.470457e+001 20 12 12
5.038089e+000 -5.566881e-001 -1.521408e+001 103 77 50
1.350289e+000 -8.964870e-001 -1.513003e+001 116 85 60
1.270643e+000 -1.283443e+000 -1.511341e+001 77 70 47
-5.480993e+000 -1.786118e+000 -1.652985e+001 135 94 66
3.982215e+000 -1.841501e+000 -1.644824e+001 106 78 57
4.842770e+000 -1.742140e+000 -1.670016e+001 107 77 51
-5.812868e+000 -2.213176e+000 -1.660842e+001 129 91 70
5.114146e+000 -2.249710e+000 -1.710429e+001 83 60 38
5.253472e+000 -2.728723e+000 -1.810840e+001 74 49 27
1.504414e+000 -3.475560e+000 -1.773085e+001 43 32 20
3.168151e+000 -3.387935e+000 -1.800072e+001 104 76 54
5.716093e-001 -3.754875e+000 -1.834864e+001 160 114 92
1.451636e+000 -3.738917e+000 -1.805074e+001 46 36 25
3.333030e+000 -4.701888e+000 -1.967313e+001 88 63 41
4.873419e+000 -4.852198e+000 -2.014356e+001 187 156 110
5.704163e+000 -5.123823e+000 -2.112363e+001 160 131 92
1.752317e+000 -4.922126e+000 -1.853847e+001 102 90 74
2.364820e+000 4.375267e+000 -1.563510e+001 75 61 42
1.633202e+000 3.722406e+000 -1.513525e+001 50 36 22
4.375005e+000 3.077250e+000 -1.523715e+001 147 112 79
4.375005e+000 3.077250e+000 -1.523715e+001 147 112 79
5.293274e+000 3.098738e+000 -1.538931e+001 92 58 31
2.798586e-001 2.492992e+000 -1.632876e+001 101 83 50
2.798586e-001 2.492992e+000 -1.632876e+001 101 83 50
2.834652e+000 2.345910e+000 -1.397060e+001 82 64 40
6.780560e+000 1.966735e+000 -1.426049e+001 164 121 67
2.095494e+000 1.701410e+000 -1.334836e+001 54 32 18
3.862721e+000 1.745179e+000 -1.383299e+001 127 95 65
5.462437e+000 1.267175e+000 -1.399052e+001 124 88 58
2.176737e+000 6.059922e-001 -1.303259e+001 39 23 14
2.507744e+000 4.471789e-001 -1.332394e+001 63 48 25
3.290049e+000 2.682579e-001 -1.378040e+001 104 79 58
4.370108e+000 -2.683136e-001 -1.419342e+001 80 55 33
6.291836e+000 -3.617823e-001 -1.554826e+001 72 44 22
-3.056055e-001 -1.025491e+000 -1.537700e+001 167 97 91
6.707585e+000 -1.100508e+000 -1.653550e+001 91 62 30
2.735760e+000 -1.321820e+000 -1.560430e+001 60 44 29
6.545722e+000 -1.419026e+000 -1.662744e+001 89 60 27
5.948172e+000 -1.890814e+000 -1.698151e+001 74 48 25
2.556906e+000 3.730015e+000 -1.526650e+001 77 57 42
2.165842e+000 3.109559e+000 -1.461620e+001 57 43 29
2.358073e+000 2.555157e+000 -1.429508e+001 64 48 31
4.967578e-001 2.655802e+000 -1.648524e+001 77 65 39
3.805800e+000 2.397839e+000 -1.455740e+001 130 99 70
4.029356e+000 2.160122e+000 -1.427735e+001 127 92 64
3.620935e+000 1.910312e+000 -1.386540e+001 79 48 27
5.216283e+000 9.935266e-001 -1.392664e+001 70 39 18
2.713490e+000 6.148519e-001 -1.348763e+001 22 14 7
2.713490e+000 6.148519e-001 -1.348763e+001 22 14 7
3.185596e+000 5.573002e-001 -1.379466e+001 59 41 27
6.405047e+000 -6.016987e-001 -1.566283e+001 115 87 57
1.194206e+000 -1.519302e+000 -1.560815e+001 43 34 21
-1.923780e-002 -1.992636e+000 -1.556723e+001 122 54 55
5.021832e+000 -2.917177e+000 -1.807213e+001 111 85 58
6.243786e+000 -4.316138e+000 -2.003935e+001 108 78 43
2.110982e-001 3.013558e+000 -1.733626e+001 186 148 112
4.495243e+000 1.995197e+000 -1.407746e+001 143 107 71
3.085691e+000 8.237650e-001 -1.323068e+001 52 33 16
5.849799e+000 4.817718e-001 -1.412517e+001 90 58 33
4.468716e+000 2.356227e-003 -1.418918e+001 112 82 55
5.333706e+000 -3.745607e-001 -1.494786e+001 88 65 41
5.901203e+000 -1.130660e+000 -1.612466e+001 69 44 24
3.874206e+000 -4.635158e+000 -1.996580e+001 89 64 42
1.123551e+000 3.242827e+000 -1.545367e+001 56 45 25
6.844433e+000 2.636083e+000 -1.532459e+001 24 18 18
4.970877e+000 1.602956e+000 -1.392578e+001 131 95 59
4.652435e+000 6.556961e-001 -1.384865e+001 120 85 57
4.652435e+000 6.556961e-001 -1.384865e+001 120 85 57
3.807450e+000 4.509925e-002 -1.410426e+001 64 41 23
5.442197e+000 2.461203e+000 -1.498394e+001 152 109 74
8.590471e-001 2.123509e+000 -1.562266e+001 187 144 99
3.997954e+000 -9.870271e-002 -1.459187e+001 62 40 22
1.342157e+000 -2.110648e+000 -1.575767e+001 131 97 67
-4.069766e+000 -2.878805e+000 -1.753443e+001 63 42 37
3.536195e+000 -4.428072e+000 -1.986386e+001 74 49 29
5.765741e+000 -6.280043e+000 -2.106230e+001 162 136 91
2.075338e+000 4.100665e+000 -1.584484e+001 69 56 38
2.512651e+000 3.331040e-001 -1.278684e+001 50 38 18
-3.903809e+000 -2.462213e+000 -1.371489e+001 85 54 41
2.697730e+000 4.778569e+000 -1.666366e+001 172 146 116
2.402580e+000 4.245358e+000 -1.563218e+001 65 51 32
4.442715e+000 4.096677e+000 -1.602659e+001 103 68 38
4.940806e+000 3.883403e+000 -1.594334e+001 96 64 38
6.555179e+000 4.306444e+000 -1.673428e+001 146 102 67
2.605691e+000 3.471615e+000 -1.508328e+001 81 68 48
3.780541e+000 3.588060e+000 -1.548670e+001 109 77 56
7.079039e-001 3.514345e+000 -1.613642e+001 197 161 127
5.489936e+000 3.474305e+000 -1.574669e+001 117 82 54
5.433726e+000 3.449374e+000 -1.560140e+001 117 82 54
2.321463e+000 3.071369e+000 -1.485635e+001 37 23 12
2.572033e+000 3.019987e+000 -1.465684e+001 136 114 81
2.497511e+000 2.918119e+000 -1.458891e+001 75 53 30
4.536093e+000 2.840159e+000 -1.499411e+001 97 63 35
2.247211e+000 2.626827e+000 -1.433031e+001 63 46 31
3.685040e-001 2.448763e+000 -1.619062e+001 93 73 39
4.223336e-001 2.430847e+000 -1.614943e+001 171 137 91
2.250039e+000 2.199968e+000 -1.388765e+001 64 47 26
3.156344e+000 2.427339e+000 -1.445047e+001 159 129 101
5.223465e+000 2.497143e+000 -1.487299e+001 124 85 49
3.256677e+000 1.847575e+000 -1.380256e+001 170 139 110
2.037021e+000 1.662562e+000 -1.343903e+001 169 129 94
2.376310e+000 1.651843e+000 -1.338165e+001 151 129 101
2.335435e+000 1.620074e+000 -1.339714e+001 70 55 29
2.754679e+000 1.741402e+000 -1.352772e+001 247 232 181
4.591319e+000 1.645320e+000 -1.391178e+001 123 92 61
1.561860e+000 1.414509e+000 -1.395522e+001 128 93 65
2.801714e+000 1.265395e+000 -1.332798e+001 146 129 102
2.801714e+000 1.265395e+000 -1.332798e+001 146 129 102
1.489448e+000 1.089648e+000 -1.370992e+001 102 95 67
2.369712e+000 9.443794e-001 -1.315020e+001 58 39 23
1.933442e+000 5.640918e-001 -1.314929e+001 124 93 64
4.902885e+000 5.179188e-001 -1.392448e+001 62 38 13
-1.223822e+000 -3.470956e-001 -1.564681e+001 163 113 85
4.503427e+000 -1.891132e-001 -1.451583e+001 101 77 51
3.794338e+000 -8.155673e-001 -1.521994e+001 51 28 11
4.929320e+000 -7.480831e-001 -1.547139e+001 70 46 22
5.366057e+000 -8.782753e-001 -1.581849e+001 54 32 11
7.517417e-001 -1.076793e+000 -1.600402e+001 94 40 28
