ply
format ascii 1.0
element face 0
property list uchar int vertex_indices
element vertex 891
property float x
property float y
property float z
property uchar diffuse_red
property uchar diffuse_green
property uchar diffuse_blue
end_header
3.386237e+000 -1.759806e+000 -1.677033e+001 77 52 30
1.369782e+000 -1.849250e+000 -1.611889e+001 128 71 63
1.665047e+000 -1.877770e+000 -1.629521e+001 161 107 95
3.213804e+000 -1.850636e+000 -1.681284e+001 87 63 41
3.689746e+000 -1.968285e+000 -1.717897e+001 105 79 54
1.872191e+000 -2.046228e+000 -1.634530e+001 147 102 81
3.386317e+000 1.936470e+000 -1.590708e+001 155 121 86
2.120158e+000 1.609064e+000 -1.539190e+001 69 54 36
3.313624e+000 1.417672e+000 -1.554805e+001 91 62 34
4.114867e+000 1.077223e+000 -1.540828e+001 146 107 73
1.275560e+000 9.582996e-001 -1.632339e+001 175 132 97
2.404154e+000 8.232950e-001 -1.482751e+001 122 99 66
2.752229e+000 6.836907e-001 -1.468008e+001 67 48 31
2.793768e+000 5.552807e-001 -1.463955e+001 132 113 80
3.675463e+000 6.495147e-001 -1.492653e+001 117 78 45
4.636284e+000 3.978919e-001 -1.496819e+001 113 74 41
1.215845e+000 1.543745e-001 -1.542668e+001 209 140 125
1.002285e+000 5.512772e-002 -1.551933e+001 210 132 124
1.698540e+000 1.088377e-002 -1.521588e+001 137 77 49
1.852496e+000 6.780815e-002 -1.507823e+001 132 86 52
1.677298e+000 -1.194295e-001 -1.514602e+001 192 155 115
4.104391e+000 -3.986126e-001 -1.522917e+001 75 51 27
4.377614e+000 -5.387158e-001 -1.560132e+001 94 68 44
2.110988e+000 -8.062739e-001 -1.536425e+001 104 71 52
4.387715e+000 -7.624179e-001 -1.590780e+001 96 72 46
1.015492e+000 -1.104049e+000 -1.547949e+001 133 62 58
4.131706e+000 -9.630352e-001 -1.603211e+001 95 71 48
-1.301818e+000 -1.366890e+000 -1.637691e+001 196 154 121
1.827983e+000 -1.105208e+000 -1.570352e+001 58 47 25
4.244453e+000 -1.261160e+000 -1.640984e+001 100 72 48
3.975015e+000 -1.483567e+000 -1.662651e+001 66 41 20
1.297277e+000 -1.990857e+000 -1.633790e+001 146 85 74
1.297277e+000 -1.990857e+000 -1.633790e+001 146 85 74
1.697706e+000 -1.944477e+000 -1.648703e+001 128 64 61
3.552169e+000 -2.063090e+000 -1.724002e+001 99 73 51
3.580302e+000 -2.474211e+000 -1.771611e+001 84 58 33
3.372437e+000 1.527028e+000 -1.559609e+001 92 60 33
3.545234e+000 9.004479e-001 -1.508801e+001 91 57 31
3.889275e+000 8.666112e-001 -1.517717e+001 116 80 47
4.396939e+000 2.482522e-001 -1.491312e+001 80 47 19
3.917847e+000 7.743906e-002 -1.478601e+001 77 47 23
8.688241e-001 -1.822058e-001 -1.548919e+001 202 124 114
2.656585e+000 -9.397806e-002 -1.446889e+001 42 25 15
3.514510e+000 -4.157431e-001 -1.503611e+001 94 68 45
3.542250e+000 -5.749268e-001 -1.531528e+001 68 44 23
3.189398e+000 -1.015813e+000 -1.576715e+001 63 42 23
4.431871e+000 -1.023576e+000 -1.621348e+001 84 54 28
2.564096e+000 -1.380818e+000 -1.592314e+001 68 55 33
3.655271e+000 -1.249559e+000 -1.623803e+001 108 81 56
4.397465e+000 -1.258591e+000 -1.648700e+001 76 52 25
3.313865e+000 -1.925964e+000 -1.697567e+001 100 73 53
3.173442e+000 -2.071410e+000 -1.715146e+001 98 72 49
1.583059e+000 -2.410696e+000 -1.717847e+001 134 83 62
2.183542e+000 1.482618e+000 -1.534779e+001 64 49 30
1.897544e+000 1.214397e+000 -1.538021e+001 105 79 56
3.428111e+000 9.763136e-001 -1.518462e+001 128 94 67
2.287184e+000 3.799761e-001 -1.445872e+001 200 166 128
8.015163e-001 2.592304e-001 -1.608340e+001 203 124 119
4.304101e+000 -5.707828e-001 -1.563497e+001 66 41 19
3.542521e+000 -7.570768e-001 -1.554320e+001 74 47 26
2.600741e+000 -1.112048e+000 -1.563384e+001 91 80 62
1.642009e+000 -1.397934e+000 -1.583621e+001 100 39 38
4.011879e+000 1.409276e+000 -1.560740e+001 121 90 57
2.087301e+000 4.192226e-001 -1.482764e+001 41 28 16
1.700835e+000 2.253563e-001 -1.520573e+001 189 146 103
4.668019e+000 3.666261e-001 -1.492671e+001 153 116 74
4.521751e+000 -1.627232e-001 -1.514298e+001 109 78 49
3.534687e+000 -1.125043e+000 -1.604323e+001 111 83 59
4.128115e+000 1.302947e+000 -1.551787e+001 131 90 60
3.405165e+000 -8.075278e-001 -1.552560e+001 102 74 52
7.690374e-001 -1.052150e+000 -1.555348e+001 135 86 75
2.373212e+000 -1.081485e+000 -1.570067e+001 57 41 26
3.104629e+000 -1.941627e+000 -1.689304e+001 73 51 30
1.307182e+000 6.357737e-002 -1.536013e+001 178 89 88
3.341500e+000 -1.976204e+000 -1.709749e+001 95 69 45
1.255155e+000 3.507764e-001 -1.561262e+001 187 102 95
2.714522e+000 2.949886e-001 -1.472914e+001 53 42 28
6.311142e-001 -1.508561e-001 -1.576705e+001 158 99 67
8.822411e-001 -1.104265e+000 -1.548349e+001 186 128 108
2.907880e+000 -2.668949e+000 -1.796715e+001 94 69 49
7.290285e-001 -3.885365e-001 -1.550603e+001 205 160 129
5.309536e-001 -9.895659e-001 -1.586664e+001 115 52 45
3.251326e+000 1.655966e+000 -1.590118e+001 117 84 59
3.395452e+000 1.899513e+000 -1.590454e+001 99 65 35
2.137997e+000 7.614849e-001 -1.470624e+001 178 142 106
3.187947e+000 9.293422e-001 -1.510877e+001 123 92 63
1.819323e+000 2.713540e-001 -1.512589e+001 192 150 104
1.578116e+000 1.162537e-001 -1.525839e+001 201 150 108
2.064719e+000 -1.394673e-001 -1.473954e+001 78 67 41
3.978653e+000 1.143136e-001 -1.478976e+001 84 52 29
4.149261e+000 -2.172372e-001 -1.502647e+001 73 45 20
4.267062e+000 -5.598456e-001 -1.561047e+001 45 18 0
3.920548e+000 -9.132065e-001 -1.591852e+001 64 37 15
3.993000e+000 -8.704485e-001 -1.589130e+001 64 37 16
4.215628e+000 -8.872126e-001 -1.596546e+001 71 45 22
-1.720558e+000 -1.607967e+000 -1.611852e+001 133 98 76
9.598258e-001 -1.391297e+000 -1.558968e+001 166 106 96
3.687174e+000 -1.223409e+000 -1.615431e+001 64 39 16
3.710514e+000 -1.311880e+000 -1.626214e+001 90 65 43
-1.632389e+000 -1.760977e+000 -1.609139e+001 109 71 52
-1.320484e+000 -2.168078e+000 -1.604313e+001 121 80 58
9.029675e-001 -2.333950e+000 -1.722305e+001 170 111 102
-1.731445e+000 -2.488688e+000 -1.616269e+001 188 118 118
1.731811e+000 -2.433754e+000 -1.707467e+001 171 128 101
3.882520e+000 1.846381e+000 -1.591514e+001 129 94 62
3.883447e+000 1.846975e+000 -1.591754e+001 129 94 62
3.495180e+000 1.531033e+000 -1.564452e+001 99 65 38
3.968503e+000 1.174441e+000 -1.545284e+001 115 76 46
3.447740e+000 8.884155e-001 -1.510124e+001 97 63 38
4.237966e+000 1.032692e+000 -1.537781e+001 132 96 60
3.682407e+000 7.838548e-001 -1.506607e+001 128 91 58
2.838385e+000 3.530745e-001 -1.450065e+001 132 116 90
1.029638e+000 -9.724940e-002 -1.539742e+001 165 73 74
3.897790e+000 -3.358369e-001 -1.510208e+001 96 69 43
8.330121e-001 -1.135302e+000 -1.547823e+001 196 138 119
2.236782e+000 -1.058734e+000 -1.537518e+001 171 143 116
4.009984e+000 -9.982285e-001 -1.604467e+001 70 44 21
4.304517e+000 -1.018612e+000 -1.619246e+001 60 34 12
-1.721938e+000 -1.650569e+000 -1.610718e+001 112 76 54
-1.736637e+000 -1.651530e+000 -1.614820e+001 112 76 54
4.013330e+000 -1.311970e+000 -1.638445e+001 107 81 54
1.803797e+000 -1.710997e+000 -1.619987e+001 73 52 34
4.010133e+000 -2.156483e+000 -1.750503e+001 68 43 21
3.799074e+000 1.311489e+000 -1.551781e+001 127 93 65
3.776277e+000 8.865957e-001 -1.515942e+001 125 89 57
4.179133e+000 9.242880e-001 -1.527482e+001 147 109 71
2.429912e+000 6.437255e-001 -1.463504e+001 76 60 44
4.050411e+000 2.919151e-001 -1.483442e+001 87 53 25
4.206758e+000 -4.308878e-001 -1.535907e+001 59 33 8
4.280236e+000 -4.136350e-001 -1.536667e+001 109 82 53
3.641611e+000 -1.184425e+000 -1.609721e+001 102 76 53
4.160658e+000 -1.182407e+000 -1.623664e+001 79 53 29
4.153709e+000 -1.055456e+000 -1.613240e+001 98 74 50
4.163666e+000 -1.055834e+000 -1.615031e+001 98 74 50
2.862163e+000 -1.347535e+000 -1.600320e+001 114 88 64
-2.019733e+000 -2.298470e+000 -1.637655e+001 206 141 134
3.984213e+000 1.532456e+000 -1.570093e+001 87 53 29
3.926301e+000 1.360270e+000 -1.558073e+001 97 65 37
2.424802e+000 7.100472e-001 -1.476580e+001 73 56 38
4.173896e+000 4.886935e-001 -1.491354e+001 112 73 40
4.259740e+000 3.046620e-001 -1.488593e+001 89 54 26
5.215406e-001 -4.562915e-001 -1.573478e+001 145 92 61
3.429400e+000 -5.790841e-001 -1.526512e+001 61 38 18
-2.044764e+000 -2.107765e+000 -1.644446e+001 255 255 253
3.107517e+000 1.914366e+000 -1.585311e+001 152 119 81
3.704187e+000 9.809266e-001 -1.522479e+001 129 96 65
2.283628e+000 3.719170e-001 -1.441805e+001 204 169 131
3.627526e+000 -1.324925e-001 -1.481610e+001 76 44 21
2.991306e+000 -1.538954e+000 -1.632090e+001 65 41 20
2.933477e+000 1.692340e+000 -1.569176e+001 129 95 68
1.443132e+000 -8.154535e-001 -1.572160e+001 116 48 45
1.716344e+000 -1.492691e+000 -1.602073e+001 168 106 99
4.242017e+000 -2.258560e+000 -1.768974e+001 139 106 75
4.927845e+000 5.133128e-001 -1.494649e+001 163 122 66
4.225157e+000 -3.455426e-001 -1.524994e+001 108 78 50
3.803991e+000 -1.924875e+000 -1.715670e+001 116 87 61
4.730673e+000 4.284294e-001 -1.500885e+001 151 109 69
2.663984e+000 -2.329024e+000 -1.730238e+001 132 104 80
1.618386e+000 1.726206e+000 -1.572578e+001 165 141 107
2.255194e+000 1.790448e+000 -1.564990e+001 39 27 13
2.635875e+000 9.655746e-001 -1.495260e+001 169 147 110
2.008328e+000 8.227384e-003 -1.478125e+001 136 117 91
3.988582e+000 3.725625e-002 -1.484572e+001 75 43 18
1.390806e+000 -7.010075e-001 -1.577575e+001 115 55 47
1.230692e+000 -8.861858e-001 -1.561137e+001 170 110 99
3.723523e+000 -1.097637e+000 -1.604298e+001 75 47 23
2.178872e+000 -2.867992e+000 -1.721275e+001 67 55 39
2.183261e+000 -2.875007e+000 -1.724347e+001 67 55 39
3.972602e+000 8.760324e-001 -1.514898e+001 160 119 81
1.058022e+000 1.595488e-002 -1.543000e+001 203 123 114
3.926603e+000 -7.547037e-001 -1.571012e+001 76 50 27
-1.742500e+000 -1.852866e+000 -1.610600e+001 160 116 87
3.708260e+000 -1.311728e+000 -1.626413e+001 91 67 42
3.356957e+000 -2.053317e+000 -1.716084e+001 105 79 56
3.557122e+000 -2.065397e+000 -1.728613e+001 99 73 50
1.902600e+000 -2.531669e+000 -1.704925e+001 148 113 81
3.406999e+000 1.282440e+000 -1.546577e+001 109 74 42
3.352319e+000 5.701292e-001 -1.479746e+001 126 91 63
7.322841e-001 -8.551963e-001 -1.556858e+001 160 94 82
4.166272e+000 -1.007202e+000 -1.608015e+001 70 44 21
4.247699e+000 -9.612258e-001 -1.606517e+001 67 41 20
3.840403e+000 -1.551648e+000 -1.664505e+001 99 73 48
2.588502e+000 1.105309e+000 -1.512534e+001 143 120 76
3.734965e+000 7.925636e-001 -1.508626e+001 102 66 35
3.612980e+000 6.112523e-001 -1.487887e+001 113 74 44
4.239514e+000 -6.055786e-001 -1.564357e+001 97 72 48
3.737126e+000 5.036100e-001 -1.480807e+001 136 100 66
9.144285e-001 -1.141624e+000 -1.544659e+001 186 129 111
4.037777e+000 -1.836199e-001 -1.499476e+001 111 79 56
1.401033e+000 -1.034630e+000 -1.569560e+001 129 58 54
4.302445e+000 1.376075e+000 -1.565666e+001 107 71 41
3.222575e+000 1.629107e+000 -1.568807e+001 85 54 29
3.881015e+000 1.540211e+000 -1.570688e+001 93 60 29
1.898804e+000 1.245359e+000 -1.536033e+001 123 96 72
9.497579e-001 7.935465e-001 -1.677334e+001 124 80 46
4.356649e+000 5.710756e-001 -1.498911e+001 96 60 29
1.709298e+000 -3.872737e-001 -1.532325e+001 156 114 89
4.895097e+000 -8.858968e-001 -1.572417e+001 101 73 34
3.223955e+000 -1.207142e+000 -1.599559e+001 89 65 42
4.817205e+000 -3.077624e+000 -1.686823e+001 143 114 68
3.391800e+000 1.237077e+000 -1.541975e+001 100 67 36
3.643117e+000 5.361676e-001 -1.484550e+001 124 90 59
3.662548e+000 5.132917e-001 -1.482982e+001 79 47 22
3.704786e+000 5.064811e-001 -1.481010e+001 136 101 71
5.007068e+000 8.266108e-002 -1.484261e+001 168 131 79
1.046074e+000 -1.415312e+000 -1.558221e+001 153 77 75
3.999852e+000 -1.621627e+000 -1.682983e+001 65 43 20
3.781474e+000 7.916784e-001 -1.507601e+001 148 112 76
3.840677e+000 8.599221e-001 -1.515561e+001 134 98 66
3.585834e+000 5.929511e-001 -1.488167e+001 106 71 41
4.168893e+000 4.962401e-001 -1.492643e+001 105 69 37
-9.798285e-001 -1.478107e+000 -1.623411e+001 145 100 65
4.062491e+000 3.119583e-002 -1.483655e+001 116 85 57
-1.041024e+000 -1.571641e+000 -1.618256e+001 147 101 63
4.160858e+000 1.988266e+000 -1.610948e+001 104 69 36
1.877503e+000 1.671181e+000 -1.552324e+001 165 132 99
3.482454e+000 1.765627e+000 -1.580799e+001 140 105 75
3.986971e+000 1.866139e+000 -1.600068e+001 89 55 27
3.054625e+000 1.466171e+000 -1.552311e+001 111 80 54
3.548795e+000 1.597351e+000 -1.571416e+001 98 63 36
2.284975e+000 1.288533e+000 -1.516913e+001 65 49 33
3.988539e+000 1.314190e+000 -1.556450e+001 86 52 24
3.909605e+000 1.065260e+000 -1.535171e+001 137 96 64
3.282580e+000 7.870706e-001 -1.497929e+001 110 73 45
3.934215e+000 8.349791e-001 -1.515673e+001 137 99 63
4.489908e+000 7.750413e-001 -1.515168e+001 93 54 23
4.109614e+000 6.086965e-001 -1.497242e+001 108 70 34
2.278461e+000 1.550503e-001 -1.437625e+001 182 149 110
4.293587e+000 4.252756e-001 -1.490387e+001 104 65 33
4.008721e+000 1.348251e-001 -1.481413e+001 94 64 40
1.937443e+000 -2.146554e-001 -1.493731e+001 184 140 79
8.913858e-001 -1.404670e+000 -1.558061e+001 148 81 74
4.093780e+000 2.108446e+000 -1.622512e+001 108 68 32
2.169181e+000 1.693278e+000 -1.547630e+001 53 43 26
3.826046e+000 1.799887e+000 -1.588925e+001 124 89 59
4.360996e+000 1.826062e+000 -1.595343e+001 129 94 66
4.616978e+000 1.969132e+000 -1.612237e+001 94 70 46
1.998220e+000 1.357717e+000 -1.523047e+001 144 108 75
3.275517e+000 1.559771e+000 -1.563923e+001 107 77 53
1.550967e+000 1.346232e+000 -1.581584e+001 116 81 49
4.000321e+000 1.479707e+000 -1.568800e+001 96 62 34
2.187408e+000 9.143209e-001 -1.485665e+001 150 114 80
4.276411e+000 1.066155e+000 -1.542876e+001 107 71 39
1.974691e+000 7.725999e-001 -1.495311e+001 87 77 48
2.939286e+000 7.961510e-001 -1.497056e+001 142 111 83
3.440187e+000 8.568684e-001 -1.508090e+001 118 83 55
3.923450e+000 9.493656e-001 -1.523912e+001 146 107 68
4.113094e+000 -2.098408e-001 -1.502182e+001 63 37 14
1.551588e+000 -1.447872e+000 -1.575334e+001 195 140 131
3.031803e+000 -1.510289e+000 -1.627934e+001 97 72 52
1.162257e+000 -1.981508e+000 -1.635958e+001 136 70 62
3.755866e+000 1.841631e+000 -1.596090e+001 101 66 36
3.764547e+000 1.675185e+000 -1.577373e+001 144 109 77
3.557947e+000 9.099246e-001 -1.517304e+001 88 54 27
3.557947e+000 9.099246e-001 -1.517304e+001 88 54 27
3.920309e+000 6.777250e-001 -1.503113e+001 111 72 39
4.373387e+000 -1.314916e-002 -1.496530e+001 85 52 27
1.308803e+000 -8.703996e-001 -1.562102e+001 156 94 83
3.405713e+000 1.667913e+000 -1.572883e+001 89 57 32
3.755386e+000 9.315357e-001 -1.519450e+001 103 68 40
1.401398e+000 5.158840e-001 -1.579725e+001 206 156 119
3.381684e+000 1.927860e-001 -1.464961e+001 112 78 51
4.194510e+000 7.915463e-002 -1.490085e+001 103 69 41
3.352606e+000 -8.153320e-001 -1.554188e+001 103 77 52
3.548600e+000 -1.103606e+000 -1.598599e+001 111 84 59
-1.303897e+000 -1.654814e+000 -1.593209e+001 149 108 86
1.725029e+000 -1.617684e+000 -1.610380e+001 131 67 67
4.163858e+000 1.837719e+000 -1.601181e+001 127 89 58
3.171003e+000 1.455831e+000 -1.554884e+001 86 56 30
1.713274e+000 2.156808e-001 -1.519093e+001 194 150 105
2.669150e+000 -3.366347e-001 -1.451478e+001 35 22 14
3.896416e+000 -4.169061e-001 -1.519564e+001 118 88 62
-3.582485e-001 -1.214290e+000 -1.630964e+001 127 92 65
4.415238e+000 -1.021606e+000 -1.618205e+001 82 56 28
1.246826e+000 8.595576e-001 -1.634911e+001 176 138 101
2.397163e+000 7.506856e-001 -1.477857e+001 226 208 168
3.429115e+000 9.735645e-001 -1.516929e+001 127 94 63
4.267557e+000 7.360857e-001 -1.511543e+001 108 69 36
4.267557e+000 7.360857e-001 -1.511543e+001 108 69 36
7.675763e-001 1.672029e-001 -1.586607e+001 173 97 74
4.561697e+000 -1.076174e-001 -1.508965e+001 79 47 22
3.261449e+000 -2.526720e-001 -1.477980e+001 73 48 25
1.342557e+000 -1.255609e+000 -1.564683e+001 148 76 79
-1.035157e+000 -1.591042e+000 -1.609799e+001 142 96 61
1.635077e+000 -1.482644e+000 -1.597869e+001 102 43 41
2.784203e+000 2.037236e+000 -1.612778e+001 121 87 59
3.672211e+000 1.558648e+000 -1.566059e+001 107 72 42
4.152508e+000 1.323245e+000 -1.558853e+001 132 92 62
4.472733e+000 5.666303e-001 -1.500195e+001 129 91 54
2.324548e+000 2.117295e-001 -1.435384e+001 218 188 152
3.629784e+000 2.631206e-001 -1.470710e+001 124 90 55
3.356778e+000 7.566663e-001 -1.496265e+001 126 92 57
7.944825e-001 -8.299921e-001 -1.552843e+001 197 135 120
-1.012809e+000 -1.545596e+000 -1.620242e+001 155 107 69
3.474043e+000 3.755962e-001 -1.473803e+001 121 86 54
3.813237e+000 2.530456e-001 -1.473423e+001 128 90 54
4.776689e+000 1.179065e+000 -1.550405e+001 25 17 14
4.843939e+000 -3.544809e-003 -1.574631e+001 115 80 48
3.505185e+000 2.052602e+000 -1.610549e+001 122 83 50
3.031488e+000 1.936209e+000 -1.592057e+001 130 94 62
3.455542e+000 1.560980e+000 -1.568650e+001 84 50 23
2.089944e+000 1.226304e+000 -1.512134e+001 128 97 63
4.292680e+000 1.382889e+000 -1.568278e+001 93 59 31
3.216667e+000 6.764891e-001 -1.487684e+001 105 73 47
3.950280e+000 8.231036e-001 -1.512279e+001 109 69 34
3.950280e+000 8.231036e-001 -1.512279e+001 109 69 34
1.820133e+000 5.089271e-001 -1.501445e+001 169 140 98
4.485698e+000 7.359149e-001 -1.515148e+001 133 93 58
3.692046e+000 4.796207e-001 -1.478370e+001 101 66 38
4.395280e+000 5.278192e-001 -1.499691e+001 104 67 33
4.395280e+000 5.278192e-001 -1.499691e+001 104 67 33
3.113484e+000 2.298236e-001 -1.457262e+001 163 128 100
2.332854e+000 -1.298830e-001 -1.438720e+001 164 130 101
1.743761e+000 -1.435293e+000 -1.591179e+001 165 100 94
5.101016e+000 -1.012371e+000 -1.477687e+001 115 84 41
3.450225e+000 2.070995e+000 -1.612939e+001 157 122 84
3.042414e+000 1.427329e+000 -1.551447e+001 83 51 26
3.307910e+000 1.412950e+000 -1.553880e+001 92 58 31
3.444809e+000 1.306057e+000 -1.547683e+001 109 74 44
3.912974e+000 1.145159e+000 -1.538309e+001 133 98 64
4.056681e+000 3.447551e-001 -1.488034e+001 91 56 26
2.067703e+000 -1.422326e-001 -1.473540e+001 74 61 40
9.307158e-001 -1.030845e+000 -1.545980e+001 143 75 59
1.752848e+000 -1.781956e+000 -1.624561e+001 121 67 67
1.844351e+000 1.737941e+000 -1.560320e+001 142 107 77
4.525399e+000 1.918567e+000 -1.620978e+001 81 49 24
3.384434e+000 1.533926e+000 -1.564513e+001 92 63 33
3.331280e+000 6.665406e-001 -1.487541e+001 97 64 35
2.649137e+000 -1.230214e-001 -1.444178e+001 41 27 16
4.364641e+000 4.458487e-002 -1.490346e+001 94 62 30
1.597622e+000 -9.278794e-001 -1.576433e+001 131 68 61
8.741237e-001 -1.191852e+000 -1.543295e+001 174 109 97
1.790016e+000 -1.734601e+000 -1.618109e+001 73 54 39
1.508242e+000 -2.447616e+000 -1.714737e+001 172 125 105
2.332771e+000 9.441221e-001 -1.493513e+001 43 32 22
3.798180e+000 7.869210e-001 -1.513305e+001 150 111 78
-1.517211e+000 -1.718664e+000 -1.601211e+001 104 65 50
2.150269e+000 5.084029e-001 -1.472492e+001 175 142 110
5.422296e-001 -6.185201e-001 -1.571414e+001 166 116 89
3.726397e+000 -9.605345e-001 -1.586659e+001 68 42 19
-1.051757e+000 -1.618034e+000 -1.613542e+001 132 89 52
3.848634e+000 1.304712e+000 -1.552532e+001 129 94 65
1.492476e+000 -3.957774e-001 -1.550047e+001 140 70 68
4.483999e+000 -3.117287e-001 -1.531892e+001 115 86 54
4.378847e+000 -1.051088e+000 -1.619570e+001 91 62 36
1.172279e+000 -1.422783e+000 -1.566038e+001 134 69 60
4.143055e+000 1.319465e+000 -1.557344e+001 132 96 64
3.268446e+000 1.742763e-002 -1.463304e+001 58 35 23
3.802988e+000 -1.919853e+000 -1.714131e+001 117 87 61
3.929488e+000 7.286198e-001 -1.505513e+001 105 69 33
2.208071e+000 5.751275e-001 -1.462951e+001 187 149 111
2.089347e+000 1.598442e+000 -1.542646e+001 215 195 157
4.559599e+000 1.965698e+000 -1.614372e+001 82 53 27
2.155533e+000 1.223852e+000 -1.517363e+001 125 105 84
2.500346e+000 1.233909e+000 -1.521414e+001 88 67 38
1.853023e+000 1.202157e+000 -1.537626e+001 91 68 44
3.948597e+000 8.443226e-001 -1.513775e+001 120 81 42
5.026953e+000 7.209141e-001 -1.451952e+001 155 117 62
2.139771e+000 4.820781e-001 -1.478568e+001 141 112 81
2.203500e+000 4.942430e-001 -1.454006e+001 179 145 107
2.270427e+000 4.992529e-001 -1.447248e+001 179 145 107
2.760146e+000 3.615162e-001 -1.453155e+001 98 78 53
2.847299e+000 1.662890e-001 -1.447295e+001 57 40 23
2.071043e+000 1.074980e-001 -1.467936e+001 105 96 67
2.104947e+000 8.366759e-002 -1.449465e+001 104 96 68
4.655365e+000 2.187778e-001 -1.497351e+001 95 60 30
2.892854e+000 -6.944801e-003 -1.444130e+001 60 43 23
5.012971e+000 9.114486e-002 -1.487418e+001 176 138 90
1.897228e+000 -1.307445e-001 -1.497343e+001 148 101 48
1.969041e+000 -1.247249e-001 -1.489632e+001 138 102 67
2.363162e+000 -1.847274e-001 -1.439243e+001 161 128 97
2.647094e+000 -1.860245e-001 -1.443858e+001 118 103 82
7.950432e-001 -2.604491e-001 -1.553864e+001 203 149 120
1.666524e+000 -2.695402e-001 -1.527528e+001 117 61 48
2.715243e+000 -3.577508e-001 -1.456478e+001 65 52 35
4.093838e+000 -2.496032e-001 -1.506513e+001 74 52 27
1.725982e+000 -3.490569e-001 -1.527424e+001 163 124 90
3.660306e+000 -4.601569e-001 -1.513995e+001 96 70 47
3.684844e+000 -4.738659e-001 -1.516715e+001 69 45 21
2.254508e+000 -7.341079e-001 -1.500049e+001 157 126 97
2.424785e+000 -6.212168e-001 -1.500920e+001 44 31 14
2.461026e+000 -7.182085e-001 -1.515128e+001 48 35 18
3.891002e+000 -5.356498e-001 -1.540495e+001 66 41 17
7.772106e-001 -8.727160e-001 -1.553674e+001 167 94 85
1.985644e+000 -7.507243e-001 -1.525286e+001 98 67 46
3.927296e+000 -7.109416e-001 -1.564301e+001 92 66 45
2.261296e+000 -1.219166e+000 -1.552977e+001 107 83 59
2.456574e+000 -1.355241e+000 -1.565395e+001 22 13 13
2.634012e+000 -1.390530e+000 -1.585767e+001 94 78 59
2.659311e+000 -1.405955e+000 -1.589913e+001 57 39 21
3.990248e+000 -1.367827e+000 -1.644387e+001 79 52 27
-1.083537e+000 -1.608545e+000 -1.611639e+001 152 106 69
2.952152e+000 -1.586898e+000 -1.632118e+001 73 46 25
3.076153e+000 -1.530769e+000 -1.632192e+001 72 51 30
3.242148e+000 -1.430642e+000 -1.621302e+001 100 75 52
3.262689e+000 -1.589618e+000 -1.646018e+001 85 63 42
3.533069e+000 -1.483451e+000 -1.641009e+001 96 74 51
3.530294e+000 -1.485286e+000 -1.639103e+001 96 74 51
3.615489e+000 -1.505933e+000 -1.651081e+001 99 74 52
3.936724e+000 -1.411603e+000 -1.649452e+001 65 40 18
2.256649e+000 -1.699837e+000 -1.624979e+001 45 31 15
2.308066e+000 -1.675037e+000 -1.616509e+001 61 45 27
3.411436e+000 -1.619904e+000 -1.655440e+001 96 72 49
-1.005353e+000 -2.010718e+000 -1.608272e+001 92 56 41
1.298970e+000 -1.907521e+000 -1.629263e+001 145 87 76
1.462517e+000 -1.874211e+000 -1.609550e+001 132 77 70
1.307672e+000 -2.001931e+000 -1.629431e+001 145 83 72
2.086181e+000 -1.997078e+000 -1.648053e+001 140 111 85
2.113208e+000 -2.018117e+000 -1.656292e+001 50 30 14
2.214035e+000 -2.026724e+000 -1.665345e+001 70 55 36
3.455266e+000 -1.965864e+000 -1.702994e+001 104 77 56
3.454010e+000 -1.965589e+000 -1.703357e+001 104 77 56
3.728025e+000 -1.990632e+000 -1.721846e+001 88 62 37
3.728025e+000 -1.990632e+000 -1.721846e+001 88 62 37
1.407395e+000 -2.302152e+000 -1.691255e+001 140 77 72
1.607383e+000 -2.495807e+000 -1.724094e+001 188 148 113
1.921539e+000 -2.401200e+000 -1.695175e+001 146 112 84
2.120901e+000 -2.425211e+000 -1.714641e+001 35 25 23
3.111511e+000 -2.495031e+000 -1.753852e+001 74 47 27
3.434936e+000 -2.356078e+000 -1.750431e+001 81 57 31
3.608773e+000 -2.376656e+000 -1.760698e+001 89 61 37
4.964601e+000 -2.217879e+000 -1.593366e+001 119 90 50
2.314283e+000 -2.625645e+000 -1.710257e+001 41 29 21
2.865510e+000 -2.570622e+000 -1.754464e+001 77 49 28
2.865510e+000 -2.570622e+000 -1.754464e+001 77 49 28
4.596593e+000 -2.696003e+000 -1.778261e+001 174 147 102
5.151466e+000 -2.339605e+000 -1.515846e+001 157 128 89
4.961384e+000 -2.890204e+000 -1.606585e+001 141 112 68
2.466860e+000 1.559848e+000 -1.541812e+001 72 55 37
3.720842e+000 1.679047e+000 -1.575178e+001 110 75 43
2.418462e+000 1.360326e+000 -1.531858e+001 65 44 22
2.041319e+000 1.113164e+000 -1.503711e+001 128 89 53
3.353621e+000 1.251079e+000 -1.539585e+001 142 105 75
3.835349e+000 9.528734e-001 -1.528066e+001 142 106 70
2.665019e+000 7.516513e-001 -1.480377e+001 65 45 42
2.312154e+000 4.238877e-001 -1.443470e+001 126 88 49
3.577535e+000 6.900410e-001 -1.496473e+001 117 82 44
3.760828e+000 4.475443e-001 -1.478496e+001 107 73 39
2.104203e+000 -1.152437e-001 -1.461970e+001 84 70 44
2.343957e+000 -1.400262e-001 -1.435596e+001 171 140 109
2.400568e+000 -1.644743e-001 -1.430082e+001 121 87 61
2.648950e+000 -1.198412e-001 -1.444269e+001 43 29 18
1.911480e+000 -1.655558e-001 -1.495569e+001 200 160 95
2.600542e+000 -1.905579e-001 -1.448385e+001 122 105 85
2.600542e+000 -1.905579e-001 -1.448385e+001 122 105 85
2.833598e+000 -2.172279e-001 -1.452745e+001 42 28 18
2.002499e+000 -3.108050e-001 -1.482645e+001 166 119 42
2.386344e+000 -3.238454e-001 -1.451454e+001 112 76 51
3.449759e+000 -2.968528e-001 -1.490919e+001 58 35 17
4.587199e+000 -1.205861e-001 -1.510528e+001 61 34 13
4.591072e+000 -1.191699e-001 -1.511263e+001 61 34 13
3.975771e+000 -3.387868e-001 -1.513289e+001 94 69 43
4.240049e+000 -3.762744e-001 -1.529751e+001 86 60 35
2.157993e+000 -5.420032e-001 -1.488921e+001 153 117 84
2.459735e+000 -5.447433e-001 -1.485735e+001 38 28 20
2.853368e+000 -6.157528e-001 -1.446322e+001 87 73 54
3.616578e+000 -4.519557e-001 -1.509764e+001 70 47 23
4.100126e+000 -4.360219e-001 -1.537563e+001 51 26 6
2.008606e+000 -7.402524e-001 -1.524418e+001 135 100 70
3.782008e+000 -5.886623e-001 -1.543195e+001 66 39 18
2.024853e+000 -7.964300e-001 -1.525818e+001 148 116 92
4.201565e+000 -6.923608e-001 -1.574358e+001 95 73 50
2.437623e+000 -9.336492e-001 -1.540268e+001 38 26 13
2.474304e+000 -9.766119e-001 -1.543394e+001 53 38 19
3.513800e+000 -8.604559e-001 -1.566091e+001 63 37 14
1.553388e+000 -1.154861e+000 -1.564656e+001 146 69 71
2.450988e+000 -1.100244e+000 -1.558450e+001 49 34 15
2.488092e+000 -1.088419e+000 -1.561132e+001 122 106 76
3.976937e+000 -9.462026e-001 -1.597303e+001 51 28 10
7.281469e-001 -1.231728e+000 -1.552078e+001 169 91 87
1.725975e+000 -1.204983e+000 -1.591345e+001 138 78 67
2.097007e+000 -1.177036e+000 -1.532287e+001 74 64 37
2.711778e+000 -1.177263e+000 -1.577890e+001 120 106 73
2.629431e+000 -1.239524e+000 -1.576057e+001 62 48 30
4.014693e+000 -1.120073e+000 -1.616322e+001 67 39 15
3.481155e+000 -1.367874e+000 -1.625684e+001 68 46 23
-1.605203e+000 -1.641628e+000 -1.607530e+001 164 120 91
-1.593367e+000 -1.675576e+000 -1.606317e+001 139 97 74
1.328690e+000 -1.630556e+000 -1.574471e+001 133 77 63
2.113177e+000 -1.502949e+000 -1.574117e+001 106 67 41
3.230921e+000 -1.569559e+000 -1.643572e+001 64 42 21
3.260600e+000 -1.539449e+000 -1.638757e+001 96 71 50
3.397027e+000 -1.493438e+000 -1.637773e+001 91 66 44
1.698875e+000 -1.788744e+000 -1.622956e+001 123 61 60
2.376884e+000 -1.655982e+000 -1.614486e+001 38 25 16
3.946800e+000 -1.672124e+000 -1.686747e+001 99 73 51
3.979176e+000 -1.699141e+000 -1.690515e+001 77 50 27
2.059871e+000 -1.896058e+000 -1.630894e+001 152 126 103
2.059871e+000 -1.896058e+000 -1.630894e+001 152 126 103
3.432505e+000 -1.931607e+000 -1.702208e+001 80 53 32
1.986548e+000 -1.957072e+000 -1.626933e+001 65 50 29
2.506879e+000 -2.124567e+000 -1.685202e+001 58 42 26
3.685261e+000 -2.032565e+000 -1.726800e+001 76 50 26
-7.387182e-001 -2.252293e+000 -1.634998e+001 75 53 40
3.400300e+000 -2.234548e+000 -1.736543e+001 102 76 50
3.619065e+000 -2.267274e+000 -1.749125e+001 107 81 58
-1.731753e+000 -2.441708e+000 -1.616729e+001 163 93 95
1.410024e+000 -2.416122e+000 -1.711347e+001 180 129 113
1.936956e+000 -2.441218e+000 -1.695955e+001 227 196 167
2.352121e+000 -2.363019e+000 -1.716940e+001 48 36 24
3.328465e+000 -2.373490e+000 -1.754799e+001 104 77 56
1.817693e+000 1.984503e+000 -1.575753e+001 182 151 120
2.317608e+000 2.028039e+000 -1.579759e+001 64 48 23
4.608178e+000 2.033463e+000 -1.597226e+001 72 49 35
1.928629e+000 1.313616e+000 -1.531288e+001 130 96 62
1.547928e+000 1.346886e+000 -1.580872e+001 141 104 69
3.905292e+000 1.059388e+000 -1.534731e+001 151 112 76
4.057093e+000 6.599854e-001 -1.498183e+001 117 81 45
4.057093e+000 6.599854e-001 -1.498183e+001 117 81 45
4.391881e+000 6.480750e-001 -1.502654e+001 115 76 46
2.661708e+000 3.037711e-001 -1.450326e+001 73 60 38
1.742359e+000 2.723544e-001 -1.518922e+001 176 133 89
3.583113e+000 7.324253e-002 -1.473791e+001 81 48 26
2.395419e+000 -8.110497e-002 -1.435042e+001 129 95 68
2.158898e+000 -1.467680e-001 -1.452437e+001 107 91 66
2.325368e+000 -1.950380e-001 -1.440465e+001 158 125 90
2.876269e+000 -2.021967e-001 -1.453777e+001 139 118 86
2.432867e+000 -3.660897e-001 -1.454751e+001 110 79 47
2.713932e+000 -2.879280e-001 -1.451641e+001 65 52 34
3.650461e+000 -2.814201e-001 -1.493532e+001 85 57 33
4.605521e+000 -2.804774e-001 -1.533199e+001 79 49 25
2.169810e+000 -6.222431e-001 -1.507859e+001 105 70 48
2.294119e+000 -6.934669e-001 -1.495486e+001 196 167 137
2.492948e+000 -6.316490e-001 -1.499861e+001 47 33 20
4.241161e+000 -5.277379e-001 -1.557605e+001 97 70 49
6.558372e-001 -8.169625e-001 -1.561375e+001 169 103 92
2.504108e+000 -7.758177e-001 -1.517239e+001 35 26 11
4.082969e+000 -8.075871e-001 -1.581527e+001 95 69 47
4.088153e+000 -8.051426e-001 -1.582918e+001 95 69 47
4.380874e+000 -7.945180e-001 -1.597830e+001 59 36 15
4.032338e+000 -9.696755e-001 -1.599077e+001 92 67 45
4.230155e+000 -1.002787e+000 -1.610383e+001 86 65 42
4.272748e+000 -9.339922e-001 -1.604498e+001 60 38 15
1.846017e+000 -1.241196e+000 -1.572787e+001 119 79 58
2.091773e+000 -1.268725e+000 -1.544193e+001 55 44 22
4.233484e+000 -1.084317e+000 -1.620178e+001 62 37 15
3.042832e+000 -1.507785e+000 -1.631303e+001 101 77 54
3.155240e+000 -1.545539e+000 -1.636521e+001 96 71 50
3.693276e+000 -1.557204e+000 -1.661798e+001 62 37 17
-3.085593e-001 -1.774706e+000 -1.637071e+001 103 74 52
3.372561e+000 -1.731533e+000 -1.686001e+001 105 80 58
3.382618e+000 -1.809178e+000 -1.683077e+001 103 79 53
3.393494e+000 -1.810145e+000 -1.685723e+001 103 79 53
2.216535e+000 -2.091010e+000 -1.682835e+001 48 34 23
1.465059e+000 -2.294527e+000 -1.691879e+001 169 112 101
1.852708e+000 -2.234529e+000 -1.697693e+001 148 109 88
-1.710920e+000 -2.395073e+000 -1.614175e+001 182 119 110
-1.700480e+000 -2.516113e+000 -1.616286e+001 163 84 90
1.457378e+000 -2.440960e+000 -1.712097e+001 148 78 74
3.866345e+000 -2.342856e+000 -1.765555e+001 109 81 56
1.798607e+000 -2.538685e+000 -1.715691e+001 141 103 70
3.302471e+000 -2.580073e+000 -1.774796e+001 105 81 57
3.709666e+000 1.793673e+000 -1.583935e+001 111 75 43
3.031585e+000 1.313839e+000 -1.539138e+001 115 84 55
3.612059e+000 1.459733e+000 -1.560080e+001 153 117 88
3.932185e+000 1.442178e+000 -1.562027e+001 142 109 78
3.608997e+000 1.148070e+000 -1.533802e+001 102 66 36
3.609261e+000 1.149260e+000 -1.534092e+001 102 66 36
3.755863e+000 1.122664e+000 -1.535978e+001 103 68 36
2.696316e+000 7.076372e-001 -1.476868e+001 70 51 34
4.828912e+000 9.950023e-001 -1.545057e+001 171 130 78
2.142844e+000 3.953824e-001 -1.471044e+001 159 128 99
4.038082e+000 4.504009e-001 -1.487707e+001 100 64 32
2.622984e+000 4.587421e-002 -1.434713e+001 53 37 21
2.902606e+000 -1.804239e-001 -1.448690e+001 48 32 15
2.429309e+000 -2.811258e-001 -1.443953e+001 118 86 58
2.878583e+000 -3.579897e-001 -1.465565e+001 40 25 18
1.823545e+000 -4.560238e-001 -1.517241e+001 191 149 100
2.819419e+000 -5.933449e-001 -1.442177e+001 55 41 28
4.388588e+000 -4.946371e-001 -1.555598e+001 62 38 14
5.381307e-001 -7.048922e-001 -1.565951e+001 217 158 140
2.407342e+000 -6.646050e-001 -1.493607e+001 48 40 27
2.264552e+000 -9.650477e-001 -1.525626e+001 139 109 81
1.179019e+000 -1.230845e+000 -1.547979e+001 164 90 89
1.168973e+000 -1.299082e+000 -1.537946e+001 158 86 87
2.750255e+000 -1.173783e+000 -1.568431e+001 63 46 26
-5.017320e-001 -1.514140e+000 -1.639666e+001 184 140 113
2.719294e+000 -1.443808e+000 -1.603870e+001 65 49 28
-1.683394e+000 -1.793317e+000 -1.609294e+001 164 120 90
-9.080021e-001 -1.728004e+000 -1.611068e+001 197 160 132
2.040780e+000 -1.640395e+000 -1.589682e+001 107 76 48
3.372647e+000 -1.692959e+000 -1.666474e+001 101 76 54
3.643555e+000 -1.894822e+000 -1.702883e+001 80 53 30
1.897812e+000 -2.260555e+000 -1.694092e+001 136 96 71
-1.673692e+000 -2.401459e+000 -1.620163e+001 122 68 61
1.487938e+000 -2.530496e+000 -1.725033e+001 159 117 92
1.757666e+000 -2.484895e+000 -1.704072e+001 188 149 118
3.270812e+000 -2.473150e+000 -1.755702e+001 78 51 30
4.560810e+000 1.909235e+000 -1.621612e+001 76 52 27
4.260496e+000 1.813401e+000 -1.600775e+001 115 76 43
3.345738e+000 1.300936e+000 -1.544505e+001 133 99 67
4.164424e+000 1.528111e+000 -1.573109e+001 123 89 56
3.852156e+000 1.299284e+000 -1.550061e+001 142 107 79
3.635655e+000 4.862239e-001 -1.480037e+001 83 49 24
3.607794e+000 4.223903e-001 -1.478115e+001 131 95 59
4.647481e+000 3.234106e-001 -1.498901e+001 99 63 31
2.332101e+000 -2.868106e-001 -1.450890e+001 108 78 52
3.540413e+000 -2.546681e-001 -1.488595e+001 69 44 23
4.658277e+000 -2.363410e-001 -1.519784e+001 116 86 58
1.688469e+000 -3.414145e-001 -1.530915e+001 84 44 32
2.003101e+000 -3.926902e-001 -1.483081e+001 161 110 36
2.815590e+000 -4.993947e-001 -1.450579e+001 76 62 35
2.266055e+000 -5.368003e-001 -1.474524e+001 118 84 56
2.311874e+000 -5.883007e-001 -1.479891e+001 170 139 111
3.953393e+000 -4.100801e-001 -1.520099e+001 104 74 48
2.254320e+000 -6.298228e-001 -1.494392e+001 120 85 58
2.755364e+000 -7.748272e-001 -1.461408e+001 32 22 14
3.559234e+000 -6.888210e-001 -1.542002e+001 103 79 55
7.395063e-001 -1.166366e+000 -1.547393e+001 206 147 133
1.411916e+000 -1.134722e+000 -1.568574e+001 130 58 56
1.411916e+000 -1.134722e+000 -1.568574e+001 130 58 56
1.640723e+000 -1.397105e+000 -1.587725e+001 111 43 44
3.242334e+000 -1.465266e+000 -1.627540e+001 62 39 16
2.033955e+000 -1.777256e+000 -1.606266e+001 90 63 41
2.226048e+000 -1.618882e+000 -1.595830e+001 79 67 50
2.076978e+000 -1.886183e+000 -1.637232e+001 134 109 87
2.103436e+000 -2.136675e+000 -1.670628e+001 60 51 36
4.261898e+000 -2.094959e+000 -1.753064e+001 133 102 71
1.468740e+000 -2.374216e+000 -1.701519e+001 133 60 58
1.468732e+000 -2.375241e+000 -1.703156e+001 133 60 58
1.641855e+000 -2.497129e+000 -1.719630e+001 188 148 118
2.797325e+000 -2.550896e+000 -1.750557e+001 73 48 27
2.651815e+000 -2.802889e+000 -1.788107e+001 119 97 73
3.447377e+000 1.073404e+000 -1.524502e+001 117 82 50
3.000576e+000 7.258443e-001 -1.480156e+001 191 158 125
1.574090e+000 1.631015e-001 -1.528065e+001 206 157 112
1.398501e+000 -4.369181e-002 -1.531208e+001 156 75 69
2.023046e+000 -1.446889e-001 -1.481237e+001 182 158 124
2.452883e+000 -3.192359e-001 -1.450664e+001 38 25 16
3.252319e+000 -2.470296e-001 -1.477836e+001 69 47 24
4.511157e+000 -3.178964e-001 -1.539613e+001 104 77 50
1.605948e+000 -9.011649e-001 -1.572024e+001 123 66 55
3.980320e+000 -1.413006e+000 -1.653651e+001 64 39 15
2.199588e+000 -1.725073e+000 -1.600810e+001 72 57 41
2.962878e+000 -1.673019e+000 -1.646023e+001 67 41 24
-1.686897e+000 -2.361041e+000 -1.617686e+001 126 78 66
3.224787e+000 8.645440e-001 -1.504748e+001 152 116 81
4.324429e+000 9.135363e-001 -1.526407e+001 161 122 83
1.346595e+000 8.749523e-001 -1.607873e+001 101 85 49
3.086530e+000 -5.585286e-001 -1.500672e+001 104 82 59
3.672279e+000 -5.023166e-001 -1.525708e+001 69 47 26
2.791901e+000 -6.899350e-001 -1.463760e+001 71 59 43
3.958598e+000 -5.968227e-001 -1.552288e+001 102 78 50
3.791307e+000 -1.182494e+000 -1.615190e+001 106 79 52
3.350633e+000 -1.279704e+000 -1.610039e+001 113 87 61
2.929010e+000 -2.046329e+000 -1.669777e+001 112 82 58
4.043728e+000 -2.572568e+000 -1.809240e+001 100 72 45
2.463228e+000 1.797449e+000 -1.566339e+001 90 75 54
2.222847e+000 5.827193e-001 -1.453801e+001 220 186 148
3.734054e+000 8.655856e-001 -1.511768e+001 125 89 55
2.628296e+000 4.620009e-001 -1.459095e+001 74 61 40
3.474806e+000 7.456016e-002 -1.470809e+001 106 75 46
9.146085e-001 -3.898625e-001 -1.548200e+001 177 109 100
3.932888e+000 -1.048312e+000 -1.608908e+001 103 76 49
1.648650e+000 -1.839285e+000 -1.631250e+001 165 110 101
3.870421e+000 -1.750394e+000 -1.691093e+001 115 88 61
-8.335746e-001 -2.135301e+000 -1.621258e+001 112 75 57
1.355242e+000 -2.137132e+000 -1.647113e+001 130 57 62
4.551386e+000 -2.444622e+000 -1.833155e+001 107 79 41
4.023985e+000 1.780502e-001 -1.482320e+001 69 43 18
1.876540e+000 -2.457645e-001 -1.501906e+001 148 99 33
1.666602e+000 -2.544026e+000 -1.728113e+001 184 145 113
2.865308e+000 -2.372467e+000 -1.739229e+001 68 46 26
3.931294e+000 5.134222e-001 -1.495211e+001 143 105 68
3.304402e+000 -3.636448e-001 -1.489117e+001 64 41 25
2.843735e+000 -1.052561e+000 -1.499334e+001 116 90 67
1.800540e+000 1.263353e+000 -1.548445e+001 63 48 25
2.269787e+000 2.218027e-001 -1.437336e+001 150 116 79
3.815736e+000 2.576995e-001 -1.469340e+001 133 97 63
3.736806e+000 -2.257362e-002 -1.476357e+001 119 87 59
2.463209e+000 -1.443737e+000 -1.588280e+001 23 16 16
3.221869e+000 -2.486468e+000 -1.806663e+001 87 60 40
4.438423e+000 2.381750e-001 -1.491506e+001 124 89 61
-1.483607e+000 -2.134543e+000 -1.605502e+001 150 105 81
3.241940e+000 -2.484443e-001 -1.481288e+001 69 42 23
3.221356e+000 -3.465254e-001 -1.485228e+001 57 34 16
2.204857e+000 -8.500514e-001 -1.516086e+001 118 87 59
1.693873e+000 8.711739e-001 -1.554033e+001 153 114 77
3.517641e+000 -1.266244e-001 -1.477549e+001 64 38 15
3.578995e+000 1.177287e+000 -1.537114e+001 127 94 63
1.360782e+000 -7.043573e-001 -1.577190e+001 152 94 80
3.732911e+000 1.111198e+000 -1.534668e+001 91 57 29
3.813528e+000 1.485832e+000 -1.564868e+001 116 83 52
1.543484e+000 2.078037e-001 -1.530475e+001 214 164 123
4.600808e+000 2.079758e-001 -1.495030e+001 88 51 28
3.345967e+000 9.227899e-001 -1.513756e+001 112 81 52
4.212826e+000 1.472741e+000 -1.572055e+001 100 65 34
-2.023915e+000 -2.092749e+000 -1.635702e+001 255 254 253
4.322066e+000 3.296438e-001 -1.490865e+001 69 38 11
4.182621e+000 -4.483356e-001 -1.536135e+001 90 65 43
3.495150e+000 -5.704348e-001 -1.529719e+001 76 54 33
4.744219e+000 -6.376724e-001 -1.595257e+001 147 122 92
4.311837e+000 -7.849639e-001 -1.590491e+001 82 57 35
3.215095e+000 -1.249777e+000 -1.606195e+001 74 47 26
3.207528e+000 -1.301786e+000 -1.606873e+001 68 42 19
3.470792e+000 -1.332168e+000 -1.622919e+001 90 68 44
3.637350e+000 -1.714415e+000 -1.681141e+001 88 64 41
3.048050e+000 -2.417986e+000 -1.745756e+001 99 72 53
3.048050e+000 -2.417986e+000 -1.745756e+001 99 72 53
3.131233e+000 -6.989034e-001 -1.531856e+001 58 35 19
2.275931e+000 -9.208194e-001 -1.523777e+001 121 91 63
4.072125e+000 -9.081938e-001 -1.594524e+001 69 44 24
3.478319e+000 -2.460634e+000 -1.762939e+001 81 56 33
4.376690e+000 -7.662275e-001 -1.586950e+001 99 73 50
3.328892e+000 -1.999789e+000 -1.706434e+001 89 63 40
4.160315e+000 -4.460450e-001 -1.539147e+001 91 68 45
4.168755e+000 -1.007059e+000 -1.609298e+001 68 43 23
3.176584e+000 -1.288841e+000 -1.606223e+001 66 40 18
4.560097e+000 -1.705105e+000 -1.722980e+001 92 66 31
3.986782e+000 -1.177216e+000 -1.618290e+001 99 72 42
3.325654e+000 -1.837345e+000 -1.682692e+001 104 77 58
1.397983e+000 -4.390997e-002 -1.531210e+001 156 75 69
2.992160e+000 -1.862735e+000 -1.674165e+001 100 72 51
1.713133e+000 -2.271894e-001 -1.524417e+001 172 129 79
3.368475e+000 -4.295380e-001 -1.736214e+001 75 55 34
1.874458e+000 1.664859e+000 -1.548378e+001 187 153 126
1.916550e+000 1.198862e+000 -1.527572e+001 121 91 68
2.708208e+000 4.024703e-001 -1.454913e+001 182 163 134
1.903047e+000 4.227505e-001 -1.504806e+001 127 96 67
1.857335e+000 5.910268e-002 -1.504152e+001 142 98 63
2.609921e+000 -1.302969e-001 -1.446702e+001 44 31 19
2.938080e+000 -5.700521e-001 -1.447363e+001 81 65 49
2.850001e+000 -6.203592e-001 -1.445055e+001 85 73 57
3.174584e+000 -4.078206e-001 -1.489478e+001 90 69 47
4.112109e+000 -3.785046e-001 -1.528304e+001 56 37 22
3.698605e+000 -5.079683e-001 -1.527320e+001 45 28 12
3.848170e+000 -5.506379e-001 -1.541201e+001 47 26 7
4.298013e+000 -4.445182e-001 -1.544101e+001 38 19 4
4.371222e+000 -4.849956e-001 -1.559444e+001 51 29 15
4.090102e+000 -5.549908e-001 -1.553445e+001 69 50 36
4.196570e+000 -6.267315e-001 -1.567765e+001 33 13 2
3.627220e+000 -8.016773e-001 -1.561761e+001 85 63 45
4.404468e+000 -6.739046e-001 -1.581058e+001 58 37 20
2.408937e+000 -9.241781e-001 -1.537975e+001 101 89 73
8.687451e-001 -1.098930e+000 -1.548200e+001 175 118 105
4.187925e+000 -1.103485e+000 -1.617637e+001 50 30 19
4.189445e+000 -1.128020e+000 -1.621204e+001 77 58 43
8.911933e-001 -1.403501e+000 -1.559310e+001 143 80 76
1.730093e+000 -1.352727e+000 -1.588774e+001 139 74 80
2.145093e+000 -1.352275e+000 -1.568767e+001 103 78 56
3.259082e+000 -1.229468e+000 -1.603789e+001 52 30 16
2.388813e+000 -1.453082e+000 -1.591567e+001 36 24 10
2.314214e+000 -1.474164e+000 -1.591625e+001 74 61 44
3.707489e+000 -1.535699e+000 -1.658234e+001 76 59 41
-1.844950e+000 -1.716103e+000 -1.621921e+001 140 96 71
-1.065340e+000 -1.721022e+000 -1.612073e+001 167 125 103
2.288187e+000 -1.700536e+000 -1.622783e+001 108 96 80
2.288187e+000 -1.700536e+000 -1.622783e+001 108 96 80
2.578962e+000 -1.693203e+000 -1.632708e+001 44 31 15
2.677811e+000 -1.686507e+000 -1.629461e+001 64 47 31
1.329899e+000 -1.926544e+000 -1.628042e+001 124 76 64
1.707728e+000 -1.841316e+000 -1.628164e+001 111 52 55
1.129191e+000 -2.008984e+000 -1.639710e+001 183 126 117
1.428708e+000 -1.973045e+000 -1.625841e+001 164 122 109
1.724563e+000 -1.992848e+000 -1.653495e+001 143 87 86
-1.146997e+000 -2.269145e+000 -1.612783e+001 78 50 40
1.951025e+000 -2.263590e+000 -1.681035e+001 128 93 74
9.114417e-001 -2.328108e+000 -1.716203e+001 168 113 107
1.014788e+000 -2.284356e+000 -1.718487e+001 162 98 98
1.047802e+000 -2.293877e+000 -1.717073e+001 126 56 58
1.166567e+000 -2.360819e+000 -1.721164e+001 159 97 92
1.579906e+000 -2.306829e+000 -1.709888e+001 112 62 51
2.401123e+000 -2.399767e+000 -1.720066e+001 43 30 22
1.501369e+000 -2.446703e+000 -1.706588e+001 168 122 106
1.981965e+000 -2.682184e+000 -1.722231e+001 82 59 41
1.907615e+000 1.504344e+000 -1.533758e+001 176 145 116
3.300577e+000 1.611987e+000 -1.565944e+001 97 65 41
3.491409e+000 1.521749e+000 -1.562879e+001 114 79 52
3.282020e+000 1.140964e+000 -1.532701e+001 146 110 86
3.910699e+000 1.345555e+000 -1.553618e+001 118 81 54
3.974898e+000 1.207199e+000 -1.546274e+001 123 86 57
1.918938e+000 8.184249e-001 -1.500261e+001 119 105 78
2.829700e+000 3.466223e-001 -1.447442e+001 143 123 99
3.648473e+000 1.365857e-001 -1.473765e+001 72 42 19
2.185304e+000 -1.036476e-001 -1.446685e+001 97 85 66
3.257814e+000 8.105200e-002 -1.466324e+001 75 48 29
1.251614e+000 1.831105e-001 -1.543271e+001 227 151 145
2.358167e+000 -2.640135e-001 -1.445506e+001 140 110 84
3.251028e+000 -2.351618e-001 -1.487366e+001 60 37 21
2.285178e+000 -3.830940e-001 -1.455033e+001 169 139 111
4.255600e+000 -3.618252e-001 -1.533747e+001 69 47 27
2.900198e+000 -7.183326e-001 -1.469532e+001 82 65 49
3.851741e+000 -5.185943e-001 -1.539308e+001 90 68 47
4.098743e+000 -4.379876e-001 -1.537031e+001 43 26 10
4.259822e+000 -5.629911e-001 -1.560043e+001 44 25 10
2.437740e+000 -8.468521e-001 -1.528121e+001 47 37 22
3.917806e+000 -6.833632e-001 -1.562501e+001 48 29 14
4.223669e+000 -7.190440e-001 -1.580432e+001 49 30 16
2.104424e+000 -9.901323e-001 -1.528321e+001 78 70 47
4.202008e+000 -8.296067e-001 -1.591381e+001 45 27 13
4.197033e+000 -1.036168e+000 -1.610828e+001 46 31 20
4.197033e+000 -1.036168e+000 -1.610828e+001 46 31 20
2.227272e+000 -1.191469e+000 -1.549981e+001 97 76 55
2.628767e+000 -1.239183e+000 -1.576140e+001 49 37 23
3.224860e+000 -1.208303e+000 -1.599106e+001 73 54 37
3.670115e+000 -1.141132e+000 -1.610057e+001 50 32 12
3.767172e+000 -1.075614e+000 -1.603070e+001 76 55 38
3.767172e+000 -1.075614e+000 -1.603070e+001 76 55 38
3.750239e+000 -1.102820e+000 -1.603531e+001 51 27 12
3.750239e+000 -1.102820e+000 -1.603531e+001 51 27 12
2.606670e+000 -1.378666e+000 -1.591206e+001 38 25 16
2.644967e+000 -1.302049e+000 -1.575747e+001 46 34 18
2.373075e+000 -1.502924e+000 -1.599926e+001 37 25 10
3.798516e+000 -1.378486e+000 -1.640304e+001 46 27 10
3.720743e+000 -1.428329e+000 -1.638822e+001 55 36 19
1.548259e+000 -1.574865e+000 -1.587706e+001 86 35 31
2.341473e+000 -1.589185e+000 -1.607107e+001 25 15 5
2.577160e+000 -1.522139e+000 -1.605707e+001 44 32 18
3.607222e+000 -1.508726e+000 -1.648135e+001 80 62 42
-1.846618e+000 -1.756546e+000 -1.620212e+001 169 125 100
1.789561e+000 -1.776536e+000 -1.625827e+001 42 34 23
-1.791962e+000 -1.835678e+000 -1.615507e+001 137 93 67
-1.753990e+000 -1.850820e+000 -1.613579e+001 164 120 91
1.742708e+000 -1.942850e+000 -1.655261e+001 118 56 60
1.801349e+000 -1.936656e+000 -1.637427e+001 44 35 26
2.114377e+000 -1.891789e+000 -1.631966e+001 114 96 77
2.314107e+000 -1.907060e+000 -1.642965e+001 38 27 22
3.900894e+000 -1.878977e+000 -1.712412e+001 71 48 30
1.625505e+000 -2.230968e+000 -1.693817e+001 109 51 50
1.673011e+000 -2.240092e+000 -1.701103e+001 151 101 92
2.011963e+000 -2.191768e+000 -1.669630e+001 111 85 64
2.175438e+000 -2.222349e+000 -1.697439e+001 41 31 19
2.221067e+000 -2.222453e+000 -1.699241e+001 40 31 24
2.478315e+000 -2.234939e+000 -1.700369e+001 47 32 22
2.526880e+000 -2.215949e+000 -1.685577e+001 70 52 38
1.938048e+000 -2.293630e+000 -1.685140e+001 190 158 139
2.335125e+000 -2.296907e+000 -1.712119e+001 60 51 40
1.933726e+000 -2.703906e+000 -1.725702e+001 127 99 77
3.431702e+000 -2.598749e+000 -1.777746e+001 70 45 28
2.183771e+000 -2.879399e+000 -1.719783e+001 59 51 40
2.334969e+000 1.830951e+000 -1.562609e+001 91 76 61
1.802465e+000 1.293008e+000 -1.536262e+001 121 95 70
3.494134e+000 1.342371e+000 -1.549092e+001 131 97 69
3.509216e+000 5.726232e-001 -1.485742e+001 112 77 47
4.654740e+000 2.960525e-001 -1.479214e+001 139 103 71
4.654740e+000 2.960525e-001 -1.479214e+001 139 103 71
1.457926e+000 5.651110e-001 -1.572608e+001 204 160 124
2.438694e+000 -1.060301e-002 -1.435023e+001 139 108 85
4.063908e+000 1.921571e-001 -1.478000e+001 111 76 52
2.061723e+000 9.244482e-002 -1.478408e+001 95 87 68
3.580541e+000 6.985707e-002 -1.473038e+001 75 48 21
4.373812e+000 3.344544e-002 -1.492540e+001 84 53 32
4.599618e+000 1.921212e-001 -1.502358e+001 110 76 49
4.602866e+000 1.365819e-001 -1.497762e+001 86 54 31
1.057841e+000 -3.864198e-002 -1.540359e+001 187 97 99
1.921919e+000 -2.933275e-001 -1.505926e+001 132 90 42
2.857149e+000 -4.909240e-001 -1.449151e+001 32 22 10
4.178338e+000 -5.421680e-001 -1.559258e+001 68 49 32
2.482878e+000 -8.894059e-001 -1.536297e+001 47 37 24
3.966159e+000 -9.172727e-001 -1.589786e+001 77 59 41
4.261919e+000 -9.431652e-001 -1.601103e+001 47 29 15
4.304368e+000 -1.013914e+000 -1.618877e+001 43 22 12
3.211393e+000 -1.176592e+000 -1.594221e+001 54 35 20
4.004709e+000 -1.433212e+000 -1.650775e+001 57 38 22
-1.732942e+000 -1.654674e+000 -1.609759e+001 107 68 51
-1.735534e+000 -1.651631e+000 -1.611834e+001 107 68 51
1.953052e+000 -1.650054e+000 -1.604019e+001 55 37 27
2.630219e+000 -1.639314e+000 -1.623401e+001 47 35 21
3.308467e+000 -1.494491e+000 -1.634888e+001 78 59 44
3.420814e+000 -1.564414e+000 -1.646998e+001 77 60 42
1.922191e+000 -1.897011e+000 -1.611690e+001 60 53 40
1.163525e+000 -1.982716e+000 -1.634965e+001 134 69 67
1.818955e+000 -2.167572e+000 -1.690231e+001 100 57 46
1.919105e+000 -2.151607e+000 -1.673749e+001 129 89 72
3.113265e+000 -2.119434e+000 -1.721721e+001 72 49 33
3.999439e+000 -2.083091e+000 -1.747068e+001 58 37 21
2.433110e+000 -2.336819e+000 -1.717138e+001 53 40 31
3.497251e+000 -2.374945e+000 -1.755217e+001 95 74 55
1.457287e+000 -2.441331e+000 -1.711611e+001 140 71 73
1.880191e+000 -2.494726e+000 -1.704291e+001 133 97 73
3.833693e+000 -2.474763e+000 -1.776726e+001 104 78 58
2.210026e+000 -2.911570e+000 -1.715135e+001 66 53 44
3.386087e+000 1.558289e+000 -1.566845e+001 107 75 50
3.424569e+000 1.482374e+000 -1.559155e+001 141 107 80
3.790238e+000 9.729945e-001 -1.525578e+001 115 78 50
1.636309e+000 8.973805e-001 -1.567267e+001 209 173 137
2.880704e+000 1.452540e-001 -1.444230e+001 146 128 104
4.167982e+000 2.402679e-001 -1.486548e+001 100 65 38
4.360732e+000 3.198018e-001 -1.490565e+001 86 52 27
3.566347e+000 -4.786271e-002 -1.475273e+001 61 35 18
3.173936e+000 -5.824552e-001 -1.523294e+001 53 33 21
4.115966e+000 -4.487549e-001 -1.530080e+001 78 55 38
4.095990e+000 -4.681677e-001 -1.523882e+001 78 55 38
4.193665e+000 -4.438644e-001 -1.532651e+001 48 26 15
4.277788e+000 -4.178930e-001 -1.538892e+001 86 65 45
4.319361e+000 -4.707719e-001 -1.552820e+001 82 61 44
4.349029e+000 -4.113594e-001 -1.540895e+001 62 41 24
4.114850e+000 -8.842403e-001 -1.592755e+001 77 56 37
2.240333e+000 -1.026129e+000 -1.537012e+001 159 137 116
3.976832e+000 -9.497581e-001 -1.596501e+001 42 25 10
4.229012e+000 -1.003730e+000 -1.609874e+001 72 55 37
