ply
format ascii 1.0
element face 0
property list uchar int vertex_indices
element vertex 894
property float x
property float y
property float z
property uchar diffuse_red
property uchar diffuse_green
property uchar diffuse_blue
end_header
2.166815e+000 1.081319e+000 -1.290604e+001 58 39 22
6.130570e+000 1.346575e+000 -1.428984e+001 115 78 49
1.643893e+000 6.813965e-001 -1.337418e+001 59 51 28
-7.528966e-001 8.121892e-001 -1.538411e+001 218 160 140
-5.748669e-001 8.281184e-001 -1.548985e+001 163 72 72
1.338986e+000 5.262393e-001 -1.399393e+001 172 147 113
4.277006e+000 2.970275e-001 -1.402181e+001 93 65 43
5.484973e+000 2.409941e-001 -1.435724e+001 72 46 25
1.770754e+000 -8.029356e-001 -1.459494e+001 170 139 111
4.498589e+000 -1.561136e+000 -1.618763e+001 65 37 16
4.512131e+000 -1.565575e+000 -1.623456e+001 65 37 16
-3.085063e+000 -2.354064e+000 -1.675400e+001 177 137 111
4.653677e+000 -2.759851e+000 -1.771273e+001 72 44 22
1.441547e+000 3.251788e+000 -1.472242e+001 178 142 105
3.257141e+000 3.653523e+000 -1.535920e+001 97 66 38
6.860404e+000 2.606026e+000 -1.520705e+001 21 16 13
6.860404e+000 2.606026e+000 -1.520705e+001 21 16 13
2.787002e+000 1.632958e+000 -1.342178e+001 152 129 96
3.093132e+000 1.738753e+000 -1.374453e+001 65 47 27
3.218854e-001 1.045922e+000 -1.495557e+001 169 84 79
4.059022e+000 -5.961974e-001 -1.501152e+001 98 73 51
6.103310e+000 -8.474975e-001 -1.582104e+001 89 57 32
5.167595e-001 -2.090970e+000 -1.627587e+001 97 43 41
4.691804e+000 -2.069207e+000 -1.672070e+001 62 37 17
4.951903e+000 -2.058792e+000 -1.692221e+001 105 79 52
-4.142125e+000 -2.410348e+000 -1.679247e+001 79 46 31
3.352689e+000 -2.793427e+000 -1.737065e+001 96 72 48
3.090249e+000 -4.248672e+000 -1.893188e+001 106 79 58
1.627659e+000 2.438687e+000 -1.391213e+001 211 178 145
2.367209e+000 9.934733e-001 -1.305952e+001 116 95 64
5.054087e+000 1.003601e+000 -1.397405e+001 120 88 57
2.028548e+000 4.132064e-001 -1.329416e+001 181 152 122
1.683134e+000 -2.303384e-001 -1.395376e+001 132 97 68
6.076531e+000 -2.161664e+000 -1.718965e+001 131 100 69
-7.314740e-002 -2.068060e+000 -1.565627e+001 122 54 55
1.169609e+000 -3.379127e+000 -1.718105e+001 166 135 107
1.333825e+000 1.961246e+000 -1.448665e+001 84 71 44
4.296938e+000 4.010119e+000 -1.573204e+001 121 87 60
4.679557e+000 4.159645e+000 -1.604333e+001 104 68 42
5.134378e+000 4.338262e+000 -1.623364e+001 109 73 41
5.313919e+000 4.306419e+000 -1.622301e+001 96 61 31
5.723067e+000 4.517568e+000 -1.643040e+001 111 75 43
1.933156e+000 3.828722e+000 -1.517760e+001 105 87 59
3.845709e+000 3.759427e+000 -1.544147e+001 116 84 59
4.130405e+000 3.784469e+000 -1.563670e+001 125 93 69
6.244833e+000 3.649185e+000 -1.581439e+001 113 73 49
2.434890e+000 3.386937e+000 -1.492788e+001 226 211 173
2.434890e+000 3.386937e+000 -1.492788e+001 226 211 173
5.224658e+000 3.573057e+000 -1.567256e+001 115 82 54
5.179047e+000 3.327885e+000 -1.546415e+001 97 63 36
5.179047e+000 3.327885e+000 -1.546415e+001 97 63 36
5.325346e+000 3.499197e+000 -1.554249e+001 125 91 61
1.542746e+000 2.794917e+000 -1.435990e+001 177 139 105
1.638851e+000 2.837996e+000 -1.441147e+001 140 103 67
5.383769e+000 3.110863e+000 -1.539113e+001 116 82 54
3.115944e+000 2.408171e+000 -1.424473e+001 159 129 101
3.447624e+000 2.669030e+000 -1.453875e+001 100 74 47
4.190888e+000 2.437107e+000 -1.458410e+001 86 52 25
5.852039e+000 2.606383e+000 -1.508536e+001 134 98 64
2.722798e+000 1.951431e+000 -1.379585e+001 253 236 170
2.761411e+000 2.005798e+000 -1.386151e+001 67 45 24
3.707962e+000 2.013941e+000 -1.414264e+001 103 71 46
4.153893e+000 2.363039e+000 -1.450211e+001 132 100 72
1.034046e+000 1.952280e+000 -1.459902e+001 193 157 116
2.328203e+000 1.694750e+000 -1.348972e+001 166 148 115
4.114778e+000 1.845389e+000 -1.407330e+001 87 54 29
5.992462e+000 1.806225e+000 -1.445835e+001 103 64 31
2.335339e-001 2.086004e+000 -1.614230e+001 195 152 113
4.605533e+000 1.571402e+000 -1.399333e+001 67 37 13
7.662761e-002 1.396862e+000 -1.542012e+001 210 138 126
7.106935e-001 -1.316684e+000 -1.583618e+001 124 68 57
1.989875e+000 -1.716198e+000 -1.570958e+001 37 23 8
-1.586841e-001 -2.651006e+000 -1.663514e+001 132 74 63
1.277629e+000 4.071808e+000 -1.535778e+001 166 134 98
1.700525e+000 4.226212e+000 -1.551926e+001 70 54 32
4.209166e+000 4.459727e+000 -1.616972e+001 100 63 34
4.010986e+000 3.979932e+000 -1.562793e+001 110 77 46
4.307988e+000 4.455095e+000 -1.616125e+001 155 121 86
4.982796e+000 4.407681e+000 -1.623943e+001 145 106 73
4.984359e+000 4.295780e+000 -1.615745e+001 103 66 37
5.114262e+000 4.421164e+000 -1.625101e+001 145 109 73
4.414145e+000 3.876625e+000 -1.572502e+001 124 89 62
5.509626e+000 4.044948e+000 -1.604766e+001 86 54 21
1.554901e+000 3.276334e+000 -1.468269e+001 184 151 113
4.922177e+000 3.414160e+000 -1.550542e+001 104 68 42
1.707554e+000 2.844187e+000 -1.442259e+001 142 105 76
2.704927e+000 2.709528e+000 -1.435016e+001 62 47 26
4.485927e+000 2.921421e+000 -1.508353e+001 104 69 39
5.058994e+000 2.962320e+000 -1.523316e+001 122 87 59
5.058994e+000 2.962320e+000 -1.523316e+001 122 87 59
1.582526e+000 2.523103e+000 -1.417475e+001 186 154 116
2.654544e+000 2.353882e+000 -1.408534e+001 76 64 42
4.345393e+000 2.594204e+000 -1.475531e+001 101 67 39
4.167031e+000 2.589290e+000 -1.483872e+001 99 64 38
4.085415e+000 2.474499e+000 -1.463798e+001 111 80 52
4.649549e+000 2.630198e+000 -1.487162e+001 126 92 64
4.448806e+000 2.510880e+000 -1.471088e+001 118 83 55
5.204696e+000 2.704506e+000 -1.487428e+001 103 67 33
5.080338e+000 2.444171e+000 -1.480854e+001 102 66 32
1.854759e+000 2.023958e+000 -1.354648e+001 148 110 73
4.953486e+000 2.313636e+000 -1.463581e+001 108 69 36
4.243707e-001 2.388104e+000 -1.592541e+001 153 118 78
4.391597e+000 1.968935e+000 -1.420586e+001 97 62 34
5.296468e+000 1.937341e+000 -1.433809e+001 122 81 50
6.301588e+000 1.755708e+000 -1.433094e+001 127 89 53
6.964380e-001 1.853654e+000 -1.498678e+001 211 173 128
1.944847e+000 1.465075e+000 -1.334958e+001 175 140 102
2.986708e+000 1.454626e+000 -1.347198e+001 128 111 85
4.681159e+000 1.547227e+000 -1.393400e+001 118 83 55
1.224140e+000 1.440961e+000 -1.443781e+001 125 86 55
1.273826e+000 4.852667e-001 -1.417329e+001 141 100 50
6.421477e+000 4.456943e-001 -1.442321e+001 78 46 21
-1.114487e+000 5.743892e-001 -1.589346e+001 158 100 78
1.218019e+000 2.291138e-001 -1.443689e+001 180 133 59
-2.686254e-001 -8.569993e-001 -1.569897e+001 173 115 101
3.812320e-001 -7.103714e-001 -1.594646e+001 168 110 97
3.812320e-001 -7.103714e-001 -1.594646e+001 168 110 97
5.066387e-001 -5.471069e-001 -1.591541e+001 135 66 69
1.892857e+000 -7.661333e-001 -1.454940e+001 103 72 43
5.613414e+000 -8.191407e-001 -1.581991e+001 52 30 8
1.547000e+000 -1.170836e+000 -1.505114e+001 98 81 56
2.141143e+000 -1.068806e+000 -1.518728e+001 39 25 17
5.556063e+000 -1.020719e+000 -1.593915e+001 88 65 43
5.905557e+000 -1.221739e+000 -1.622168e+001 55 31 9
-5.406410e+000 -1.641581e+000 -1.721465e+001 92 70 60
-5.406410e+000 -1.641581e+000 -1.721465e+001 92 70 60
2.054137e+000 -2.012740e+000 -1.592599e+001 38 25 10
1.083511e+000 -2.146083e+000 -1.564933e+001 178 146 105
3.773321e+000 -2.195824e+000 -1.671221e+001 66 43 22
-6.104346e+000 -2.388117e+000 -1.657777e+001 141 94 64
1.765501e+000 -3.131045e+000 -1.714538e+001 51 35 18
1.265370e+000 -3.516484e+000 -1.756897e+001 126 92 65
3.440037e+000 -3.689733e+000 -1.847631e+001 99 75 51
4.997177e+000 4.101335e+000 -1.596735e+001 131 98 70
5.560968e+000 4.175879e+000 -1.615963e+001 124 91 60
5.560968e+000 4.175879e+000 -1.615963e+001 124 91 60
1.835027e+000 3.596861e+000 -1.497295e+001 65 48 28
4.406131e+000 3.732651e+000 -1.568538e+001 86 54 26
5.337254e+000 4.042000e+000 -1.603777e+001 89 55 27
5.468830e+000 3.939651e+000 -1.598444e+001 124 93 64
5.637254e+000 3.900149e+000 -1.597055e+001 117 84 53
2.439760e+000 3.306555e+000 -1.487718e+001 47 33 20
3.470294e+000 3.397736e+000 -1.527612e+001 81 53 29
4.705122e+000 3.275873e+000 -1.534610e+001 137 104 73
2.162363e+000 2.843394e+000 -1.450267e+001 47 35 19
2.508322e+000 2.985603e+000 -1.462525e+001 69 50 35
2.577133e+000 2.658935e+000 -1.432658e+001 77 60 37
3.971412e+000 2.876425e+000 -1.484946e+001 127 96 67
4.656918e+000 3.140845e+000 -1.525388e+001 97 63 35
3.219829e+000 2.688147e+000 -1.480838e+001 141 111 83
3.740187e+000 2.576050e+000 -1.469301e+001 81 54 25
4.172255e+000 2.692313e+000 -1.481234e+001 98 63 35
5.798202e+000 2.395628e+000 -1.485954e+001 108 67 35
5.798202e+000 2.395628e+000 -1.485954e+001 108 67 35
2.930494e+000 1.858942e+000 -1.377138e+001 132 113 80
5.292310e+000 2.021170e+000 -1.448524e+001 145 107 70
5.854339e+000 1.781600e+000 -1.399366e+001 128 93 61
1.433836e+000 1.177084e+000 -1.379834e+001 67 60 32
2.128641e+000 1.189711e+000 -1.322622e+001 126 93 58
2.178724e+000 1.038325e+000 -1.347165e+001 117 82 49
7.621747e-001 1.179689e+000 -1.490437e+001 156 107 68
1.433942e+000 9.543609e-001 -1.390231e+001 94 84 58
1.548289e+000 8.163008e-001 -1.344544e+001 112 102 74
1.578768e+000 9.799480e-001 -1.319271e+001 73 65 38
1.589361e+000 8.815028e-001 -1.315084e+001 141 122 89
6.448777e+000 8.111234e-001 -1.427190e+001 89 55 27
1.336202e+000 6.471717e-001 -1.405135e+001 156 137 105
2.939171e+000 2.646827e-001 -1.376440e+001 51 39 27
-8.525880e-001 1.085739e-001 -1.525363e+001 171 108 93
4.399199e+000 -2.137278e-001 -1.458829e+001 71 44 23
9.498181e-001 -4.748355e-001 -1.451337e+001 186 152 117
6.161522e+000 -5.620529e-001 -1.556601e+001 93 64 40
5.379493e+000 -6.860348e-001 -1.556570e+001 62 43 19
5.606681e+000 -1.316313e+000 -1.628200e+001 67 45 22
4.659754e+000 -2.041585e+000 -1.674000e+001 50 28 6
-2.784350e-001 -2.254250e+000 -1.576247e+001 185 144 126
8.298927e-001 -2.213104e+000 -1.640234e+001 92 39 35
8.298927e-001 -2.213104e+000 -1.640234e+001 92 39 35
1.018820e+000 -2.333870e+000 -1.625002e+001 159 116 98
4.413182e+000 -2.427709e+000 -1.716519e+001 73 52 30
1.239096e+000 -3.740004e+000 -1.788351e+001 122 88 62
1.350281e+000 -3.931767e+000 -1.811481e+001 41 31 20
1.470719e+000 4.288247e+000 -1.552493e+001 56 37 24
4.137511e+000 4.004733e+000 -1.573934e+001 135 102 71
4.891894e+000 4.114353e+000 -1.594570e+001 102 65 37
4.967957e+000 3.649745e+000 -1.561078e+001 137 104 71
5.233085e+000 3.755764e+000 -1.575952e+001 88 57 28
2.599874e+000 2.791633e+000 -1.458043e+001 69 56 39
7.952655e-001 3.159097e+000 -1.607691e+001 81 63 39
1.624836e+000 2.113653e+000 -1.374552e+001 137 104 71
6.972995e+000 2.229544e+000 -1.508580e+001 110 75 38
1.021452e+000 2.099864e+000 -1.493611e+001 203 164 120
1.710517e+000 1.873755e+000 -1.367267e+001 136 102 67
4.094105e+000 1.943601e+000 -1.414765e+001 87 55 30
4.097671e+000 1.944674e+000 -1.416510e+001 87 55 30
4.178150e+000 1.798666e+000 -1.414919e+001 89 57 34
1.378059e+000 1.574944e+000 -1.402331e+001 155 125 95
1.378059e+000 1.574944e+000 -1.402331e+001 155 125 95
1.836534e+000 1.255947e+000 -1.324132e+001 132 96 65
1.843990e+000 1.031053e+000 -1.321539e+001 198 163 122
4.065976e-001 1.327879e+000 -1.510121e+001 187 118 92
2.142223e+000 7.756264e-001 -1.319987e+001 138 107 76
4.051748e+000 9.843883e-001 -1.370118e+001 81 50 22
1.153788e+000 6.020359e-001 -1.445766e+001 135 86 41
1.188535e+000 -2.241311e-002 -1.445691e+001 121 78 36
4.456327e+000 -1.343867e-001 -1.442633e+001 107 80 53
5.906947e+000 -3.716003e-002 -1.472188e+001 103 75 49
-6.795445e-001 -1.059494e-001 -1.523275e+001 155 93 82
2.404467e+000 -3.726640e-001 -1.447145e+001 30 20 12
4.420806e+000 -4.238426e-001 -1.494103e+001 72 43 25
5.654922e+000 -6.830979e-001 -1.559817e+001 61 42 18
1.612885e+000 -1.457894e+000 -1.517380e+001 91 67 41
1.740088e+000 -1.222914e+000 -1.509562e+001 186 160 133
5.043939e+000 -1.656513e+000 -1.640539e+001 93 63 39
5.049819e+000 -1.658220e+000 -1.641988e+001 93 63 39
1.545980e+000 -1.978396e+000 -1.573137e+001 207 177 151
1.545980e+000 -1.978396e+000 -1.573137e+001 207 177 151
-5.227300e+000 -2.133509e+000 -1.637195e+001 147 107 83
3.836583e+000 -2.164635e+000 -1.664645e+001 65 43 22
6.008299e-001 -3.204678e+000 -1.743876e+001 170 112 99
3.587375e+000 -3.725325e+000 -1.863326e+001 70 47 23
7.510702e-001 -4.060643e+000 -1.813094e+001 186 147 116
1.550360e+000 3.982189e+000 -1.524075e+001 59 38 21
4.516151e+000 4.063636e+000 -1.586306e+001 134 99 70
4.344613e+000 3.608105e+000 -1.564107e+001 120 89 60
5.107880e+000 3.365301e+000 -1.543823e+001 95 61 33
5.836304e+000 3.452553e+000 -1.569985e+001 92 61 33
4.833124e+000 2.586748e+000 -1.492717e+001 128 95 65
7.259971e-001 2.579010e+000 -1.583468e+001 193 160 117
3.543385e+000 2.340945e+000 -1.439444e+001 89 59 34
1.783968e+000 1.604639e+000 -1.334459e+001 141 103 67
1.307054e+000 1.562101e+000 -1.435431e+001 56 45 27
6.169750e+000 1.176034e+000 -1.416943e+001 79 45 21
6.227221e+000 -6.647605e-001 -1.570019e+001 74 44 18
5.044059e+000 -2.007446e+000 -1.673188e+001 109 83 56
5.089109e+000 -2.032665e+000 -1.690064e+001 109 83 56
3.629504e-001 -2.318036e+000 -1.612831e+001 104 38 38
9.411061e-001 -2.184455e+000 -1.618857e+001 161 108 90
8.291664e-001 -2.457870e+000 -1.655716e+001 136 92 81
7.510843e-001 -3.242743e+000 -1.753911e+001 106 45 40
8.004606e-001 -3.635558e+000 -1.812716e+001 108 59 42
5.450098e+000 -3.705271e+000 -1.893590e+001 88 58 33
1.621197e+000 -4.618651e+000 -1.829354e+001 80 66 55
1.896922e+000 4.831006e+000 -1.626626e+001 214 198 180
5.925019e+000 3.765306e+000 -1.592056e+001 89 56 25
1.719209e+000 3.035496e+000 -1.464312e+001 58 37 23
5.620691e+000 2.681896e+000 -1.503093e+001 137 99 63
1.703769e+000 1.683720e+000 -1.394598e+001 173 138 108
2.166815e+000 1.081319e+000 -1.290604e+001 58 39 22
-7.528966e-001 8.121892e-001 -1.538411e+001 218 160 140
2.775510e+000 9.618410e-002 -1.355517e+001 24 17 11
5.826544e+000 -4.075029e-001 -1.546676e+001 97 73 47
6.428730e+000 -5.459323e-001 -1.563601e+001 124 93 64
-3.108707e-001 -8.107992e-001 -1.572020e+001 166 106 95
4.587384e+000 -8.528944e-001 -1.550338e+001 106 79 52
5.749071e+000 -8.353251e-001 -1.578119e+001 90 66 42
8.007638e-001 -1.288257e+000 -1.575053e+001 146 107 89
-5.220990e+000 -1.989073e+000 -1.652617e+001 121 79 55
1.383474e+000 -3.936233e+000 -1.809423e+001 54 45 38
2.605544e+000 -4.116419e+000 -1.856363e+001 139 111 89
5.561389e+000 -4.245704e+000 -1.946711e+001 125 98 66
2.422595e+000 3.171515e+000 -1.485774e+001 145 121 87
4.462426e+000 2.191662e+000 -1.435101e+001 126 91 59
6.333504e+000 1.897123e+000 -1.442312e+001 97 61 29
7.737729e-002 1.280286e+000 -1.536028e+001 208 136 124
2.168988e+000 9.129453e-001 -1.318083e+001 57 33 21
-7.705511e-001 4.257546e-001 -1.519352e+001 183 103 96
6.365853e+000 -3.256574e-002 -1.490578e+001 91 60 32
6.455038e+000 -1.527472e-001 -1.489743e+001 118 88 60
6.183112e-001 -7.277419e-001 -1.598360e+001 98 40 38
4.357908e-001 -1.088333e+000 -1.573797e+001 94 35 27
4.507857e+000 -1.337119e+000 -1.603217e+001 108 80 52
1.601697e-001 -1.590470e+000 -1.591060e+001 106 41 39
3.507196e+000 -2.079456e+000 -1.651815e+001 101 75 50
-5.560787e+000 -2.028350e+000 -1.647704e+001 161 117 88
-3.435950e-001 -2.089514e+000 -1.563482e+001 159 114 94
3.428989e+000 -3.155042e+000 -1.787820e+001 73 51 30
2.581102e+000 3.448114e+000 -1.490509e+001 75 62 46
2.187630e+000 2.783504e+000 -1.425217e+001 71 58 41
2.732588e+000 2.815099e+000 -1.440964e+001 87 70 45
2.450193e+000 2.310563e+000 -1.425569e+001 75 62 40
5.153475e+000 7.352607e-001 -1.397446e+001 73 42 20
5.263173e+000 1.957378e-001 -1.429738e+001 103 74 49
5.263173e+000 1.957378e-001 -1.429738e+001 103 74 49
5.057665e+000 -1.449225e+000 -1.618876e+001 104 74 48
1.320928e+000 -1.804265e+000 -1.539211e+001 72 67 48
1.323046e+000 -1.808054e+000 -1.542065e+001 72 67 48
6.425473e+000 -2.026056e+000 -1.710457e+001 99 68 38
5.343708e-001 -2.765470e+000 -1.678998e+001 173 114 108
3.098556e-001 -2.959542e+000 -1.729470e+001 97 32 36
2.159522e+000 -4.067301e+000 -1.856262e+001 46 31 24
1.590888e+000 4.748189e+000 -1.644529e+001 97 76 57
3.999553e+000 3.744022e+000 -1.568431e+001 106 76 47
4.418061e+000 4.356135e-001 -1.403593e+001 82 54 32
1.359785e+000 3.316138e-001 -1.392780e+001 184 155 119
4.543692e+000 -4.984428e-002 -1.429393e+001 112 82 55
-1.382535e+000 -5.042191e-001 -1.576774e+001 191 135 112
-6.338541e-001 -7.994670e-001 -1.569541e+001 130 62 53
2.931601e+000 -2.325815e+000 -1.666409e+001 127 101 76
2.931601e+000 -2.325815e+000 -1.666409e+001 127 101 76
3.268437e+000 -2.474457e+000 -1.689520e+001 66 43 27
5.758034e+000 -3.767898e+000 -1.918156e+001 131 100 69
-4.559189e+000 -2.886163e+000 -1.655915e+001 93 67 54
5.617706e+000 4.366315e+000 -1.644784e+001 98 65 30
5.500406e+000 2.491815e+000 -1.499373e+001 152 109 74
1.015844e+000 -2.763510e-001 -1.448172e+001 199 161 114
1.512793e+000 8.261264e-001 -1.412273e+001 56 48 28
5.817111e+000 -4.683263e+000 -1.968835e+001 164 135 91
5.539454e+000 -1.142781e+000 -1.599408e+001 77 51 31
5.964437e+000 2.536103e+000 -1.542151e+001 121 82 47
1.535387e+000 4.585240e+000 -1.580214e+001 73 58 36
1.470350e+000 4.522954e+000 -1.581609e+001 77 51 36
2.593428e+000 4.371329e+000 -1.586385e+001 129 105 80
3.926684e+000 4.576406e+000 -1.620730e+001 106 71 41
5.321611e+000 4.651011e+000 -1.660235e+001 98 59 25
1.217338e+000 4.094888e+000 -1.539814e+001 204 171 138
5.037416e+000 4.259224e+000 -1.612372e+001 137 101 69
1.019833e+000 3.802375e+000 -1.525506e+001 161 134 103
1.033796e+000 3.692921e+000 -1.503650e+001 78 67 35
1.037597e+000 3.709196e+000 -1.511187e+001 78 67 35
1.160948e+000 3.529825e+000 -1.496392e+001 173 140 108
1.532222e+000 3.643217e+000 -1.499020e+001 145 113 80
1.840585e+000 3.430030e+000 -1.489865e+001 69 53 29
2.049150e+000 3.477142e+000 -1.508434e+001 50 40 20
2.951563e+000 3.541749e+000 -1.525492e+001 140 109 81
3.822288e+000 3.712082e+000 -1.554156e+001 88 56 34
1.038006e+000 3.376250e+000 -1.507194e+001 90 75 45
2.391361e+000 3.345078e+000 -1.491545e+001 74 58 28
2.701367e+000 3.371211e+000 -1.501251e+001 70 53 33
4.021328e+000 3.524003e+000 -1.547919e+001 85 55 29
5.321458e+000 3.544599e+000 -1.567879e+001 88 53 25
5.326202e+000 3.500121e+000 -1.553787e+001 125 91 61
7.167757e-001 3.297819e+000 -1.584660e+001 189 159 126
1.467723e+000 2.968062e+000 -1.450946e+001 209 175 139
2.054476e+000 3.008659e+000 -1.454363e+001 120 103 77
2.337237e+000 3.005704e+000 -1.482159e+001 28 15 2
2.564626e+000 3.057991e+000 -1.467026e+001 136 114 81
4.406083e+000 2.953105e+000 -1.497926e+001 125 92 59
4.406083e+000 2.953105e+000 -1.497926e+001 125 92 59
6.638511e+000 2.961732e+000 -1.559286e+001 114 85 65
2.094848e-001 3.014672e+000 -1.719516e+001 198 159 126
7.205980e-001 2.794460e+000 -1.562018e+001 65 59 31
1.524880e+000 2.629179e+000 -1.434156e+001 138 104 69
1.496027e+000 2.564668e+000 -1.446931e+001 132 97 62
1.631873e+000 2.483085e+000 -1.406657e+001 229 196 162
1.881496e+000 2.667154e+000 -1.449918e+001 62 41 22
1.881496e+000 2.667154e+000 -1.449918e+001 62 41 22
1.859884e+000 2.423791e+000 -1.408757e+001 143 113 74
2.571201e+000 2.629366e+000 -1.432956e+001 84 62 40
3.216681e+000 2.572739e+000 -1.467162e+001 137 107 78
5.408772e+000 2.501275e+000 -1.415956e+001 112 73 40
6.544425e+000 2.905610e+000 -1.548205e+001 118 84 57
-9.249562e-003 2.832529e+000 -1.732449e+001 145 105 69
2.729183e+000 2.403267e+000 -1.418328e+001 176 150 105
2.865893e+000 2.165486e+000 -1.393068e+001 67 49 29
3.239525e+000 2.475735e+000 -1.457486e+001 139 108 79
4.107880e+000 2.389161e+000 -1.454931e+001 98 64 37
4.313719e+000 2.355497e+000 -1.454957e+001 76 42 17
5.693413e+000 2.294496e+000 -1.465160e+001 150 110 75
6.948665e+000 2.321441e+000 -1.522175e+001 95 62 29
4.156824e+000 1.902300e+000 -1.414030e+001 110 78 53
-3.017446e-001 2.302605e+000 -1.741106e+001 206 167 128
3.858142e-001 2.087926e+000 -1.587202e+001 160 116 79
3.858142e-001 2.087926e+000 -1.587202e+001 160 116 79
7.089759e-001 1.781542e+000 -1.500136e+001 185 147 102
1.593790e+000 1.826064e+000 -1.396596e+001 124 95 71
1.735268e+000 1.766657e+000 -1.345618e+001 175 141 106
2.256539e+000 1.611862e+000 -1.352482e+001 65 48 23
2.550076e+000 1.609687e+000 -1.360997e+001 79 64 41
2.895287e+000 1.565808e+000 -1.344565e+001 159 136 108
2.713207e+000 1.259374e+000 -1.361736e+001 54 42 29
4.504014e-001 1.205864e+000 -1.491470e+001 182 119 84
1.302100e+000 1.259050e+000 -1.451314e+001 182 144 111
1.475208e+000 1.156479e+000 -1.356778e+001 105 94 71
1.510827e+000 1.004225e+000 -1.348737e+001 97 90 62
1.510827e+000 1.004225e+000 -1.348737e+001 97 90 62
2.326462e+000 9.767619e-001 -1.329203e+001 75 53 32
2.522328e+000 1.168139e+000 -1.325869e+001 40 27 12
1.338199e+000 9.236086e-001 -1.411712e+001 139 111 83
2.361592e+000 9.345481e-001 -1.331695e+001 225 198 144
7.030512e+000 1.016847e+000 -1.447331e+001 76 42 14
7.249598e+000 7.865964e-001 -1.356941e+001 151 112 60
1.389640e+000 6.257164e-001 -1.396516e+001 85 69 47
2.462563e+000 5.141532e-001 -1.329879e+001 58 42 27
2.938916e+000 4.898592e-001 -1.336686e+001 57 38 24
1.186541e+000 3.520169e-001 -1.415070e+001 177 137 76
2.538617e+000 4.072752e-001 -1.331042e+001 116 99 81
2.616908e+000 3.935351e-001 -1.344570e+001 46 31 15
3.985125e+000 1.913639e-001 -1.385336e+001 75 47 28
2.834992e+000 -3.869555e-002 -1.355022e+001 57 47 33
4.118167e+000 9.443218e-002 -1.410412e+001 55 31 12
2.379261e+000 -1.537108e-001 -1.364675e+001 78 62 46
1.734381e+000 -6.608249e-001 -1.455480e+001 119 85 60
2.178589e+000 -6.438469e-001 -1.467915e+001 50 34 21
5.697373e+000 -4.650808e-001 -1.535102e+001 93 69 43
2.265871e+000 -8.994342e-001 -1.500772e+001 40 28 16
-8.385812e-001 -1.184809e+000 -1.542375e+001 134 67 51
-7.862647e-001 -1.172087e+000 -1.543589e+001 198 140 120
1.210136e+000 -1.070659e+000 -1.520445e+001 54 38 23
1.779194e+000 -1.274833e+000 -1.508299e+001 105 77 53
2.145128e+000 -1.137239e+000 -1.519058e+001 113 95 68
4.664129e+000 -1.165559e+000 -1.589596e+001 104 77 52
5.149914e+000 -1.336867e+000 -1.618870e+001 102 80 58
5.334478e+000 -1.143902e+000 -1.597070e+001 65 40 18
2.038862e+000 -1.416882e+000 -1.546870e+001 43 30 13
7.201169e+000 -1.423265e+000 -1.406592e+001 104 78 37
-5.732943e+000 -1.749932e+000 -1.672567e+001 145 106 77
2.182594e+000 -1.710437e+000 -1.585622e+001 102 88 64
2.448859e+000 -1.973918e+000 -1.601723e+001 53 41 20
4.733768e+000 -1.926957e+000 -1.667731e+001 61 36 14
1.183225e+000 -2.010953e+000 -1.557676e+001 131 96 65
1.955617e+000 -2.002997e+000 -1.598808e+001 45 32 15
4.748084e+000 -2.201790e+000 -1.694570e+001 63 38 17
8.662770e-003 -2.631330e+000 -1.633605e+001 163 102 97
1.357880e+000 -2.362293e+000 -1.592921e+001 122 88 61
1.852411e+000 -2.531224e+000 -1.656612e+001 52 40 18
4.023054e+000 -2.521290e+000 -1.708773e+001 89 66 48
8.386555e-001 -2.968433e+000 -1.680221e+001 54 45 28
1.728158e+000 -2.970589e+000 -1.701557e+001 62 47 25
1.789463e+000 -2.753679e+000 -1.679629e+001 63 47 31
2.193441e+000 -2.814316e+000 -1.705632e+001 78 62 44
2.285701e+000 -2.859522e+000 -1.705273e+001 40 24 9
7.086962e+000 -2.474902e+000 -1.456182e+001 108 79 39
7.086962e+000 -2.474902e+000 -1.456182e+001 108 79 39
7.348255e+000 -2.208554e+000 -1.337284e+001 115 83 42
-2.856757e-001 -3.173404e+000 -1.688973e+001 185 124 111
4.672198e+000 -3.317191e+000 -1.840550e+001 83 57 32
3.889384e-001 -3.705686e+000 -1.809596e+001 119 68 49
7.252647e+000 -2.830995e+000 -1.322081e+001 126 94 53
6.829037e+000 -3.763215e+000 -1.565560e+001 113 85 45
7.188566e+000 -3.331564e+000 -1.376653e+001 123 94 53
8.465136e-001 4.330488e+000 -1.607799e+001 80 72 44
1.301309e+000 4.350583e+000 -1.543420e+001 144 107 80
2.213151e+000 4.430848e+000 -1.579494e+001 82 66 44
3.578224e+000 4.563036e+000 -1.610976e+001 168 132 98
4.321076e+000 4.557797e+000 -1.626463e+001 100 64 30
4.204803e+000 4.455470e+000 -1.615499e+001 100 63 34
5.090162e+000 4.502782e+000 -1.635884e+001 104 65 32
5.653422e+000 4.444053e+000 -1.635256e+001 125 89 57
6.438752e+000 4.611557e+000 -1.686960e+001 125 86 45
7.139016e+000 3.783469e+000 -1.373091e+001 187 146 88
1.175411e+000 4.132890e+000 -1.561092e+001 145 112 84
1.063616e+000 4.129453e+000 -1.600885e+001 121 92 65
1.295794e+000 3.841521e+000 -1.515416e+001 233 201 168
2.256161e+000 3.970499e+000 -1.532134e+001 78 62 47
5.646496e+000 4.142223e+000 -1.616398e+001 98 64 36
1.241078e+000 3.492030e+000 -1.489460e+001 138 108 70
2.577556e+000 3.772653e+000 -1.519390e+001 66 49 29
2.631123e+000 3.699306e+000 -1.527133e+001 60 43 25
2.437459e+000 3.470179e+000 -1.499348e+001 62 44 22
2.659692e+000 3.465627e+000 -1.500703e+001 63 48 29
3.845709e+000 3.759427e+000 -1.544147e+001 116 84 59
3.694961e+000 3.554268e+000 -1.544751e+001 84 54 31
4.108494e+000 3.724783e+000 -1.564969e+001 85 56 35
1.102566e+000 3.366868e+000 -1.519332e+001 117 97 69
4.647048e+000 3.323729e+000 -1.544823e+001 80 46 19
6.118861e+000 3.529124e+000 -1.590463e+001 116 80 48
7.127960e+000 2.957032e+000 -1.381416e+001 148 111 58
1.980123e+000 2.907577e+000 -1.450496e+001 75 57 37
2.353116e+000 2.863624e+000 -1.464450e+001 28 16 2
4.818291e+000 3.143489e+000 -1.526431e+001 90 55 29
5.406445e+000 3.001054e+000 -1.539703e+001 111 75 41
8.643212e-001 2.895430e+000 -1.536749e+001 92 77 51
1.674856e+000 2.579498e+000 -1.409705e+001 166 131 95
1.578902e+000 2.518030e+000 -1.414445e+001 186 154 116
1.870220e+000 2.493341e+000 -1.413347e+001 55 38 20
1.995464e+000 2.712998e+000 -1.425298e+001 33 28 18
2.235603e+000 2.374255e+000 -1.382342e+001 66 51 32
2.885605e+000 2.729496e+000 -1.462063e+001 79 62 36
2.886300e+000 2.634269e+000 -1.444986e+001 77 57 33
4.649549e+000 2.630198e+000 -1.487162e+001 126 92 64
5.664685e+000 2.718709e+000 -1.498604e+001 136 97 64
-3.772769e-001 3.025439e+000 -1.774902e+001 216 203 188
2.150081e-001 2.743725e+000 -1.670636e+001 172 147 112
1.680230e+000 2.258515e+000 -1.383733e+001 189 157 119
4.198225e+000 2.441198e+000 -1.460733e+001 86 52 25
2.016426e+000 1.975767e+000 -1.365058e+001 53 36 22
2.249234e+000 1.889190e+000 -1.357791e+001 80 59 35
2.795061e+000 1.896482e+000 -1.376226e+001 69 52 31
3.977471e+000 2.076404e+000 -1.415124e+001 148 113 81
5.480802e+000 1.931479e+000 -1.444490e+001 114 71 37
5.480802e+000 1.931479e+000 -1.444490e+001 114 71 37
9.336081e-002 2.029161e+000 -1.608049e+001 179 114 87
1.945070e+000 1.641951e+000 -1.336216e+001 115 77 40
4.444279e+000 1.670652e+000 -1.399795e+001 94 63 34
4.143905e-001 1.476666e+000 -1.528008e+001 205 149 116
2.069795e+000 1.303746e+000 -1.315666e+001 143 105 69
2.660612e+000 1.332769e+000 -1.346338e+001 57 46 27
1.126213e+000 1.124018e+000 -1.464377e+001 131 88 53
1.588739e+000 1.229233e+000 -1.370667e+001 139 103 71
1.556109e+000 1.055312e+000 -1.331119e+001 128 114 87
2.985648e+000 1.075413e+000 -1.338104e+001 63 46 26
-9.684980e-001 1.078176e+000 -1.614277e+001 155 79 66
1.019165e+000 1.042987e+000 -1.480025e+001 161 117 78
1.168876e+000 9.740579e-001 -1.439824e+001 153 111 73
1.493898e+000 7.643495e-001 -1.362335e+001 111 101 75
-1.002958e+000 6.672221e-001 -1.556795e+001 175 98 86
5.999170e-001 7.734409e-001 -1.499448e+001 175 109 93
1.179709e+000 7.475319e-001 -1.422434e+001 150 118 84
1.165060e+000 2.260892e-001 -1.449619e+001 135 94 45
1.849141e+000 2.348092e-001 -1.363115e+001 117 84 58
1.919313e+000 4.351878e-001 -1.332234e+001 156 124 95
1.985660e+000 4.287950e-001 -1.326241e+001 155 124 93
1.959292e+000 1.964982e-001 -1.364293e+001 126 92 64
2.943386e+000 3.404186e-001 -1.359311e+001 39 25 19
3.038769e+000 3.185493e-001 -1.345298e+001 52 36 21
6.246842e+000 3.582573e-001 -1.442355e+001 64 35 11
7.338707e-001 1.725559e-001 -1.506061e+001 95 56 40
1.834870e+000 -5.114572e-002 -1.377662e+001 166 131 100
2.162075e+000 9.928486e-002 -1.372778e+001 107 73 46
2.725600e+000 1.636775e-002 -1.360941e+001 62 50 34
2.856383e+000 2.389347e-002 -1.362473e+001 23 14 6
2.676440e+000 -1.612841e-001 -1.342844e+001 67 56 39
2.892217e+000 -2.004200e-001 -1.347123e+001 81 66 45
5.724610e+000 -2.472776e-001 -1.492307e+001 100 75 51
-1.227878e+000 -4.395967e-001 -1.567172e+001 163 113 85
-1.340327e+000 -6.746009e-001 -1.566379e+001 159 98 83
4.163409e-001 -5.819045e-001 -1.601538e+001 138 70 71
2.897101e+000 -5.160038e-001 -1.343747e+001 79 63 47
4.818694e+000 -5.294688e-001 -1.516171e+001 58 34 11
-3.098613e+000 -9.632920e-001 -1.731422e+001 183 135 112
1.863250e+000 -8.266656e-001 -1.459101e+001 115 81 54
2.015947e+000 -8.383671e-001 -1.479738e+001 49 36 18
4.273805e+000 -6.966345e-001 -1.531657e+001 68 41 22
5.079566e+000 -8.151892e-001 -1.562608e+001 93 69 44
5.079566e+000 -8.151892e-001 -1.562608e+001 93 69 44
5.700402e+000 -1.007067e+000 -1.597947e+001 63 38 17
-9.569658e-001 -1.039216e+000 -1.554023e+001 195 132 115
1.154666e+000 -1.206938e+000 -1.515412e+001 60 51 32
1.810683e+000 -1.192000e+000 -1.502758e+001 91 66 39
2.169416e+000 -9.969287e-001 -1.519205e+001 74 63 45
3.619134e+000 -1.305910e+000 -1.582606e+001 56 38 18
5.273318e+000 -1.314590e+000 -1.614253e+001 87 63 39
-1.259960e+000 -1.502960e+000 -1.552513e+001 165 91 88
1.411789e+000 -1.701699e+000 -1.522407e+001 54 42 20
2.511953e+000 -1.702961e+000 -1.580989e+001 61 46 27
2.631075e+000 -1.665416e+000 -1.577188e+001 37 24 13
2.590269e+000 -1.845423e+000 -1.583340e+001 89 71 50
4.659754e+000 -2.041585e+000 -1.674000e+001 50 28 6
-4.985879e+000 -2.096971e+000 -1.636320e+001 104 64 39
1.985681e+000 -2.104854e+000 -1.617337e+001 80 68 48
1.972029e+000 -2.195450e+000 -1.620897e+001 43 30 13
5.061423e+000 -2.171164e+000 -1.700377e+001 70 46 22
-8.598452e-002 -2.310681e+000 -1.573130e+001 115 66 52
-2.280779e-001 -2.604186e+000 -1.656343e+001 159 106 92
1.988235e+000 -2.505795e+000 -1.654546e+001 37 27 17
1.824552e+000 -2.676048e+000 -1.672641e+001 47 33 18
4.037706e+000 -2.405009e+000 -1.694484e+001 88 66 47
4.887167e+000 -2.546688e+000 -1.767135e+001 72 47 25
4.887167e+000 -2.546688e+000 -1.767135e+001 72 47 25
-4.537423e+000 -2.718401e+000 -1.653604e+001 97 64 45
1.055318e+000 -2.882918e+000 -1.628105e+001 65 56 39
1.787139e+000 -2.901820e+000 -1.701680e+001 51 38 24
8.760650e-001 -3.430527e+000 -1.775335e+001 115 68 54
2.169403e+000 -3.438859e+000 -1.782512e+001 156 136 112
2.169403e+000 -3.438859e+000 -1.782512e+001 156 136 112
-6.221932e+000 -3.461336e+000 -1.680075e+001 180 110 110
1.873992e-001 -3.639982e+000 -1.773361e+001 167 108 100
6.390206e-001 -4.015901e+000 -1.829291e+001 146 105 77
-5.858329e+000 -4.058332e+000 -1.709901e+001 149 78 84
5.699373e-001 -4.087790e+000 -1.843128e+001 182 141 109
7.026600e+000 -4.330579e+000 -1.459801e+001 169 140 98
1.220978e+000 4.706236e+000 -1.594078e+001 164 132 101
7.836381e-001 4.466203e+000 -1.612531e+001 91 83 54
9.651343e-001 4.073489e+000 -1.587318e+001 169 139 108
1.107343e+000 4.153934e+000 -1.578539e+001 176 145 116
1.220356e+000 3.853789e+000 -1.512480e+001 137 105 73
1.471410e+000 3.949719e+000 -1.526945e+001 143 115 78
2.526630e+000 4.136585e+000 -1.551771e+001 74 58 35
8.813945e-001 3.603647e+000 -1.553450e+001 188 157 123
1.298706e+000 3.554378e+000 -1.495564e+001 247 219 184
2.622986e+000 3.571422e+000 -1.504886e+001 66 50 29
4.080409e+000 3.607063e+000 -1.552090e+001 118 89 59
4.414145e+000 3.876625e+000 -1.572502e+001 124 89 62
4.535505e+000 3.657495e+000 -1.561708e+001 125 94 66
1.335106e+000 3.355804e+000 -1.493840e+001 126 93 61
1.985520e+000 3.228448e+000 -1.471903e+001 123 103 75
2.590687e+000 3.210326e+000 -1.491115e+001 69 56 32
1.532649e+000 3.030625e+000 -1.461887e+001 120 81 50
1.649388e+000 2.708545e+000 -1.416977e+001 128 93 61
2.079160e+000 2.912427e+000 -1.450964e+001 134 114 78
1.829844e+000 2.729267e+000 -1.447854e+001 56 34 21
2.237476e+000 2.535910e+000 -1.421542e+001 56 42 26
2.673543e+000 2.618085e+000 -1.438279e+001 150 126 88
2.793977e+000 2.422247e+000 -1.412623e+001 67 50 30
5.771422e+000 2.742139e+000 -1.509809e+001 111 72 39
2.125549e-001 2.604990e+000 -1.637755e+001 73 65 26
1.740326e+000 2.128242e+000 -1.372028e+001 216 180 145
2.339897e+000 2.131067e+000 -1.382497e+001 62 46 28
3.838532e+000 2.123769e+000 -1.402395e+001 105 70 42
4.213222e+000 2.280093e+000 -1.438743e+001 123 89 61
5.134532e+000 2.327353e+000 -1.469892e+001 115 79 46
5.134532e+000 2.327353e+000 -1.469892e+001 115 79 46
2.005172e+000 1.910954e+000 -1.371580e+001 144 110 69
4.269773e+000 2.088715e+000 -1.432781e+001 79 48 22
5.354686e+000 2.095498e+000 -1.450359e+001 120 81 46
2.059241e+000 1.554577e+000 -1.340139e+001 143 104 68
2.296499e+000 1.759475e+000 -1.345247e+001 77 61 38
2.842267e+000 1.763581e+000 -1.364178e+001 81 63 43
6.758577e+000 1.879783e+000 -1.465077e+001 142 103 62
1.577845e+000 1.322450e+000 -1.393758e+001 175 137 106
1.512217e+000 1.088415e+000 -1.355985e+001 65 59 34
3.043795e+000 1.028301e+000 -1.334197e+001 138 120 96
3.043795e+000 1.028301e+000 -1.334197e+001 138 120 96
-5.978693e-001 1.014581e+000 -1.548631e+001 210 132 124
1.557752e+000 7.320680e-001 -1.352005e+001 71 60 38
1.557752e+000 7.320680e-001 -1.352005e+001 71 60 38
2.374895e+000 7.112832e-001 -1.329485e+001 38 24 13
2.644265e+000 8.555677e-001 -1.333586e+001 66 49 32
3.064560e+000 8.492723e-001 -1.333235e+001 56 37 21
3.064560e+000 8.492723e-001 -1.333235e+001 56 37 21
-9.215043e-001 7.985144e-001 -1.574351e+001 164 94 80
1.137556e+000 5.136649e-001 -1.442180e+001 185 144 81
2.036087e+000 6.380221e-001 -1.303541e+001 125 91 64
2.364793e+000 5.572187e-001 -1.328258e+001 61 44 24
3.242027e+000 6.306660e-001 -1.357962e+001 60 40 16
2.126940e+000 3.521143e-001 -1.339402e+001 112 84 54
2.659997e+000 2.202276e-001 -1.343678e+001 67 53 36
3.003131e+000 3.453083e-001 -1.353749e+001 114 94 68
5.132447e+000 2.435836e-001 -1.435299e+001 98 67 46
5.457368e+000 2.003946e-001 -1.434529e+001 61 34 15
1.878026e+000 1.559212e-001 -1.355032e+001 207 174 141
6.408969e+000 2.073972e-003 -1.485029e+001 79 48 20
7.990943e-001 -1.274110e-001 -1.496779e+001 179 140 109
1.873883e+000 -1.616815e-001 -1.373249e+001 195 161 129
2.963226e+000 -2.201085e-001 -1.348581e+001 38 25 14
3.594779e+000 -3.087926e-001 -1.440334e+001 58 37 20
5.906125e+000 -2.167884e-001 -1.500172e+001 76 51 28
1.842784e+000 -5.814027e-001 -1.431725e+001 213 182 153
1.980167e+000 -3.876368e-001 -1.413921e+001 114 83 55
5.996556e+000 -4.865484e-001 -1.545018e+001 94 68 44
-1.032343e+000 -7.832001e-001 -1.547518e+001 189 124 112
5.385175e+000 -9.832954e-001 -1.579167e+001 92 67 44
5.994906e+000 -1.002149e+000 -1.618123e+001 57 31 14
1.455962e+000 -1.148422e+000 -1.497869e+001 81 73 50
5.138777e+000 -1.182323e+000 -1.591564e+001 98 73 50
1.086036e+000 -1.361369e+000 -1.565244e+001 36 27 12
5.704393e+000 -1.404850e+000 -1.639958e+001 91 66 44
-6.208746e+000 -1.820472e+000 -1.687798e+001 178 137 110
3.545056e+000 -1.932221e+000 -1.620642e+001 103 75 53
4.917889e+000 -1.891215e+000 -1.669672e+001 70 43 22
-9.011779e-001 -1.978127e+000 -1.555490e+001 177 119 107
1.594471e+000 -2.224517e+000 -1.599218e+001 111 77 50
4.600591e+000 -2.438675e+000 -1.731412e+001 61 39 18
1.120720e+000 -2.415176e+000 -1.601293e+001 145 114 90
3.969523e+000 -2.688942e+000 -1.742286e+001 97 71 51
4.413182e+000 -2.427709e+000 -1.716519e+001 73 52 30
6.451953e-001 -2.763191e+000 -1.672676e+001 122 53 56
-1.244247e-001 -3.155525e+000 -1.684323e+001 168 115 101
6.147211e-001 -3.582899e+000 -1.804998e+001 163 110 92
1.026574e+000 -3.046466e+000 -1.674042e+001 100 82 63
5.277752e+000 -3.587288e+000 -1.883335e+001 92 68 44
9.384325e-001 -3.639187e+000 -1.811887e+001 138 100 77
1.099905e+000 -3.993901e+000 -1.796166e+001 203 172 144
3.552333e+000 -4.551692e+000 -1.935921e+001 101 79 55
4.159418e+000 -4.205801e+000 -1.916868e+001 79 54 32
1.001996e+000 -4.490012e+000 -1.848882e+001 200 168 140
1.393748e+000 4.677728e+000 -1.600887e+001 91 71 51
2.555444e+000 4.870555e+000 -1.662607e+001 214 198 179
4.817210e+000 4.391918e+000 -1.621061e+001 107 73 38
5.622896e+000 4.669177e+000 -1.677997e+001 135 97 61
6.882508e-001 4.254255e+000 -1.620957e+001 57 49 26
1.118360e+000 3.900731e+000 -1.532719e+001 167 137 108
4.891894e+000 4.114353e+000 -1.594570e+001 102 65 37
4.655484e+000 4.009455e+000 -1.584372e+001 101 67 40
4.624001e+000 3.983831e+000 -1.574272e+001 101 67 40
5.338379e+000 4.207781e+000 -1.618162e+001 125 90 60
6.438556e-001 3.997302e+000 -1.625703e+001 90 80 55
1.393492e+000 3.269852e+000 -1.472961e+001 214 180 144
3.470294e+000 3.397736e+000 -1.527612e+001 81 53 29
4.057391e+000 3.357633e+000 -1.538708e+001 90 59 31
1.351182e+000 2.880656e+000 -1.500045e+001 157 126 98
4.610972e+000 2.886679e+000 -1.496652e+001 99 64 36
3.767561e+000 2.704367e+000 -1.478063e+001 114 80 53
3.643940e+000 2.573079e+000 -1.480469e+001 106 79 50
4.312374e+000 2.515618e+000 -1.470000e+001 130 95 66
4.863244e+000 2.811975e+000 -1.498343e+001 99 63 37
4.955869e+000 2.543392e+000 -1.481886e+001 100 64 34
2.731046e-002 2.976310e+000 -1.753173e+001 191 151 117
1.386145e+000 2.316530e+000 -1.431477e+001 82 70 42
1.534165e+000 2.363699e+000 -1.409883e+001 139 105 72
1.791090e+000 2.262845e+000 -1.382919e+001 136 98 61
4.333083e+000 2.229896e+000 -1.452432e+001 95 61 33
-4.703421e-001 2.537924e+000 -1.768431e+001 201 159 109
5.273471e+000 2.068148e+000 -1.465917e+001 110 69 37
5.174425e+000 1.875522e+000 -1.430350e+001 146 108 71
2.947753e+000 1.301149e+000 -1.327542e+001 128 110 80
1.843990e+000 1.031053e+000 -1.321539e+001 198 163 122
1.905188e+000 5.206268e-001 -1.339393e+001 112 82 57
2.157483e+000 4.284229e-001 -1.321877e+001 107 76 47
2.977973e+000 2.617009e-001 -1.360270e+001 36 23 14
1.783412e+000 3.419378e-003 -1.375888e+001 126 90 62
2.159490e+000 1.638815e-001 -1.350810e+001 33 20 12
2.763566e+000 -1.456098e-001 -1.348947e+001 34 23 17
2.757050e+000 -1.451711e-001 -1.345912e+001 34 23 17
-1.057717e+000 -5.702080e-001 -1.561712e+001 168 102 87
5.960634e+000 -4.041805e-001 -1.519479e+001 64 42 19
1.208385e+000 -1.171568e+000 -1.499082e+001 81 73 52
1.208385e+000 -1.171568e+000 -1.499082e+001 81 73 52
5.858337e+000 -1.340293e+000 -1.634578e+001 96 72 48
2.570358e-001 -1.441129e+000 -1.587671e+001 149 75 76
2.671280e+000 -1.354615e+000 -1.548789e+001 39 24 11
5.431092e+000 -1.382032e+000 -1.626599e+001 68 43 21
6.047598e+000 -1.669744e+000 -1.678003e+001 89 59 33
-5.931585e+000 -1.844931e+000 -1.671450e+001 140 104 80
-6.204732e-001 -1.966996e+000 -1.555976e+001 187 135 117
1.250083e+000 -2.208805e+000 -1.573774e+001 130 95 67
8.429744e-001 -2.615332e+000 -1.661951e+001 70 53 41
1.448965e+000 -2.489670e+000 -1.624150e+001 164 134 108
3.109215e+000 -2.583080e+000 -1.694154e+001 68 42 25
2.430968e+000 -2.738861e+000 -1.694730e+001 47 33 19
2.567463e+000 -3.099598e+000 -1.761436e+001 121 96 76
7.699678e-001 -3.447184e+000 -1.785958e+001 174 128 104
1.041155e+000 -3.637163e+000 -1.787920e+001 134 94 69
1.042704e+000 -3.958157e+000 -1.830954e+001 138 99 73
3.403670e+000 -3.730459e+000 -1.845865e+001 101 75 56
2.463455e+000 -4.187544e+000 -1.863677e+001 98 72 53
3.763545e+000 -4.227444e+000 -1.911259e+001 74 49 27
1.178722e+000 4.439661e+000 -1.559643e+001 242 209 176
3.080166e+000 4.673812e+000 -1.636402e+001 125 90 60
5.609940e+000 4.625345e+000 -1.637655e+001 134 95 59
5.940253e+000 4.432295e+000 -1.625272e+001 199 157 117
6.005738e+000 4.253820e+000 -1.619670e+001 168 129 94
6.507241e+000 4.186259e+000 -1.646976e+001 66 40 25
4.759225e+000 3.876057e+000 -1.574031e+001 132 97 70
5.600763e-001 3.454511e+000 -1.610918e+001 128 112 78
4.678434e+000 3.488073e+000 -1.547280e+001 139 107 78
5.291919e+000 3.428698e+000 -1.553846e+001 135 100 70
3.442700e+000 2.769310e+000 -1.479916e+001 79 51 29
2.025998e+000 2.220490e+000 -1.402752e+001 77 61 38
6.972995e+000 2.229544e+000 -1.508580e+001 110 75 38
4.199632e-001 1.974427e+000 -1.574277e+001 192 148 111
4.863147e+000 1.779056e+000 -1.413579e+001 95 60 28
1.605517e+000 1.441965e+000 -1.411827e+001 118 82 56
1.602617e+000 1.439911e+000 -1.411033e+001 118 82 56
1.031786e+000 1.175605e+000 -1.471823e+001 168 122 79
-4.611418e-001 1.085555e+000 -1.556402e+001 184 98 93
6.901442e+000 1.002468e+000 -1.439283e+001 131 93 57
2.468398e+000 6.220783e-001 -1.338142e+001 134 112 76
2.275840e+000 2.833833e-001 -1.345241e+001 52 38 24
1.411772e-002 -1.543723e-002 -1.548676e+001 132 56 58
1.194840e+000 1.078564e-001 -1.451638e+001 178 132 48
2.746433e+000 -2.496191e-002 -1.367716e+001 62 48 31
3.397171e+000 3.165960e-002 -1.390421e+001 83 61 41
4.285928e+000 1.551362e-001 -1.411686e+001 71 44 23
3.496540e+000 -1.853124e-001 -1.415006e+001 105 85 63
1.179717e+000 -5.495752e-001 -1.476851e+001 93 62 42
2.448441e-002 -8.269115e-001 -1.551570e+001 151 88 81
2.534840e+000 -1.194427e+000 -1.550722e+001 79 68 47
4.536652e-001 -1.373214e+000 -1.574531e+001 152 104 82
6.152627e-001 -1.510044e+000 -1.614318e+001 105 45 36
-2.687500e-001 -1.746177e+000 -1.574668e+001 100 26 29
3.866527e-001 -2.303727e+000 -1.613146e+001 107 43 37
3.700493e+000 -2.215378e+000 -1.673420e+001 69 45 27
-4.195261e+000 -2.533799e+000 -1.654513e+001 85 50 37
1.071539e-001 -3.031413e+000 -1.673013e+001 171 124 109
1.324263e+000 -2.721777e+000 -1.657118e+001 85 58 37
1.404072e+000 -2.891722e+000 -1.665852e+001 118 95 72
5.821501e-001 -3.501936e+000 -1.824113e+001 109 42 40
2.506293e+000 -3.319724e+000 -1.780124e+001 126 100 79
4.578235e+000 -3.499960e+000 -1.852130e+001 76 51 28
4.076187e+000 -4.498436e+000 -1.950853e+001 88 57 38
4.811504e+000 -4.426511e+000 -1.959771e+001 93 63 39
5.388735e+000 -6.372625e+000 -2.151779e+001 178 150 103
5.440447e+000 -6.752468e+000 -2.107757e+001 175 148 105
1.303337e+000 4.107854e+000 -1.523039e+001 196 163 130
6.362440e-001 4.169005e+000 -1.653968e+001 114 103 75
1.657563e+000 3.379577e+000 -1.484783e+001 43 29 20
4.868200e+000 3.000490e+000 -1.528536e+001 132 98 70
7.780358e-001 2.736686e+000 -1.561148e+001 75 67 44
-1.716849e-001 2.991425e+000 -1.775353e+001 157 109 69
2.161962e+000 2.282247e+000 -1.405761e+001 203 179 146
-2.293026e-001 2.575035e+000 -1.747596e+001 47 28 23
3.597728e+000 2.128629e+000 -1.415057e+001 95 63 40
6.297767e+000 2.105376e+000 -1.454724e+001 112 74 38
5.103445e-001 1.482242e+000 -1.530813e+001 200 155 113
3.092634e+000 1.389491e+000 -1.339410e+001 45 32 16
3.180908e+000 9.924871e-001 -1.337534e+001 67 49 25
5.340263e+000 1.238529e+000 -1.395826e+001 87 53 26
5.340263e+000 1.238529e+000 -1.395826e+001 87 53 26
-2.557014e-001 1.111461e+000 -1.538540e+001 209 141 128
1.620148e+000 2.482854e-001 -1.406901e+001 134 91 61
3.545654e+000 5.774596e-002 -1.389849e+001 118 92 67
6.546339e+000 5.627382e-002 -1.472871e+001 121 90 62
6.584434e+000 5.700602e-002 -1.481197e+001 121 90 62
8.843115e-001 -2.974290e-001 -1.482324e+001 196 158 121
3.630922e+000 -3.131447e-001 -1.440519e+001 60 39 20
6.455038e+000 -1.527472e-001 -1.489743e+001 118 88 60
2.433065e+000 -6.617575e-001 -1.480754e+001 20 12 12
5.083083e+000 -5.923605e-001 -1.524264e+001 103 77 50
1.327071e+000 -9.588404e-001 -1.522334e+001 116 85 60
1.246505e+000 -1.356303e+000 -1.521603e+001 77 70 47
-5.577404e+000 -1.833061e+000 -1.664349e+001 135 94 66
3.978198e+000 -1.855444e+000 -1.640694e+001 106 78 57
4.830570e+000 -1.739128e+000 -1.661414e+001 107 77 51
-5.898690e+000 -2.258651e+000 -1.671832e+001 129 91 70
5.080741e+000 -2.226672e+000 -1.696614e+001 83 60 38
5.174863e+000 -2.651085e+000 -1.783922e+001 74 49 27
1.476084e+000 -3.440066e+000 -1.760585e+001 43 32 20
3.124281e+000 -3.325944e+000 -1.780537e+001 104 76 54
5.487603e-001 -3.684918e+000 -1.816144e+001 160 114 92
1.421089e+000 -3.679824e+000 -1.787769e+001 46 36 25
3.240153e+000 -4.496736e+000 -1.920193e+001 88 63 41
4.703637e+000 -4.586733e+000 -1.952557e+001 187 156 110
5.451091e+000 -4.766774e+000 -2.029299e+001 160 131 92
1.713880e+000 -4.799916e+000 -1.827663e+001 102 90 74
2.336796e+000 4.438010e+000 -1.558389e+001 75 61 42
1.596355e+000 3.775824e+000 -1.512716e+001 50 36 22
4.403721e+000 3.122351e+000 -1.523050e+001 147 112 79
4.403721e+000 3.122351e+000 -1.523050e+001 147 112 79
5.328072e+000 3.141837e+000 -1.535622e+001 92 58 31
2.253714e-001 2.520263e+000 -1.630218e+001 101 83 50
2.253714e-001 2.520263e+000 -1.630218e+001 101 83 50
2.852191e+000 2.365918e+000 -1.403827e+001 82 64 40
6.893456e+000 1.979986e+000 -1.431356e+001 164 121 67
2.096102e+000 1.690678e+000 -1.345206e+001 54 32 18
3.922460e+000 1.745642e+000 -1.392027e+001 127 95 65
5.565221e+000 1.255388e+000 -1.407405e+001 124 88 58
2.190171e+000 5.434017e-001 -1.317486e+001 39 23 14
2.533086e+000 3.847810e-001 -1.346270e+001 63 48 25
3.338743e+000 2.114297e-001 -1.390562e+001 104 79 58
4.441212e+000 -3.292957e-001 -1.429906e+001 80 55 33
6.333047e+000 -3.786861e-001 -1.553617e+001 72 44 22
-3.680795e-001 -1.088465e+000 -1.547435e+001 167 97 91
6.693121e+000 -1.090515e+000 -1.642904e+001 91 62 30
2.739081e+000 -1.370722e+000 -1.565661e+001 60 44 29
6.528844e+000 -1.407995e+000 -1.652241e+001 89 60 27
5.912186e+000 -1.866953e+000 -1.683417e+001 74 48 25
2.541398e+000 3.785739e+000 -1.525013e+001 77 57 42
2.150042e+000 3.152080e+000 -1.464359e+001 57 43 29
2.354947e+000 2.582317e+000 -1.434951e+001 64 48 31
4.461990e-001 2.686865e+000 -1.644394e+001 77 65 39
3.842640e+000 2.424344e+000 -1.460047e+001 130 99 70
4.080658e+000 2.178379e+000 -1.433740e+001 127 92 64
3.671165e+000 1.916625e+000 -1.394952e+001 79 48 27
5.316807e+000 9.711487e-001 -1.402005e+001 70 39 18
2.744333e+000 5.635770e-001 -1.361743e+001 22 14 7
2.744333e+000 5.635770e-001 -1.361743e+001 22 14 7
3.227206e+000 5.110571e-001 -1.390577e+001 59 41 27
6.438595e+000 -6.171271e-001 -1.563693e+001 115 87 57
1.167920e+000 -1.578420e+000 -1.568004e+001 43 34 21
-7.034892e-002 -2.066258e+000 -1.565546e+001 122 54 55
4.947270e+000 -2.840005e+000 -1.781111e+001 111 85 58
6.020130e+000 -4.064452e+000 -1.939935e+001 108 78 43
1.624933e-001 3.046550e+000 -1.721355e+001 186 148 112
4.565474e+000 2.007125e+000 -1.414560e+001 143 107 71
3.134704e+000 7.774640e-001 -1.336138e+001 52 33 16
5.956234e+000 4.478446e-001 -1.421032e+001 90 58 33
4.543692e+000 -4.984428e-002 -1.429393e+001 112 82 55
5.396788e+000 -4.128459e-001 -1.499916e+001 88 65 41
5.910301e+000 -1.139722e+000 -1.606859e+001 69 44 24
3.756354e+000 -4.407668e+000 -1.943127e+001 89 64 42
1.077495e+000 3.284219e+000 -1.544627e+001 56 45 25
6.900093e+000 2.669361e+000 -1.529653e+001 24 18 18
5.062969e+000 1.601205e+000 -1.401065e+001 131 95 59
4.742171e+000 6.187717e-001 -1.395671e+001 120 85 57
4.742171e+000 6.187717e-001 -1.395671e+001 120 85 57
3.863317e+000 -1.044391e-002 -1.420760e+001 64 41 23
5.500406e+000 2.491815e+000 -1.499373e+001 152 109 74
8.136415e-001 2.142258e+000 -1.564117e+001 187 144 99
4.049897e+000 -1.453494e-001 -1.468256e+001 62 40 22
1.318820e+000 -2.171906e+000 -1.581821e+001 131 97 67
-4.104494e+000 -2.882833e+000 -1.754974e+001 63 42 37
3.433851e+000 -4.218855e+000 -1.935768e+001 74 49 29
5.505621e+000 -5.861535e+000 -2.025379e+001 162 136 91
2.042704e+000 4.157368e+000 -1.579146e+001 69 56 38
2.545491e+000 2.529550e-001 -1.294277e+001 50 38 18
-4.098480e+000 -2.633894e+000 -1.394255e+001 85 54 41
2.662842e+000 4.836208e+000 -1.654613e+001 172 146 116
2.375619e+000 4.305514e+000 -1.558088e+001 65 51 32
4.445000e+000 4.155925e+000 -1.595566e+001 103 68 38
4.953173e+000 3.940453e+000 -1.588002e+001 96 64 38
6.543409e+000 4.357923e+000 -1.659782e+001 146 102 67
2.588418e+000 3.515770e+000 -1.504474e+001 81 68 48
3.787838e+000 3.641739e+000 -1.545656e+001 109 77 56
6.534107e-001 3.555114e+000 -1.608094e+001 197 161 127
5.517319e+000 3.525711e+000 -1.569916e+001 117 82 54
5.517319e+000 3.525711e+000 -1.569916e+001 117 82 54
2.307330e+000 3.111681e+000 -1.486813e+001 37 23 12
2.567095e+000 3.059748e+000 -1.467755e+001 136 114 81
2.486330e+000 2.950506e+000 -1.458652e+001 75 53 30
4.576093e+000 2.880017e+000 -1.500396e+001 97 63 35
2.244549e+000 2.657924e+000 -1.439871e+001 63 46 31
3.139133e-001 2.473529e+000 -1.616392e+001 93 73 39
3.649502e-001 2.444819e+000 -1.603007e+001 171 137 91
2.248072e+000 2.211778e+000 -1.395677e+001 64 47 26
3.175967e+000 2.452401e+000 -1.449606e+001 159 129 101
5.300757e+000 2.534883e+000 -1.494155e+001 124 85 49
3.295223e+000 1.849836e+000 -1.388735e+001 170 139 110
2.034361e+000 1.650261e+000 -1.353648e+001 169 129 94
2.388255e+000 1.639720e+000 -1.348187e+001 151 129 101
2.345818e+000 1.606760e+000 -1.349818e+001 70 55 29
2.780942e+000 1.736157e+000 -1.363011e+001 247 232 181
4.679080e+000 1.645590e+000 -1.401202e+001 123 92 61
