ply
format ascii 1.0
element face 0
property list uchar int vertex_indices
element vertex 884
property float x
property float y
property float z
property uchar diffuse_red
property uchar diffuse_green
property uchar diffuse_blue
end_header
1.860295e+000 2.882820e+000 -1.510132e+001 62 41 21
3.494162e+000 2.966332e+000 -1.550741e+001 105 75 51
3.334534e+000 2.901222e+000 -1.540311e+001 104 74 49
-3.107646e-001 2.771378e-001 -1.526910e+001 173 100 87
2.132974e+000 5.554082e-001 -1.336712e+001 158 122 86
3.605904e+000 3.474180e+000 -1.589215e+001 120 85 52
3.952998e+000 3.329791e+000 -1.578415e+001 120 86 59
4.220867e+000 3.111740e+000 -1.566253e+001 123 89 62
4.546117e+000 2.427358e+000 -1.520522e+001 98 64 36
4.345012e+000 1.307277e+000 -1.422736e+001 81 49 26
1.809126e+000 9.211052e-001 -1.408196e+001 141 104 72
3.340211e+000 3.604582e+000 -1.597590e+001 112 77 47
5.710602e+000 3.925174e+000 -1.675901e+001 118 74 36
5.710602e+000 3.925174e+000 -1.675901e+001 118 74 36
3.683966e+000 2.989927e+000 -1.549862e+001 83 53 29
3.638444e+000 2.316775e+000 -1.501555e+001 80 49 22
4.875264e+000 3.901019e+000 -1.655801e+001 139 100 66
4.016487e+000 3.071268e+000 -1.560692e+001 92 59 33
4.753534e+000 3.129901e+000 -1.578051e+001 92 58 30
5.496672e+000 2.857714e+000 -1.576853e+001 119 85 48
3.826923e+000 1.831377e+000 -1.459221e+001 140 106 71
5.527801e+000 8.597320e-001 -1.428766e+001 92 55 28
4.243315e+000 2.387240e-001 -1.412221e+001 82 54 30
3.650401e+000 1.864783e+000 -1.459520e+001 127 94 63
8.762150e-001 6.756575e-001 -1.488237e+001 195 142 102
-3.157942e+000 -2.621027e+000 -1.630399e+001 82 53 42
4.678233e+000 3.848090e+000 -1.639426e+001 97 62 31
4.343215e+000 2.697601e+000 -1.538647e+001 129 95 67
4.517515e+000 1.418319e+000 -1.428909e+001 97 62 32
6.211503e+000 4.982193e+000 -1.508936e+001 93 67 41
1.109090e+000 3.598813e+000 -1.595469e+001 64 51 34
1.354610e+000 3.580024e+000 -1.553465e+001 173 140 109
1.733395e+000 3.577508e+000 -1.555401e+001 45 35 16
1.896847e+000 3.671826e+000 -1.567987e+001 70 58 45
2.019880e+000 3.538851e+000 -1.557967e+001 151 136 107
5.723847e+000 3.993423e+000 -1.676088e+001 172 126 76
4.603248e+000 3.692008e+000 -1.618032e+001 137 100 72
2.051338e+000 3.083587e+000 -1.526984e+001 75 67 54
2.716511e+000 3.208707e+000 -1.551639e+001 137 112 83
4.244949e+000 3.395526e+000 -1.590503e+001 74 44 18
4.244949e+000 3.395526e+000 -1.590503e+001 74 44 18
1.996952e+000 3.012913e+000 -1.523582e+001 64 55 36
3.073507e+000 3.011513e+000 -1.544171e+001 79 48 27
4.182536e+000 3.072949e+000 -1.565632e+001 93 61 36
5.180515e+000 3.290662e+000 -1.601965e+001 85 54 26
1.811211e+000 2.774105e+000 -1.502246e+001 70 53 28
1.834042e+000 2.697563e+000 -1.494368e+001 59 43 19
2.369897e+000 2.655829e+000 -1.495433e+001 71 54 39
4.410481e+000 2.855645e+000 -1.549450e+001 125 91 63
1.649144e+000 2.579670e+000 -1.473192e+001 189 158 127
2.292052e+000 2.650293e+000 -1.488931e+001 68 51 33
4.839955e+000 2.668514e+000 -1.545167e+001 101 67 45
7.222543e-001 1.991581e+000 -1.599202e+001 62 49 22
1.867721e+000 2.072877e+000 -1.439472e+001 76 46 25
2.116902e+000 2.194024e+000 -1.443424e+001 87 76 52
2.651898e+000 2.120222e+000 -1.447881e+001 49 35 21
4.965267e-001 1.299124e+000 -1.586762e+001 178 116 88
3.697557e+000 2.111100e+000 -1.486872e+001 104 77 48
4.097074e+000 2.059195e+000 -1.481508e+001 93 61 35
2.282732e+000 1.690329e+000 -1.408267e+001 53 40 23
3.069448e+000 1.803305e+000 -1.441663e+001 141 115 92
4.777696e+000 1.842840e+000 -1.471334e+001 124 89 57
6.647917e-001 1.008921e+000 -1.516516e+001 172 99 84
2.636774e+000 1.615354e+000 -1.409135e+001 64 52 30
8.069596e-001 8.182913e-001 -1.494722e+001 209 164 122
1.933497e+000 1.353280e+000 -1.362797e+001 202 167 129
2.013053e+000 1.158381e+000 -1.356984e+001 191 156 119
4.169343e+000 1.302745e+000 -1.418182e+001 86 54 29
-2.213762e+000 -1.000436e+000 -1.729153e+001 148 99 82
3.465490e+000 1.163044e+000 -1.373947e+001 122 91 62
5.749982e+000 1.075236e+000 -1.441188e+001 73 41 14
2.947418e+000 9.101594e-001 -1.358225e+001 135 120 86
1.522119e+000 1.843589e-001 -1.431982e+001 139 101 55
3.042858e+000 7.056486e-001 -1.352810e+001 66 50 29
6.023831e+000 6.713218e-001 -1.452100e+001 106 69 40
5.666692e-001 -7.505824e-001 -1.575764e+001 149 87 78
5.666692e-001 -7.505824e-001 -1.575764e+001 149 87 78
2.084721e+000 2.764138e-001 -1.340852e+001 164 133 104
2.504296e+000 3.398068e-001 -1.349865e+001 243 222 180
2.564729e+000 3.415746e-001 -1.348586e+001 208 188 153
2.531352e+000 3.005033e-001 -1.348817e+001 82 65 45
6.102894e+000 5.413408e+000 -1.463942e+001 121 85 49
6.272124e+000 5.396970e+000 -1.461676e+001 103 76 49
1.200209e+000 3.785561e+000 -1.589302e+001 211 182 150
3.467236e+000 3.907484e+000 -1.626410e+001 153 119 84
4.997465e+000 4.105606e+000 -1.686597e+001 137 99 63
1.377979e+000 3.529457e+000 -1.545363e+001 127 93 65
1.696340e+000 3.515946e+000 -1.550534e+001 68 56 41
3.579082e+000 3.780686e+000 -1.609940e+001 102 68 40
1.029232e+000 3.204439e+000 -1.564001e+001 151 117 80
1.526163e+000 3.343184e+000 -1.537674e+001 130 99 69
1.544203e+000 3.274229e+000 -1.527969e+001 116 87 57
5.780201e+000 3.813794e+000 -1.660117e+001 166 120 70
3.438519e+000 3.345587e+000 -1.576792e+001 79 47 24
4.001215e+000 3.372844e+000 -1.583263e+001 85 55 31
4.577478e+000 3.354397e+000 -1.593306e+001 97 63 36
4.577478e+000 3.354397e+000 -1.593306e+001 97 63 36
2.795043e+000 2.946547e+000 -1.535491e+001 132 100 75
3.129497e+000 2.918021e+000 -1.540326e+001 75 49 27
4.007269e+000 3.054356e+000 -1.565864e+001 84 52 27
4.115870e+000 3.088467e+000 -1.569601e+001 112 82 58
2.819247e+000 2.861444e+000 -1.532257e+001 128 100 71
3.267412e+000 2.908924e+000 -1.542166e+001 72 44 22
4.191500e+000 2.842127e+000 -1.550683e+001 82 53 27
1.967118e+000 2.503257e+000 -1.478153e+001 82 67 46
9.969251e-001 2.018718e+000 -1.543296e+001 72 66 41
4.552874e+000 2.564522e+000 -1.540576e+001 74 43 23
4.587054e+000 2.524310e+000 -1.530095e+001 85 53 30
2.072761e+000 2.110530e+000 -1.440809e+001 36 23 14
2.072761e+000 2.110530e+000 -1.440809e+001 36 23 14
2.177311e+000 2.212629e+000 -1.455442e+001 39 30 13
4.325267e+000 2.270203e+000 -1.504028e+001 102 74 46
2.275422e+000 1.801228e+000 -1.410416e+001 119 104 77
2.710667e+000 1.813237e+000 -1.419356e+001 138 121 95
1.910727e+000 1.490493e+000 -1.375671e+001 247 222 187
2.235779e+000 1.450427e+000 -1.395949e+001 70 53 35
5.510207e+000 1.680353e+000 -1.464902e+001 113 76 46
1.301016e+000 7.666171e-001 -1.479569e+001 181 138 94
4.377398e+000 1.247239e+000 -1.413675e+001 87 53 24
5.365574e+000 1.338339e+000 -1.439573e+001 99 64 36
2.034766e+000 9.362001e-001 -1.342586e+001 166 132 95
2.975675e+000 9.685878e-001 -1.352080e+001 56 41 22
1.340512e+000 1.708972e-001 -1.447470e+001 150 103 36
1.651585e+000 2.553334e-001 -1.404791e+001 74 63 36
2.005941e+000 6.752066e-001 -1.333003e+001 208 174 137
3.811172e+000 5.113370e-001 -1.390943e+001 67 39 17
4.847795e+000 5.065449e-001 -1.420292e+001 77 45 20
-4.070093e+000 -2.198837e+000 -1.616658e+001 114 77 55
5.338675e+000 -1.255554e+000 -1.640753e+001 66 42 18
6.250209e+000 5.334009e+000 -1.468692e+001 104 72 44
1.541956e+000 3.815291e+000 -1.600707e+001 70 60 47
3.805081e+000 3.932554e+000 -1.641968e+001 140 107 73
1.320612e+000 3.507104e+000 -1.552942e+001 173 141 111
1.320612e+000 3.507104e+000 -1.552942e+001 173 141 111
5.068518e+000 3.956088e+000 -1.651151e+001 104 68 36
1.091358e+000 3.234559e+000 -1.570744e+001 162 130 99
1.462385e+000 2.573254e+000 -1.502429e+001 110 82 57
3.829609e+000 2.942765e+000 -1.553133e+001 89 59 35
3.823279e+000 2.852716e+000 -1.556838e+001 80 53 26
4.321226e+000 2.988711e+000 -1.566151e+001 85 53 28
5.475388e-001 2.004759e+000 -1.615622e+001 109 102 61
5.475388e-001 2.004759e+000 -1.615622e+001 109 102 61
2.881587e+000 2.604686e+000 -1.511194e+001 127 100 73
3.576926e+000 2.716198e+000 -1.531995e+001 92 62 37
4.275353e+000 2.411476e+000 -1.511558e+001 92 61 32
6.440721e+000 3.055469e+000 -1.417470e+001 174 136 82
2.120045e+000 2.052494e+000 -1.439057e+001 39 26 16
1.173655e+000 1.589712e+000 -1.509360e+001 139 93 57
1.939155e+000 1.835152e+000 -1.411781e+001 141 105 69
2.254611e+000 2.005965e+000 -1.431423e+001 49 40 23
3.917992e+000 1.851090e+000 -1.441758e+001 111 79 54
4.572755e+000 1.880740e+000 -1.476339e+001 95 65 34
-8.892097e-001 -1.496308e-001 -1.572065e+001 141 87 61
1.190396e+000 5.276358e-001 -1.477291e+001 194 152 117
1.381779e+000 6.528948e-001 -1.450933e+001 198 162 126
1.558785e+000 6.642373e-001 -1.411610e+001 51 40 22
1.948889e+000 9.954430e-001 -1.346751e+001 185 151 114
1.808008e+000 6.993883e-001 -1.348809e+001 77 66 38
2.177999e+000 5.804573e-001 -1.336713e+001 109 74 44
2.136876e+000 3.561592e-001 -1.335006e+001 213 182 153
2.631717e+000 2.625647e-001 -1.357696e+001 37 27 15
2.318364e+000 1.521927e-001 -1.350689e+001 107 71 39
-4.147081e-001 -1.387246e+000 -1.527608e+001 186 129 110
1.440854e+000 3.722155e+000 -1.574333e+001 47 35 28
1.796012e+000 3.610803e+000 -1.560686e+001 47 35 23
3.905856e+000 3.705280e+000 -1.603965e+001 143 110 79
3.439731e+000 3.605423e+000 -1.596496e+001 139 102 72
4.151547e+000 3.612882e+000 -1.609065e+001 96 61 33
4.534521e+000 3.429042e+000 -1.595833e+001 129 99 70
5.555442e+000 3.477315e+000 -1.615716e+001 128 93 65
1.039593e+000 2.669918e+000 -1.552701e+001 191 164 130
4.030863e+000 3.212912e+000 -1.571658e+001 115 88 61
3.428282e+000 2.816497e+000 -1.536128e+001 100 74 49
3.755226e+000 2.955371e+000 -1.550071e+001 107 81 56
2.096055e+000 2.532643e+000 -1.472223e+001 47 35 20
5.748467e-001 1.758207e+000 -1.604288e+001 177 140 99
2.381457e-001 1.503763e+000 -1.666546e+001 144 98 70
1.739547e+000 2.144322e+000 -1.451916e+001 143 108 73
5.549257e-001 1.346332e+000 -1.583153e+001 203 152 117
2.697590e+000 1.918951e+000 -1.434343e+001 102 86 59
8.378483e-001 1.098407e+000 -1.536897e+001 203 160 119
1.869849e+000 1.399571e+000 -1.378164e+001 147 114 83
4.143722e+000 1.531722e+000 -1.446295e+001 86 55 27
4.116778e+000 1.403079e+000 -1.427855e+001 89 56 28
2.156800e+000 1.107468e+000 -1.352502e+001 131 95 59
1.394336e+000 5.826022e-001 -1.444409e+001 169 127 90
6.757540e+000 4.711544e-001 -1.560559e+001 131 99 60
3.253473e+000 3.940112e-001 -1.377088e+001 107 82 60
3.885814e+000 2.205846e-001 -1.408522e+001 80 52 28
-4.585309e+000 -2.133950e+000 -1.632058e+001 114 77 61
4.906706e+000 5.022120e+000 -2.142667e+001 160 123 85
6.170132e+000 5.068976e+000 -1.494531e+001 118 84 57
1.217648e+000 2.864472e+000 -1.499819e+001 139 125 88
4.736839e+000 3.141733e+000 -1.573134e+001 87 55 28
4.938466e+000 3.292962e+000 -1.598888e+001 116 82 55
5.522666e+000 2.581622e+000 -1.553087e+001 90 56 28
2.867580e-001 1.485266e+000 -1.632570e+001 189 124 104
4.157121e+000 2.280589e+000 -1.502568e+001 122 95 65
4.592555e-001 1.380098e+000 -1.595557e+001 174 109 79
3.929418e+000 2.143851e+000 -1.474778e+001 117 84 57
-3.672813e-001 5.905903e-001 -1.587481e+001 178 105 97
-2.966353e-001 5.123663e-001 -1.576510e+001 140 73 64
-2.587159e-002 6.191524e-001 -1.538642e+001 172 81 80
4.029438e+000 1.481461e+000 -1.424553e+001 111 79 54
1.270072e+000 7.891166e-001 -1.470792e+001 183 140 97
2.009150e+000 1.109303e+000 -1.345723e+001 223 193 158
4.427426e+000 1.303760e+000 -1.413883e+001 127 93 62
5.264044e+000 1.254861e+000 -1.421105e+001 123 88 58
1.405178e+000 2.025191e-001 -1.441795e+001 169 125 61
2.636298e+000 5.996021e-001 -1.355626e+001 41 24 14
3.293586e+000 6.143989e-001 -1.377357e+001 124 98 75
1.514022e+000 -1.845194e-001 -1.441209e+001 118 77 28
2.261940e+000 4.524154e-001 -1.336700e+001 132 101 72
-1.525247e-001 -1.460429e+000 -1.529319e+001 132 64 59
3.744058e+000 3.756420e+000 -1.625199e+001 138 104 73
2.256368e+000 3.311755e+000 -1.540709e+001 72 61 43
4.673891e+000 2.780985e+000 -1.552210e+001 87 56 30
4.805153e+000 2.853466e+000 -1.555729e+001 131 97 69
1.198261e+000 2.047878e+000 -1.546702e+001 152 116 82
2.375729e+000 2.402789e+000 -1.467193e+001 78 62 39
-6.857400e-003 7.857111e-001 -1.597307e+001 187 106 103
-4.030097e-001 3.182325e-001 -1.541115e+001 181 103 91
1.079399e+000 4.841854e-001 -1.498009e+001 128 70 46
-2.206287e-001 -1.961295e-001 -1.516302e+001 167 97 88
2.313836e+000 5.421321e-001 -1.351580e+001 54 31 18
5.908643e+000 6.589225e-001 -1.440275e+001 107 74 43
5.781869e-001 -1.530285e+000 -1.564252e+001 106 40 41
4.571542e+000 4.063811e+000 -1.696469e+001 103 67 37
1.070027e+000 3.062630e+000 -1.551295e+001 185 154 118
5.147515e+000 2.639393e+000 -1.548690e+001 125 90 60
4.047439e+000 1.896567e+000 -1.472714e+001 90 60 36
1.941222e-001 7.867696e-001 -1.577989e+001 148 72 65
1.571854e-001 6.754045e-001 -1.537399e+001 201 132 117
-9.489688e-001 -1.886858e-001 -1.574155e+001 160 104 77
-4.112022e+000 -1.792255e+000 -1.676253e+001 88 75 67
-4.112022e+000 -1.792255e+000 -1.676253e+001 88 75 67
4.881511e-001 -1.166790e+000 -1.548162e+001 127 58 51
4.047866e+000 2.541130e+000 -1.522877e+001 137 103 75
1.896557e+000 2.112799e+000 -1.447627e+001 58 35 19
3.676784e+000 5.016619e-001 -1.391769e+001 64 37 18
3.155569e+000 4.254464e-001 -1.373721e+001 35 22 8
1.926059e+000 -5.362801e-001 -1.445236e+001 124 88 62
2.641835e+000 3.668719e+000 -1.594311e+001 172 143 113
1.226665e+000 2.981534e+000 -1.530955e+001 79 69 46
7.307005e-001 1.104588e+000 -1.571042e+001 137 91 67
1.532530e+000 8.135018e-001 -1.424183e+001 182 147 113
-3.822754e+000 -1.930145e+000 -1.652305e+001 178 142 114
5.769416e+000 4.040958e+000 -1.610784e+001 176 129 81
9.103071e-001 1.772263e+000 -1.546414e+001 192 153 112
4.630175e+000 5.016671e+000 -1.878866e+001 159 126 84
1.762685e+000 -2.082997e+000 -1.597759e+001 222 193 168
5.627124e+000 -3.102152e+000 -1.914346e+001 107 83 59
2.172641e+000 5.293119e-001 -1.335643e+001 119 84 56
-5.578449e-001 -1.481082e+000 -1.537945e+001 168 100 97
3.241218e+000 -3.579183e+000 -1.848236e+001 90 64 51
5.495393e+000 -4.789320e-001 -1.550235e+001 76 60 37
-9.812615e-001 -3.355239e-001 -1.582445e+001 155 107 84
4.922983e+000 8.618662e-001 -1.419488e+001 134 98 68
6.105088e+000 9.025066e-001 -1.436207e+001 156 118 82
5.815438e+000 7.713389e-001 -1.447292e+001 122 85 56
4.090946e+000 2.606168e-001 -1.412232e+001 74 46 24
5.030930e+000 1.994734e-001 -1.443013e+001 83 51 27
5.894201e+000 2.681172e-001 -1.436620e+001 112 78 51
5.753377e+000 -4.022714e-001 -1.566803e+001 100 73 54
4.880435e+000 -6.563364e-001 -1.561761e+001 93 67 50
-7.641053e-001 -8.844407e-001 -1.564116e+001 189 130 122
4.506720e+000 -2.176342e+000 -1.729083e+001 69 50 33
-2.556756e+000 -2.217414e+000 -1.686482e+001 156 123 104
-4.172612e+000 -2.660079e+000 -1.611059e+001 140 98 78
-3.946308e+000 -2.957204e+000 -1.611492e+001 137 99 78
8.404347e-001 -3.310754e+000 -1.784260e+001 146 98 89
4.132917e+000 4.142878e-001 -1.403483e+001 118 84 59
1.000091e+000 3.261967e-001 -1.481562e+001 226 191 161
4.323151e+000 1.251435e-002 -1.432440e+001 99 69 45
6.353202e+000 1.219743e-001 -1.520121e+001 83 58 32
3.960872e+000 -2.151512e-001 -1.452104e+001 77 52 32
7.302246e-001 3.024615e-002 -1.528618e+001 132 53 56
1.603658e+000 -5.242178e-001 -1.437258e+001 187 152 120
5.384732e+000 -2.891953e-001 -1.526033e+001 55 33 13
5.445895e+000 -8.475159e-001 -1.601102e+001 65 44 27
4.967533e+000 -1.028332e+000 -1.601067e+001 67 45 24
3.037783e+000 -1.409915e+000 -1.585553e+001 98 75 62
4.018615e+000 -1.555142e+000 -1.630322e+001 77 53 33
4.953044e+000 -1.800639e+000 -1.686330e+001 76 51 31
5.393785e+000 -1.787316e+000 -1.697383e+001 94 72 49
-4.682002e+000 -3.551881e+000 -1.650155e+001 170 94 106
1.344827e+000 1.145497e+000 -1.464439e+001 199 161 127
2.239123e+000 5.319625e-002 -1.345585e+001 136 102 75
5.031834e+000 -4.345617e-001 -1.519260e+001 91 69 50
5.459441e+000 -4.086615e-001 -1.555007e+001 74 51 33
4.466143e+000 -9.000663e-001 -1.571404e+001 52 31 12
3.769080e+000 -1.075628e+000 -1.555093e+001 105 78 57
4.506972e+000 -1.094135e+000 -1.589010e+001 75 53 32
5.267818e+000 -1.039056e+000 -1.611055e+001 71 48 30
-2.936120e-001 -1.395368e+000 -1.527142e+001 212 163 150
4.419613e+000 -2.209517e+000 -1.726897e+001 93 70 52
4.763251e+000 -2.347631e+000 -1.765639e+001 87 66 47
4.830309e+000 -2.390926e+000 -1.769547e+001 66 45 28
-4.556390e+000 -2.860651e+000 -1.628419e+001 141 95 71
3.361602e+000 -3.532035e+000 -1.854833e+001 101 80 63
4.749076e+000 3.248078e-001 -1.421171e+001 125 93 67
5.646620e+000 5.609413e-001 -1.449776e+001 134 99 69
6.251768e+000 2.957360e-001 -1.474266e+001 120 90 61
7.268469e-001 2.724864e-001 -1.502716e+001 191 111 114
1.407905e+000 -1.272992e-001 -1.452448e+001 203 157 79
1.470091e+000 -3.257725e-002 -1.441442e+001 201 155 70
5.489927e+000 -8.317415e-002 -1.497141e+001 110 83 56
4.669215e+000 -4.623521e-001 -1.517540e+001 66 39 20
5.516289e+000 -8.427398e-001 -1.595266e+001 98 75 55
1.244103e+000 -1.366965e+000 -1.562699e+001 60 48 28
3.830987e+000 -1.353097e+000 -1.599264e+001 101 76 54
3.279350e+000 -2.031836e+000 -1.661476e+001 94 73 56
4.019651e+000 -2.125471e+000 -1.697841e+001 58 36 22
3.835559e+000 -2.480702e+000 -1.745356e+001 67 46 28
4.378514e+000 -2.602136e+000 -1.774503e+001 106 79 60
4.596946e+000 -2.652793e+000 -1.802875e+001 110 85 63
3.774412e+000 -2.973569e+000 -1.798234e+001 104 82 61
4.126835e+000 -3.094392e+000 -1.831742e+001 72 49 33
3.577298e+000 -3.583439e+000 -1.868297e+001 95 71 54
4.125942e+000 -3.676823e+000 -1.898238e+001 80 57 39
9.681969e-001 -3.995165e+000 -1.824892e+001 144 109 87
4.344896e+000 1.639276e-001 -1.426098e+001 128 97 72
1.965108e+000 -5.611541e-001 -1.440320e+001 128 97 74
1.923165e+000 -7.383553e-001 -1.465822e+001 111 82 60
3.809826e+000 -7.465331e-001 -1.527157e+001 65 39 22
4.736708e+000 -1.476827e+000 -1.637015e+001 90 63 41
2.099468e-001 -2.014961e+000 -1.556731e+001 185 141 127
1.056673e+000 -1.975610e+000 -1.610070e+001 165 110 111
1.181926e+000 -2.281013e+000 -1.646381e+001 140 102 98
3.243271e+000 -2.404879e+000 -1.708894e+001 92 71 55
2.269462e+000 -2.684522e+000 -1.697466e+001 96 84 68
3.853919e+000 -2.652364e+000 -1.760729e+001 77 51 36
-3.680016e+000 -3.006875e+000 -1.630109e+001 116 79 60
9.694644e-001 -3.118684e+000 -1.773277e+001 103 41 49
8.314786e-001 -3.569447e+000 -1.806108e+001 139 96 75
1.111216e+000 -3.655384e+000 -1.796645e+001 185 153 130
7.828377e-001 -3.800320e+000 -1.831196e+001 178 144 119
1.803858e+000 2.135821e-002 -1.403858e+001 146 105 76
3.430769e+000 -2.839572e-001 -1.430557e+001 117 97 74
2.168211e+000 -7.571796e-001 -1.415735e+001 49 46 32
4.948656e+000 -6.394382e-001 -1.555889e+001 59 38 20
5.651400e+000 -7.813692e-001 -1.593500e+001 84 57 36
4.971073e+000 -1.251042e+000 -1.625667e+001 71 52 35
3.678034e+000 -1.586058e+000 -1.615953e+001 72 46 29
4.306962e+000 -1.883970e+000 -1.675074e+001 102 80 59
2.438217e+000 -3.063225e+000 -1.769672e+001 79 61 44
3.917586e+000 -3.017751e+000 -1.817991e+001 68 45 29
7.085389e-001 5.150820e-003 -1.518619e+001 146 65 69
5.738974e+000 -2.648009e-001 -1.512455e+001 87 59 38
7.969808e-002 -2.392948e-001 -1.522745e+001 162 76 85
1.559478e+000 -6.132471e-001 -1.475829e+001 116 78 54
3.848584e+000 -6.269595e-001 -1.507621e+001 103 78 57
4.677027e+000 -1.802404e+000 -1.676753e+001 100 75 53
4.675061e+000 -1.801978e+000 -1.676816e+001 100 75 53
3.291349e+000 -2.496713e+000 -1.734892e+001 94 71 53
2.931472e+000 -3.139458e+000 -1.802717e+001 82 56 41
9.530165e-001 -3.383552e+000 -1.801279e+001 157 120 101
9.527417e-001 -3.380287e+000 -1.802405e+001 157 120 101
3.106090e+000 -3.728389e+000 -1.864767e+001 109 83 68
5.177045e+000 -1.710873e-001 -1.479103e+001 119 91 68
4.350220e+000 -7.885583e-001 -1.542689e+001 109 81 60
9.258854e-001 -1.514068e+000 -1.582604e+001 111 48 43
4.563094e+000 -1.511892e+000 -1.646978e+001 104 77 57
4.169851e+000 -1.730149e+000 -1.644488e+001 109 88 65
5.401486e+000 -1.650339e+000 -1.674431e+001 83 58 38
3.519438e+000 -1.843366e+000 -1.642622e+001 95 73 52
4.652551e+000 -3.553912e-001 -1.493496e+001 111 85 60
4.989584e+000 -3.643507e-001 -1.502928e+001 89 65 42
1.570017e+000 -1.716449e+000 -1.541180e+001 83 71 57
7.298192e-001 -2.819234e+000 -1.704660e+001 103 40 48
5.309426e+000 -3.318818e+000 -1.895523e+001 121 97 73
4.353949e+000 -1.264039e-001 -1.450581e+001 125 93 74
3.521835e+000 -8.432707e-001 -1.523861e+001 69 48 32
1.271878e+000 -3.687976e+000 -1.793212e+001 140 104 82
5.093365e+000 -1.021051e+000 -1.590186e+001 76 53 35
1.809593e+000 5.739055e-001 -1.342961e+001 202 193 164
2.295476e+000 5.515267e-001 -1.347474e+001 181 148 120
2.511137e+000 6.564627e-001 -1.351819e+001 253 246 210
2.540902e+000 6.305074e-001 -1.352802e+001 99 82 64
2.976804e+000 5.740387e-001 -1.360375e+001 89 71 55
2.185627e+000 2.671277e-001 -1.348019e+001 255 239 215
2.502395e+000 3.547018e-001 -1.361357e+001 93 76 65
3.045925e+000 4.647254e-001 -1.363140e+001 92 74 52
3.095946e+000 4.985450e-001 -1.367526e+001 139 115 89
3.195742e+000 3.077745e-001 -1.376135e+001 126 99 71
5.477400e+000 9.117435e-001 -1.428195e+001 147 106 69
5.477400e+000 9.117435e-001 -1.428195e+001 147 106 69
5.654771e+000 8.522281e-001 -1.427934e+001 145 100 67
5.585016e+000 7.544550e-001 -1.426796e+001 204 165 126
9.782362e-001 2.199033e+000 -1.522759e+001 162 134 110
1.667055e+000 4.765418e-001 -1.393348e+001 115 109 83
2.076358e+000 3.336838e-001 -1.366961e+001 166 135 107
2.095166e+000 2.173674e-001 -1.357191e+001 220 190 162
2.197968e+000 5.628970e-002 -1.363985e+001 155 121 94
2.691537e+000 2.602148e-001 -1.370199e+001 83 67 48
1.551245e+000 4.778626e-001 -1.413029e+001 204 189 165
2.126782e+000 2.863121e-002 -1.372889e+001 161 130 102
2.555987e+000 -2.414005e-002 -1.379148e+001 128 112 89
2.931598e+000 1.110517e-001 -1.387916e+001 254 252 232
4.734115e+000 1.924608e-001 -1.429030e+001 134 99 70
5.090178e+000 6.849120e-002 -1.442853e+001 146 109 80
5.924135e+000 3.039207e-001 -1.457187e+001 175 133 93
2.262820e+000 -2.624105e-001 -1.395780e+001 179 142 115
4.783041e+000 -1.007685e-001 -1.445177e+001 135 100 72
6.746295e+000 -7.589872e-001 -1.394027e+001 199 167 113
1.637541e+000 -5.450057e-003 -1.440255e+001 226 195 165
2.092037e+000 -4.711985e-001 -1.413511e+001 245 222 198
4.249220e+000 -2.828390e-001 -1.464100e+001 117 86 58
4.849687e+000 -3.713455e-001 -1.466762e+001 128 94 66
5.504171e+000 -5.274604e-002 -1.483752e+001 136 97 68
5.504171e+000 -5.274604e-002 -1.483752e+001 136 97 68
2.726897e+000 -8.658678e-001 -1.403035e+001 143 128 107
3.037629e+000 -7.211449e-001 -1.416172e+001 66 50 37
4.304639e+000 -4.209289e-001 -1.484088e+001 123 91 66
4.382001e+000 -3.072544e-001 -1.480376e+001 98 67 38
4.382937e+000 -3.026545e-001 -1.480844e+001 98 67 38
1.270995e+000 -5.165487e-001 -1.460358e+001 236 206 172
4.333112e+000 -4.556874e-001 -1.497235e+001 140 108 83
4.333112e+000 -4.556874e-001 -1.497235e+001 140 108 83
4.339532e+000 -5.494631e-001 -1.515622e+001 107 75 51
8.933696e-001 -9.383014e-002 -1.528269e+001 188 108 111
3.615636e+000 -6.969631e-001 -1.510215e+001 76 49 32
4.699354e+000 -7.179874e-001 -1.539409e+001 144 113 88
4.802664e+000 -7.167346e-001 -1.542499e+001 94 66 42
5.035003e+000 -5.617255e-001 -1.529457e+001 95 64 42
5.077709e+000 -4.808753e-001 -1.539963e+001 95 64 42
5.039034e+000 -5.385322e-001 -1.549350e+001 122 94 70
5.149789e+000 -6.256479e-001 -1.537684e+001 89 61 37
1.890921e-001 -3.682361e-001 -1.519362e+001 215 122 134
2.364465e+000 -9.239640e-001 -1.489176e+001 52 39 30
2.613171e+000 -7.784723e-001 -1.504231e+001 111 100 86
2.667580e+000 -9.260409e-001 -1.512166e+001 91 82 67
2.981968e+000 -8.657349e-001 -1.524419e+001 177 156 142
4.909363e+000 -8.705288e-001 -1.550739e+001 98 70 46
4.972665e+000 -7.491824e-001 -1.567442e+001 98 70 46
4.952103e+000 -9.044681e-001 -1.561997e+001 126 96 70
6.136046e+000 -7.502853e-001 -1.593814e+001 170 134 82
2.598175e+000 -1.063583e+000 -1.532049e+001 64 51 42
5.044190e+000 -9.896511e-001 -1.595667e+001 103 72 47
2.689809e+000 -1.281585e+000 -1.532074e+001 104 88 73
3.080437e+000 -1.209766e+000 -1.549990e+001 153 126 106
-2.626439e-001 -1.254809e+000 -1.534968e+001 194 111 107
-2.626439e-001 -1.254809e+000 -1.534968e+001 194 111 107
1.077429e+000 -1.138995e+000 -1.580531e+001 168 94 91
2.617868e+000 -1.488726e+000 -1.575207e+001 58 47 30
5.493070e+000 -1.275343e+000 -1.630802e+001 143 110 77
1.514893e+000 -1.803296e+000 -1.561358e+001 156 119 88
2.143046e+000 -1.648399e+000 -1.564417e+001 60 45 37
2.635408e+000 -1.619093e+000 -1.573286e+001 174 157 139
5.461672e+000 -1.368534e+000 -1.652835e+001 121 86 54
5.147200e+000 -1.516947e+000 -1.641428e+001 149 119 92
2.448516e+000 -1.788984e+000 -1.596396e+001 126 117 99
5.466262e+000 -1.606157e+000 -1.683390e+001 133 100 69
5.935193e+000 -1.623221e+000 -1.688012e+001 102 69 34
2.023425e+000 -1.945473e+000 -1.608922e+001 59 41 33
3.663833e+000 -1.924297e+000 -1.665797e+001 66 39 18
1.734723e+000 -2.337729e+000 -1.620022e+001 161 132 108
2.164640e+000 -2.163245e+000 -1.634431e+001 113 99 85
2.924954e+000 -2.050301e+000 -1.651654e+001 149 125 101
3.797536e+000 -2.071960e+000 -1.696311e+001 119 90 72
4.116613e+000 -2.059555e+000 -1.688645e+001 94 66 44
5.317141e+000 -1.957162e+000 -1.710163e+001 117 90 60
5.215657e+000 -1.964855e+000 -1.720527e+001 120 89 68
4.890276e-001 -2.383793e+000 -1.637005e+001 205 140 140
1.172911e+000 -2.375395e+000 -1.650920e+001 102 79 59
2.867269e+000 -2.235741e+000 -1.668774e+001 135 109 92
-1.474869e+000 -2.017753e+000 -1.678998e+001 130 90 78
1.121940e+000 -2.458813e+000 -1.677902e+001 59 54 41
1.556000e+000 -2.538727e+000 -1.638465e+001 156 162 147
1.926207e+000 -2.410304e+000 -1.677385e+001 85 70 53
1.998387e+000 -2.489566e+000 -1.677123e+001 75 59 45
2.132124e+000 -2.367836e+000 -1.677224e+001 91 77 64
-4.559724e+000 -2.166110e+000 -1.645841e+001 145 100 71
-3.516742e+000 -2.456379e+000 -1.644888e+001 177 146 125
2.445620e-001 -2.627539e+000 -1.681229e+001 173 102 104
4.212427e-001 -2.762007e+000 -1.669746e+001 231 179 168
2.025506e+000 -2.582421e+000 -1.709906e+001 69 57 41
-4.449819e+000 -2.513508e+000 -1.655284e+001 169 121 92
1.919008e-001 -2.756813e+000 -1.686178e+001 217 156 151
2.447604e+000 -2.775555e+000 -1.718425e+001 99 83 60
2.569632e+000 -2.879571e+000 -1.741284e+001 142 121 104
3.998394e+000 -2.796996e+000 -1.781381e+001 124 98 75
1.530629e+000 -3.003670e+000 -1.735704e+001 201 173 152
1.768052e+000 -2.924429e+000 -1.751948e+001 99 89 71
1.535985e+000 -3.133961e+000 -1.738869e+001 172 141 113
7.979059e-001 -3.284475e+000 -1.760214e+001 187 128 124
-4.871352e+000 -3.467074e+000 -1.679230e+001 206 125 132
-1.264065e-001 -3.323916e+000 -1.813839e+001 216 140 145
4.512778e-001 -3.593771e+000 -1.858059e+001 196 154 137
8.331404e-001 -3.610203e+000 -1.821162e+001 156 112 90
1.607153e+000 -3.687625e+000 -1.842021e+001 54 41 33
1.682897e+000 -3.755938e+000 -1.846723e+001 45 36 34
1.213054e+000 2.229658e+000 -1.487923e+001 105 91 62
2.699430e+000 7.317063e-001 -1.362157e+001 88 79 64
2.472488e+000 4.487755e-001 -1.353338e+001 83 72 54
4.917897e+000 6.630376e-001 -1.413316e+001 125 90 58
4.731387e+000 5.314808e-001 -1.410091e+001 141 102 71
4.991051e+000 6.995564e-001 -1.414329e+001 178 138 103
5.267713e+000 8.508846e-001 -1.422327e+001 146 106 70
1.554631e+000 6.082989e-001 -1.406954e+001 89 81 62
1.629703e+000 5.663411e-001 -1.409008e+001 128 120 99
2.742500e+000 1.567035e-002 -1.370745e+001 117 99 77
2.981266e+000 1.915593e-001 -1.371392e+001 98 75 57
3.134245e+000 1.407116e-001 -1.379219e+001 146 120 84
5.484817e+000 4.048772e-001 -1.434239e+001 141 98 64
5.504744e+000 4.440481e-001 -1.438498e+001 141 98 64
5.882575e+000 3.774788e-001 -1.449385e+001 155 111 72
1.583465e+000 4.962595e-001 -1.409489e+001 89 80 67
1.498763e+000 4.480562e-001 -1.418895e+001 196 166 139
3.981155e+000 7.757671e-002 -1.422118e+001 133 99 71
5.214604e+000 1.272832e-001 -1.437451e+001 165 124 92
5.255955e+000 1.187714e-001 -1.452311e+001 158 119 86
5.869821e+000 2.167609e-001 -1.465529e+001 115 77 41
2.198111e+000 -2.869234e-001 -1.379546e+001 141 105 76
2.124120e+000 -3.145367e-001 -1.392111e+001 193 157 132
2.080957e+000 -2.933666e-001 -1.398865e+001 253 242 224
2.305691e+000 -1.943316e-001 -1.397073e+001 66 48 36
2.379093e+000 -2.930419e-001 -1.404981e+001 71 51 43
4.766806e+000 -2.752063e-002 -1.453027e+001 152 119 91
2.105050e+000 -3.925329e-001 -1.403405e+001 200 168 140
2.399538e+000 -3.146088e-001 -1.439548e+001 71 62 55
4.211086e+000 -2.564043e-001 -1.464059e+001 153 119 92
5.476600e+000 1.628362e-002 -1.489034e+001 162 127 95
9.447619e-001 3.833364e-002 -1.482534e+001 214 119 123
5.268835e+000 -2.026122e-001 -1.498309e+001 120 86 57
5.440915e+000 -1.537739e-001 -1.505824e+001 128 97 68
5.789594e+000 -1.604462e-001 -1.516953e+001 118 78 48
2.168738e+000 -6.706635e-001 -1.450473e+001 133 103 69
4.157584e+000 -5.700503e-001 -1.499386e+001 148 116 91
4.605518e+000 -5.506927e-001 -1.520630e+001 138 106 79
2.187969e+000 -7.629808e-001 -1.480748e+001 69 44 29
2.807772e+000 -8.581585e-001 -1.488469e+001 62 46 33
4.256022e+000 -7.122307e-001 -1.514291e+001 114 81 54
4.337500e+000 -6.677007e-001 -1.508091e+001 129 98 70
4.425311e+000 -5.735416e-001 -1.526587e+001 105 74 45
5.253039e+000 -5.751844e-001 -1.539885e+001 97 67 41
5.253039e+000 -5.751844e-001 -1.539885e+001 97 67 41
1.575763e+000 -8.428699e-001 -1.492437e+001 203 170 146
2.114529e+000 -8.376017e-001 -1.489581e+001 134 102 67
1.982454e+000 -1.062689e+000 -1.486282e+001 173 144 117
2.792643e+000 -9.166791e-001 -1.508090e+001 69 56 39
4.880315e+000 -6.879200e-001 -1.552757e+001 133 104 80
2.665319e+000 -1.102987e+000 -1.535573e+001 74 59 43
4.452942e+000 -9.224739e-001 -1.567757e+001 78 48 22
4.697335e+000 -1.032045e+000 -1.568065e+001 134 100 73
4.806591e+000 -9.429333e-001 -1.584599e+001 102 70 45
5.365484e+000 -9.004878e-001 -1.597657e+001 125 94 66
5.592173e+000 -7.738452e-001 -1.590631e+001 119 80 49
-9.045777e-001 -6.967014e-001 -1.559732e+001 254 206 195
-6.824712e-001 -6.328162e-001 -1.554296e+001 221 177 152
-8.939161e-001 -8.194065e-001 -1.563367e+001 229 177 161
3.730337e-001 -7.239635e-001 -1.570030e+001 215 153 145
2.675243e+000 -1.365992e+000 -1.549555e+001 180 161 138
3.432662e+000 -1.211945e+000 -1.558596e+001 92 65 43
4.848694e+000 -1.022340e+000 -1.595838e+001 108 78 52
4.850903e+000 -1.020756e+000 -1.596081e+001 108 78 52
5.492205e+000 -1.092850e+000 -1.593321e+001 141 108 77
5.543519e+000 -1.071182e+000 -1.626373e+001 128 97 68
1.603293e-001 -1.351571e+000 -1.537742e+001 213 131 142
9.856969e-001 -1.363906e+000 -1.567516e+001 218 160 150
1.437850e+000 -1.239164e+000 -1.570988e+001 99 91 71
1.792575e+000 -1.628983e+000 -1.545946e+001 240 229 221
2.026824e+000 -1.420789e+000 -1.557137e+001 120 94 66
2.085920e+000 -1.501122e+000 -1.564914e+001 44 30 23
4.787078e+000 -1.204366e+000 -1.615278e+001 131 142 131
5.142668e+000 -1.256308e+000 -1.621868e+001 95 65 39
5.170161e+000 -1.211974e+000 -1.628705e+001 95 65 39
-6.014137e-001 -1.518394e+000 -1.539502e+001 217 135 149
7.868833e-001 -1.240815e+000 -1.591342e+001 186 95 111
1.557086e+000 -1.625636e+000 -1.553484e+001 84 77 58
1.566057e+000 -1.730166e+000 -1.554974e+001 106 96 70
5.096625e+000 -1.510774e+000 -1.656395e+001 101 67 40
5.389712e+000 -1.442715e+000 -1.658283e+001 100 65 37
1.861355e-002 -1.845283e+000 -1.572565e+001 150 86 77
1.727706e+000 -1.852109e+000 -1.571319e+001 183 143 114
1.782542e+000 -1.932156e+000 -1.585312e+001 209 187 163
2.841502e+000 -1.757523e+000 -1.615613e+001 184 164 145
4.658590e+000 -1.544315e+000 -1.649587e+001 137 102 72
4.658590e+000 -1.544315e+000 -1.649587e+001 137 102 72
-2.745617e-001 -1.933521e+000 -1.565414e+001 145 73 78
2.630100e-002 -1.856050e+000 -1.600028e+001 137 75 78
1.759752e-001 -2.098196e+000 -1.577100e+001 229 183 169
2.132712e+000 -2.040566e+000 -1.612876e+001 65 49 37
5.030780e+000 -1.813682e+000 -1.675508e+001 112 78 50
2.385938e+000 -2.195274e+000 -1.633024e+001 99 91 78
2.507527e+000 -2.187004e+000 -1.630221e+001 63 49 36
3.596858e+000 -2.054250e+000 -1.675378e+001 93 67 44
4.055079e+000 -1.988587e+000 -1.677455e+001 104 78 53
4.077400e+000 -2.026056e+000 -1.684140e+001 131 103 81
4.235978e+000 -2.030096e+000 -1.688814e+001 112 82 56
4.778510e+000 -1.922894e+000 -1.700639e+001 65 39 16
4.778510e+000 -1.922894e+000 -1.700639e+001 65 39 16
5.993523e+000 -1.860305e+000 -1.738696e+001 158 127 83
1.393448e+000 -2.381645e+000 -1.641274e+001 111 95 80
1.664706e+000 -2.318225e+000 -1.628497e+001 151 118 93
3.623340e+000 -2.162538e+000 -1.687479e+001 86 62 40
3.676474e+000 -2.238837e+000 -1.696660e+001 75 47 26
3.758594e+000 -2.236365e+000 -1.699531e+001 118 91 70
3.869775e+000 -2.260927e+000 -1.706824e+001 125 98 79
4.217983e+000 -2.203931e+000 -1.724738e+001 101 75 52
4.364134e+000 -2.120162e+000 -1.709415e+001 122 93 71
4.409153e+000 -2.150050e+000 -1.702597e+001 98 70 48
1.270406e+000 -2.540953e+000 -1.660629e+001 53 50 37
1.270406e+000 -2.540953e+000 -1.660629e+001 53 50 37
1.393502e+000 -2.678695e+000 -1.639045e+001 85 84 63
1.409121e+000 -2.588008e+000 -1.656049e+001 85 84 63
1.683323e+000 -2.572750e+000 -1.665469e+001 154 131 113
3.647432e+000 -2.379760e+000 -1.726281e+001 119 92 70
4.882314e+000 -2.350834e+000 -1.761457e+001 127 97 73
4.893772e+000 -2.380979e+000 -1.768800e+001 92 61 40
-3.696356e+000 -2.194550e+000 -1.654664e+001 121 78 51
4.129091e+000 -2.502038e+000 -1.766071e+001 91 60 39
4.100701e+000 -2.595063e+000 -1.771783e+001 90 62 40
4.921385e+000 -2.504857e+000 -1.779159e+001 134 100 73
-4.793492e+000 -2.369762e+000 -1.660312e+001 156 111 82
-4.533238e+000 -2.680596e+000 -1.636899e+001 170 126 92
-3.354910e+000 -2.619412e+000 -1.632248e+001 167 138 112
1.315653e-001 -2.909221e+000 -1.685511e+001 202 138 138
3.699981e-001 -2.840162e+000 -1.683874e+001 220 172 158
1.093991e+000 -2.766468e+000 -1.704150e+001 169 96 107
1.487032e+000 -2.818645e+000 -1.710789e+001 140 108 89
2.374113e+000 -2.846392e+000 -1.743509e+001 170 158 132
2.374113e+000 -2.846392e+000 -1.743509e+001 170 158 132
4.827361e+000 -2.676730e+000 -1.805511e+001 98 71 44
2.262742e+000 -3.013828e+000 -1.778074e+001 56 46 35
7.330430e-001 -3.136238e+000 -1.748499e+001 177 116 119
1.447774e+000 -3.291985e+000 -1.753814e+001 174 138 114
1.796422e+000 -3.155240e+000 -1.760618e+001 114 105 90
1.796422e+000 -3.155240e+000 -1.760618e+001 114 105 90
2.644600e+000 -3.077733e+000 -1.790337e+001 163 139 122
-5.044674e+000 -3.240281e+000 -1.693899e+001 207 132 136
-8.636361e-002 -3.102671e+000 -1.836871e+001 228 170 164
4.508233e-002 -3.165910e+000 -1.827673e+001 213 142 145
3.801617e+000 -3.240055e+000 -1.840935e+001 90 59 38
3.790630e+000 -3.195586e+000 -1.869098e+001 133 102 81
4.299004e+000 -3.405166e+000 -1.871330e+001 146 115 88
1.275227e-001 -3.450458e+000 -1.817467e+001 207 140 144
1.220933e-001 -3.368167e+000 -1.837211e+001 207 140 144
3.103540e-001 -3.448308e+000 -1.830046e+001 171 111 100
2.109689e+000 -3.462835e+000 -1.814399e+001 67 52 46
3.441934e+000 -3.499622e+000 -1.855230e+001 89 62 41
2.066483e+000 -3.818617e+000 -1.820211e+001 44 34 35
4.786948e+000 -3.754000e+000 -1.925101e+001 124 97 70
5.711921e+000 -3.579015e+000 -1.988746e+001 149 121 77
4.620009e+000 -3.705791e+000 -1.977832e+001 126 100 73
2.625883e+000 5.806588e-001 -1.353741e+001 56 49 39
5.415289e+000 9.753636e-001 -1.422104e+001 194 156 119
2.010408e+000 5.026733e-001 -1.372543e+001 185 153 128
2.573489e+000 4.203394e-001 -1.358857e+001 198 181 151
2.352294e+000 3.224920e-001 -1.355266e+001 77 49 36
5.541150e+000 7.971276e-001 -1.428662e+001 144 101 66
5.478988e+000 5.353822e-001 -1.424542e+001 168 127 91
5.719744e+000 7.032850e-001 -1.433212e+001 192 150 112
1.307592e+000 1.078102e+000 -1.434787e+001 212 188 155
1.330439e+000 1.043412e+000 -1.442233e+001 191 155 124
1.614609e+000 7.148678e-001 -1.400454e+001 147 141 118
1.740804e+000 3.746565e-001 -1.373503e+001 155 152 123
2.809186e+000 1.720500e-001 -1.379288e+001 53 41 35
4.049437e+000 3.048170e-001 -1.409441e+001 160 123 97
1.330827e+000 8.430137e-001 -1.454373e+001 239 204 166
1.705518e+000 1.759515e-001 -1.399775e+001 94 87 65
1.722820e+000 1.309924e-001 -1.404413e+001 209 182 155
4.752302e+000 8.973777e-002 -1.438732e+001 159 122 93
1.110336e+000 7.957664e-001 -1.467245e+001 225 192 151
3.648109e+000 -2.406067e-002 -1.418494e+001 127 97 73
5.006524e+000 -9.978208e-002 -1.462895e+001 109 74 46
5.165143e+000 9.562505e-002 -1.452687e+001 126 90 58
2.007927e+000 -3.212666e-001 -1.429279e+001 165 128 105
2.205103e+000 -3.649661e-001 -1.409387e+001 148 113 87
2.606707e+000 -7.110632e-001 -1.399315e+001 103 90 81
4.741424e+000 -1.865631e-001 -1.472749e+001 126 91 63
1.788180e+000 -4.219772e-001 -1.431026e+001 202 163 134
1.904403e+000 -4.646318e-001 -1.451301e+001 185 147 124
2.177312e+000 -5.680836e-001 -1.433315e+001 152 120 95
2.743922e+000 -7.673400e-001 -1.398427e+001 186 170 143
5.454448e+000 -2.536002e-001 -1.517631e+001 101 67 39
1.837492e+000 -5.150959e-001 -1.471265e+001 158 120 99
2.415008e+000 -7.059871e-001 -1.469143e+001 58 44 39
3.759098e+000 -5.448371e-001 -1.497671e+001 86 55 36
3.854205e+000 -5.509684e-001 -1.475334e+001 116 85 64
2.402414e+000 -8.248523e-001 -1.472138e+001 52 41 35
4.254982e+000 -6.771527e-001 -1.534214e+001 126 90 64
5.695251e+000 -5.898809e-001 -1.545190e+001 118 82 50
5.442318e-001 -3.245034e-001 -1.535703e+001 202 113 127
4.650510e+000 -6.987484e-001 -1.546786e+001 147 113 86
4.784929e+000 -7.734183e-001 -1.545814e+001 135 105 81
5.113954e+000 -7.980128e-001 -1.579666e+001 127 102 74
5.110835e+000 -8.029325e-001 -1.578961e+001 127 102 74
1.596374e+000 -1.202692e+000 -1.501246e+001 99 93 67
1.870737e+000 -1.124394e+000 -1.511607e+001 112 86 63
2.251182e+000 -1.120475e+000 -1.509572e+001 60 47 37
5.026127e+000 -8.356103e-001 -1.581388e+001 94 64 38
5.171287e+000 -8.558620e-001 -1.585408e+001 106 73 51
5.153303e+000 -8.879615e-001 -1.580830e+001 106 73 51
4.932209e+000 -9.258999e-001 -1.584069e+001 104 74 48
5.016161e+000 -9.109013e-001 -1.586664e+001 143 113 87
6.175716e+000 -8.558473e-001 -1.625388e+001 172 139 85
-5.137891e-001 -8.410118e-001 -1.545135e+001 251 198 193
4.876388e-002 -1.012624e+000 -1.554799e+001 195 119 116
1.587094e+000 -1.443691e+000 -1.524701e+001 93 86 62
4.347722e+000 -1.181592e+000 -1.596251e+001 153 119 90
5.267417e+000 -1.042941e+000 -1.610331e+001 109 77 52
-1.893580e-001 -1.348461e+000 -1.523108e+001 234 187 173
3.368484e+000 -1.371254e+000 -1.569676e+001 113 86 60
3.402731e+000 -1.276957e+000 -1.583756e+001 113 86 60
3.724880e+000 -1.398266e+000 -1.603851e+001 121 87 60
5.369745e+000 -1.256462e+000 -1.647146e+001 88 57 34
2.113286e+000 -1.696847e+000 -1.584528e+001 77 63 54
5.165864e+000 -1.550366e+000 -1.650253e+001 108 74 46
1.361083e+000 -1.825992e+000 -1.567925e+001 170 127 69
1.539989e+000 -2.010332e+000 -1.571818e+001 167 129 93
2.119840e+000 -1.852242e+000 -1.578671e+001 46 31 25
3.854193e+000 -1.794671e+000 -1.645816e+001 128 100 78
4.687735e+000 -1.604917e+000 -1.656214e+001 164 133 104
5.053029e+000 -1.653351e+000 -1.656064e+001 141 109 80
5.546895e+000 -1.504234e+000 -1.675812e+001 120 86 56
3.244238e+000 -1.946806e+000 -1.647170e+001 137 106 86
4.494308e+000 -1.900904e+000 -1.675711e+001 87 60 39
4.948098e+000 -1.807068e+000 -1.685758e+001 98 64 36
5.120578e+000 -1.906943e+000 -1.698680e+001 114 84 56
5.355507e+000 -1.704123e+000 -1.701301e+001 101 68 41
5.391967e+000 -1.718619e+000 -1.684240e+001 148 114 87
5.391967e+000 -1.718619e+000 -1.684240e+001 148 114 87
8.749014e-002 -1.981128e+000 -1.614356e+001 170 103 104
3.545035e+000 -2.018706e+000 -1.670375e+001 116 90 65
3.855194e+000 -2.043922e+000 -1.678174e+001 128 100 78
4.194033e+000 -2.063714e+000 -1.695181e+001 127 99 78
-8.227391e-001 -1.670630e+000 -1.731129e+001 201 113 129
1.247114e+000 -2.156135e+000 -1.647508e+001 145 104 108
1.413098e+000 -2.343708e+000 -1.632668e+001 115 96 82
1.615924e+000 -2.495339e+000 -1.640619e+001 116 91 74
4.271666e+000 -2.218594e+000 -1.717406e+001 121 95 72
-3.206029e-003 -2.144023e+000 -1.703748e+001 139 75 76
2.152781e-001 -2.452398e+000 -1.676876e+001 166 91 104
5.705693e-001 -2.628510e+000 -1.650291e+001 169 105 106
1.344067e+000 -2.428989e+000 -1.655714e+001 103 96 78
2.085878e+000 -2.557773e+000 -1.683890e+001 51 39 26
3.969406e+000 -2.357184e+000 -1.728363e+001 115 89 68
4.106217e+000 -2.321777e+000 -1.731808e+001 118 91 70
4.504276e+000 -2.252360e+000 -1.740550e+001 131 103 76
4.496686e+000 -2.408318e+000 -1.751526e+001 144 117 92
-3.976396e+000 -2.265947e+000 -1.646761e+001 100 56 36
9.621422e-001 -2.638528e+000 -1.661119e+001 198 140 136
1.715976e+000 -2.736248e+000 -1.696787e+001 131 104 76
4.126176e+000 -2.463620e+000 -1.750523e+001 83 57 35
4.178521e+000 -2.546093e+000 -1.758282e+001 130 104 79
-4.425854e+000 -2.387077e+000 -1.662542e+001 134 88 61
1.162431e+000 -2.707043e+000 -1.713836e+001 205 158 153
1.908431e+000 -2.789954e+000 -1.708555e+001 131 123 104
2.338021e+000 -2.945316e+000 -1.749511e+001 64 52 37
2.338021e+000 -2.945316e+000 -1.749511e+001 64 52 37
3.330975e+000 -2.926317e+000 -1.780053e+001 115 89 64
4.326971e+000 -2.835976e+000 -1.806729e+001 143 113 87
4.216003e+000 -2.971414e+000 -1.814169e+001 130 102 78
4.296759e+000 -2.975579e+000 -1.815349e+001 98 67 48
4.463622e+000 -2.840825e+000 -1.817778e+001 151 121 95
4.214077e-002 -3.109829e+000 -1.739156e+001 205 157 155
1.352312e+000 -3.291979e+000 -1.765023e+001 174 138 116
-4.000309e+000 -3.527842e+000 -1.652878e+001 112 71 52
-9.630676e-001 -1.997730e+000 -1.997039e+001 169 96 109
3.153041e-001 -3.205268e+000 -1.817807e+001 205 148 146
9.831991e-001 -3.245514e+000 -1.783251e+001 202 156 141
1.273378e+000 -3.222425e+000 -1.787700e+001 182 144 125
3.365334e+000 -3.263770e+000 -1.822799e+001 134 107 86
3.454577e+000 -3.330564e+000 -1.839635e+001 125 98 78
3.853536e+000 -3.271720e+000 -1.844603e+001 131 104 82
3.891939e+000 -3.206388e+000 -1.860030e+001 131 104 82
4.139350e+000 -3.262200e+000 -1.872490e+001 103 74 50
4.210322e+000 -3.331987e+000 -1.863761e+001 141 113 89
-3.124116e-001 -3.089190e+000 -1.847685e+001 211 153 146
5.289389e-001 -3.439480e+000 -1.828929e+001 211 168 154
1.551361e+000 -3.529934e+000 -1.792831e+001 149 115 87
1.492870e+000 -3.524327e+000 -1.807790e+001 166 136 111
3.363315e+000 -3.529804e+000 -1.855103e+001 132 105 84
3.721319e+000 -3.468074e+000 -1.870471e+001 132 104 82
4.199569e+000 -3.615504e+000 -1.888663e+001 133 104 80
4.543009e+000 -3.558086e+000 -1.897454e+001 140 110 84
2.213013e+000 -3.888458e+000 -1.814878e+001 53 40 33
4.456318e+000 -3.845322e+000 -1.936360e+001 93 65 42
2.156740e+000 4.133366e-001 -1.341058e+001 253 228 206
5.948827e+000 9.645673e-001 -1.428434e+001 226 191 150
7.622063e-001 2.607779e+000 -1.545563e+001 122 110 92
9.955315e-001 2.265271e+000 -1.517733e+001 249 233 212
2.217115e+000 3.215711e-001 -1.344099e+001 172 137 107
2.631433e+000 3.516381e-001 -1.360005e+001 77 66 54
5.543959e+000 8.026447e-001 -1.429284e+001 144 101 66
1.817104e+000 2.876020e-001 -1.375031e+001 151 136 108
2.202552e+000 1.825116e-001 -1.355398e+001 240 218 194
5.057336e+000 3.030865e-001 -1.435006e+001 139 96 63
5.102340e+000 2.278508e-001 -1.441346e+001 163 122 92
1.142755e+000 4.611230e-001 -1.452002e+001 224 179 138
1.518056e+000 1.579044e-001 -1.432078e+001 190 147 100
4.787941e+000 -8.068342e-002 -1.461812e+001 118 83 56
5.323027e+000 4.948353e-002 -1.456861e+001 143 104 71
5.301605e+000 -3.161432e-002 -1.468815e+001 164 128 94
6.151312e+000 -7.106101e-002 -1.481202e+001 172 137 99
9.477962e-001 4.614919e-001 -1.481906e+001 222 169 136
2.746240e+000 -6.348849e-001 -1.386694e+001 114 106 88
2.707102e+000 -6.974291e-001 -1.394113e+001 58 49 43
5.562048e+000 -1.289237e-001 -1.499894e+001 125 90 60
1.347586e+000 -2.752465e-001 -1.454318e+001 200 146 82
1.972659e+000 -5.402275e-001 -1.443038e+001 170 133 108
4.326217e+000 -2.946608e-001 -1.472264e+001 148 117 89
4.313993e+000 -3.223588e-001 -1.470730e+001 148 117 89
2.142213e+000 -7.145379e-001 -1.455871e+001 141 113 83
4.624726e+000 -3.624757e-001 -1.517574e+001 157 122 99
1.605341e+000 -6.456331e-001 -1.485064e+001 154 108 85
1.605341e+000 -6.456331e-001 -1.485064e+001 154 108 85
3.380659e+000 -8.422736e-001 -1.489251e+001 75 50 30
5.491880e+000 -4.816331e-001 -1.548354e+001 148 117 89
6.236267e+000 -4.412818e-001 -1.567356e+001 166 131 80
-1.631988e-001 -3.759184e-001 -1.525306e+001 196 124 121
1.702143e+000 -8.760718e-001 -1.509710e+001 147 107 82
1.702143e+000 -8.760718e-001 -1.509710e+001 147 107 82
4.165753e+000 -8.700265e-001 -1.553382e+001 109 78 48
5.241920e+000 -6.457718e-001 -1.564870e+001 86 55 31
5.231134e+000 -7.270175e-001 -1.571779e+001 147 117 92
5.221584e+000 -7.818801e-001 -1.581211e+001 106 76 50
4.871650e+000 -9.785349e-001 -1.589183e+001 147 115 90
4.871650e+000 -9.785349e-001 -1.589183e+001 147 115 90
5.304993e+000 -8.207130e-001 -1.584958e+001 146 115 87
5.291065e+000 -8.379739e-001 -1.583483e+001 146 115 87
5.463585e+000 -9.687613e-001 -1.600763e+001 102 68 41
-5.483297e-001 -9.122393e-001 -1.549489e+001 212 138 139
4.289924e-001 -5.690095e-001 -1.577891e+001 134 64 55
7.343493e-001 -9.188448e-001 -1.576952e+001 169 78 85
1.536759e+000 -1.322102e+000 -1.530564e+001 114 108 84
1.823226e+000 -1.483963e+000 -1.511620e+001 124 96 68
2.745660e+000 -1.177834e+000 -1.536974e+001 57 46 33
4.832497e+000 -1.086527e+000 -1.600822e+001 143 115 91
4.826152e+000 -1.149065e+000 -1.608428e+001 89 61 39
5.343540e+000 -1.063029e+000 -1.618315e+001 131 100 72
-8.166480e-001 -1.012791e+000 -1.580543e+001 121 69 64
-4.975634e-001 -1.230617e+000 -1.545017e+001 187 123 116
6.818338e-001 -1.222154e+000 -1.559464e+001 241 191 186
7.651207e-001 -1.058622e+000 -1.573604e+001 158 67 74
8.644528e-001 -1.049302e+000 -1.571873e+001 184 108 109
8.869876e-001 -1.226693e+000 -1.572156e+001 167 90 84
1.634797e+000 -1.539498e+000 -1.523547e+001 129 126 95
2.742921e+000 -1.346401e+000 -1.567580e+001 58 42 27
5.311621e+000 -1.138510e+000 -1.629928e+001 88 58 32
5.292931e+000 -1.170985e+000 -1.625255e+001 88 58 32
5.238849e+000 -1.251866e+000 -1.630756e+001 140 110 83
3.522457e+000 -1.506951e+000 -1.603114e+001 101 70 49
4.223034e+000 -1.441470e+000 -1.619742e+001 91 60 35
5.266903e+000 -1.346786e+000 -1.652602e+001 92 62 38
5.368459e+000 -1.375028e+000 -1.650826e+001 155 121 93
5.147344e+000 -1.572996e+000 -1.648173e+001 111 77 49
-3.136817e-001 -1.854363e+000 -1.564362e+001 227 166 167
1.081029e+000 -1.561023e+000 -1.603266e+001 198 132 121
1.927874e+000 -1.898994e+000 -1.572249e+001 142 108 72
5.024448e+000 -1.703848e+000 -1.665691e+001 145 111 83
5.159884e+000 -1.635784e+000 -1.672760e+001 118 84 56
5.262486e+000 -1.541975e+000 -1.663980e+001 152 123 91
2.152142e-001 -1.991645e+000 -1.560947e+001 229 185 176
1.775933e+000 -2.018502e+000 -1.608224e+001 245 227 209
2.830543e+000 -1.899740e+000 -1.629153e+001 148 124 106
3.789526e+000 -1.897133e+000 -1.658551e+001 115 89 66
5.228717e+000 -1.836132e+000 -1.699627e+001 147 118 86
5.433837e+000 -1.877178e+000 -1.706097e+001 119 85 58
5.513299e+000 -1.678166e+000 -1.696249e+001 101 68 37
-7.919750e-001 -1.390517e+000 -1.680846e+001 206 126 137
3.300070e-001 -2.150126e+000 -1.591638e+001 211 167 154
3.406906e+000 -2.048886e+000 -1.669024e+001 82 58 39
3.438128e+000 -2.133277e+000 -1.675087e+001 117 91 68
2.369594e+000 -2.322987e+000 -1.656316e+001 108 100 81
3.281335e+000 -2.174408e+000 -1.678267e+001 114 87 66
3.899290e+000 -2.147026e+000 -1.695811e+001 123 96 75
4.355572e+000 -2.159995e+000 -1.716830e+001 86 58 37
7.538621e-002 -2.060778e+000 -1.692134e+001 138 78 78
2.361254e+000 -2.389122e+000 -1.681445e+001 100 96 78
3.519957e+000 -2.453926e+000 -1.724057e+001 114 89 67
3.906108e+000 -2.295774e+000 -1.720718e+001 71 48 31
-1.664702e+000 -2.221382e+000 -1.688165e+001 153 111 99
3.659076e+000 -2.510924e+000 -1.741520e+001 125 98 77
4.292079e+000 -2.489164e+000 -1.762030e+001 91 63 41
-4.894012e+000 -2.464866e+000 -1.661521e+001 157 109 73
-4.553231e+000 -2.566369e+000 -1.660120e+001 141 90 59
1.721701e+000 -2.840837e+000 -1.721653e+001 52 38 25
2.234193e+000 -2.788311e+000 -1.755285e+001 103 98 79
3.858349e+000 -2.780910e+000 -1.780761e+001 95 69 46
4.498183e+000 -2.621417e+000 -1.784373e+001 122 90 65
-3.461325e+000 -2.694266e+000 -1.682543e+001 86 54 39
-2.809323e+000 -2.388647e+000 -1.792119e+001 127 89 66
