ply
format ascii 1.0
element face 0
property list uchar int vertex_indices
element vertex 890
property float x
property float y
property float z
property uchar diffuse_red
property uchar diffuse_green
property uchar diffuse_blue
end_header
2.549441e+000 6.867863e-001 -1.786115e+001 63 37 12
2.514256e+000 7.053693e-001 -1.783355e+001 115 83 58
2.480714e+000 7.209499e-001 -1.785745e+001 115 83 58
2.997190e+000 6.890643e-001 -1.802897e+001 103 69 41
1.112788e+000 1.807854e-001 -1.666765e+001 150 98 70
1.827685e+000 7.926346e-001 -1.769987e+001 77 63 50
1.965675e+000 7.614284e-001 -1.784363e+001 207 191 157
2.902775e+000 7.657572e-001 -1.790848e+001 118 91 61
3.310672e+000 8.642092e-001 -1.791901e+001 101 66 38
3.470093e+000 8.458399e-001 -1.799512e+001 98 64 33
7.358193e-001 8.876645e-002 -1.637817e+001 161 107 80
1.145631e+000 2.523728e-001 -1.659382e+001 165 109 85
3.163940e+000 8.666224e-001 -1.788235e+001 101 68 37
3.193991e+000 8.986827e-001 -1.787325e+001 141 109 78
3.606300e+000 9.562881e-001 -1.789811e+001 118 82 48
1.248955e+000 7.927686e-001 -1.715521e+001 151 104 58
2.017176e+000 8.412503e-001 -1.747425e+001 76 59 38
1.519867e+000 9.397531e-001 -1.722076e+001 255 235 216
1.905958e+000 9.068619e-001 -1.730892e+001 82 65 48
2.898744e+000 1.024606e+000 -1.752197e+001 117 87 60
3.083826e+000 1.051864e+000 -1.753451e+001 85 53 28
3.941498e+000 1.266927e+000 -1.806690e+001 141 100 56
3.917243e+000 1.276516e+000 -1.808341e+001 141 100 56
2.060831e+000 1.053256e+000 -1.719805e+001 83 67 43
2.663508e+000 1.136429e+000 -1.725489e+001 111 82 60
2.748621e+000 1.138690e+000 -1.727067e+001 104 80 52
3.229729e+000 1.130791e+000 -1.750682e+001 142 108 80
3.627947e+000 1.180286e+000 -1.755379e+001 129 90 57
1.587604e+000 1.047306e+000 -1.681457e+001 189 154 120
1.815399e+000 1.103474e+000 -1.704360e+001 65 49 29
1.845337e+000 1.182854e+000 -1.704276e+001 80 67 42
3.384262e+000 1.319485e+000 -1.730651e+001 103 70 39
3.389273e+000 1.317277e+000 -1.730337e+001 103 70 39
1.547177e+000 1.190092e+000 -1.694775e+001 180 144 112
1.895635e+000 1.205590e+000 -1.694934e+001 47 30 15
1.863479e+000 1.291460e+000 -1.692675e+001 79 60 42
2.913748e+000 1.325570e+000 -1.712845e+001 122 92 64
3.710920e+000 1.459377e+000 -1.729032e+001 123 87 53
1.569089e+000 1.086459e+000 -1.647259e+001 113 97 62
1.588025e+000 1.180214e+000 -1.639352e+001 98 91 57
2.145019e+000 1.299870e+000 -1.685377e+001 65 49 33
3.041223e+000 1.422024e+000 -1.710160e+001 128 97 68
3.121619e+000 1.453699e+000 -1.708044e+001 101 66 38
3.250637e+000 1.501270e+000 -1.708023e+001 128 94 66
3.354341e+000 1.473830e+000 -1.712949e+001 125 94 66
4.106726e+000 1.554790e+000 -1.723350e+001 128 86 48
4.035606e+000 1.682212e+000 -1.746373e+001 147 106 62
1.635501e+000 1.223443e+000 -1.641997e+001 109 96 61
1.665068e+000 1.249451e+000 -1.643048e+001 173 142 116
1.732689e+000 1.428340e+000 -1.670564e+001 159 116 81
1.681619e+000 1.479768e+000 -1.641121e+001 180 148 123
1.597545e+000 1.434422e+000 -1.621768e+001 138 131 103
1.595965e+000 1.452642e+000 -1.627617e+001 76 67 40
1.700704e+000 1.541455e+000 -1.630284e+001 145 115 91
1.935766e+000 1.705576e+000 -1.641270e+001 61 45 29
2.171362e+000 1.721380e+000 -1.643331e+001 71 56 35
2.312987e+000 1.711924e+000 -1.644154e+001 80 61 43
2.367263e+000 1.716629e+000 -1.641554e+001 177 150 130
3.682936e+000 1.867385e+000 -1.673757e+001 136 93 59
4.072739e+000 1.903238e+000 -1.631580e+001 237 195 152
1.854639e+000 -1.328743e+000 -1.921816e+001 80 75 56
1.656060e+000 -2.206523e+000 -1.816505e+001 136 119 96
1.579858e+000 -9.576395e-001 -1.921145e+001 61 49 33
1.834023e+000 -9.097677e-001 -1.929268e+001 63 50 33
1.263405e+000 -1.160574e+000 -1.875779e+001 131 115 89
1.347200e+000 -1.028818e+000 -1.903190e+001 94 69 48
1.165651e+000 -9.767170e-001 -1.882736e+001 69 54 35
1.165134e+000 -9.773169e-001 -1.882699e+001 69 54 35
1.249868e+000 -7.721394e-001 -1.904703e+001 145 115 87
1.483993e+000 -7.058370e-001 -1.913868e+001 54 37 22
1.661884e+000 -6.836842e-001 -1.915053e+001 37 33 29
7.337409e-001 -1.470691e+000 -1.810548e+001 135 75 68
1.124147e+000 -1.460683e+000 -1.815683e+001 120 74 58
1.186708e+000 -1.132424e+000 -1.854809e+001 135 99 41
1.216815e+000 -1.044680e+000 -1.854462e+001 132 96 48
1.544139e+000 -5.850087e-001 -1.906911e+001 63 47 29
1.920814e+000 -6.306613e-001 -1.916953e+001 148 122 99
3.737737e+000 -5.121350e-001 -1.958838e+001 130 92 56
-1.498354e+000 -2.152761e+000 -1.676757e+001 80 42 32
1.300348e+000 -1.255593e+000 -1.817117e+001 105 63 42
1.272993e+000 -5.358649e-001 -1.889989e+001 144 111 80
1.336765e+000 -4.696463e-001 -1.875028e+001 136 101 73
1.501423e+000 -4.712968e-001 -1.887306e+001 58 43 28
2.564529e+000 -3.578259e-001 -1.910153e+001 81 49 26
1.148118e+000 -5.015494e-001 -1.854588e+001 60 57 38
1.196425e+000 -5.020810e-001 -1.849214e+001 140 109 81
1.219293e+000 -3.824460e-001 -1.862642e+001 164 133 104
1.524875e+000 -3.610100e-001 -1.873181e+001 55 38 30
-1.467576e+000 -1.381389e+000 -1.682553e+001 163 126 98
-1.432737e+000 -1.383421e+000 -1.678288e+001 147 111 79
1.289270e+000 -3.049297e-001 -1.860823e+001 172 139 106
1.291535e+000 -2.823848e-001 -1.854960e+001 159 128 99
2.274259e+000 -2.316444e-001 -1.880642e+001 112 82 55
3.449579e+000 -1.117065e-001 -1.922233e+001 168 128 93
-8.996308e-001 -1.327966e+000 -1.690391e+001 163 132 113
8.606544e-001 -4.776112e-001 -1.808184e+001 139 91 74
8.752072e-001 -4.040386e-001 -1.812161e+001 150 106 83
1.278299e+000 -1.910980e-001 -1.848417e+001 189 158 129
1.073765e+000 -5.032563e-001 -1.795574e+001 111 64 46
1.888877e+000 -1.038914e-001 -1.853331e+001 50 34 23
2.786365e+000 -8.399595e-004 -1.872914e+001 64 36 17
3.307225e+000 9.837101e-003 -1.891020e+001 101 67 39
3.307225e+000 9.837101e-003 -1.891020e+001 101 67 39
1.291980e-001 -8.226623e-001 -1.711048e+001 184 125 111
1.389386e+000 -8.615499e-002 -1.829777e+001 132 97 69
1.863780e+000 -5.235554e-002 -1.841768e+001 53 39 26
3.019538e+000 2.774579e-002 -1.879505e+001 129 94 71
2.090471e-001 -7.781639e-001 -1.691173e+001 121 67 55
1.129876e+000 -6.529529e-002 -1.794590e+001 92 84 57
1.221219e+000 -1.319061e-001 -1.800272e+001 76 59 33
1.344036e+000 1.418301e-002 -1.822717e+001 164 133 104
1.405085e+000 7.642506e-002 -1.818802e+001 132 100 69
3.327982e+000 2.060918e-001 -1.865746e+001 111 77 50
3.317355e+000 2.129626e-001 -1.866321e+001 111 77 50
6.594412e-001 -1.429673e-001 -1.759342e+001 104 47 40
6.796106e-001 -1.235393e-001 -1.761894e+001 181 136 115
1.146589e+000 -1.073167e-001 -1.769219e+001 109 46 38
1.147184e+000 2.361952e-003 -1.785006e+001 73 67 41
1.219051e+000 2.404447e-002 -1.796406e+001 45 39 15
1.312874e+000 3.833303e-002 -1.805764e+001 151 124 97
1.884470e+000 1.269884e-001 -1.828210e+001 56 42 29
2.368157e+000 1.524699e-001 -1.838383e+001 72 44 22
2.826484e+000 1.807777e-001 -1.846988e+001 119 89 61
6.897770e-001 -7.501897e-002 -1.755637e+001 188 137 106
8.915217e-001 -7.347684e-002 -1.759817e+001 152 81 75
2.144864e+000 2.058163e-001 -1.823127e+001 124 96 74
2.537288e+000 2.542078e-001 -1.830907e+001 78 50 28
2.878238e+000 2.740576e-001 -1.838938e+001 114 88 63
2.824659e+000 3.461606e-001 -1.830585e+001 71 40 20
3.158088e+000 3.836099e-001 -1.841166e+001 114 84 58
8.725739e-001 9.658613e-002 -1.757382e+001 183 132 111
8.912597e-001 1.177164e-001 -1.746322e+001 199 155 131
9.107554e-001 1.235266e-001 -1.749491e+001 143 61 54
1.191708e+000 1.612375e-001 -1.741660e+001 182 141 106
1.297435e+000 3.371595e-001 -1.765839e+001 144 109 81
1.890766e+000 5.492139e-001 -1.800125e+001 255 254 247
2.710206e+000 4.554215e-001 -1.817501e+001 83 54 30
1.151797e+000 1.783840e-001 -1.715962e+001 123 72 38
1.358227e+000 3.910843e-001 -1.766394e+001 136 95 67
1.950454e+000 5.652866e-001 -1.796119e+001 83 68 49
5.219861e-001 -2.178495e-001 -1.628689e+001 152 96 69
4.908146e-001 1.465756e-001 -1.688924e+001 195 127 112
5.651449e-001 1.429347e-001 -1.692118e+001 181 128 104
8.298590e-001 1.714662e-001 -1.693033e+001 207 157 133
8.268979e-001 1.732731e-001 -1.693322e+001 207 157 133
2.576156e+000 6.886988e-001 -1.787658e+001 130 102 76
3.150379e+000 7.419466e-001 -1.809715e+001 123 92 63
3.513236e+000 7.949333e-001 -1.807449e+001 111 76 44
1.095832e+000 4.817614e-001 -1.717257e+001 83 52 33
1.542572e+000 6.528462e-001 -1.763053e+001 76 50 37
1.455313e+000 7.204490e-001 -1.752959e+001 229 203 175
2.170869e+000 7.147627e-001 -1.774230e+001 133 106 83
2.447884e+000 7.461153e-001 -1.773190e+001 129 98 70
2.480146e+000 7.487457e-001 -1.778984e+001 125 95 66
2.668798e+000 7.732109e-001 -1.783558e+001 143 112 84
1.981865e+000 8.180084e-001 -1.750642e+001 71 56 35
2.012286e+000 7.996683e-001 -1.753527e+001 40 30 12
1.505809e+000 8.938291e-001 -1.721750e+001 183 144 111
1.591737e+000 8.998894e-001 -1.728350e+001 143 106 71
2.197748e+000 9.503074e-001 -1.735189e+001 174 149 124
2.659411e+000 9.933115e-001 -1.744041e+001 102 70 45
3.479469e+000 1.128637e+000 -1.759550e+001 113 75 44
3.639378e+000 1.126680e+000 -1.767674e+001 108 74 38
1.346173e+000 9.910309e-001 -1.712244e+001 201 165 131
1.507073e+000 9.372874e-001 -1.702950e+001 178 130 100
1.360689e+000 1.001611e+000 -1.701772e+001 192 160 121
2.226447e+000 1.009752e+000 -1.724867e+001 187 161 136
3.055503e+000 1.144804e+000 -1.743569e+001 96 66 37
3.487504e+000 1.200398e+000 -1.750333e+001 131 95 63
1.549917e+000 1.078560e+000 -1.695501e+001 167 126 96
1.587688e+000 1.164125e+000 -1.703394e+001 136 92 65
1.827490e+000 1.146248e+000 -1.700133e+001 63 48 29
2.830589e+000 1.240211e+000 -1.717710e+001 60 34 9
2.862737e+000 1.266501e+000 -1.717682e+001 116 86 60
3.103707e+000 1.261476e+000 -1.730334e+001 96 63 38
3.291184e+000 1.225451e+000 -1.739609e+001 130 98 69
3.478472e+000 1.317379e+000 -1.733935e+001 102 67 37
1.667127e+000 1.214760e+000 -1.693742e+001 146 108 79
2.104234e+000 1.225776e+000 -1.693240e+001 55 40 29
2.093080e+000 1.289991e+000 -1.694656e+001 70 52 38
3.205650e+000 1.311150e+000 -1.725332e+001 126 95 67
1.625261e+000 1.272150e+000 -1.661290e+001 207 173 146
1.573298e+000 1.272599e+000 -1.679002e+001 216 182 156
2.112532e+000 1.353015e+000 -1.681881e+001 62 48 29
1.602939e+000 1.394986e+000 -1.674802e+001 185 148 121
2.862022e+000 1.487479e+000 -1.693677e+001 103 72 43
3.626098e+000 1.614123e+000 -1.711314e+001 132 96 63
3.583587e+000 1.617283e+000 -1.705771e+001 143 107 75
3.634246e+000 1.613355e+000 -1.705990e+001 99 63 31
1.698280e+000 1.480930e+000 -1.666409e+001 118 79 48
2.886362e+000 1.582475e+000 -1.682949e+001 106 71 43
1.691222e+000 1.347368e+000 -1.602547e+001 95 82 50
1.605978e+000 1.520369e+000 -1.624756e+001 75 70 51
2.333022e+000 1.664316e+000 -1.654841e+001 200 175 151
2.728343e+000 1.701046e+000 -1.661527e+001 132 99 66
2.733184e+000 1.699684e+000 -1.660952e+001 132 99 66
2.983686e+000 1.740658e+000 -1.663083e+001 134 98 64
3.485462e+000 1.800907e+000 -1.683846e+001 153 114 81
3.551249e+000 1.784337e+000 -1.684098e+001 115 77 47
3.551249e+000 1.784337e+000 -1.684098e+001 115 77 47
3.752270e+000 1.853183e+000 -1.681824e+001 161 121 85
2.963254e+000 1.769409e+000 -1.655699e+001 125 89 55
3.352334e+000 1.826652e+000 -1.664243e+001 169 131 95
3.330503e+000 1.822738e+000 -1.660239e+001 144 107 72
1.170063e+000 -8.683917e-001 -1.899968e+001 82 81 51
1.469958e+000 -7.880825e-001 -1.919086e+001 62 48 37
1.161703e+000 -1.044303e+000 -1.871306e+001 135 95 47
1.212335e+000 -1.589109e+000 -1.812706e+001 150 113 95
1.198370e+000 -1.461483e+000 -1.815342e+001 141 105 85
1.706420e+000 -6.985105e-001 -1.908905e+001 35 27 23
-9.188681e-001 -1.846583e+000 -1.720203e+001 101 74 52
3.064238e+000 -4.134797e-001 -1.940654e+001 93 60 35
1.753757e+000 -4.623840e-001 -1.894813e+001 73 58 45
2.729077e+000 -4.011544e-001 -1.925332e+001 90 59 31
1.179427e+000 -6.955895e-001 -1.841070e+001 168 139 111
1.508987e+000 -3.971593e-001 -1.880362e+001 54 38 28
1.532938e+000 -3.574883e-001 -1.884027e+001 48 31 20
1.780757e+000 -3.729677e-001 -1.881255e+001 62 46 33
2.727620e+000 -2.412980e-001 -1.905876e+001 105 72 41
2.402873e+000 -2.024509e-001 -1.887469e+001 124 92 67
2.540433e+000 -1.974130e-001 -1.892618e+001 107 73 45
2.539357e+000 -1.956911e-001 -1.892823e+001 107 73 45
-1.428566e+000 -1.438506e+000 -1.666039e+001 191 155 129
3.005580e+000 -1.338210e-001 -1.900517e+001 105 70 39
1.229827e+000 -1.261129e-001 -1.829839e+001 185 151 116
1.287623e+000 -1.313802e-001 -1.833049e+001 131 91 55
1.287623e+000 -1.313802e-001 -1.833049e+001 131 91 55
2.306165e+000 -9.277020e-002 -1.867071e+001 69 43 26
2.479283e+000 -9.513080e-002 -1.871632e+001 122 92 64
1.006651e+000 -3.132122e-001 -1.801058e+001 135 87 65
1.159258e+000 -2.411285e-001 -1.800560e+001 126 86 61
2.237716e+000 -3.439010e-003 -1.851150e+001 97 67 41
2.702920e+000 4.085666e-002 -1.862401e+001 104 78 53
2.787775e+000 -2.872524e-003 -1.872499e+001 63 34 16
3.540451e-001 -7.547944e-001 -1.705842e+001 190 121 114
7.922450e-002 -1.045816e+000 -1.641087e+001 94 60 40
2.421249e+000 1.534436e-001 -1.840394e+001 108 80 56
3.256626e+000 2.158611e-001 -1.860268e+001 70 40 16
2.459798e+000 3.141763e-001 -1.823073e+001 115 85 61
2.914739e+000 3.075144e-001 -1.839506e+001 116 90 65
1.096799e+000 6.709120e-002 -1.746866e+001 168 111 95
1.397684e+000 3.633813e-001 -1.793178e+001 111 71 40
1.393052e+000 3.674894e-001 -1.793639e+001 111 71 40
1.860248e+000 3.031065e-001 -1.809063e+001 35 25 18
2.381227e+000 3.620016e-001 -1.814865e+001 81 51 27
2.537627e+000 3.597931e-001 -1.822301e+001 114 84 60
3.326611e+000 4.811290e-001 -1.836893e+001 86 59 33
1.045377e+000 1.518249e-001 -1.735381e+001 187 127 103
1.306412e+000 2.413586e-001 -1.753568e+001 137 95 71
1.895481e+000 5.463363e-001 -1.799684e+001 255 254 247
2.996264e+000 5.200474e-001 -1.821708e+001 121 90 61
3.289343e+000 6.858943e-001 -1.817187e+001 106 75 47
3.459499e+000 6.404001e-001 -1.824286e+001 89 57 32
3.499840e+000 6.347982e-001 -1.828451e+001 131 96 64
5.493824e-001 1.748846e-001 -1.687457e+001 168 82 73
7.778050e-001 1.464898e-001 -1.700560e+001 146 62 55
8.092341e-001 1.322101e-001 -1.686531e+001 175 96 91
1.141889e+000 3.131741e-001 -1.717199e+001 172 128 67
1.402450e+000 5.383296e-001 -1.766951e+001 115 79 53
2.781119e+000 7.324886e-001 -1.793753e+001 110 80 52
1.093758e+000 4.811550e-001 -1.709906e+001 173 126 57
3.445865e+000 8.523691e-001 -1.799176e+001 100 65 36
1.152090e+000 2.133860e-001 -1.656065e+001 159 99 73
2.332150e+000 8.337709e-001 -1.766332e+001 112 78 51
3.241216e+000 9.503767e-001 -1.784448e+001 147 112 82
1.551000e+000 8.371849e-001 -1.741585e+001 148 113 83
3.276100e+000 9.985887e-001 -1.770932e+001 123 87 56
1.252878e+000 8.204401e-001 -1.708445e+001 189 149 105
2.530274e+000 1.042418e+000 -1.734794e+001 116 86 62
3.744334e+000 1.159794e+000 -1.774672e+001 153 115 79
1.552986e+000 9.542727e-001 -1.712033e+001 215 186 162
3.490059e+000 1.207788e+000 -1.754784e+001 116 77 46
1.638680e+000 1.090141e+000 -1.704154e+001 145 107 75
3.308181e+000 1.254033e+000 -1.729511e+001 126 95 66
4.024795e+000 1.320270e+000 -1.748192e+001 127 87 52
1.934273e+000 1.177099e+000 -1.697631e+001 89 71 45
1.604161e+000 1.156860e+000 -1.647050e+001 101 87 52
1.694878e+000 1.323779e+000 -1.682134e+001 150 113 77
2.978406e+000 1.399798e+000 -1.706345e+001 128 96 71
1.627796e+000 1.431767e+000 -1.662471e+001 168 126 92
2.535142e+000 1.441207e+000 -1.682586e+001 82 48 20
3.397092e+000 1.700213e+000 -1.688435e+001 134 99 67
3.556886e+000 1.747099e+000 -1.687711e+001 158 123 88
1.811029e+000 1.668283e+000 -1.642743e+001 55 38 22
1.736590e+000 -1.082423e+000 -1.918790e+001 35 29 21
2.068594e+000 -1.201304e+000 -1.922783e+001 189 166 116
1.438123e+000 -1.948338e+000 -1.819754e+001 148 123 97
1.549670e+000 -1.991817e+000 -1.821860e+001 117 97 73
3.462481e+000 -8.530444e-001 -1.961093e+001 129 106 74
3.462481e+000 -8.530444e-001 -1.961093e+001 129 106 74
2.698869e+000 -6.505109e-001 -1.937750e+001 92 63 38
3.706583e+000 -6.337645e-001 -1.968686e+001 132 96 60
-1.418224e+000 -2.227416e+000 -1.680035e+001 75 53 42
8.884076e-001 -1.281852e+000 -1.821831e+001 162 124 101
8.884076e-001 -1.281852e+000 -1.821831e+001 162 124 101
1.157374e+000 -8.990461e-001 -1.862702e+001 168 147 120
3.140545e+000 -3.987761e-001 -1.940895e+001 124 92 67
1.180040e+000 -1.113347e+000 -1.818828e+001 116 74 53
2.425973e+000 -2.638094e-001 -1.897037e+001 93 61 36
1.987163e+000 -2.561015e-001 -1.873526e+001 176 146 122
1.134894e+000 -4.130830e-001 -1.830083e+001 148 106 78
1.130343e+000 -3.917116e-001 -1.820890e+001 148 109 80
2.856733e+000 -1.502617e-001 -1.888624e+001 131 95 67
4.230407e-001 -3.512700e-001 -1.794622e+001 164 108 85
1.531594e+000 -9.874110e-002 -1.849329e+001 51 38 22
2.821656e+000 -3.959395e-002 -1.881281e+001 132 98 70
3.435289e+000 2.583530e-002 -1.893840e+001 90 54 28
1.304276e+000 -6.641411e-002 -1.819131e+001 139 99 68
-4.234287e-003 -9.772336e-001 -1.678203e+001 138 95 76
2.989405e-001 -7.676759e-001 -1.705476e+001 104 58 43
2.961110e-001 -7.624715e-001 -1.706030e+001 104 58 43
8.522724e-001 -1.073329e-001 -1.788463e+001 177 120 108
1.267825e+000 -3.031830e-002 -1.810862e+001 65 54 32
2.251662e+000 5.420487e-002 -1.844140e+001 106 74 49
2.621563e+000 1.142666e-001 -1.850328e+001 123 96 70
2.013945e-001 -8.382781e-001 -1.673333e+001 83 46 30
3.108929e-001 -7.549986e-001 -1.688922e+001 83 40 29
3.108929e-001 -7.549986e-001 -1.688922e+001 83 40 29
9.924199e-001 -3.086496e-002 -1.780308e+001 187 140 117
1.149478e+000 -4.200587e-002 -1.790530e+001 66 60 36
2.479111e+000 1.805280e-001 -1.837388e+001 117 87 62
1.741546e+000 4.070567e-001 -1.809390e+001 47 33 25
2.506840e+000 4.538782e-001 -1.808393e+001 121 88 63
6.803423e-001 1.079718e-001 -1.698899e+001 166 96 88
1.488809e+000 6.053641e-001 -1.787739e+001 162 145 117
1.514544e+000 5.853647e-001 -1.785173e+001 162 145 117
3.187683e+000 6.105593e-001 -1.817040e+001 124 95 69
2.386283e+000 6.959849e-001 -1.780393e+001 136 101 73
3.400012e+000 6.897622e-001 -1.808369e+001 113 79 50
1.096510e+000 1.751328e-001 -1.670978e+001 152 102 75
1.770585e+000 7.379485e-001 -1.771695e+001 67 51 38
3.517479e+000 8.710730e-001 -1.798919e+001 137 102 70
1.099785e+000 7.054580e-001 -1.719920e+001 196 159 115
1.477682e+000 6.937719e-001 -1.739320e+001 141 94 66
1.664168e+000 7.757790e-001 -1.759556e+001 66 39 23
2.740240e+000 8.310557e-001 -1.777095e+001 133 99 71
2.740240e+000 8.310557e-001 -1.777095e+001 133 99 71
3.280185e+000 1.042987e+000 -1.767966e+001 146 111 81
3.280185e+000 1.042987e+000 -1.767966e+001 146 111 81
3.552906e+000 1.047850e+000 -1.775479e+001 152 115 79
2.456630e+000 9.982910e-001 -1.731454e+001 104 73 45
1.523124e+000 9.702917e-001 -1.707521e+001 153 107 71
3.124419e+000 1.184148e+000 -1.739217e+001 137 106 78
3.318723e+000 1.277677e+000 -1.734770e+001 101 65 41
3.698665e+000 1.316925e+000 -1.742143e+001 133 94 58
1.534782e+000 9.872063e-001 -1.657987e+001 126 106 76
1.587096e+000 1.039595e+000 -1.657500e+001 181 157 123
3.277648e+000 1.350375e+000 -1.723931e+001 88 57 29
1.692633e+000 1.155738e+000 -1.605184e+001 126 90 59
1.662321e+000 1.174827e+000 -1.609958e+001 126 90 59
2.911151e+000 1.536421e+000 -1.688923e+001 102 70 42
3.585467e+000 1.594961e+000 -1.710317e+001 106 64 40
3.764078e+000 1.663123e+000 -1.719703e+001 173 135 99
1.655395e+000 1.451858e+000 -1.636897e+001 131 101 78
2.217943e+000 1.597505e+000 -1.669139e+001 83 58 36
3.068028e+000 1.706716e+000 -1.676736e+001 134 98 64
2.767012e+000 1.749652e+000 -1.649039e+001 108 72 46
4.053897e+000 1.892098e+000 -1.676407e+001 199 159 123
1.223106e+000 -1.672568e+000 -1.816296e+001 103 57 41
1.151648e+000 -1.154436e+000 -1.862973e+001 145 110 53
1.176986e+000 -8.867890e-001 -1.888566e+001 153 133 108
3.298001e+000 -7.742303e-001 -1.955380e+001 112 86 61
-1.097619e+000 -1.965621e+000 -1.714664e+001 79 55 43
9.257988e-001 -1.468855e+000 -1.817942e+001 163 114 99
-9.819715e-001 -1.734419e+000 -1.719226e+001 77 48 30
1.921311e+000 -5.039913e-001 -1.908258e+001 163 136 109
-1.145001e+000 -1.580259e+000 -1.718365e+001 132 99 66
2.334623e+000 -3.593374e-001 -1.908859e+001 106 72 45
-1.274973e+000 -1.409935e+000 -1.705818e+001 164 127 101
2.408030e+000 -3.403427e-001 -1.901677e+001 120 89 61
1.212839e+000 -4.593746e-001 -1.839261e+001 159 124 96
1.769900e+000 -2.208052e-001 -1.863859e+001 148 126 95
1.815399e+000 -1.015681e-001 -1.848158e+001 136 117 88
2.999852e+000 -3.937882e-002 -1.886621e+001 128 98 69
9.147213e-001 -2.095590e-001 -1.801808e+001 147 96 77
5.318605e-002 -8.719980e-001 -1.699678e+001 132 95 73
5.318605e-002 -8.719980e-001 -1.699678e+001 132 95 73
6.348112e-002 -8.693215e-001 -1.688670e+001 198 152 136
4.962175e-001 -1.859706e-001 -1.782467e+001 172 120 107
3.520111e+000 2.595050e-001 -1.874940e+001 166 130 97
3.669430e-001 -7.524954e-001 -1.693287e+001 187 119 113
1.837593e+000 1.558542e-001 -1.824538e+001 98 78 46
3.555741e+000 4.050810e-001 -1.857003e+001 158 122 88
2.113541e+000 6.304247e-001 -1.795811e+001 68 47 33
1.160626e+000 2.961154e-001 -1.725269e+001 136 92 51
1.802679e+000 6.142449e-001 -1.775771e+001 45 29 19
2.879861e+000 7.601286e-001 -1.786544e+001 95 63 41
3.009330e+000 1.083940e+000 -1.746623e+001 133 104 74
3.595094e+000 1.137186e+000 -1.760508e+001 149 113 79
3.214881e+000 1.214754e+000 -1.738765e+001 93 59 32
3.116005e+000 1.238508e+000 -1.731430e+001 99 69 41
3.352072e+000 1.382249e+000 -1.724482e+001 137 106 77
3.941419e+000 1.461317e+000 -1.734420e+001 171 133 97
1.770506e+000 1.342451e+000 -1.676838e+001 61 40 29
1.991291e+000 1.336030e+000 -1.697226e+001 132 110 78
4.078674e+000 1.551999e+000 -1.722996e+001 135 95 56
1.681562e+000 1.181241e+000 -1.619331e+001 155 140 109
1.742811e+000 1.479142e+000 -1.670398e+001 61 38 22
2.837102e+000 1.514700e+000 -1.688130e+001 142 108 80
2.591001e+000 1.679769e+000 -1.655482e+001 101 67 40
3.580824e+000 1.819600e+000 -1.676768e+001 164 126 89
4.138632e+000 1.856277e+000 -1.685984e+001 173 128 86
3.281932e+000 1.846809e+000 -1.655722e+001 174 136 103
1.993534e+000 -9.350462e-001 -1.916034e+001 70 51 36
1.747143e+000 -5.497838e-001 -1.901449e+001 145 122 98
1.074675e+000 -1.025823e+000 -1.819902e+001 172 136 101
1.807234e+000 -4.732125e-001 -1.882807e+001 157 133 103
3.331962e+000 -3.381657e-001 -1.941827e+001 93 61 36
1.957119e+000 -3.313089e-001 -1.885924e+001 179 155 129
1.690823e+000 -2.556267e-001 -1.880801e+001 134 116 84
-1.080215e+000 -1.362399e+000 -1.685390e+001 174 140 115
1.204123e-001 -1.006982e+000 -1.732378e+001 71 43 32
1.248103e+000 -2.587745e-001 -1.839642e+001 117 74 49
1.253194e+000 -2.633828e-001 -1.839271e+001 117 74 49
3.106459e+000 -1.100922e-001 -1.901406e+001 132 99 68
-7.649630e-001 -1.078898e+000 -1.666747e+001 98 43 43
-7.649630e-001 -1.078898e+000 -1.666747e+001 98 43 43
1.243688e+000 -2.368929e-001 -1.817584e+001 130 89 56
1.332549e+000 -3.942880e-002 -1.829564e+001 188 157 128
2.137582e-001 -7.942903e-001 -1.701002e+001 184 126 115
1.121548e+000 -2.126945e-001 -1.793451e+001 152 114 90
1.588948e-001 -9.025359e-001 -1.661142e+001 204 155 140
1.667409e-001 -8.359909e-001 -1.678795e+001 117 79 62
3.309959e-001 -8.622225e-001 -1.665219e+001 193 131 120
3.252441e-001 -8.529681e-001 -1.666490e+001 193 131 120
4.749474e-001 -1.984178e-003 -1.758970e+001 190 135 123
2.513037e+000 2.545062e-001 -1.832094e+001 85 55 34
5.750911e-001 4.936331e-002 -1.756050e+001 146 78 62
7.119123e-001 3.755883e-002 -1.751426e+001 187 131 114
1.301376e+000 2.518958e-001 -1.772223e+001 128 91 64
1.305881e+000 2.463662e-001 -1.771740e+001 128 91 64
3.269974e+000 5.758932e-001 -1.825067e+001 139 107 82
1.143974e+000 2.425021e-001 -1.732674e+001 182 143 101
1.414850e+000 5.262169e-001 -1.774111e+001 181 154 125
3.349611e+000 6.464800e-001 -1.821686e+001 140 106 78
1.134327e+000 1.658851e-001 -1.705976e+001 186 142 96
1.195975e+000 7.008955e-001 -1.729689e+001 187 148 105
2.653963e+000 8.726604e-001 -1.766118e+001 141 110 78
2.460023e+000 9.502623e-001 -1.739736e+001 103 74 47
3.141143e+000 1.089037e+000 -1.750084e+001 103 71 46
3.143730e+000 1.086909e+000 -1.749762e+001 103 71 46
1.684730e+000 1.007015e+000 -1.710702e+001 55 34 25
2.593847e+000 1.067836e+000 -1.737520e+001 105 77 54
3.039605e+000 1.152532e+000 -1.737872e+001 90 60 34
3.479089e+000 1.236036e+000 -1.750755e+001 120 84 52
1.558234e+000 1.103548e+000 -1.703220e+001 191 157 129
1.710867e+000 1.113993e+000 -1.699553e+001 60 35 23
2.570155e+000 1.209825e+000 -1.712401e+001 128 98 70
2.945713e+000 1.195210e+000 -1.730694e+001 136 106 80
2.945713e+000 1.195210e+000 -1.730694e+001 136 106 80
3.658423e+000 1.409498e+000 -1.732881e+001 93 56 27
3.758901e+000 1.394588e+000 -1.741274e+001 173 136 99
1.714145e+000 1.282745e+000 -1.623892e+001 98 70 49
3.247096e+000 1.680127e+000 -1.684994e+001 84 49 19
3.734778e+000 1.721915e+000 -1.700957e+001 113 77 44
3.735083e+000 1.722403e+000 -1.700897e+001 113 77 44
2.856257e+000 1.720591e+000 -1.664523e+001 156 123 88
3.486507e+000 1.747274e+000 -1.684750e+001 118 83 55
1.261338e+000 -8.255991e-001 -1.881562e+001 120 93 72
-1.407084e+000 -1.857499e+000 -1.700120e+001 124 94 65
1.125563e+000 -1.271117e+000 -1.817984e+001 111 65 49
1.357150e+000 -1.177094e+000 -1.821355e+001 94 59 37
1.857389e+000 -4.860310e-001 -1.899674e+001 68 49 32
1.342546e+000 -4.919947e-001 -1.886366e+001 88 61 45
1.378278e+000 -3.973798e-001 -1.874510e+001 65 39 22
1.404344e+000 -2.895220e-001 -1.860480e+001 62 39 25
-9.768829e-001 -1.325948e+000 -1.688010e+001 66 60 59
-9.780737e-001 -1.322326e+000 -1.688154e+001 66 60 59
1.458530e+000 -2.372271e-001 -1.846723e+001 50 29 19
1.152984e+000 -3.145622e-001 -1.814296e+001 186 149 120
1.151875e+000 -3.742337e-001 -1.795315e+001 98 52 36
2.452438e+000 -2.860329e-003 -1.860326e+001 89 64 43
9.534534e-001 -8.312927e-002 -1.791537e+001 115 52 43
1.469182e+000 -1.407470e-002 -1.827136e+001 72 49 33
1.899478e+000 9.339220e-002 -1.842528e+001 50 32 18
1.947533e+000 1.794239e-001 -1.828736e+001 52 35 22
1.457023e+000 2.354762e-001 -1.808187e+001 82 54 42
1.001014e+000 9.031428e-002 -1.747689e+001 116 39 33
1.124645e+000 4.512445e-002 -1.754618e+001 198 152 118
1.359734e+000 3.060651e-001 -1.800045e+001 206 183 159
2.833278e+000 4.251661e-001 -1.825867e+001 129 100 70
2.836018e+000 4.241550e-001 -1.825713e+001 129 100 70
4.387828e-001 3.359605e-002 -1.696091e+001 162 85 77
8.980622e-001 1.908338e-001 -1.719107e+001 165 93 70
1.404600e+000 3.907693e-001 -1.754460e+001 130 88 63
1.695276e+000 5.430043e-001 -1.795340e+001 58 40 29
2.597295e+000 5.711031e-001 -1.803562e+001 134 103 74
7.727667e-001 6.458907e-002 -1.624977e+001 174 120 92
2.062292e+000 8.070219e-001 -1.754924e+001 64 50 31
3.544692e+000 9.876039e-001 -1.788466e+001 118 80 47
1.083212e+000 7.006214e-001 -1.709287e+001 171 123 67
1.225398e+000 7.575924e-001 -1.713127e+001 161 110 55
1.278999e+000 8.450150e-001 -1.728108e+001 180 151 119
1.515568e+000 8.139811e-001 -1.736437e+001 191 157 129
1.433288e+000 8.360008e-001 -1.725148e+001 138 94 65
1.412609e+000 8.491228e-001 -1.727370e+001 138 94 65
2.066303e+000 9.297627e-001 -1.744222e+001 82 67 44
2.108070e+000 1.015135e+000 -1.727927e+001 83 68 45
2.134626e+000 1.359124e+000 -1.693944e+001 89 71 49
3.193937e+000 1.428366e+000 -1.714148e+001 145 111 81
3.381023e+000 1.442764e+000 -1.714478e+001 108 77 49
2.105545e+000 1.529136e+000 -1.685309e+001 88 67 46
3.091564e+000 1.564740e+000 -1.695792e+001 144 108 81
2.930590e+000 1.658702e+000 -1.679639e+001 152 117 86
2.946159e+000 1.652874e+000 -1.678288e+001 152 117 86
1.540769e+000 -1.943665e-001 -1.879168e+001 36 24 19
-1.772915e-001 -1.094870e+000 -1.720773e+001 106 81 56
-1.772915e-001 -1.094870e+000 -1.720773e+001 106 81 56
1.873890e+000 -1.470308e-001 -1.866156e+001 50 33 21
9.829776e-003 -9.360276e-001 -1.715389e+001 183 136 116
1.289338e+000 -1.372243e-001 -1.843479e+001 160 129 98
8.600182e-001 -1.314141e-001 -1.780609e+001 172 103 99
1.439699e+000 1.533102e-001 -1.818130e+001 82 58 45
8.509333e-001 -9.071393e-002 -1.762462e+001 129 54 54
1.217897e+000 9.396843e-002 -1.787868e+001 75 69 43
1.650660e+000 3.967729e-001 -1.820027e+001 32 22 21
3.237515e+000 4.428734e-001 -1.836625e+001 101 73 51
5.746173e-001 7.415018e-002 -1.722819e+001 141 67 60
2.047865e+000 5.189981e-001 -1.805517e+001 72 50 36
1.308043e+000 2.523191e-001 -1.738464e+001 112 67 40
1.008309e+000 1.593526e-001 -1.690022e+001 197 152 118
1.013440e+000 1.515093e-001 -1.689075e+001 197 152 118
1.101788e+000 3.802397e-001 -1.708472e+001 79 46 25
2.903419e+000 1.202218e+000 -1.717616e+001 110 84 59
3.060607e+000 1.429257e+000 -1.704530e+001 117 87 59
3.057372e+000 1.432602e+000 -1.705175e+001 117 87 59
3.647590e+000 1.710909e+000 -1.690494e+001 164 126 90
3.647590e+000 1.710909e+000 -1.690494e+001 164 126 90
3.295730e+000 1.794236e+000 -1.679832e+001 169 131 95
8.868194e-001 -5.972226e-001 -1.807199e+001 106 60 35
5.055888e-001 -5.300592e-001 -1.765862e+001 203 157 134
5.958434e-001 -2.481504e-001 -1.757014e+001 110 52 42
2.885709e+000 7.096717e-001 -1.793457e+001 96 66 42
1.164033e+000 6.081700e-001 -1.720829e+001 179 141 96
1.370548e+000 7.191365e-001 -1.736745e+001 143 99 67
3.552450e+000 1.227305e+000 -1.748899e+001 133 97 63
3.581330e+000 1.656825e+000 -1.716228e+001 139 102 66
-4.401304e-001 -1.370082e+000 -1.680461e+001 134 90 63
-4.401304e-001 -1.370082e+000 -1.680461e+001 134 90 63
-8.178122e-001 -1.125487e+000 -1.697040e+001 173 137 104
-1.529765e-001 -1.102678e+000 -1.679593e+001 214 178 152
4.185346e-001 -4.966969e-002 -1.751430e+001 176 114 105
2.168640e+000 2.082920e-001 -1.825813e+001 150 122 98
1.182601e+000 1.182605e-001 -1.763525e+001 152 102 74
1.868145e+000 4.277843e-001 -1.819716e+001 57 38 26
9.062523e-001 -2.433345e-002 -1.705621e+001 148 72 63
1.081101e+000 1.605956e-001 -1.721337e+001 178 128 86
1.221501e+000 -1.683893e-002 -1.790344e+001 86 81 52
3.277728e+000 2.721462e-001 -1.869271e+001 87 55 30
2.976955e+000 9.212846e-001 -1.780972e+001 145 110 78
2.694789e+000 1.151458e+000 -1.720833e+001 96 68 44
1.262427e+000 6.195671e-001 -1.859086e+001 49 32 26
1.297502e+000 -1.316011e+000 -1.881364e+001 99 81 57
3.435406e+000 -1.044275e-001 -1.909378e+001 102 66 33
6.028109e-002 -8.430875e-001 -1.698820e+001 102 61 39
1.135880e+000 -3.646571e-002 -1.791760e+001 55 51 26
3.834348e+000 5.637374e-001 -1.901863e+001 128 91 46
3.900592e+000 6.165043e-001 -1.867551e+001 127 90 46
2.794302e-001 5.544501e-002 -1.698631e+001 162 99 82
8.599117e-001 1.806577e-001 -1.699605e+001 206 158 131
1.407760e+000 6.191289e-001 -1.771075e+001 130 95 64
3.604025e+000 9.066929e-001 -1.795566e+001 93 57 24
3.907755e+000 1.113632e+000 -1.834172e+001 129 92 47
2.899754e+000 9.740680e-001 -1.750569e+001 95 64 34
3.882515e+000 1.459734e+000 -1.838882e+001 131 93 46
3.960152e+000 1.733707e+000 -1.787161e+001 134 96 51
2.107246e+000 1.458409e+000 -1.678279e+001 46 31 10
2.744557e+000 1.675231e+000 -1.664543e+001 90 57 26
-1.385143e+000 -2.166857e+000 -1.690905e+001 71 48 34
1.712229e+000 -5.925792e-001 -1.918915e+001 65 50 31
-1.479422e+000 -1.412807e+000 -1.696217e+001 100 69 48
-4.732632e-003 -9.863220e-001 -1.727372e+001 95 65 36
2.317381e+000 -1.114937e-001 -1.874409e+001 97 71 48
3.369367e+000 -2.389762e-002 -1.897581e+001 106 71 39
1.307616e+000 1.881232e-001 -1.805416e+001 155 126 96
2.765406e+000 2.017174e-001 -1.843474e+001 60 32 10
3.116828e+000 2.564527e-001 -1.852391e+001 81 50 22
1.605955e+000 5.119159e-001 -1.797871e+001 57 40 27
1.734677e+000 6.470950e-001 -1.775303e+001 71 54 38
3.873953e+000 1.219804e+000 -1.850732e+001 128 92 45
2.578539e+000 1.073014e+000 -1.739837e+001 102 75 48
3.187731e+000 1.111001e+000 -1.747207e+001 96 64 36
3.156993e+000 1.192410e+000 -1.742834e+001 98 67 37
3.995182e+000 1.219062e+000 -1.758589e+001 166 128 90
3.482495e+000 1.460514e+000 -1.717187e+001 122 91 62
1.634974e+000 1.522399e+000 -1.659967e+001 165 130 100
3.002331e+000 1.634527e+000 -1.687376e+001 115 82 49
3.594229e+000 1.853698e+000 -1.671439e+001 124 86 49
3.793138e-001 -2.354920e-001 -1.799847e+001 154 97 73
2.526357e+000 3.419959e-003 -1.860700e+001 103 77 51
1.300460e+000 4.994668e-002 -1.806897e+001 138 111 82
1.323577e+000 2.283720e-001 -1.806323e+001 188 159 127
1.891994e+000 2.688153e-001 -1.817289e+001 43 29 16
4.815003e-001 1.556180e-001 -1.690768e+001 191 126 108
8.148265e-001 1.534869e-001 -1.677438e+001 193 140 108
3.956798e+000 8.622466e-001 -1.803139e+001 124 86 49
1.669483e+000 8.285308e-001 -1.739251e+001 190 172 140
1.295972e+000 4.282728e-001 -1.626509e+001 179 106 89
1.295972e+000 4.282728e-001 -1.626509e+001 179 106 89
2.030851e+000 9.031546e-001 -1.734438e+001 51 36 16
2.674144e+000 1.107859e+000 -1.738291e+001 114 87 60
1.887996e+000 1.093001e+000 -1.713144e+001 96 75 50
1.874155e+000 1.102220e+000 -1.708103e+001 42 26 10
2.976844e+000 1.253684e+000 -1.726780e+001 96 65 36
2.540166e+000 1.578863e+000 -1.685199e+001 125 94 63
2.928987e+000 1.777166e+000 -1.658945e+001 123 84 51
3.255568e+000 1.816172e+000 -1.638764e+001 143 106 65
1.166949e+000 -8.650074e-001 -1.880239e+001 96 80 54
1.195551e+000 -8.635257e-001 -1.860027e+001 68 58 32
1.306457e+000 -1.118878e+000 -1.816124e+001 151 114 88
1.758661e+000 -3.538414e-001 -1.883089e+001 54 40 25
3.174701e+000 4.335052e-002 -1.880193e+001 114 87 57
3.140978e+000 1.084004e-001 -1.865275e+001 113 84 54
2.631423e-001 3.761917e-002 -1.744669e+001 158 96 81
2.393899e+000 3.299665e-001 -1.818449e+001 108 79 52
3.195775e-001 -5.154092e-001 -1.627461e+001 153 104 77
1.267902e+000 2.906077e-001 -1.788353e+001 180 147 116
1.031670e+000 2.450364e-001 -1.647554e+001 166 94 79
1.470953e+000 7.057855e-001 -1.757937e+001 132 97 66
2.984888e+000 1.114965e+000 -1.740732e+001 84 54 27
3.231877e+000 1.077087e+000 -1.756873e+001 117 83 48
3.231877e+000 1.077087e+000 -1.756873e+001 117 83 48
1.618540e+000 1.038953e+000 -1.666473e+001 151 117 79
1.981415e+000 1.312893e+000 -1.679885e+001 84 68 45
2.800184e+000 1.310804e+000 -1.709812e+001 115 85 57
2.800184e+000 1.310804e+000 -1.709812e+001 115 85 57
1.861468e+000 1.475138e+000 -1.671393e+001 48 32 16
3.981174e+000 1.922787e+000 -1.633071e+001 127 116 114
1.471684e+000 -1.110185e+000 -1.900045e+001 97 79 61
1.132244e+000 -1.002061e+000 -1.879654e+001 160 135 100
2.823587e+000 -2.387475e-001 -1.903490e+001 131 99 66
2.823587e+000 -2.387475e-001 -1.903490e+001 131 99 66
-1.182108e+000 -1.442720e+000 -1.622025e+001 110 74 58
3.207041e+000 -4.293291e-002 -1.888394e+001 100 66 39
8.740254e-001 -5.531806e-002 -1.793349e+001 112 52 42
1.356268e+000 3.003651e-001 -1.785616e+001 103 60 25
3.399292e+000 5.464889e-001 -1.860627e+001 151 116 78
1.824802e+000 5.925074e-001 -1.800080e+001 44 33 19
3.168114e+000 6.134660e-001 -1.818127e+001 116 89 60
1.999400e+000 7.582203e-001 -1.787419e+001 72 53 36
2.789289e+000 1.006612e+000 -1.748845e+001 88 59 31
2.820462e+000 1.159537e+000 -1.734834e+001 98 71 42
2.820462e+000 1.159537e+000 -1.734834e+001 98 71 42
2.289030e+000 1.743706e+000 -1.640295e+001 64 51 29
1.191307e+000 -9.081719e-001 -1.822119e+001 101 60 40
2.393386e+000 -3.298767e-001 -1.902733e+001 116 85 56
1.882685e+000 2.334768e-001 -1.810778e+001 65 47 23
5.338615e-001 1.213400e-001 -1.692095e+001 181 120 100
2.749065e+000 6.955273e-001 -1.793089e+001 97 67 39
1.423087e+000 6.514706e-001 -1.744313e+001 135 94 64
3.082903e+000 8.773722e-001 -1.778572e+001 145 111 76
3.552550e+000 1.197773e+000 -1.782120e+001 168 129 93
3.600952e+000 1.340220e+000 -1.736070e+001 138 102 66
2.073601e+000 1.571754e+000 -1.667810e+001 102 85 47
1.251126e+000 -2.408878e-001 -1.816981e+001 124 81 49
2.170360e-001 -7.954815e-001 -1.701162e+001 178 120 106
1.088148e+000 -1.788928e-001 -1.797697e+001 146 105 83
6.808890e-001 -9.891810e-002 -1.767088e+001 125 74 58
4.192946e-001 -6.333316e-001 -1.652535e+001 161 112 87
5.852850e-001 3.729052e-002 -1.754413e+001 138 73 53
3.684419e+000 9.675008e-001 -1.790733e+001 158 123 83
1.644331e+000 9.419757e-001 -1.724017e+001 51 32 18
1.585652e+000 1.217221e+000 -1.691553e+001 199 171 134
1.613531e+000 1.458885e+000 -1.654094e+001 190 161 131
3.121515e+000 1.557445e+000 -1.693021e+001 141 107 75
3.078227e+000 1.776382e+000 -1.646878e+001 147 111 75
1.749581e+000 -5.566480e-001 -1.922972e+001 61 46 31
3.727607e-001 -9.545492e-001 -1.736621e+001 146 80 64
5.489309e-001 9.389121e-002 -1.725799e+001 140 68 58
6.491913e-001 -2.296914e-001 -1.786090e+001 123 55 44
1.075232e+000 1.647155e-001 -1.721962e+001 173 122 78
1.316569e+000 3.338361e-001 -1.785056e+001 156 116 81
4.409592e+000 -3.222405e+000 -1.770108e+001 218 188 126
2.487792e+000 -7.844776e-001 -1.940573e+001 75 50 27
-1.477889e+000 -2.157557e+000 -1.684940e+001 93 67 52
1.766705e+000 -5.317684e-001 -1.913994e+001 68 52 36
5.966657e-001 -1.145291e+000 -1.813219e+001 187 141 118
6.207958e-001 -1.184233e+000 -1.810314e+001 187 141 118
1.716463e+000 -4.909288e-001 -1.899586e+001 89 67 48
1.757242e+000 -5.113209e-001 -1.904216e+001 69 47 32
2.714402e+000 -4.618206e-001 -1.926564e+001 93 63 36
6.231803e-001 -1.260795e+000 -1.794360e+001 161 115 92
7.135222e-001 -1.086399e+000 -1.806972e+001 179 132 106
3.068097e+000 -2.521012e-001 -1.915819e+001 109 76 45
1.781372e+000 -2.933056e-001 -1.864280e+001 219 201 160
-1.478089e+000 -1.448604e+000 -1.667825e+001 182 143 115
-1.190140e-001 -1.063340e+000 -1.725211e+001 115 89 66
1.594244e+000 -1.651483e-001 -1.856802e+001 42 25 15
2.197936e+000 -1.164634e-001 -1.867463e+001 86 56 32
2.435732e+000 -4.204757e-002 -1.862261e+001 61 34 15
1.172258e+000 -2.836457e-001 -1.808688e+001 140 103 76
1.509670e+000 -5.543131e-002 -1.833477e+001 67 45 32
1.647053e+000 -3.741653e-002 -1.829543e+001 47 34 26
1.647053e+000 -3.741653e-002 -1.829543e+001 47 34 26
3.838124e+000 1.313500e-001 -1.900966e+001 136 94 54
1.290583e+000 1.550103e-002 -1.809488e+001 130 103 76
1.665970e+000 2.914552e-002 -1.831003e+001 54 38 25
2.238793e+000 4.442402e-002 -1.844979e+001 97 67 39
3.140404e+000 1.593557e-001 -1.867616e+001 85 53 30
4.461042e-002 -1.040731e+000 -1.647676e+001 161 121 97
1.991823e-001 -7.953765e-001 -1.683845e+001 124 77 62
8.805194e-001 -3.511383e-002 -1.787572e+001 193 138 123
9.060828e-001 -1.026088e-002 -1.786922e+001 186 130 113
2.422005e+000 1.753421e-001 -1.836853e+001 81 54 29
3.768221e+000 5.769778e-001 -1.909165e+001 126 88 47
8.435609e-001 -4.099221e-002 -1.759994e+001 133 58 53
3.209663e+000 2.907895e-001 -1.846954e+001 94 63 37
4.116958e-001 -6.814011e-001 -1.650684e+001 180 128 106
1.459921e+000 3.223572e-001 -1.798624e+001 120 86 65
1.107671e+000 1.606203e-001 -1.739361e+001 184 131 99
1.352321e+000 3.810546e-001 -1.784221e+001 164 130 102
1.707728e+000 5.202622e-001 -1.795986e+001 96 77 60
3.963680e+000 6.142740e-001 -1.846042e+001 134 96 55
3.895715e+000 6.500137e-001 -1.860368e+001 131 94 52
2.333172e+000 5.288589e-001 -1.796609e+001 112 82 56
3.061410e+000 6.706465e-001 -1.807770e+001 106 72 45
3.061410e+000 6.706465e-001 -1.807770e+001 106 72 45
1.543432e+000 6.588036e-001 -1.779369e+001 64 47 27
2.926724e+000 7.162746e-001 -1.795721e+001 102 72 50
1.733238e+000 7.846043e-001 -1.763483e+001 140 125 106
2.027652e+000 7.990001e-001 -1.775759e+001 80 61 42
2.404318e+000 7.638395e-001 -1.772273e+001 103 72 44
2.405867e+000 7.622263e-001 -1.772062e+001 103 72 44
2.522265e+000 7.245348e-001 -1.781321e+001 86 54 29
7.454113e-001 1.326393e-001 -1.635849e+001 189 139 116
1.005147e+000 6.437615e-001 -1.707424e+001 202 159 88
1.565693e+000 7.465399e-001 -1.749092e+001 72 42 23
2.304411e+000 8.383488e-001 -1.769188e+001 107 76 48
3.289833e+000 8.878533e-001 -1.787905e+001 105 70 40
3.967164e+000 1.117132e+000 -1.822717e+001 135 97 51
1.695009e+000 8.042769e-001 -1.738535e+001 251 243 207
2.093972e+000 8.299824e-001 -1.735408e+001 97 79 55
2.443288e+000 9.307721e-001 -1.746443e+001 91 61 35
2.443288e+000 9.307721e-001 -1.746443e+001 91 61 35
2.659339e+000 9.213420e-001 -1.758243e+001 116 89 60
2.759459e+000 9.369753e-001 -1.757791e+001 78 47 19
4.029132e+000 1.209016e+000 -1.807043e+001 140 101 58
3.415082e+000 1.104420e+000 -1.761201e+001 118 82 50
1.202514e+000 8.340136e-001 -1.686853e+001 192 139 72
2.110235e+000 1.052703e+000 -1.718483e+001 66 54 32
3.175589e+000 1.183881e+000 -1.741008e+001 104 70 42
1.511734e+000 5.294683e-001 -1.597168e+001 213 178 138
2.143888e+000 1.106955e+000 -1.713041e+001 88 76 52
3.176920e+000 1.219340e+000 -1.733634e+001 96 65 37
1.616869e+000 1.129733e+000 -1.666730e+001 192 158 130
2.124009e+000 1.256826e+000 -1.694686e+001 249 234 210
2.638710e+000 1.241565e+000 -1.711143e+001 113 86 57
2.686510e+000 1.311658e+000 -1.705014e+001 116 86 59
2.736759e+000 1.364290e+000 -1.706697e+001 112 79 55
2.872929e+000 1.343606e+000 -1.708478e+001 116 85 57
3.341728e+000 1.403549e+000 -1.718725e+001 92 60 35
3.405514e+000 1.431195e+000 -1.720283e+001 121 88 61
1.617556e+000 1.165643e+000 -1.656841e+001 140 109 81
3.309226e+000 1.426720e+000 -1.715408e+001 96 62 37
3.946887e+000 1.587735e+000 -1.726584e+001 167 128 95
4.096138e+000 1.657349e+000 -1.707446e+001 109 67 34
1.644201e+000 1.547427e+000 -1.660577e+001 201 167 136
2.819440e+000 1.626211e+000 -1.674321e+001 98 63 33
1.625292e+000 1.588062e+000 -1.652845e+001 213 182 154
1.666568e+000 1.640293e+000 -1.654240e+001 168 135 107
2.108871e+000 1.673011e+000 -1.649159e+001 181 165 136
2.214472e+000 1.699284e+000 -1.651978e+001 59 46 29
3.636394e+000 1.809709e+000 -1.684014e+001 172 133 96
1.856940e+000 1.701458e+000 -1.638718e+001 117 100 80
1.874219e+000 1.730694e+000 -1.637185e+001 76 59 39
1.874219e+000 1.730694e+000 -1.637185e+001 76 59 39
2.784545e+000 1.782254e+000 -1.642895e+001 146 111 81
2.784545e+000 1.782254e+000 -1.642895e+001 146 111 81
1.729976e+000 -8.514760e-001 -1.928049e+001 86 77 60
1.441052e+000 -1.757482e+000 -1.821911e+001 156 125 96
1.670233e+000 -6.245480e-001 -1.922735e+001 92 77 56
1.213358e+000 -6.811831e-001 -1.890525e+001 104 76 54
1.378742e+000 -6.443608e-001 -1.905174e+001 77 64 48
9.827789e-001 -1.138294e+000 -1.821505e+001 175 131 105
1.763048e+000 -4.304430e-001 -1.903562e+001 52 35 19
3.643193e+000 -3.997548e-001 -1.955160e+001 93 59 32
1.817685e+000 -3.507709e-001 -1.882172e+001 167 151 125
2.582191e+000 -3.352128e-001 -1.910461e+001 128 97 69
1.789682e+000 -2.911849e-001 -1.871021e+001 250 230 186
1.789682e+000 -2.911849e-001 -1.871021e+001 250 230 186
1.237507e+000 -1.693084e-001 -1.844288e+001 157 127 98
3.418385e+000 -8.500486e-002 -1.902529e+001 122 87 57
3.644194e-001 -2.989317e-001 -1.795515e+001 227 186 161
1.171179e+000 -2.148848e-001 -1.800213e+001 124 87 58
1.529167e+000 -3.905507e-002 -1.833718e+001 249 239 192
1.875230e+000 -1.235681e-002 -1.842923e+001 177 166 139
1.907369e+000 1.391211e-003 -1.841299e+001 49 31 23
2.414481e+000 -2.521061e-002 -1.860748e+001 100 75 52
2.449562e+000 -1.374810e-002 -1.860998e+001 96 71 49
2.449562e+000 -1.374810e-002 -1.860998e+001 96 71 49
2.468749e+000 2.119130e-005 -1.858281e+001 78 50 29
2.979950e+000 1.356971e-001 -1.868465e+001 123 93 67
3.082033e+000 1.245555e-001 -1.870844e+001 114 84 56
2.142793e+000 1.357754e-001 -1.830998e+001 124 94 70
2.792026e+000 2.092446e-001 -1.839217e+001 89 60 36
6.888333e-001 -2.036365e-004 -1.757119e+001 160 104 87
1.387763e+000 2.944457e-001 -1.802708e+001 139 108 78
3.954289e-001 -7.245690e-001 -1.649243e+001 138 81 61
9.473019e-001 3.406077e-002 -1.758262e+001 170 113 98
1.226475e+000 1.086651e-001 -1.767716e+001 144 107 78
2.701977e+000 3.702993e-001 -1.822652e+001 94 63 41
3.517046e+000 4.233951e-001 -1.849194e+001 95 63 35
1.757957e+000 5.114703e-001 -1.804745e+001 80 63 37
1.798847e+000 5.171312e-001 -1.800267e+001 107 88 62
2.555239e+000 4.413060e-001 -1.813282e+001 109 81 59
3.428756e+000 5.965176e-001 -1.828660e+001 114 82 53
1.524264e+000 6.122916e-001 -1.781830e+001 74 57 37
1.524264e+000 6.122916e-001 -1.781830e+001 74 57 37
2.420452e+000 5.681445e-001 -1.798262e+001 94 60 35
5.628481e-001 1.138834e-001 -1.695693e+001 168 103 85
5.612087e-001 1.149237e-001 -1.695796e+001 168 103 85
2.322776e+000 6.090257e-001 -1.787623e+001 107 76 48
2.938447e+000 6.591978e-001 -1.801631e+001 77 46 18
7.809552e-001 9.378051e-002 -1.649774e+001 173 117 94
1.091479e+000 1.378668e-001 -1.673142e+001 190 147 113
1.155722e+000 2.013264e-001 -1.683764e+001 133 89 44
1.155722e+000 2.013264e-001 -1.683764e+001 133 89 44
1.187158e+000 2.722169e-001 -1.658445e+001 181 143 107
2.391301e+000 8.328544e-001 -1.757278e+001 92 62 34
1.141016e+000 7.942516e-001 -1.709247e+001 184 142 90
1.213183e+000 7.224312e-001 -1.718053e+001 166 117 60
1.468224e+000 8.827242e-001 -1.737743e+001 213 182 153
2.835135e+000 9.835695e-001 -1.752337e+001 116 82 55
3.391502e+000 1.042659e+000 -1.768736e+001 116 80 48
2.773114e+000 1.057221e+000 -1.737538e+001 68 42 19
2.773114e+000 1.057221e+000 -1.737538e+001 68 42 19
2.869285e+000 1.045579e+000 -1.747361e+001 119 89 63
2.651030e+000 1.144252e+000 -1.726497e+001 111 82 60
3.775429e+000 1.298151e+000 -1.757905e+001 158 115 81
1.563495e+000 9.548844e-001 -1.669546e+001 162 122 87
2.105130e+000 1.141809e+000 -1.703807e+001 81 64 43
2.802515e+000 1.230813e+000 -1.715171e+001 111 83 59
3.444724e+000 1.296236e+000 -1.737813e+001 134 101 70
1.747476e+000 7.357531e-001 -1.582142e+001 180 146 107
2.851807e+000 1.370639e+000 -1.707393e+001 105 72 47
2.939482e+000 1.309714e+000 -1.715229e+001 107 77 49
3.299615e+000 1.403499e+000 -1.718205e+001 129 98 70
1.621572e+000 1.527282e+000 -1.661635e+001 171 138 106
2.801645e+000 1.644743e+000 -1.672428e+001 131 98 65
3.345495e+000 1.703920e+000 -1.684689e+001 90 54 27
1.651720e+000 1.620950e+000 -1.650428e+001 188 157 128
3.619889e+000 1.856689e+000 -1.679171e+001 164 124 84
4.103775e+000 1.843402e+000 -1.688322e+001 150 105 65
3.416095e+000 1.842139e+000 -1.657194e+001 138 98 63
3.794604e+000 1.875322e+000 -1.671237e+001 161 121 85
2.244934e+000 1.767897e+000 -1.628287e+001 118 103 80
2.216631e+000 1.786174e+000 -1.625425e+001 50 39 21
1.633925e+000 -7.407620e-001 -1.923066e+001 52 44 33
-1.518077e+000 -2.166318e+000 -1.680354e+001 147 109 98
-1.259708e+000 -1.797182e+000 -1.721984e+001 114 86 62
1.429740e+000 -5.755476e-001 -1.911666e+001 68 49 35
1.462903e+000 -5.475698e-001 -1.903215e+001 65 45 35
1.476894e+000 -5.627277e-001 -1.902218e+001 65 45 35
2.182134e+000 -6.607078e-001 -1.923200e+001 115 85 61
-9.026832e-001 -1.674543e+000 -1.717766e+001 94 59 37
3.234171e+000 -3.805526e-001 -1.928916e+001 108 78 54
1.274986e+000 -3.449172e-001 -1.865799e+001 205 178 151
-1.022159e+000 -1.344740e+000 -1.697706e+001 154 119 95
1.120430e+000 -3.176592e-001 -1.827325e+001 192 157 127
1.279480e+000 -1.956649e-001 -1.848072e+001 189 158 129
1.391392e+000 -2.159302e-001 -1.848987e+001 69 37 25
3.365622e+000 -6.406186e-002 -1.908391e+001 107 68 39
2.866688e+000 -6.868629e-002 -1.885244e+001 90 56 28
1.551433e+000 8.065099e-003 -1.849968e+001 55 38 28
2.781481e+000 1.898697e-002 -1.865984e+001 100 78 54
1.206185e-001 -8.165237e-001 -1.688180e+001 106 65 47
2.076608e-001 -7.786494e-001 -1.691120e+001 121 67 55
7.689215e-001 -1.874399e-001 -1.782236e+001 176 109 100
1.335142e+000 9.606161e-002 -1.799630e+001 116 81 61
1.352798e+000 7.713495e-002 -1.797854e+001 116 81 61
1.909420e+000 2.275331e-001 -1.824290e+001 43 27 12
8.842460e-001 -6.420606e-002 -1.760775e+001 152 81 75
2.268254e+000 2.138834e-001 -1.825347e+001 107 76 48
1.358894e+000 3.424341e-001 -1.792923e+001 175 141 113
3.098099e+000 4.181345e-001 -1.837456e+001 120 86 59
7.416001e-001 -4.234692e-003 -1.723639e+001 143 59 55
1.001210e+000 1.161846e-001 -1.729241e+001 173 102 84
1.456910e+000 4.349938e-001 -1.787098e+001 135 101 71
3.199918e+000 5.079957e-001 -1.830511e+001 67 39 15
3.144607e+000 6.107836e-001 -1.824968e+001 91 59 32
1.125411e+000 2.056840e-001 -1.719331e+001 123 72 38
1.767971e+000 6.078932e-001 -1.787429e+001 254 255 218
1.767971e+000 6.078932e-001 -1.787429e+001 254 255 218
8.335973e-001 1.747968e-001 -1.683583e+001 205 154 129
1.948317e+000 6.954766e-001 -1.785901e+001 255 253 239
3.833110e+000 7.789793e-001 -1.819187e+001 157 120 86
1.697062e+000 8.208263e-001 -1.736391e+001 231 211 176
2.058234e+000 8.546500e-001 -1.747253e+001 64 47 28
3.212555e+000 1.001606e+000 -1.762507e+001 117 82 50
1.599515e+000 9.887456e-001 -1.718684e+001 144 104 72
